ply
format ascii 1.0
comment KinectMotionCapture
element vertex 759
property float x
property float y
property float z
property uchar red
property uchar green
property uchar blue
end_header
-197.449550032616 272.408068180084 1891.99995994568 189 191 190
-192.813366651535 273.13968539238 1896.99995517731 186 188 187
-188.446134328842 274.303108453751 1904.99997138977 170 172 169
-183.649972081184 274.890303611755 1909.00003910065 170 172 169
-178.550988435745 275.045275688171 1909.9999666214 166 171 167
-173.990547657013 276.064038276672 1917.00005531311 165 170 166
-133.839204907417 279.45277094841 1940.00005722046 206 211 207
-128.358289599419 279.028803110123 1937.00003623962 217 222 218
-122.448481619358 277.596175670624 1927.00004577637 173 175 172
-116.045288741589 274.866551160812 1907.99999237061 163 165 162
-109.803274273872 272.280514240265 1889.99998569489 176 178 175
-103.880442678928 270.270377397537 1876.00004673004 172 174 171
-98.4020382165909 269.268274307251 1868.99995803833 172 174 173
-92.861570417881 267.977714538574 1860.00001430511 181 183 182
-87.3697996139526 266.686737537384 1850.99995136261 177 179 178
-81.9267556071281 265.395402908325 1842.00000762939 155 157 156
-76.615959405899 264.391899108887 1835.00003814697 138 140 139
-71.5381726622581 264.108449220657 1832.99994468689 153 155 154
-66.3984268903732 263.536512851715 1828.9999961853 184 186 185
-61.2802393734455 262.964278459549 1825.00004768372 191 193 192
-56.060217320919 261.815279722214 1817.00003147125 182 184 183
-50.9117171168327 260.810047388077 1809.99994277954 169 171 170
-45.8519943058491 260.092705488205 1804.99994754791 152 154 151
-40.8420339226723 259.519100189209 1800.99999904633 153 155 152
-35.8337722718716 258.801072835922 1796.0000038147 190 192 189
-30.8870952576399 258.370935916901 1792.99998283386 196 198 195
-25.9711537510157 258.084565401077 1791.00000858307 182 184 181
-21.0542473942041 257.653772830963 1787.99998760223 157 159 156
-16.1536168307066 257.222652435303 1784.9999666214 159 161 158
-11.2692816182971 256.791234016418 1781.99994564056 161 163 160
-6.41205441206694 256.791800260544 1781.99994564056 162 164 161
-1.55393034219742 256.647974252701 1781.00001811981 168 170 167
3.29874781891704 256.503790616989 1779.99997138977 172 174 171
8.14138259738684 256.215214729309 1777.99999713898 183 185 184
12.9950009286404 256.358683109283 1779.00004386902 184 186 185
17.8439915180206 256.357669830322 1779.00004386902 184 186 185
22.6929150521755 256.356358528137 1779.00004386902 179 181 180
27.541758492589 256.354749202728 1779.00004386902 172 174 173
32.408706843853 256.496906280518 1779.99997138977 160 162 161
37.2809842228889 256.638765335083 1781.00001811981 159 161 160
42.1349294483662 256.636202335358 1781.00001811981 163 165 164
46.9359457492828 256.345152854919 1779.00004386902 172 174 173
51.7841093242168 256.341993808746 1779.00004386902 179 181 180
56.5684102475643 256.050288677216 1776.99995040894 182 184 183
61.3761842250824 255.902469158173 1776.00002288818 188 190 189
66.1409869790077 255.610227584839 1774.00004863739 187 189 188
70.9746778011322 255.605816841125 1774.00004863739 178 180 179
75.8081004023552 255.601137876511 1774.00004863739 174 176 175
80.6867182254791 255.740225315094 1774.99997615814 171 173 172
85.5704918503761 255.879014730453 1776.00002288818 173 175 174
90.5103236436844 256.161570549011 1777.99999713898 176 178 177
95.4607129096985 256.443798542023 1779.99997138977 180 182 181
100.365310907364 256.581693887711 1781.00001811981 182 184 183
105.334095656872 256.863325834274 1782.99999237061 184 186 185
110.560588538647 257.720917463303 1789.00003433228 185 187 186
115.561276674271 258.001893758774 1791.00000858307 185 187 186
120.774202048779 258.714765310287 1796.0000038147 185 187 186
125.873997807503 259.139209985733 1799.00002479553 186 188 187
131.207764148712 259.995490312576 1804.99994754791 187 189 188
136.272087693214 260.27524471283 1807.000041008 188 190 189
141.424968838692 260.698735713959 1809.99994277954 190 192 191
146.512851119041 260.977894067764 1812.00003623962 195 197 196
151.778250932693 261.544793844223 1815.99998474121 193 195 194
157.064944505692 262.111395597458 1820.00005245209 191 193 192
162.372872233391 262.677669525146 1824.00000095367 191 193 192
167.793750762939 263.387650251389 1828.9999961853 190 192 191
173.241257667542 264.097303152084 1833.99999141693 185 187 186
179.006963968277 265.238612890244 1842.00000762939 188 190 187
184.715703129768 266.235589981079 1848.99997711182 187 189 186
191.077619791031 268.096119165421 1861.99998855591 181 183 180
196.98292016983 269.236356019974 1870.00000476837 182 184 181
202.823027968407 270.232200622559 1876.99997425079 194 196 193
208.146676421165 270.50793170929 1878.99994850159 192 194 191
237.902522087097 275.336861610413 1912.99998760223 204 206 203
240.429699420929 272.300630807877 1891.99995994568 189 191 190
243.620797991753 270.127922296524 1876.99997425079 186 188 187
247.127279639244 268.386989831924 1865.00000953674 189 191 190
251.243948936462 267.365485429764 1858.00004005432 187 189 188
255.459845066071 266.487807035446 1851.99999809265 181 183 182
259.642362594604 265.609979629517 1845.99995613098 187 189 188
263.791680335999 264.732092618942 1840.0000333786 189 191 190
267.907649278641 263.854086399078 1833.99999141693 190 192 191
272.734194993973 263.695269823074 1832.99994468689 195 197 196
277.857631444931 263.824045658112 1833.99999141693 194 196 195
283.602565526962 264.527946710587 1838.99998664856 190 192 191
288.432329893112 264.368623495102 1838.00005912781 183 185 184
293.734788894653 264.640599489212 1840.0000333786 188 190 189
299.047291278839 264.912396669388 1842.00000762939 187 189 188
306.185513734818 266.765862703323 1855.00001907349 177 179 178
313.057899475098 268.331378698349 1866.00005626678 169 171 170
-250.186145305634 268.55456829071 1901.99995040894 200 202 199
-243.861854076385 267.297714948654 1893.00000667572 194 196 195
-237.711787223816 266.181737184525 1884.99999046326 199 201 200
-232.344791293144 265.912711620331 1883.00001621246 198 200 199
-227.108612656593 265.784680843353 1881.99996948242 199 201 200
-222.231045365334 266.080051660538 1883.99994373322 197 197 197
-217.341929674149 266.375243663788 1886.0000371933 193 193 193
-212.441265583038 266.670227050781 1888.00001144409 196 196 196
-207.529053092003 266.96503162384 1889.99998569489 197 199 198
-202.498197555542 267.11830496788 1891.00003242493 191 193 192
-197.565644979477 267.412602901459 1893.00000667572 189 191 190
-193.028181791306 268.271744251251 1899.00004863739 186 188 187
-188.655257225037 269.413232803345 1906.99994564056 175 177 174
-183.757215738297 269.848197698593 1909.9999666214 171 173 170
-178.655236959457 270.00030875206 1911.00001335144 160 165 161
-174.001112580299 270.85867524147 1917.00005531311 156 161 157
-128.366261720657 273.767977952957 1937.00003623962 219 224 220
-122.138366103172 271.655648946762 1922.00005054474 145 147 144
-115.930892527103 269.401550292969 1906.00001811981 164 166 163
-109.810158610344 267.147034406662 1889.99998569489 156 158 155
-103.942334651947 265.316128730774 1876.99997425079 178 180 177
-98.30292314291 263.908922672272 1866.99998378754 180 182 181
-92.717632651329 262.501358985901 1856.99999332428 166 168 167
-87.3281136155128 261.517494916916 1850.00002384186 139 141 140
-81.9764211773872 260.533273220062 1843.00005435944 149 151 150
-76.7460837960243 259.831428527832 1838.00005912781 181 183 182
-71.6207772493362 259.411990642548 1835.00003814697 190 192 191
-66.4389580488205 258.709490299225 1830.00004291534 189 191 190
-61.2841360270977 258.006632328033 1825.00004768372 178 180 179
-56.0329332947731 256.738007068634 1815.99998474121 156 158 157
-50.9430952370167 256.03449344635 1810.99998950958 154 156 155
-45.9057278931141 255.472034215927 1807.000041008 179 181 178
-40.8900007605553 254.90927696228 1802.99997329712 194 196 193
-35.8759723603725 254.20480966568 1797.99997806549 188 190 187
-30.9063009917736 253.641426563263 1794.0000295639 161 163 160
-25.9873233735561 253.360480070114 1792.00005531311 146 148 145
-21.0673734545708 252.937793731689 1789.00003433228 164 166 163
-16.1546524614096 252.373456954956 1784.9999666214 168 170 167
-11.2763289362192 252.091526985168 1782.99999237061 175 177 174
-6.41966192051768 252.233475446701 1784.00003910065 178 180 177
-1.55577505938709 252.092361450195 1782.99999237061 182 184 181
3.3008127938956 251.809537410736 1781.00001811981 184 186 183
8.14648438245058 251.526385545731 1779.00004386902 179 181 180
12.9958325996995 251.525700092316 1779.00004386902 178 180 179
17.8551636636257 251.666128635406 1779.99997138977 177 179 178
22.7198842912912 251.806229352951 1781.00001811981 170 172 171
27.574485167861 251.804620027542 1781.00001811981 162 164 163
32.4471965432167 251.944094896317 1781.99994564056 152 154 153
37.2833721339703 251.800507307053 1781.00001811981 152 154 153
42.0903004705906 251.515239477158 1779.00004386902 167 169 168
46.9125546514988 251.371026039124 1777.99999713898 175 177 176
51.7291910946369 251.226514577866 1776.99995040894 179 181 180
56.6038489341736 251.364469528198 1777.99999713898 183 185 184
61.4146366715431 251.21933221817 1776.99995040894 184 186 185
66.257044672966 251.21533870697 1776.99995040894 181 183 182
71.0992068052292 251.210987567902 1776.99995040894 177 179 178
75.9838446974754 251.347720623016 1777.99999713898 171 173 172
80.8281973004341 251.342803239822 1777.99999713898 171 173 172
85.7686325907707 251.620322465897 1779.99997138977 173 175 174
90.617835521698 251.614779233932 1779.99997138977 174 176 175
95.6276208162308 252.033025026321 1782.99999237061 179 181 180
100.540690124035 252.168267965317 1784.00003910065 181 183 182
105.458840727806 252.303183078766 1784.9999666214 183 185 184
110.629290342331 253.00320982933 1789.99996185303 185 187 186
115.697532892227 253.420203924179 1792.99998283386 186 188 187
120.916202664375 254.119604825974 1797.99997806549 185 187 186
125.951766967773 254.394620656967 1799.99995231628 185 187 186
131.143182516098 254.952043294907 1804.00002002716 186 188 187
136.280477046967 255.367815494537 1807.000041008 187 189 188
141.355529427528 255.641996860504 1809.00001525879 188 190 189
146.602690219879 256.198465824127 1812.99996376038 190 192 191
151.871100068092 256.754636764526 1817.00003147125 190 192 191
157.247111201286 257.451802492142 1822.00002670288 190 192 191
162.471741437912 257.866024971008 1825.00004768372 190 192 191
167.987376451492 258.703827857971 1830.9999704361 189 191 190
173.535108566284 259.54133272171 1837.00001239777 185 187 186
179.21207845211 260.519772768021 1843.99998188019 189 191 188
185.126379132271 261.780440807343 1853.00004482269 185 187 184
191.191628575325 263.181954622269 1863.00003528595 181 183 180
196.889266371727 264.0181183815 1868.99995803833 185 187 184
202.402770519257 264.571398496628 1873.00002574921 197 199 196
207.82658457756 264.983147382736 1876.00004673004 192 194 191
237.169995903969 269.297063350677 1906.99994564056 203 205 202
240.189269185066 266.882866621017 1889.99998569489 187 189 188
243.375062942505 264.751106500626 1875 184 186 185
247.008755803108 263.184130191803 1863.9999628067 187 189 188
251.122862100601 262.18181848526 1856.99999332428 186 188 187
255.612075328827 261.602967977524 1853.00004482269 180 182 181
259.656846523285 260.600447654724 1845.99995613098 183 185 184
263.806253671646 259.739011526108 1840.0000333786 190 192 191
268.068462610245 259.018659591675 1835.00003814697 191 193 192
272.749096155167 258.721590042114 1832.99994468689 195 197 196
277.872741222382 258.847802877426 1833.99999141693 194 196 195
283.61788392067 259.538382291794 1838.99998664856 190 192 191
288.761675357819 259.664207696915 1840.0000333786 183 185 184
293.910056352615 259.789824485779 1840.99996089935 186 188 187
299.22553896904 260.056406259537 1843.00005435944 184 186 185
306.201636791229 261.733710765839 1855.00001907349 177 179 178
-250.726342201233 263.945549726486 1906.00001811981 200 202 199
-243.746757507324 262.020528316498 1891.99995994568 195 197 196
-237.472996115685 260.787546634674 1883.00001621246 200 202 201
-232.111200690269 260.523796081543 1881.00004196167 198 200 199
-227.121576666832 260.675251483917 1881.99996948242 200 202 201
-222.007885575294 260.688036680222 1881.99996948242 199 199 199
-217.008724808693 260.839074850082 1883.00001621246 194 194 194
-212.228521704674 261.266976594925 1886.0000371933 199 199 199
-207.431331276894 261.694669723511 1889.00005817413 198 200 199
-202.402919530869 261.845022439957 1889.99998569489 188 190 189
-197.577223181725 262.272298336029 1893.00000667572 185 187 186
-192.937880754471 262.976437807083 1898.00000190735 183 185 184
-188.567489385605 264.096081256866 1906.00001811981 171 173 170
-183.864325284958 264.799833297729 1911.00001335144 165 167 164
-178.759381175041 264.949113130569 1911.99994087219 165 170 166
-174.102261662483 265.790998935699 1917.99998283386 159 164 160
-136.699452996254 264.193028211594 1906.00001811981 212 217 213
-133.303716778755 267.805188894272 1932.000041008 227 232 228
-127.7776658535 267.258673906326 1927.99997329712 10 15 11
-121.446818113327 264.909684658051 1911.00001335144 137 139 136
-115.573078393936 263.392060995102 1899.99997615814 167 169 166
-109.642639756203 261.59679889679 1886.99996471405 171 173 170
-103.948771953583 260.217010974884 1876.99997425079 176 178 175
-98.2037112116814 258.559614419937 1865.00000953674 153 155 154
-92.773325741291 257.595002651215 1858.00004005432 133 135 134
-87.4751731753349 256.907373666763 1853.00004482269 151 153 152
-82.2039470076561 256.219387054443 1848.00004959106 163 165 164
-76.8761485815048 255.25376200676 1840.99996089935 188 190 189
-71.6642886400223 254.56514954567 1835.99996566772 193 195 194
-66.4068087935448 253.598868846893 1828.9999961853 175 177 176
-61.2544007599354 252.909570932388 1824.00000095367 167 169 168
-56.067306548357 251.942604780197 1817.00003147125 153 155 154
-51.002562046051 251.391291618347 1812.99996376038 159 161 160
-45.9340214729309 250.701010227203 1807.99996852875 188 190 187
-40.8925712108612 250.010430812836 1802.99997329712 197 199 196
-35.8981862664223 249.458163976669 1799.00002479553 156 158 155
-30.9771616011858 249.321609735489 1797.99997806549 132 134 131
-26.0469727218151 249.046072363853 1796.0000038147 134 136 133
-21.1040358990431 248.492881655693 1792.00005531311 159 161 158
-16.1737743765116 247.800692915916 1786.99994087219 167 169 166
-11.2833669409156 247.385546565056 1784.00003910065 174 176 173
-6.42726570367813 247.663453221321 1786.00001335144 176 178 175
-1.55849114526063 247.6636916399 1786.00001335144 176 178 175
3.30843520350754 247.524961829185 1784.9999666214 176 178 175
8.16531665623188 247.247278690338 1782.99999237061 180 182 181
13.0331832915545 247.385293245316 1784.00003910065 176 178 177
17.9064515978098 247.522994875908 1784.9999666214 161 163 162
22.7723475545645 247.521683573723 1784.9999666214 154 156 155
27.6226792484522 247.381463646889 1784.00003910065 150 152 151
32.4492417275906 247.102230787277 1781.99994564056 153 155 154
37.2647829353809 246.822699904442 1779.99997138977 168 170 169
42.0692898333073 246.542915701866 1777.99999713898 178 180 179
46.8891188502312 246.401458978653 1776.99995040894 183 185 184
51.7324395477772 246.398389339447 1776.99995040894 197 199 198
56.6074065864086 246.533691883087 1777.99999713898 194 196 195
61.5221820771694 246.807292103767 1779.99997138977 176 178 177
66.3357675075531 246.664687991142 1779.00004386902 172 174 173
71.2236911058426 246.799036860466 1779.99997138977 167 169 168
76.1168077588081 246.933132410049 1781.00001811981 169 171 170
81.0150876641274 247.066915035248 1781.99994564056 170 172 171
85.9185308218002 247.200414538383 1782.99999237061 165 167 166
90.827114880085 247.333586215973 1784.00003910065 165 167 166
95.7944542169571 247.605115175247 1786.00001335144 172 174 173
100.659631192684 247.599065303802 1786.00001335144 175 177 176
105.524443089962 247.592732310295 1786.00001335144 179 181 180
110.636115074158 248.140633106232 1789.99996185303 182 184 183
115.769177675247 248.688220977783 1794.0000295639 184 186 185
120.923615992069 249.235466122627 1797.99997806549 186 188 187
125.959470868111 249.505192041397 1799.99995231628 186 188 187
131.151184439659 250.051856040955 1804.00002002716 185 187 186
136.213332414627 250.320971012115 1805.99999427795 185 187 186
141.364097595215 250.728458166122 1809.00001525879 185 187 186
146.530702710152 251.135617494583 1812.00003623962 183 185 184
151.963859796524 251.958191394806 1817.999958992 186 188 187
157.342866063118 252.641886472702 1822.99995422363 188 190 189
162.659525871277 253.186702728271 1827.00002193451 186 188 187
168.089166283607 253.86980175972 1832.00001716614 184 186 185
173.54542016983 254.552572965622 1837.00001239777 185 187 186
179.125517606735 255.373567342758 1843.00005435944 186 188 185
185.037389397621 256.609916687012 1851.99999809265 176 178 175
190.99760055542 257.845908403397 1860.99994182587 179 181 178
196.479380130768 258.388847112656 1865.00000953674 190 192 189
201.982274651527 258.931457996368 1868.99995803833 197 199 196
207.617074251175 259.612321853638 1873.99995326996 190 192 189
235.69093644619 262.458056211472 1894.99998092651 204 206 203
239.44029211998 260.921239852905 1883.99994373322 191 193 192
242.99930036068 259.245872497559 1871.99997901917 189 191 190
246.890023350716 257.985919713974 1863.00003528595 181 183 182
251.136839389801 257.141292095184 1856.99999332428 180 182 181
255.764156579971 256.711930036545 1853.99997234344 180 182 181
259.952485561371 255.867093801498 1848.00004959106 178 180 179
264.107435941696 255.02210855484 1842.00000762939 190 192 191
268.083035945892 254.038602113724 1835.00003814697 193 195 194
272.763818502426 253.747165203094 1832.99994468689 193 195 194
278.039187192917 254.009306430817 1835.00003814697 190 192 191
283.478796482086 254.409670829773 1838.00005912781 188 190 189
288.776963949203 254.671424627304 1840.0000333786 187 189 188
293.925553560257 254.794538021088 1840.99996089935 187 189 188
299.728244543076 255.471050739288 1845.99995613098 184 186 185
306.877821683884 257.254391908646 1858.99996757507 180 182 181
317.788422107697 262.08159327507 1894.00005340576 168 170 169
-249.950855970383 257.956355810165 1899.99997615814 199 201 198
-243.760257959366 256.883770227432 1891.99995994568 197 199 198
-237.612321972847 255.81082701683 1883.99994373322 198 200 199
-232.247591018677 255.552291870117 1881.99996948242 199 201 200
-226.89300775528 255.293518304825 1879.99999523163 201 203 202
-221.784502267838 255.30606508255 1879.99999523163 200 200 200
-216.905787587166 255.59002161026 1881.99996948242 198 198 198
-212.015554308891 255.873799324036 1883.99994373322 198 198 198
-207.443207502365 256.564766168594 1889.00005817413 197 199 198
-202.414587140083 256.712257862091 1889.99998569489 191 193 192
-197.58865237236 257.131218910217 1893.00000667572 187 189 188
-192.847415804863 257.685780525208 1896.99995517731 182 184 183
-188.479527831078 258.783519268036 1904.99997138977 175 177 174
-183.77885222435 259.473532438278 1909.9999666214 156 158 155
-178.76985669136 259.75576043129 1911.99994087219 158 163 159
-174.203291535378 260.71709394455 1919.0000295639 150 155 151
-138.070434331894 261.596918106079 1924.99995231628 27 32 28
-132.690727710724 261.333227157593 1922.99997806549 45 50 46
-127.453997731209 261.341005563736 1922.99997806549 29 34 30
-120.945736765862 258.63042473793 1902.99999713898 45 47 44
-115.215107798576 257.4143409729 1894.00005340576 136 138 135
-109.300665557384 255.654245615005 1881.00004196167 177 179 176
-103.678204119205 254.437476396561 1871.99997901917 113 115 112
-98.0517342686653 253.084361553192 1861.99998855591 151 153 150
-92.7290767431259 252.410560846329 1856.99999332428 170 172 169
-87.5277519226074 252.00828909874 1853.99997234344 172 174 171
-82.3424533009529 251.605689525604 1850.99995136261 183 185 182
-76.9226402044296 250.387161970139 1842.00000762939 190 192 189
-71.629673242569 249.440178275108 1835.00003814697 182 184 181
-66.3745999336243 248.492836952209 1827.99994945526 150 152 149
-61.2917728722095 248.088926076889 1825.00004768372 152 154 151
-56.1633594334126 247.412875294685 1820.00005245209 156 158 155
-51.0619916021824 246.736437082291 1815.00005722046 169 171 168
-45.9622852504253 245.923772454262 1809.00001525879 201 203 200
-40.9404784440994 245.382636785507 1804.99994754791 188 190 187
-35.9602905809879 244.977205991745 1802.00004577637 129 131 128
-31.0307778418064 244.843289256096 1800.99999904633 121 123 120
-26.0776001960039 244.437217712402 1797.99997806549 136 138 135
-21.1289040744305 243.89486014843 1794.0000295639 162 164 161
-16.2019357085228 243.352234363556 1789.99996185303 154 156 153
-11.3030439242721 242.945194244385 1786.99994087219 161 163 160
-6.43486343324184 243.081718683243 1787.99998760223 155 157 154
-1.55946100130677 242.946028709412 1786.99994087219 159 161 158
3.30864149145782 242.674067616463 1784.9999666214 172 174 171
8.17498657852411 242.673724889755 1784.9999666214 178 180 179
13.0413006991148 242.673054337502 1784.9999666214 160 162 161
17.9276317358017 242.944002151489 1786.99994087219 150 152 151
22.8120386600494 243.078678846359 1787.99998760223 150 152 151
27.686333283782 243.077099323273 1787.99998760223 144 146 145
32.4876792728901 242.531478404999 1784.00003910065 155 157 156
37.2671000659466 241.985499858856 1779.99997138977 168 170 169
42.0718975365162 241.711169481277 1777.99999713898 185 187 186
46.9184145331383 241.708442568779 1777.99999713898 193 195 194
51.7647638916969 241.705432534218 1777.99999713898 198 200 199
56.6745884716511 241.973966360092 1779.99997138977 189 191 190
61.6296827793121 242.378145456314 1782.99999237061 168 170 169
66.4890259504318 242.374241352081 1782.99999237061 166 168 167
71.3481307029724 242.369994521141 1782.99999237061 165 167 166
76.2497112154961 242.501437664032 1784.00003910065 169 171 170
81.1110138893127 242.496654391289 1784.00003910065 170 172 171
85.9719961881638 242.491528391838 1784.00003910065 166 168 167
90.8835977315903 242.622092366219 1784.9999666214 167 169 168
95.8539545536041 242.888271808624 1786.99994087219 169 171 170
100.778482854366 243.018195033073 1787.99998760223 173 175 174
105.649039149284 243.011981248856 1787.99998760223 178 180 179
110.704645514488 243.413195014 1791.00000858307 181 183 182
115.90526252985 244.085907936096 1796.0000038147 184 186 185
121.065445244312 244.622394442558 1799.99995231628 184 186 185
126.037046313286 244.750887155533 1800.99999904633 183 185 184
131.159052252769 245.15089392662 1804.00002002716 184 186 185
136.372357606888 245.686486363411 1807.99996852875 186 188 187
141.606986522675 246.221795678139 1812.00003623962 187 189 188
146.782040596008 246.620893478394 1815.00005722046 184 186 185
152.056470513344 247.155576944351 1819.00000572205 190 192 191
157.43850171566 247.825816273689 1824.00000095367 188 190 189
162.847191095352 248.495727777481 1828.9999961853 184 186 185
168.282553553581 249.165371060371 1833.99999141693 185 187 186
173.839032649994 249.970585107803 1840.0000333786 186 188 187
179.524749517441 250.911265611649 1847.00000286102 179 181 178
185.347899794579 251.987457275391 1855.00001907349 175 177 174
190.700754523277 252.384155988693 1858.00004005432 189 191 188
196.069270372391 252.780497074127 1860.99994182587 193 195 192
201.561599969864 253.31249833107 1865.00000953674 196 198 195
207.628935575485 254.523247480392 1873.99995326996 190 192 189
235.704138875008 257.31286406517 1894.99998092651 206 208 205
239.580705761909 255.941867828369 1884.99999046326 189 191 190
243.142604827881 254.299283027649 1873.00002574921 181 183 182
247.168675065041 253.199696540833 1865.00000953674 183 185 184
251.421064138412 252.371519804001 1858.99996757507 172 174 173
256.054013967514 251.95050239563 1855.99994659424 179 181 180
260.107219219208 250.986367464066 1848.99997711182 177 179 178
263.978272676468 249.886408448219 1840.99996089935 185 187 186
268.243491649628 249.193593859673 1835.99996566772 191 193 192
272.62955904007 248.636364936829 1832.00001716614 195 197 196
277.902334928513 248.893260955811 1833.99999141693 190 192 191
283.339440822601 249.285727739334 1837.00001239777 191 193 192
288.949012756348 249.813631176949 1840.99996089935 188 190 189
293.940782546997 249.798536300659 1840.99996089935 182 184 183
299.906075000763 250.597387552261 1847.00000286102 185 187 186
306.893557310104 252.210021018982 1858.99996757507 172 174 173
-250.359117984772 253.196477890015 1902.99999713898 199 201 198
-243.902444839478 251.879274845123 1893.00000667572 198 200 199
-237.751513719559 250.827848911285 1884.99999046326 199 201 200
-232.136994600296 250.308454036713 1881.00004196167 201 203 202
-226.784870028496 250.054895877838 1878.99994850159 202 204 203
-221.44290804863 249.801069498062 1876.99997425079 201 201 201
-216.687425971031 250.212520360947 1879.99999523163 199 199 199
-211.91494166851 250.623732805252 1883.00001621246 197 197 197
-207.345068454742 251.300930976868 1888.00001144409 196 198 197
-202.426061034203 251.578658819199 1889.99998569489 192 194 193
-197.599902749062 251.989275217056 1893.00000667572 187 189 188
-192.756786942482 252.39971280098 1896.00002765656 183 185 184
-188.29245865345 253.342419862747 1902.99999713898 178 180 177
-183.693215250969 254.151791334152 1909.00003910065 158 160 157
-178.967207670212 254.827857017517 1914.00003433228 159 164 160
-174.394965171814 255.769997835159 1921.0000038147 150 155 151
-141.458839178085 253.028690814972 1899.99997615814 154 159 153
-137.576535344124 255.434036254883 1917.99998283386 124 129 123
-132.767632603645 256.241083145142 1924.00002479553 65 70 64
-127.329036593437 255.849212408066 1921.0000038147 46 51 45
-121.016532182693 253.592401742935 1904.00004386902 31 33 28
-115.039497613907 251.867920160294 1891.00003242493 29 31 26
-109.074778854847 250.00986456871 1876.99997425079 120 122 117
-103.462882339954 248.817384243011 1868.00003051758 111 113 108
-98.0576500296593 248.024210333824 1861.99998855591 178 180 177
-92.8345397114754 247.630298137665 1858.99996757507 176 178 175
-87.5802561640739 247.102871537209 1855.00001907349 185 187 184
-82.3029577732086 246.441930532455 1850.00002384186 189 191 188
-76.8437832593918 245.114579796791 1840.0000333786 181 183 180
-71.5949907898903 244.319766759872 1833.99999141693 164 166 163
-66.3786381483078 243.524610996246 1827.99994945526 143 145 142
-61.3290891051292 243.262007832527 1825.99997520447 153 155 152
-56.2285035848618 242.732688784599 1822.00002670288 182 184 181
-51.0932430624962 241.936594247818 1815.99998474121 195 197 194
-46.0667237639427 241.539850831032 1812.99996376038 147 149 146
-41.0337150096893 241.009593009949 1809.00001525879 126 128 125
-36.0423177480698 240.612253546715 1805.99999427795 110 112 109
-31.0843717306852 240.34783244133 1804.00002002716 132 134 131
-26.1227134615183 239.949882030487 1800.99999904633 140 142 139
-21.1773104965687 239.551603794098 1797.99997806549 139 141 138
-16.2391383200884 239.019811153412 1794.0000295639 138 140 137
-11.3227153196931 238.487720489502 1789.99996185303 137 139 136
-6.44245697185397 238.488286733627 1789.99996185303 157 159 156
-1.56130234245211 238.355293869972 1789.00003433228 191 193 190
3.31625947728753 238.355249166489 1789.00003433228 176 178 175
8.19380860775709 238.354876637459 1789.00003433228 141 143 142
13.0713256075978 238.354235887527 1789.00003433228 142 144 143
17.9487969726324 238.353297114372 1789.00003433228 149 151 150
22.8261984884739 238.352045416832 1789.00003433228 152 154 153
27.688030153513 238.217264413834 1787.99998760223 156 158 157
32.5260981917381 237.948998808861 1786.00001335144 174 176 175
37.3112596571445 237.413942813873 1781.99994564056 189 191 190
42.0981384813786 237.011849880219 1779.00004386902 201 203 202
46.9476766884327 237.009182572365 1779.00004386902 199 201 200
51.8261529505253 237.139403820038 1779.99997138977 182 184 183
56.7735694348812 237.535774707794 1782.99999237061 173 175 174
61.6680048406124 237.665414810181 1784.00003910065 164 166 165
66.493071615696 237.528339028358 1782.99999237061 163 165 164
71.3924840092659 237.657397985458 1784.00003910065 162 164 163
76.2543380260468 237.652957439423 1784.00003910065 165 167 166
81.1613723635674 237.781420350075 1784.9999666214 166 168 167
86.0253795981407 237.776398658752 1784.9999666214 162 164 163
90.9909084439278 238.037511706352 1786.99994087219 158 160 159
95.9670022130013 238.298326730728 1789.00003433228 157 159 158
100.897274911404 238.42565715313 1789.99996185303 161 163 162
105.832643806934 238.552689552307 1791.00000858307 167 169 168
110.896714031696 238.945841789246 1794.0000295639 179 181 180
115.912161767483 239.205479621887 1796.0000038147 185 187 186
121.00538611412 239.598050713539 1799.00002479553 187 188 190
126.044526696205 239.857137203217 1800.99999904633 186 187 189
131.239533424377 240.382269024849 1804.99994754791 184 185 187
136.455863714218 240.907102823257 1809.00001525879 183 184 186
141.693472862244 241.431653499603 1812.99996376038 183 184 186
146.871522068977 241.822719573975 1815.99998474121 185 186 188
152.232557535172 242.47981607914 1820.99997997284 187 188 190
157.620310783386 243.13659965992 1825.99997520447 185 186 188
163.034737110138 243.793085217476 1830.9999704361 185 186 188
168.384060263634 244.316145777702 1835.00003814697 186 187 189
173.943534493446 245.105162262917 1840.99996089935 183 185 184
179.632291197777 246.026992797852 1848.00004959106 176 178 175
185.158669948578 246.682241559029 1853.00004482269 182 184 181
190.403714776039 246.937826275826 1855.00001907349 191 193 190
195.658966898918 247.19312787056 1856.99999332428 199 201 198
201.356843113899 247.980639338493 1863.00003528595 190 192 189
207.41905272007 249.167114496231 1871.99997901917 193 195 192
235.717117786407 252.16680765152 1894.99998092651 206 208 205
239.466741681099 250.690102577209 1883.99994373322 187 189 188
243.155851960182 249.213382601738 1873.00002574921 174 176 175
247.447177767754 248.401835560799 1866.99998378754 170 172 171
251.705139875412 247.590139508247 1860.99994182587 183 185 184
256.20573759079 247.044429183006 1856.99999332428 175 177 176
260.261803865433 246.09948694706 1850.00002384186 175 177 176
264.279097318649 245.154470205307 1843.00005435944 185 187 186
268.257617950439 244.209364056587 1835.99996566772 190 192 191
272.792637348175 243.796199560165 1832.99994468689 192 194 193
278.219878673553 244.180917739868 1835.99996566772 193 195 194
283.508390188217 244.432434439659 1838.00005912781 190 192 191
288.963854312897 244.816675782204 1840.99996089935 187 189 188
293.796181678772 244.668871164322 1840.0000333786 185 187 186
300.246089696884 245.850577950478 1848.99997711182 187 189 188
306.909024715424 247.164890170097 1858.99996757507 171 173 172
-249.451577663422 247.116103768349 1896.00002765656 198 200 197
-243.529006838799 246.347203850746 1889.99998569489 199 201 200
-237.638235092163 245.57800590992 1883.99994373322 199 201 200
-232.02620446682 245.069250464439 1879.99999523163 201 203 202
-226.91798210144 245.081663131714 1879.99999523163 202 204 203
-221.691027283669 244.963467121124 1878.99994850159 202 202 202
-216.814622282982 245.236158370972 1881.00004196167 200 200 200
-211.814105510712 245.3783005476 1881.99996948242 197 197 197
-207.136958837509 245.91138958931 1886.0000371933 194 196 195
-202.54448056221 246.574655175209 1891.00003242493 191 193 192
-197.819769382477 247.10738658905 1894.99998092651 187 189 188
-192.869290709496 247.379064559937 1896.99995517731 182 184 183
-188.303112983704 248.17219376564 1902.99999713898 177 179 176
-183.703631162643 248.965099453926 1909.00003910065 160 162 159
-179.07090485096 249.757826328278 1914.99996185303 154 159 155
-174.495711922646 250.680834054947 1922.00005054474 143 148 144
-171.202823519707 253.560066223145 1944.00000572205 130 135 131
-141.318172216415 247.604414820671 1898.00000190735 85 90 84
-137.656301259995 250.352084636688 1919.0000295639 209 214 208
-132.913425564766 251.273155212402 1925.99999904633 227 232 226
-128.065660595894 252.063512802124 1932.000041008 0 2 0
-121.405005455017 249.200478196144 1909.9999666214 35 37 32
-115.046285092831 246.728375554085 1891.00003242493 15 17 12
-109.023109078407 244.777783751488 1876.00004673004 37 39 34
-103.35823148489 243.479207158089 1866.00005626678 174 176 171
-98.0634614825249 242.963179945946 1861.99998855591 171 173 170
-92.7401855587959 242.316395044327 1856.99999332428 175 177 174
-87.3966068029404 241.538733243942 1850.99995136261 200 202 199
-82.1298956871033 240.891307592392 1845.99995613098 197 199 196
-76.7648443579674 239.852055907249 1838.00005912781 155 157 154
-71.6383084654808 239.464938640594 1835.00003814697 153 155 152
-66.4915516972542 238.947033882141 1830.9999704361 155 157 154
-61.3663569092751 238.428846001625 1827.00002193451 163 165 162
-56.2627464532852 237.910330295563 1822.99995422363 195 197 194
-51.1525832116604 237.26099729538 1817.999958992 187 189 186
-46.1711473762989 237.133398652077 1817.00003147125 124 126 123
-41.1496087908745 236.744463443756 1814.00001049042 120 122 119
-36.1243188381195 236.224740743637 1809.99994277954 120 122 119
-31.1379432678223 235.835239291191 1807.000041008 139 141 138
-26.1678043752909 235.445395112038 1804.00002002716 144 146 143
-21.2139282375574 235.055297613144 1800.99999904633 133 135 132
-16.2582229822874 234.40383374691 1796.0000038147 137 139 136
-11.3297244533896 233.752086758614 1791.00000858307 168 170 167
-6.43924763426185 233.491599559784 1789.00003433228 187 189 186
-1.5622692881152 233.622342348099 1789.99996185303 185 187 184
3.32016707397997 233.752816915512 1791.00000858307 161 163 160
8.20346362888813 233.752459287643 1791.00000858307 136 138 137
13.0721163004637 233.490794897079 1789.00003433228 141 143 142
17.959913238883 233.620390295982 1789.99996185303 151 153 152
22.8403359651566 233.619168400764 1789.99996185303 158 160 159
27.7206730097532 233.617648482323 1789.99996185303 168 170 169
32.546266913414 233.224302530289 1786.99994087219 184 186 185
37.3553857207298 232.830703258514 1784.00003910065 196 198 197
42.1716645359993 232.56728053093 1781.99994564056 202 204 203
47.0296703279018 232.564628124237 1781.99994564056 196 198 197
51.9166141748428 232.692152261734 1782.99999237061 173 175 174
56.8725019693375 233.080431818962 1786.00001335144 167 169 168
61.7754049599171 233.207419514656 1786.99994087219 159 161 160
66.6462257504463 233.20360481739 1786.99994087219 160 162 161
71.4767947793007 233.069017529488 1786.00001335144 162 164 163
76.3443782925606 233.064621686935 1786.00001335144 167 169 168
81.2116861343384 233.059972524643 1786.00001335144 166 168 167
86.1750915646553 233.316019177437 1787.99998760223 161 163 162
91.1490842700005 233.571767807007 1789.99996185303 153 155 154
96.1336418986321 233.827233314514 1792.00005531311 149 151 150
101.015985012054 233.82143676281 1792.00005531311 153 155 154
105.957075953484 233.945816755295 1792.99998283386 159 161 160
110.965058207512 234.200447797775 1794.99995708466 176 178 177
115.98352342844 234.454765915871 1797.00005054474 184 186 185
121.079742908478 234.839275479317 1799.99995231628 187 188 190
126.191884279251 235.223472118378 1802.99997329712 187 188 190
131.465315818787 235.868319869041 1807.99996852875 186 187 189
136.690095067024 236.382395029068 1812.00003623962 186 187 189
141.936168074608 236.896187067032 1815.99998474121 186 187 189
147.041782736778 237.148761749268 1817.999958992 185 186 188
152.241349220276 237.531557679176 1820.99997997284 184 185 187
157.543063163757 238.044455647469 1825.00004768372 183 184 186
162.955045700073 238.68753015995 1830.00004291534 184 185 187
168.393671512604 239.330247044563 1835.00003814697 185 186 188
174.047917127609 240.233525633812 1842.00000762939 182 184 183
179.934084415436 241.397321224213 1850.99995136261 180 182 181
185.368999838829 241.908729076385 1855.00001907349 186 188 185
190.517067909241 242.028623819351 1855.99994659424 193 195 192
195.775300264359 242.278665304184 1858.00004005432 204 206 203
201.584249734879 243.180438876152 1865.00000953674 186 188 185
207.54137635231 244.212239980698 1873.00002574921 191 193 190
220.920473337173 253.718376159668 1945.99997997284 207 209 206
235.204964876175 251.986294984818 1932.99996852875 205 207 204
235.854312777519 247.150406241417 1896.00002765656 212 214 211
239.733919501305 245.834112167358 1886.0000371933 182 184 183
243.29873919487 244.257092475891 1873.99995326996 179 181 180
247.460395097733 243.331670761108 1866.99998378754 166 168 167
251.718521118164 242.53648519516 1860.99994182587 178 180 179
256.357252597809 242.132186889648 1858.00004005432 175 177 176
260.416150093079 241.206422448158 1850.99995136261 179 181 180
264.149487018585 240.020006895065 1842.00000762939 183 185 184
268.271535634995 239.224418997765 1835.99996566772 191 193 192
272.955566644669 238.949924707413 1833.99999141693 191 193 192
278.537273406982 239.456981420517 1838.00005912781 192 194 193
283.831387758255 239.70328271389 1840.0000333786 189 191 190
289.13551568985 239.949330687523 1842.00000762939 185 187 186
293.810963630676 239.67419564724 1840.0000333786 192 194 193
299.936324357986 240.571156144142 1847.00000286102 188 190 189
306.26392364502 241.5981143713 1855.00001907349 171 173 172
-249.333158135414 241.83876812458 1894.99998092651 198 200 197
-243.284210562706 240.958347916603 1888.00001144409 200 202 201
-237.398609519005 240.205198526382 1881.99996948242 199 201 200
-231.791794300079 239.707097411156 1878.00002098083 200 202 201
-226.688772439957 239.719301462173 1878.00002098083 202 204 203
-221.702992916107 239.858895540237 1878.99994850159 203 203 203
-216.826394200325 240.126013755798 1881.00004196167 203 203 203
-212.050765752792 240.520566701889 1883.99994373322 198 198 198
-207.367956638336 241.042569279671 1888.00001144409 194 196 195
-202.555611729622 241.436749696732 1891.00003242493 191 193 192
-197.830706834793 241.958439350128 1894.99998092651 187 189 188
-192.879974842072 242.224514484406 1896.99995517731 182 184 183
-188.214600086212 242.873430252075 1901.99995040894 173 175 172
-183.617651462555 243.649929761887 1907.99999237061 161 163 160
-179.174453020096 244.681566953659 1916.00000858307 149 154 150
-174.777910113335 245.840802788734 1924.99995231628 138 143 139
-171.388626098633 248.532384634018 1945.99997997284 126 131 127
-142.443180084229 244.361653923988 1912.99998760223 100 105 99
-128.603383898735 247.833922505379 1940.00005722046 21 26 20
-122.111275792122 245.413839817047 1921.0000038147 32 34 29
-115.174636244774 241.843521595001 1893.00000667572 18 20 15
-109.320029616356 240.316867828369 1881.00004196167 26 28 23
-103.475041687489 238.662123680115 1868.00003051758 37 39 34
-98.121851682663 238.029107451439 1863.00003528595 124 126 123
-92.6956608891487 237.140268087387 1855.99994659424 204 206 203
-87.3545035719872 236.378878355026 1850.00002384186 141 143 140
-82.0012390613556 235.489383339882 1843.00005435944 124 126 123
-76.7693594098091 234.855145215988 1838.00005912781 119 121 118
-71.720615029335 234.731674194336 1837.00001239777 124 126 123
-66.5317997336388 234.096825122833 1832.00001716614 174 176 173
-61.3699778914452 233.461618423462 1827.00002193451 190 192 189
-56.2352053821087 232.826143503189 1822.00002670288 154 156 153
-51.2400269508362 232.701495289803 1820.99997997284 123 125 122
-46.2501123547554 232.576593756676 1820.00005245209 126 128 125
-41.2201061844826 232.195764780045 1817.00003147125 119 121 118
-36.1663848161697 231.559112668037 1812.00003623962 125 127 124
-31.1570204794407 231.04989528656 1807.99996852875 154 156 153
-26.1983722448349 230.796009302139 1805.99999427795 154 156 153
-21.2387479841709 230.414018034935 1802.99997329712 187 189 186
-16.2682440131903 229.648366570473 1797.00005054474 203 205 202
-11.3493772223592 229.265809059143 1794.0000295639 195 197 194
-6.45402772352099 229.138508439064 1792.99998283386 171 173 170
-1.56672636512667 229.394346475601 1794.99995708466 119 121 118
3.32778040319681 229.394286870956 1794.99995708466 121 123 120
8.21769423782825 229.266151785851 1794.0000295639 144 146 145
13.0948154255748 229.009926319122 1792.00005531311 143 145 144
17.9910827428102 229.136824607849 1792.99998283386 154 156 155
22.8672157973051 229.007840156555 1792.00005531311 171 173 172
27.7223195880651 228.750750422478 1789.99996185303 190 192 191
32.5664132833481 228.493377566338 1787.99998760223 206 208 207
37.3994782567024 228.235736489296 1786.00001335144 203 205 204
42.2688350081444 228.233397006989 1786.00001335144 184 186 185
47.1380278468132 228.230759501457 1786.00001335144 171 173 172
52.007045596838 228.227868676186 1786.00001335144 150 152 151
56.8758696317673 228.224664926529 1786.00001335144 150 152 151
61.7790520191193 228.348985314369 1786.99994087219 157 159 158
66.6128620505333 228.217452764511 1786.00001335144 161 163 162
71.5210139751434 228.341177105904 1786.99994087219 165 167 166
76.3916149735451 228.336870670319 1786.99994087219 170 172 171
81.3073962926865 228.460073471069 1787.99998760223 167 169 168
86.3247290253639 228.838518261909 1791.00000858307 161 163 162
91.3071855902672 229.088887572289 1792.99998283386 158 160 159
96.3538363575935 229.466766119003 1796.0000038147 147 149 148
101.247370243073 229.461073875427 1796.0000038147 146 148 147
106.199637055397 229.582861065865 1797.00005054474 150 152 151
111.095145344734 229.576602578163 1797.00005054474 166 168 167
116.183862090111 229.953303933144 1799.99995231628 174 176 175
121.221274137497 230.202034115791 1802.00004577637 185 186 188
126.339137554169 230.578184127808 1804.99994754791 188 189 191
131.618291139603 231.209546327591 1809.99994277954 186 187 189
136.773347854614 231.585130095482 1812.99996376038 184 185 187
141.866117715836 231.832712888718 1815.00005722046 184 185 187
147.050127387047 232.207715511322 1817.999958992 190 191 193
152.333572506905 232.710182666779 1822.00002670288 187 188 190
157.638281583786 233.212366700172 1825.99997520447 184 185 187
162.964224815369 233.714267611504 1830.00004291534 186 187 189
168.494910001755 234.471261501312 1835.99996566772 186 187 189
173.963144421577 235.100284218788 1840.99996089935 183 185 184
179.652497172356 235.984399914742 1848.00004959106 188 190 189
184.979543089867 236.357420682907 1850.99995136261 190 192 189
190.527603030205 236.98553442955 1855.99994659424 196 198 195
195.996850728989 237.485691905022 1860.00001430511 206 208 205
201.919585466385 238.496258854866 1868.00003051758 185 187 184
207.774356007576 239.378824830055 1875 188 190 187
214.120626449585 240.771755576134 1886.0000371933 206 208 205
230.715274810791 242.012530565262 1896.00002765656 201 203 200
235.369279980659 241.489559412003 1891.99995994568 209 211 208
239.619523286819 240.583583712578 1884.99999046326 182 184 183
243.441447615623 239.294618368149 1875 195 197 196
247.605964541435 238.388389348984 1868.00003051758 180 182 181
251.596450805664 237.35448718071 1860.00001430511 180 182 181
256.094634532928 236.830934882164 1855.99994659424 175 177 176
260.42965054512 236.179620027542 1850.99995136261 178 180 179
264.449924230576 235.27304828167 1843.99998188019 181 183 182
268.285304307938 234.238818287849 1835.99996566772 191 193 192
273.11834692955 234.097555279732 1835.00003814697 192 194 193
278.551369905472 234.466359019279 1838.00005912781 191 193 192
283.999860286713 234.834969043732 1840.99996089935 189 191 190
289.149940013886 234.948292374611 1842.00000762939 184 186 185
294.14489865303 234.933882951736 1842.00000762939 191 193 192
300.275892019272 235.812097787857 1848.99997711182 186 188 187
307.269543409348 237.3276501894 1860.99994182587 174 176 175
-248.951315879822 236.316293478012 1891.99995994568 198 200 197
-243.425741791725 235.954269766808 1889.00005817413 203 205 204
-237.411066889763 235.092326998711 1881.99996948242 199 201 200
-231.927409768105 234.729796648026 1878.99994850159 199 201 200
-226.821467280388 234.741821885109 1878.99994850159 205 206 208
-221.9507843256 235.003471374512 1881.00004196167 208 208 210
-216.953247785568 235.13999581337 1881.99996948242 209 209 211
-212.062120437622 235.40124297142 1883.99994373322 201 202 204
-207.159444689751 235.662341117859 1886.0000371933 197 198 200
-202.459439635277 236.173123121262 1889.99998569489 193 194 196
-197.841420769691 236.808687448502 1894.99998092651 189 191 190
-192.992180585861 237.194135785103 1898.00000190735 184 186 185
-188.323870301247 237.829297780991 1902.99999713898 168 170 169
-183.723986148834 238.589286804199 1909.00003910065 163 165 162
-179.277867078781 239.5990639925 1917.00005531311 145 150 146
-175.059974193573 240.98365008831 1927.99997329712 133 138 134
-143.195852637291 240.411475300789 1922.99997806549 102 107 101
-130.997270345688 247.06082046032 1975.99995136261 15 20 14
-121.863938868046 239.69104886055 1917.00005531311 27 29 24
-114.998675882816 236.321792006493 1889.99998569489 23 25 20
-109.151922166348 234.827637672424 1878.00002098083 15 17 12
-103.480964899063 233.583226799965 1868.00003051758 43 45 40
-98.0221405625343 232.713654637337 1860.99994182587 30 32 29
-92.6510468125343 231.96879029274 1855.00001907349 59 61 58
-87.3123109340668 231.223583221436 1848.99997711182 106 108 105
-82.0504650473595 230.60317337513 1843.99998188019 94 96 93
-76.8155679106712 229.982450604439 1838.99998664856 120 122 119
-71.7247575521469 229.73658144474 1837.00001239777 155 157 154
-66.535659134388 229.115262627602 1832.00001716614 199 201 198
-61.4407286047935 228.743717074394 1828.9999961853 191 193 190
-56.331068277359 228.246837854385 1825.00004768372 134 136 133
-51.3274297118187 228.124886751175 1824.00000095367 127 129 126
-46.2528057396412 227.627411484718 1820.00005245209 117 119 116
-41.2225127220154 227.254748344421 1817.00003147125 135 137 134
-36.1684933304787 226.631641387939 1812.00003623962 158 160 157
-31.1588421463966 226.133272051811 1807.99996852875 179 181 178
-26.2144077569246 226.009845733643 1807.000041008 186 188 185
-21.2635491043329 225.761085748672 1804.99994754791 210 212 209
-16.3054075092077 225.261867046356 1800.99999904633 217 219 216
-11.3753471523523 224.887445569038 1797.99997806549 145 147 144
-6.4760041423142 225.01303255558 1799.00002479553 115 117 114
-1.56943663023412 224.888190627098 1797.99997806549 110 112 109
3.32982908003032 224.637985229492 1796.0000038147 126 128 125
8.21817480027676 224.387511610985 1794.0000295639 136 138 137
13.1028890609741 224.261820316315 1792.99998283386 141 143 142
18.0021692067385 224.385991692543 1794.0000295639 172 174 173
22.8557884693146 224.009558558464 1791.00000858307 190 192 191
27.723940089345 223.883047699928 1789.99996185303 200 202 201
32.5683131814003 223.631143569946 1787.99998760223 202 204 203
37.4435447156429 223.629117012024 1787.99998760223 191 193 192
42.3423014581203 223.751872777939 1789.00003433228 163 165 164
47.1935570240021 223.624214529991 1787.99998760223 152 154 153
52.0683154463768 223.621353507042 1787.99998760223 145 147 146
56.9110214710236 223.49314391613 1786.99994087219 150 152 151
61.8517845869064 223.739877343178 1789.00003433228 163 165 164
66.6913241147995 223.611131310463 1787.99998760223 164 166 165
71.6052055358887 223.732203245163 1789.00003433228 166 168 167
76.4815285801888 223.727956414223 1789.00003433228 166 168 167
81.4485177397728 223.973527550697 1791.00000858307 165 167 166
86.4743143320084 224.343910813332 1794.0000295639 162 164 163
91.4652124047279 224.588960409164 1796.0000038147 160 162 161
96.5203270316124 224.958747625351 1799.00002479553 146 148 147
101.422302424908 224.95311498642 1799.00002479553 143 145 144
