ply
format ascii 1.0
comment KinectMotionCapture
element vertex 790
property float x
property float y
property float z
property uchar red
property uchar green
property uchar blue
end_header
-41.8640337884426 -115.137651562691 2095.00002861023 9 12 3
-36.2315848469734 -115.413524210453 2099.99990463257 8 11 4
-30.4845497012138 -115.359492599964 2098.99997711182 7 9 4
-24.8254016041756 -115.690000355244 2105.00001907349 7 9 4
-19.0155673772097 -115.30590057373 2098.00004959106 6 8 5
-13.2692065089941 -115.141451358795 2095.00002861023 5 7 4
-7.44907651096582 -113.602846860886 2066.99991226196 5 7 4
-1.81150482967496 -113.932743668556 2072.99995422363 4 6 3
3.88296390883625 -114.976972341537 2092.00000762939 3 5 0
9.31426975876093 -111.624196171761 2030.99989891052 63 65 60
14.7343892604113 -110.689543187618 2013.99993896484 14 17 10
19.9310332536697 -109.040275216103 1983.99996757507 17 20 11
25.5387108772993 -109.86403375864 1998.99995326996 18 21 12
30.8870598673821 -109.478548169136 1991.99998378754 18 21 12
36.3429449498653 -109.532579779625 1993.00003051758 20 23 14
41.5944866836071 -109.03687030077 1983.99996757507 21 24 15
46.915203332901 -108.81582647562 1980.00001907349 21 24 15
52.0817674696445 -108.319856226444 1970.99995613098 21 24 15
57.3156103491783 -108.043573796749 1965.99996089935 22 25 16
62.7769753336906 -108.206793665886 1968.99998188019 22 25 16
67.9775699973106 -107.930220663548 1963.99998664856 24 27 18
73.0385854840279 -107.488662004471 1955.9999704361 22 27 20
78.336127102375 -107.431635260582 1955.00004291534 22 27 20
82.9859003424644 -106.550201773643 1939.00001049042 22 27 20
88.3675292134285 -106.657765805721 1940.99998474121 23 28 21
93.132384121418 -106.050848960876 1929.99994754791 26 29 22
98.6525863409042 -106.322981417179 1934.99994277954 26 29 22
103.931114077568 -106.320239603519 1934.99994277954 27 30 23
109.547860920429 -106.64701461792 1940.99998474121 29 32 25
115.019403398037 -106.808803975582 1944.00000572205 29 32 25
120.506845414639 -106.970451772213 1947.00002670288 28 31 24
125.945568084717 -107.077017426491 1949.00000095367 25 26 20
130.721211433411 -106.634058058262 1940.99998474121 27 30 21
136.293649673462 -106.850229203701 1945.00005245209 26 29 20
142.688125371933 -107.670523226261 1960.00003814697 26 29 20
149.465918540955 -108.71035605669 1978.99997234344 24 27 18
154.546961188316 -108.486585319042 1975.00002384186 20 23 16
160.172417759895 -108.64719748497 1978.00004482269 19 22 15
168.408378958702 -110.510364174843 2012.00008392334 17 20 13
176.051139831543 -111.878924071789 2036.99994087219 18 21 14
183.294594287872 -112.917736172676 2055.99999427795 18 21 14
189.170852303505 -113.077610731125 2059.00001525879 20 22 17
-167.58793592453 -120.788045227528 2095.00002861023 12 15 8
-162.110060453415 -120.965600013733 2098.00004959106 19 22 15
-157.211571931839 -121.604286134243 2108.99996757507 15 18 11
-151.462525129318 -121.608607470989 2108.99996757507 22 25 18
-145.781964063644 -121.670432388783 2109.99989509583 17 20 11
-139.498114585876 -121.213130652905 2101.99999809265 18 21 12
-134.275570511818 -121.678322553635 2109.99989509583 19 22 13
-127.790629863739 -120.990008115768 2098.00004959106 20 23 14
-121.719717979431 -120.647512376308 2092.00000762939 20 23 14
-115.625612437725 -120.247170329094 2085.00003814697 20 23 14
-110.096529126167 -120.423406362534 2088.00005912781 18 21 10
-104.250617325306 -120.253436267376 2085.00003814697 18 21 10
-98.2788428664207 -119.91024762392 2078.9999961853 17 20 11
-93.3193862438202 -120.835833251476 2095.00002861023 16 19 10
-87.5195637345314 -120.723061263561 2092.99993515015 15 18 9
-81.0267403721809 -119.57186460495 2072.99995422363 14 17 8
-74.969969689846 -118.939615786076 2062.00003623962 12 15 6
-69.6455016732216 -119.460843503475 2071.00009918213 11 14 7
-64.2407387495041 -119.92422491312 2078.9999961853 11 14 7
-58.5948377847672 -119.983680546284 2079.99992370605 10 13 6
-52.968692034483 -120.100647211075 2082.00001716614 10 13 6
-47.3086945712566 -120.159782469273 2082.99994468689 7 10 3
-41.8428741395473 -120.795629918575 2094.00010108948 7 10 3
-36.265067756176 -121.258243918419 2101.99999809265 7 10 3
-30.3965508937836 -120.740018785 2092.99993515015 7 9 4
-24.6713887900114 -120.683126151562 2092.00000762939 7 9 4
-18.851887434721 -119.99149620533 2079.99992370605 7 9 6
-13.1801618263125 -120.049647986889 2081.00008964539 8 10 7
-7.4128289707005 -118.665419518948 2056.99992179871 10 12 9
-1.8166967201978 -119.93470788002 2078.9999961853 4 6 3
3.85130126960576 -119.70391869545 2075.00004768372 49 51 46
14.7559205070138 -116.357445716858 2016.99995994568 12 15 8
20.1012454926968 -115.433916449547 2000.99992752075 14 17 8
25.4357885569334 -114.856392145157 1991.00005626678 16 19 10
30.9016946703196 -114.970959722996 1993.00003051758 16 19 10
36.4330895245075 -115.258418023586 1998.00002574921 17 20 11
41.9287458062172 -115.372657775879 2000 18 21 12
46.9375737011433 -114.275336265564 1980.99994659424 22 25 16
51.9481860101223 -113.408632576466 1965.99996089935 21 24 15
56.7892454564571 -112.368732690811 1947.99995422363 22 25 16
62.1056966483593 -112.367033958435 1947.99995422363 23 26 17
67.4565061926842 -112.422861158848 1949.00000095367 23 26 17
72.7004706859589 -112.305477261543 1947.00002670288 22 28 18
77.8531059622765 -112.072601914406 1942.999958992 24 29 22
82.8979909420013 -111.724220216274 1937.00003623962 25 30 23
88.2740169763565 -111.837133765221 1939.00001049042 25 30 23
93.6123356223106 -111.892215907574 1940.00005722046 26 29 22
98.8537669181824 -111.831791698933 1939.00001049042 25 28 21
104.089364409447 -111.771240830421 1937.99996376038 27 30 23
109.431944787502 -111.825883388519 1939.00001049042 30 33 26
114.779569208622 -111.880384385586 1940.00005722046 31 34 27
120.13217061758 -111.934721469879 1940.99998474121 28 31 24
125.68362057209 -112.161934375763 1945.00005245209 23 24 18
131.189048290253 -112.331308424473 1947.99995422363 29 32 23
136.920541524887 -112.673535943031 1953.9999961853 26 29 20
142.975404858589 -113.246217370033 1963.99998664856 24 27 18
148.857653141022 -113.645777106285 1970.99995613098 22 25 16
154.307991266251 -113.699205219746 1972.00000286102 21 24 15
161.625638604164 -115.078561007977 1996.00005149841 20 23 16
166.72982275486 -114.843383431435 1991.99998378754 21 24 17
175.959974527359 -117.375306785107 2036.00001335144 19 22 15
184.092015028 -119.042165577412 2065.00005722046 19 22 15
191.278859972954 -120.016999542713 2082.00001716614 23 25 20
-168.143108487129 -126.92292034626 2101.99999809265 12 15 8
-162.337243556976 -126.867353916168 2101.0000705719 15 18 11
-155.641749501228 -126.086980104446 2088.00005912781 19 22 15
-150.380969047546 -126.453772187233 2094.00010108948 19 22 15
-144.948735833168 -126.699656248093 2098.00004959106 18 21 14
-140.091389417648 -127.488940954208 2111.00006103516 20 23 16
-134.589865803719 -127.734556794167 2115.00000953674 20 23 16
-127.9087215662 -126.832485198975 2099.99990463257 21 24 17
-121.425278484821 -126.051008701324 2086.99989318848 20 23 16
-115.733161568642 -126.054525375366 2086.99989318848 20 23 16
-109.460599720478 -125.393450260162 2075.99997520447 19 22 13
-103.79758477211 -125.396624207497 2075.99997520447 17 20 11
-98.6541360616684 -126.064077019691 2086.99989318848 16 19 10
-93.539372086525 -126.852214336395 2099.99990463257 16 19 10
-87.2661173343658 -126.069635152817 2086.99989318848 15 18 9
-81.1025351285934 -125.347271561623 2075.00004768372 13 16 9
-75.0768482685089 -124.745532870293 2065.00005722046 13 16 9
-70.0133591890335 -125.774666666985 2082.00001716614 11 14 7
-64.4551366567612 -126.018330454826 2085.99996566772 10 13 6
-58.7903037667274 -126.080587506294 2086.99989318848 9 11 6
-53.2469749450684 -126.444756984711 2092.99993515015 9 11 6
-47.8296540677547 -127.231642603874 2105.99994659424 9 11 6
-41.8616160750389 -126.568451523781 2095.00002861023 8 10 5
-36.2122356891632 -126.811295747757 2098.99997711182 8 10 5
-30.4392203688622 -126.631051301956 2095.99995613098 7 9 6
-24.5763175189495 -125.90691447258 2084.00011062622 7 9 6
-18.9147721976042 -126.088798046112 2086.99989318848 8 10 7
-13.0657702684402 -124.639287590981 2062.99996376038 7 9 6
-7.49909738078713 -125.727102160454 2081.00008964539 11 13 10
-1.81314756628126 -125.364735722542 2075.00004768372 1 3 0
3.85118741542101 -125.364720821381 2075.00004768372 72 74 71
14.7920632734895 -122.162073850632 2022.0000743866 11 14 7
20.1006513088942 -120.892785489559 2000.99992752075 15 18 11
25.4989098757505 -120.590023696423 1996.00005149841 15 18 11
30.7302288711071 -119.743354618549 1981.99999332428 15 18 11
36.2132042646408 -119.984000921249 1985.99994182587 20 23 14
41.4663068950176 -119.499519467354 1978.00004482269 21 24 15
46.6755628585815 -119.014874100685 1970.00002861023 22 25 16
51.4446310698986 -117.623902857304 1947.00002670288 23 26 17
56.2336929142475 -116.53483659029 1929.00002002716 23 26 17
61.5618973970413 -116.653896868229 1930.99999427795 23 26 15
66.8661594390869 -116.712376475334 1932.000041008 23 26 15
72.2502768039703 -116.891518235207 1934.99994277954 20 26 14
77.5302797555923 -116.889275610447 1934.99994277954 22 28 18
82.7243775129318 -116.766065359116 1932.99996852875 23 29 19
88.0438163876534 -116.823926568031 1934.00001525879 23 29 19
93.1753292679787 -116.640001535416 1930.99999427795 26 29 20
98.6469686031342 -116.878755390644 1934.99994277954 31 34 25
103.710383176804 -116.634152829647 1930.99999427795 29 32 23
109.146595001221 -116.812191903591 1934.00001525879 29 32 25
114.007122814655 -116.386100649834 1927.00004577637 30 33 26
119.881138205528 -116.986609995365 1937.00003623962 30 33 26
125.873848795891 -117.64732003212 1947.99995422363 26 27 21
131.521984934807 -117.945499718189 1952.99994945526 30 31 25
137.126833200455 -118.183128535748 1957.00001716614 26 29 22
143.044114112854 -118.662133812904 1965.0000333786 24 27 20
149.457573890686 -119.503274559975 1978.99997234344 22 25 16
152.503922581673 -117.687352001667 1949.00000095367 21 24 15
160.24449467659 -119.494266808033 1978.99997234344 21 24 15
168.482765555382 -121.542438864708 2013.00001144409 22 25 16
176.646381616592 -123.409144580364 2043.99991035461 13 19 9
184.35426056385 -124.8529702425 2068.00007820129 21 27 17
191.181629896164 -125.632435083389 2081.00008964539 15 20 13
-170.057862997055 -134.168326854706 2125.99992752075 13 16 9
-164.727598428726 -134.55206155777 2131.99996948242 21 24 17
-158.395022153854 -134.115174412727 2125 19 22 15
-149.945601820946 -131.784662604332 2088.00005912781 17 20 13
-145.842507481575 -133.24086368084 2111.00006103516 19 22 15
-140.485316514969 -133.623957633972 2117.00010299683 18 21 14
-134.903982281685 -133.817553520203 2119.99988555908 19 22 15
-128.026694059372 -132.685393095016 2101.99999809265 19 22 15
-122.585214674473 -133.004888892174 2107.00011253357 19 22 15
-116.72779917717 -132.882311940193 2105.00001907349 18 21 14
-110.406331717968 -132.191449403763 2094.00010108948 19 22 13
-104.294404387474 -131.689727306366 2085.99996566772 18 21 12
-98.9347547292709 -132.134795188904 2092.99993515015 16 19 10
-93.4919714927673 -132.516592741013 2098.99997711182 16 19 10
-87.7234041690826 -132.456287741661 2098.00004959106 15 18 9
-81.295482814312 -131.322503089905 2079.99992370605 12 15 8
-76.7832547426224 -133.345320820808 2111.99998855591 12 15 8
-70.5492421984673 -132.463723421097 2098.00004959106 11 14 7
-64.4840449094772 -131.77128136158 2086.99989318848 10 13 6
-58.7321631610394 -131.64696097374 2085.00003814697 9 11 6
-53.1435757875443 -131.901264190674 2088.99998664856 9 11 6
-47.782763838768 -132.849976420403 2104.00009155273 9 11 6
-42.0801155269146 -132.977664470673 2105.99994659424 8 10 7
-36.3146290183067 -132.915765047073 2105.00001907349 8 10 7
-30.685156583786 -133.421957492828 2112.99991607666 7 9 6
-24.8821619898081 -133.233398199081 2109.99989509583 7 9 6
-18.8870001584291 -131.592348217964 2084.00011062622 8 10 7
-13.2046984508634 -131.656020879745 2085.00003814697 10 12 9
-7.5493142940104 -132.287785410881 2095.00002861023 10 12 9
-1.84629508294165 -133.424520492554 2112.99991607666 6 8 5
20.3611999750137 -127.992913126945 2026.99995040894 14 17 10
25.5619958043098 -126.350447535515 2000.99992752075 16 19 12
30.8688189834356 -125.718131661415 1991.00005626678 16 19 12
35.9568148851395 -124.517351388931 1972.00000286102 20 23 14
41.1086492240429 -123.821578919888 1960.99996566772 19 22 13
46.2950505316257 -123.378217220306 1953.9999961853 20 23 14
51.2580946087837 -122.492708265781 1940.00005722046 22 25 16
56.1736710369587 -121.670216321945 1927.00004577637 22 25 16
61.4006035029888 -121.605210006237 1925.99999904633 23 26 15
66.4834082126617 -121.287524700165 1921.0000038147 23 26 15
71.8373507261276 -121.474780142307 1924.00002479553 22 28 16
77.2474482655525 -121.724978089333 1927.99997329712 24 30 20
82.5934782624245 -121.84876203537 1929.99994754791 25 31 21
87.4948650598526 -121.341057121754 1922.00005054474 24 30 20
93.1724905967712 -121.90642952919 1930.99999427795 28 31 22
98.7969115376472 -122.345358133316 1937.99996376038 27 30 21
104.351706802845 -122.657850384712 1942.999958992 28 31 22
109.030425548553 -121.960163116455 1932.000041008 30 33 26
113.767027854919 -121.38856947422 1922.99997806549 31 34 27
119.691863656044 -122.079342603683 1934.00001525879 31 34 27
125.223904848099 -122.32805788517 1937.99996376038 28 29 23
131.046652793884 -122.829079627991 1945.99997997284 28 29 23
135.931581258774 -122.446313500404 1940.00005722046 26 29 22
142.821446061134 -123.830579221249 1962.00001239777 24 27 20
149.302080273628 -124.7728317976 1976.99999809265 23 26 17
155.159711837769 -125.146880745888 1983.00004005432 21 24 13
159.268125891685 -124.132387340069 1967.00000762939 20 23 12
167.054980993271 -125.957548618317 1996.00005149841 18 21 12
175.863429903984 -128.413423895836 2035.00008583069 14 20 10
183.100819587708 -129.606947302818 2053.99990081787 22 28 18
-173.971995711327 -143.189951777458 2174.99995231628 12 15 8
-166.499525308609 -141.878589987755 2154.99997138977 19 22 15
-159.582689404488 -140.962019562721 2141.00003242493 19 22 15
-152.023449540138 -139.38681781292 2117.00010299683 17 20 13
-145.492523908615 -138.66725564003 2105.99994659424 20 23 16
-140.41456580162 -139.330267906189 2115.9999370575 18 21 14
-133.881628513336 -138.544484972954 2104.00009155273 19 22 15
-129.118949174881 -139.602288603783 2119.99988555908 19 22 15
-123.279474675655 -139.540463685989 2118.99995803833 19 22 15
-117.888577282429 -140.005320310593 2125.99992752075 18 21 14
-110.930077731609 -138.560235500336 2104.00009155273 19 22 13
-104.591079056263 -137.773424386978 2092.00000762939 18 21 12
-98.2225984334946 -136.85467839241 2078.00006866455 15 18 9
-92.9990708827972 -137.516394257545 2088.00005912781 15 18 9
-87.5115394592285 -137.848600745201 2092.99993515015 14 17 8
-83.2861289381981 -140.354156494141 2131.00004196167 12 15 8
-77.1807059645653 -139.829844236374 2122.99990653992 11 14 7
-70.9505006670952 -138.976022601128 2109.99989509583 10 13 6
-64.6055862307549 -137.726798653603 2091.00008010864 10 13 6
-58.9274540543556 -137.794688344002 2092.00000762939 9 11 6
-53.3708222210407 -138.191714882851 2098.00004959106 9 11 6
-47.8266477584839 -138.720318675041 2105.99994659424 9 11 6
-41.9988445937634 -138.458326458931 2101.99999809265 8 10 7
-36.2962111830711 -138.591334223747 2104.00009155273 8 10 7
-30.6696482002735 -139.119416475296 2111.99998855591 7 9 6
-24.8341932892799 -138.725072145462 2105.99994659424 7 9 6
-18.9226418733597 -137.540116906166 2088.00005912781 8 10 7
-13.2232727482915 -137.540653347969 2088.00005912781 11 13 10
-7.64636136591434 -139.780625700951 2121.99997901917 2 4 1
-1.85409944970161 -139.780789613724 2121.99997901917 6 8 5
20.4007234424353 -133.78518819809 2030.99989891052 14 17 10
25.676142424345 -132.401123642921 2009.99999046326 17 20 13
30.8368150144815 -131.016910076141 1988.9999628067 16 19 12
36.0285937786102 -130.159512162209 1975.99995136261 20 23 14
41.1073341965675 -129.170194268227 1960.99996566772 18 21 12
46.0329540073872 -127.983123064041 1942.999958992 19 22 13
51.0715022683144 -127.322852611542 1932.99996852875 21 24 15
56.5799660980701 -127.848029136658 1940.99998474121 22 25 16
61.6855546832085 -127.450913190842 1934.99994277954 22 25 14
66.8273717164993 -127.185344696045 1930.99999427795 22 25 14
72.1337497234344 -127.24894285202 1932.000041008 21 27 15
77.5655135512352 -127.509966492653 1935.99998950958 23 29 19
82.9331949353218 -127.639099955559 1937.99996376038 24 30 20
87.9017636179924 -127.175286412239 1930.99999427795 23 29 19
93.4107899665833 -127.501666545868 1935.99998950958 26 29 20
99.0486666560173 -127.959534525871 1942.999958992 27 30 21
104.187294840813 -127.758696675301 1940.00005722046 28 31 22
109.026990830898 -127.228423953056 1932.000041008 30 33 26
114.118404686451 -127.027288079262 1929.00002002716 31 34 27
119.811870157719 -127.484485507011 1935.99998950958 30 33 26
125.219970941544 -127.612248063087 1937.99996376038 28 29 23
128.95505130291 -126.093745231628 1914.99996185303 27 28 22
134.736210107803 -126.616284251213 1922.99997806549 26 29 22
142.08909869194 -128.521308302879 1952.00002193451 25 28 21
150.05262196064 -130.821049213409 1986.99998855591 24 27 18
154.685437679291 -130.157873034477 1976.99999809265 19 22 13
159.101262688637 -129.362910985947 1965.0000333786 18 21 12
165.878117084503 -130.476951599121 1981.99999332428 21 24 15
175.512343645096 -133.697241544724 2030.99989891052 20 25 18
183.362632989883 -135.403141379356 2056.99992179871 21 26 19
191.262051463127 -137.042939662933 2082.00001716614 15 20 14
-172.606661915779 -147.953167557716 2157.99999237061 13 16 9
-167.266771197319 -148.438662290573 2164.99996185303 15 18 11
-159.35392677784 -146.592795848846 2138.00001144409 17 20 13
-152.018532156944 -145.158052444458 2117.00010299683 17 20 13
-145.902320742607 -144.820109009743 2111.99998855591 14 17 10
-139.348283410072 -144.001960754395 2099.99990463257 19 22 15
-134.513586759567 -144.966572523117 2114.00008201599 19 22 15
-128.992930054665 -145.245239138603 2118.00003051758 20 23 16
-123.857200145721 -146.003812551498 2128.99994850159 19 22 15
-118.272855877876 -146.282166242599 2132.99989700317 19 22 15
-111.453637480736 -144.98296380043 2114.00008201599 19 22 15
-104.637615382671 -143.546342849731 2092.99993515015 18 21 12
-99.0228876471519 -143.686935305595 2095.00002861023 16 19 10
-92.5951451063156 -142.592772841454 2078.9999961853 14 17 8
-88.4284749627113 -145.065009593964 2115.00000953674 13 16 7
-83.635114133358 -146.782651543617 2140.00010490417 10 13 6
-77.7597948908806 -146.716773509979 2138.99993896484 9 12 5
-70.6791430711746 -144.181400537491 2101.99999809265 10 13 6
-64.6343305706978 -143.49776506424 2092.00000762939 10 13 6
-59.291660785675 -144.39158141613 2105.00001907349 9 11 6
-53.7760518491268 -145.010858774185 2114.00008201599 8 10 5
-47.8931814432144 -144.669607281685 2108.99996757507 8 10 5
-42.0573800802231 -144.396737217903 2105.00001907349 8 10 7
-36.5192554891109 -145.221263170242 2117.00010299683 8 10 7
-30.770268291235 -145.359590649605 2118.99995803833 7 9 6
-24.8687379062176 -144.674554467201 2108.99996757507 7 9 6
-19.0126318484545 -143.920734524727 2098.00004959106 8 10 7
-13.2798235863447 -143.852680921555 2096.99988365173 5 7 4
-7.70375737920403 -146.66560292244 2138.00001144409 8 10 7
-1.86714332085103 -146.597191691399 2137.00008392334 3 5 2
20.460307598114 -139.73593711853 2036.99994087219 13 16 9
25.7263798266649 -138.157397508621 2013.99993896484 18 21 14
30.789278447628 -136.235669255257 1985.99994182587 18 21 14
36.2826436758041 -136.508911848068 1990.00000953674 19 22 13
41.4413511753082 -135.615840554237 1976.99999809265 18 21 12
46.4815497398376 -134.58539545536 1962.00001239777 18 21 12
51.4396838843822 -133.554801344872 1947.00002670288 21 24 15
56.5489307045937 -133.072793483734 1940.00005722046 22 25 16
62.002282589674 -133.413776755333 1945.00005245209 22 25 16
66.7905360460281 -132.382676005363 1929.99994754791 22 25 14
72.168692946434 -132.586106657982 1932.99996852875 21 27 15
77.6831358671188 -132.995113730431 1939.00001049042 23 29 19
83.272784948349 -133.47253203392 1945.99997997284 23 29 19
88.3085504174232 -133.058115839958 1940.00005722046 23 29 19
93.9384326338768 -133.535146713257 1947.00002670288 26 29 20
98.7905338406563 -132.914647459984 1937.99996376038 28 31 22
103.969052433968 -132.774084806442 1935.99998950958 29 32 23
109.023407101631 -132.496193051338 1932.000041008 31 34 27
114.469610154629 -132.698193192482 1934.99994277954 31 34 27
120.179265737534 -133.174329996109 1942.00003147125 29 32 25
124.311357736588 -131.935924291611 1924.00002479553 27 28 22
128.883510828018 -131.246000528336 1914.00003433228 27 28 22
134.661763906479 -131.790190935135 1922.00005054474 26 29 22
142.302855849266 -134.048357605934 1955.00004291534 25 28 21
149.821236729622 -136.031955480576 1983.99996757507 23 26 17
154.602229595184 -135.47845184803 1975.99995136261 19 22 13
159.339055418968 -134.924829006195 1968.00005435944 18 21 12
166.37496650219 -136.290684342384 1988.00003528595 21 24 15
176.802963018417 -140.261277556419 2046.0000038147 22 27 20
184.426471590996 -141.832128167152 2069.00000572205 20 25 18
-173.800647258759 -154.904305934906 2173.00009727478 10 13 6
-166.952148079872 -154.054656624794 2161.00001335144 16 19 12
-160.019397735596 -153.062164783478 2147.0000743866 18 21 14
-151.797980070114 -150.714829564095 2114.00008201599 16 19 12
-145.690143108368 -150.363460183144 2108.99996757507 14 17 10
-141.135156154633 -151.651740074158 2127.00009346008 18 21 14
-134.25450026989 -150.444373488426 2109.99989509583 19 22 15
-129.353955388069 -151.447162032127 2124.00007247925 19 22 15
-123.620301485062 -151.522845029831 2125 19 22 15
-117.880702018738 -151.598334312439 2125.99992752075 18 21 14
-111.449837684631 -150.746628642082 2114.00008201599 18 21 14
-105.133958160877 -149.965971708298 2102.9999256134 18 21 12
-98.0742052197456 -147.97280728817 2075.00004768372 15 18 9
-92.9482579231262 -148.831889033318 2086.99989318848 14 17 8
-88.1327688694 -150.332674384117 2108.00004005432 13 16 7
-83.7103798985481 -152.760431170464 2141.99995994568 10 13 6
-77.2481858730316 -151.550844311714 2125 8 11 4
-70.5422088503838 -149.627834558487 2098.00004959106 9 12 5
-64.6320953965187 -149.202302098274 2092.00000762939 10 13 6
-59.7120970487595 -151.201471686363 2119.99988555908 10 12 7
-53.8250617682934 -150.918185710907 2115.9999370575 8 10 5
-48.1640174984932 -151.276603341103 2121.00005149841 8 10 5
-42.4754805862904 -151.63479745388 2125.99992752075 8 10 7
-36.5179888904095 -150.994300842285 2117.00010299683 8 10 7
-30.8853685855865 -151.708751916885 2127.00009346008 7 9 6
-24.7027967125177 -149.427309632301 2095.00002861023 7 9 6
-18.9938452094793 -149.499386548996 2095.99995613098 8 10 7
-13.3173577487469 -149.999246001244 2102.9999256134 8 10 7
-7.68547412008047 -152.13942527771 2132.99989700317 7 9 6
-1.86096248216927 -151.925608515739 2130.00011444092 2 4 1
20.529905334115 -145.790189504623 2043.99991035461 13 16 9
25.8787665516138 -144.505515694618 2026.00002288818 19 22 15
31.0362521559 -142.792701721191 2002.00009346008 18 21 14
36.0808335244656 -141.151025891304 1978.99997234344 19 22 13
41.439913213253 -141.007035970688 1976.99999809265 18 21 12
46.8115992844105 -140.934139490128 1975.99995136261 18 21 12
51.5964180231094 -139.291986823082 1952.99994945526 20 23 14
56.751012802124 -138.862147927284 1947.00002670288 22 25 16
61.8407540023327 -138.36082816124 1940.00005722046 23 26 17
66.9612586498261 -138.001963496208 1934.99994277954 23 26 15
72.5022181868553 -138.49875330925 1942.00003147125 22 28 16
77.8807625174522 -138.638749718666 1944.00000572205 24 30 20
83.5266634821892 -139.206439256668 1952.00002193451 23 29 19
88.5786190629005 -138.775542378426 1945.99997997284 22 28 18
93.9352065324783 -138.843670487404 1947.00002670288 25 28 19
98.5322892665863 -137.841984629631 1932.99996852875 26 29 20
103.4284979105 -137.339293956757 1925.99999904633 29 32 23
108.793973922729 -137.478217482567 1927.99997329712 32 35 28
114.524886012077 -138.044804334641 1935.99998950958 31 34 27
120.484597980976 -138.825073838234 1947.00002670288 28 31 24
126.180797815323 -139.248639345169 1952.99994945526 27 28 22
130.427852272987 -138.103440403938 1937.00003623962 28 29 23
135.778233408928 -138.170167803764 1937.99996376038 25 28 21
142.516434192657 -139.591261744499 1957.99994468689 23 26 19
149.061098694801 -140.726953744888 1973.99997711182 21 24 15
154.910042881966 -141.149520874023 1980.00001907349 19 22 13
160.548180341721 -141.358017921448 1983.00004005432 19 22 13
170.470088720322 -145.201727747917 2036.99994087219 19 22 13
177.574813365936 -146.478906273842 2055.0000667572 22 27 20
185.222610831261 -148.112192749977 2078.00006866455 15 20 14
-173.154801130295 -160.234361886978 2164.99996185303 23 26 19
-167.409896850586 -160.388380289078 2167.00005531311 9 12 5
-158.970415592194 -157.87760913372 2132.99989700317 20 23 16
-152.29532122612 -156.99490904808 2121.00005149841 13 16 9
-146.513983607292 -157.000198960304 2121.00005149841 25 28 21
-141.461968421936 -157.819598913193 2131.99996948242 17 20 13
-135.458678007126 -157.602459192276 2128.99994850159 20 23 16
-129.288509488106 -157.163009047508 2122.99990653992 19 22 15
-123.964972794056 -157.759785652161 2131.00004196167 16 19 12
-118.320100009441 -157.986238598824 2134.0000629425 16 19 12
-112.289391458035 -157.69425034523 2130.00011444092 17 20 13
-105.880104005337 -156.809747219086 2118.00003051758 17 20 11
-99.8194515705109 -156.369224190712 2111.99998855591 17 20 11
-93.4793800115585 -155.410215258598 2098.99997711182 15 18 9
-88.4222835302353 -156.598165631294 2115.00000953674 13 16 7
-83.5120007395744 -158.23021531105 2137.00008392334 10 13 6
-77.1727338433266 -157.196521759033 2122.99990653992 11 14 7
-70.6405639648438 -155.570209026337 2101.0000705719 10 13 6
-65.1549696922302 -156.165063381195 2108.99996757507 9 12 5
-59.5691353082657 -156.611606478691 2115.00000953674 8 10 5
-53.8740120828152 -156.835839152336 2118.00003051758 7 9 4
-48.162292689085 -157.059848308563 2121.00005149841 7 9 4
-42.0544147491455 -155.876681208611 2105.00001907349 8 10 7
-36.9134098291397 -158.469915390015 2140.00010490417 8 10 7
-30.7245329022408 -156.693920493126 2115.9999370575 8 10 7
-24.8669795691967 -156.176567077637 2108.99996757507 7 9 6
-19.1200245171785 -156.251415610313 2109.99989509583 7 9 6
-13.3865345269442 -156.548246741295 2114.00008201599 9 11 8
-7.60953454300761 -156.400501728058 2111.99998855591 0 1 0
-1.84779055416584 -156.622841954231 2115.00000953674 2 4 1
20.3483812510967 -150.030732154846 2026.00002288818 13 16 9
25.9289238601923 -150.326088070869 2029.99997138977 19 22 15
30.8956187218428 -147.585138678551 1993.00003051758 19 22 15
35.8789972960949 -145.732641220093 1968.00005435944 19 22 13
41.0401783883572 -144.99069750309 1957.99994468689 18 21 12
46.7151626944542 -146.025806665421 1972.00000286102 19 22 13
51.9115850329399 -145.505651831627 1965.0000333786 20 23 14
56.7781217396259 -144.244849681854 1947.99995422363 22 25 16
61.870414763689 -143.724352121353 1940.99998474121 23 26 17
66.9934675097466 -143.351793289185 1935.99998950958 24 27 16
72.6489499211311 -144.089698791504 1945.99997997284 20 26 14
78.1984776258469 -144.531220197678 1952.00002193451 22 28 18
83.6948454380035 -144.824460148811 1955.9999704361 22 28 18
88.4389132261276 -143.858805298805 1942.999958992 20 26 16
93.1599587202072 -142.967060208321 1930.99999427795 23 26 17
97.8151857852936 -142.075181007385 1919.0000295639 24 27 18
103.048950433731 -142.071574926376 1919.0000295639 28 31 22
108.564436435699 -142.437934875488 1924.00002479553 32 35 28
114.165924489498 -142.878115177155 1929.99994754791 31 34 27
120.232835412025 -143.836289644241 1942.999958992 29 32 25
126.757830381393 -145.238384604454 1962.00001239777 29 30 24
132.4432939291 -145.603910088539 1967.00000762939 29 30 24
137.384802103043 -145.154967904091 1960.99996566772 24 27 20
142.948180437088 -145.372062921524 1963.99998664856 22 25 18
148.829385638237 -145.885035395622 1970.99995613098 21 24 15
153.96586060524 -145.657643675804 1968.00005435944 19 22 13
161.75702214241 -147.872433066368 1998.00002574921 19 22 13
169.292658567429 -149.71686899662 2023.00000190735 21 24 15
176.877439022064 -151.486933231354 2046.99993133545 21 26 20
183.879286050797 -152.664691209793 2062.99996376038 12 17 11
-173.948347568512 -166.901439428329 2174.99995231628 16 19 12
-166.322380304337 -165.21942615509 2153.00011634827 12 15 8
-160.455226898193 -165.225371718407 2153.00011634827 18 21 14
-152.505233883858 -163.00556063652 2124.00007247925 16 19 12
-146.163314580917 -162.397056818008 2115.9999370575 19 22 15
-139.930799603462 -161.865070462227 2108.99996757507 17 20 13
-134.626671671867 -162.407398223877 2115.9999370575 20 23 16
-129.101097583771 -162.719264626503 2119.99988555908 19 22 15
-123.727783560753 -163.261279463768 2127.00009346008 16 19 12
-118.204884231091 -163.649529218674 2131.99996948242 17 20 13
-112.337976694107 -163.577064871788 2131.00004196167 18 21 14
-106.875993311405 -164.118498563766 2138.00001144409 17 20 11
-100.855521857738 -163.815304636955 2134.0000629425 16 19 10
-94.6338102221489 -163.128077983856 2125 14 17 8
-88.2518142461777 -162.056773900986 2111.00006103516 12 15 6
-83.1572264432907 -163.365051150322 2128.00002098084 10 13 6
-76.988123357296 -162.600353360176 2118.00003051758 11 14 7
-71.0077658295631 -162.142500281334 2111.99998855591 10 13 6
-65.121665596962 -161.837980151176 2108.00004005432 9 12 5
-59.7359165549278 -162.838399410248 2121.00005149841 8 10 5
-54.2535334825516 -163.761824369431 2132.99989700317 8 10 5
-48.4329760074615 -163.763776421547 2132.99989700317 8 10 5
-42.4723774194717 -163.228064775467 2125.99992752075 8 10 7
-36.6705544292927 -163.229554891586 2125.99992752075 8 10 7
-30.8540649712086 -163.154050707817 2125 8 10 7
-25.0193290412426 -162.924766540527 2121.99997901917 8 10 7
-19.2552320659161 -163.155943155289 2125 7 9 6
-13.4240267798305 -162.772670388222 2119.99988555908 6 8 5
-7.60925142094493 -162.158831954002 2111.99998855591 7 9 6
20.3877966850996 -155.861660838127 2029.99997138977 15 18 11
25.6086532026529 -153.941318392754 2005.00011444092 18 21 14
30.8014564216137 -152.558222413063 1986.99998855591 16 19 12
35.8958914875984 -151.174962520599 1968.99998188019 21 24 15
41.0386510193348 -150.32896399498 1957.99994468689 18 21 12
46.3817864656448 -150.327309966087 1957.99994468689 19 22 13
51.72473564744 -150.325462222099 1957.99994468689 19 22 13
56.7760206758976 -149.555668234825 1947.99995422363 21 24 15
62.0275028049946 -149.399891495705 1945.99997997284 22 25 16
67.4062296748161 -149.55098927021 1947.99995422363 23 26 15
73.0569139122963 -150.239303708076 1957.00001716614 19 25 13
78.3558264374733 -150.159671902657 1955.9999704361 21 27 17
83.7345495820045 -150.233402848244 1957.00001716614 22 28 18
88.3446484804153 -149.001941084862 1940.99998474121 24 30 20
93.2047888636589 -148.307651281357 1932.000041008 25 28 19
98.0664566159248 -147.689983248711 1924.00002479553 27 30 21
103.474751114845 -147.91651070118 1927.00004577637 27 30 21
108.955450356007 -148.219600319862 1930.99999427795 31 34 27
114.161759614944 -148.138701915741 1929.99994754791 32 35 28
120.352230966091 -149.285688996315 1945.00005245209 31 34 27
126.753225922585 -150.585904717445 1962.00001239777 27 28 22
133.313775062561 -151.962637901306 1980.00001907349 29 30 24
138.290584087372 -151.497140526772 1973.99997711182 28 29 23
143.306955695152 -151.108250021935 1968.99998188019 22 25 16
149.428099393845 -151.87032520771 1978.99997234344 20 23 14
153.412699699402 -150.483474135399 1960.99996566772 18 21 12
158.674895763397 -150.401085615158 1960.00003814697 17 20 11
168.449804186821 -154.462024569511 2013.00001144409 19 22 15
174.883857369423 -155.299872159958 2023.9999294281 16 21 15
179.95111644268 -154.909819364548 2019.00005340576 15 20 16
-179.867550730705 -172.821149230003 2174.99995231628 39 44 40
-173.941925168037 -172.827765345573 2174.99995231628 16 19 12
-168.015658855438 -172.834187746048 2174.99995231628 17 20 13
-161.343544721603 -172.04575240612 2164.99996185303 11 14 7
-154.366314411163 -170.859709382057 2150.00009536743 17 20 13
-147.263005375862 -169.434934854507 2131.99996948242 18 21 14
-141.517877578735 -169.519901275635 2132.99989700317 18 21 14
-134.748846292496 -168.333038687706 2118.00003051758 19 22 15
-129.096254706383 -168.497025966644 2119.99988555908 19 22 15
-124.421112239361 -170.011982321739 2138.99993896484 19 22 15
-117.590576410294 -168.585956096649 2121.00005149841 19 22 15
-112.22830414772 -169.226244091988 2128.99994850159 19 22 15
-107.171855866909 -170.422777533531 2144.00005340576 16 19 10
-101.418800652027 -170.585751533508 2145.99990844727 14 17 8
-95.1200649142265 -169.794663786888 2135.99991798401 12 15 6
-88.6664837598801 -168.605834245682 2121.00005149841 11 14 5
-82.3725238442421 -167.575687170029 2108.00004005432 11 14 7
-76.80344581604 -167.976275086403 2112.99991607666 10 13 6
-70.870578289032 -167.581647634506 2108.00004005432 9 12 5
-64.7484809160233 -166.630297899246 2095.99995613098 9 12 5
-59.6491359174252 -168.381720781326 2118.00003051758 9 11 6
-54.2260184884071 -169.496953487396 2131.99996948242 9 11 6
-48.8171130418777 -170.929998159409 2150.00009536743 8 10 5
-42.7703969180584 -170.216262340546 2141.00003242493 9 11 8
-36.9623601436615 -170.376822352409 2142.99988746643 9 11 8
-31.3465259969234 -171.650215983391 2158.99991989136 8 10 7
-25.5017578601837 -171.969369053841 2163.00010681152 8 10 7
-19.517257809639 -171.254694461823 2154.00004386902 8 10 7
-13.5374842211604 -169.983237981796 2138.00001144409 5 7 4
-7.66299897804856 -169.109106063843 2127.00009346008 7 9 6
20.4070974141359 -161.554768681526 2032.00006484985 18 21 14
25.8247908204794 -160.758808255196 2022.0000743866 18 21 14
30.8777745813131 -158.372536301613 1991.99998378754 16 19 12
35.9309688210487 -156.701669096947 1970.99995613098 18 21 12
41.0370789468288 -155.666619539261 1957.99994468689 19 22 13
46.2615713477135 -155.267402529716 1952.99994945526 19 22 13
51.6170896589756 -155.345007777214 1953.9999961853 20 23 14
57.1235865354538 -155.819892883301 1960.00003814697 21 24 15
62.4713413417339 -155.817553400993 1960.00003814697 22 25 16
67.784272134304 -155.735537409782 1958.99999141693 23 26 15
73.1287822127342 -155.732780694962 1958.99999141693 18 24 12
78.4329548478127 -155.650362372398 1957.99994468689 21 27 17
83.3462849259377 -154.852285981178 1947.99995422363 23 29 19
88.3412733674049 -154.29250895977 1940.99998474121 24 30 20
93.4424549341202 -153.971046209335 1937.00003623962 25 28 19
98.4704941511154 -153.569936752319 1932.000041008 26 29 20
103.578232228756 -153.327569365501 1929.00002002716 27 30 21
108.894906938076 -153.402984142303 1929.99994754791 31 34 27
113.920874893665 -153.080776333809 1925.99999904633 32 35 28
119.790822267532 -153.871104121208 1935.99998950958 31 34 27
126.037865877151 -155.058592557907 1950.99997520447 27 28 22
132.702827453613 -156.6431671381 1970.99995613098 29 30 24
137.654960155487 -156.161203980446 1965.0000333786 25 28 19
143.738284707069 -156.950578093529 1975.00002384186 22 25 16
149.573549628258 -157.421827316284 1980.99994659424 20 23 14
154.736921191216 -157.177716493607 1978.00004482269 17 20 11
159.39761698246 -156.456649303436 1968.99998188019 17 20 11
170.033484697342 -161.456376314163 2032.00006484985 18 21 14
175.136625766754 -161.052629351616 2026.99995040894 16 21 15
179.766282439232 -160.251513123512 2016.99995994568 13 18 14
-180.026099085808 -178.911000490189 2177.00004577637 4 9 5
-176.734268665314 -181.629970669746 2210.00003814697 16 19 12
-168.85894536972 -179.664194583893 2186.00010871887 14 17 10
-162.380650639534 -179.095298051834 2178.99990081787 14 17 10
-156.586021184921 -179.265901446342 2180.99999427795 16 19 12
-149.812906980515 -178.285524249077 2168.99991035461 19 22 15
-141.976833343506 -175.907507538795 2140.00010490417 18 21 14
-136.588558554649 -176.488369703293 2147.0000743866 19 22 15
-129.882842302322 -175.34276843071 2132.99989700317 19 22 15
-123.485632240772 -174.525707960129 2122.99990653992 20 23 16
-116.865284740925 -173.297345638275 2108.00004005432 19 22 15
-111.538663506508 -173.95955324173 2115.9999370575 16 19 10
-107.01771825552 -176.019191741943 2141.00003242493 15 18 9
-101.934663951397 -177.338778972626 2157.00006484985 13 16 7
-96.051461994648 -177.342727780342 2157.00006484985 11 14 5
-88.9138206839561 -174.879878759384 2127.00009346008 11 14 5
-82.7209651470184 -174.061104655266 2117.00010299683 11 14 7
-76.4733031392097 -172.995418310165 2104.00009155273 9 12 5
-70.8005428314209 -173.162803053856 2105.99994659424 10 13 6
-64.9003684520721 -172.754406929016 2101.0000705719 10 13 6
-59.1680258512497 -172.756895422935 2101.0000705719 10 12 7
-54.1221424937248 -174.97929930687 2128.00002098084 9 11 6
-48.8605909049511 -176.954820752144 2151.99995040894 9 11 6
-43.6276718974113 -179.587975144386 2184.00001525879 9 11 8
-37.2713431715965 -177.698358893394 2161.00001335144 8 10 7
-31.5775722265244 -178.850948810577 2174.99995231628 8 10 7
-25.7601086050272 -179.674401879311 2184.99994277954 8 10 7
-19.6252074092627 -178.11293900013 2165.99988937378 8 10 7
-13.568602502346 -176.222279667854 2142.99988746643 10 12 9
-7.70232314243913 -175.811573863029 2138.00001144409 7 9 6
15.1974344626069 -170.877039432526 2078.00006866455 9 11 6
20.4866230487823 -167.751505970955 2039.99996185303 13 16 9
26.0408744215965 -167.668357491493 2039.00003433228 16 19 12
31.0315545648336 -164.62467610836 2002.00009346008 17 20 13
35.8748622238636 -161.82753443718 1968.00005435944 21 24 15
40.8468320965767 -160.263612866402 1949.00000095367 19 22 13
45.975498855114 -159.604042768478 1940.99998474121 20 23 14
51.350899040699 -159.848779439926 1944.00000572205 20 23 14
57.0338927209377 -160.915538668633 1957.00001716614 21 24 15
62.7238601446152 -161.817625164986 1968.00005435944 22 25 16
68.023793399334 -161.650538444519 1965.99996089935 22 25 14
73.5738426446915 -162.05883026123 1970.99995613098 19 25 13
78.2696530222893 -160.658031702042 1953.9999961853 22 28 18
83.2574516534805 -159.997045993805 1945.99997997284 24 30 20
88.2923007011414 -159.500315785408 1940.00005722046 25 31 21
93.6317518353462 -159.578934311867 1940.99998474121 26 29 20
99.0272536873817 -159.739509224892 1942.999958992 26 29 20
103.788956999779 -158.913359045982 1932.99996852875 26 29 20
109.003514051437 -158.82696211338 1932.000041008 30 33 26
113.857284188271 -158.247083425522 1924.99995231628 31 34 27
119.848057627678 -159.228965640068 1937.00003623962 30 33 26
125.968381762505 -160.292759537697 1950.00004768372 26 27 21
132.159113883972 -161.356285214424 1963.00005912781 28 29 21
137.789741158485 -161.679789423943 1967.00000762939 24 27 18
143.077775835991 -161.592096090317 1965.99996089935 22 25 16
149.718835949898 -162.983670830727 1983.00004005432 20 23 14
155.904397368431 -163.799628615379 1993.00003051758 17 20 13
159.391552209854 -161.82105243206 1968.99998188019 16 19 12
169.441297650337 -166.416957974434 2025.00009536743 16 18 13
177.030771970749 -168.382585048676 2049.00002479553 14 19 15
185.819804668427 -171.333968639374 2085.00003814697 12 17 13
-184.153616428375 -189.086601138115 2226.99999809265 2 7 3
-176.887229084969 -187.82015144825 2211.99989318848 12 15 8
-169.470220804214 -186.298683285713 2194.00000572205 11 14 7
-163.268432021141 -186.050608754158 2190.99998474121 19 22 15
-156.220853328705 -184.783264994621 2176.00011825562 17 20 13
-149.599775671959 -183.940201997757 2165.99988937378 18 21 14
-143.430680036545 -183.606430888176 2161.99994087219 19 22 15
-137.919038534164 -184.121683239937 2167.99998283386 18 21 14
-131.521686911583 -183.447733521461 2160.00008583069 19 22 15
-123.771496117115 -180.735141038895 2128.00002098084 19 22 15
-117.359533905983 -179.805800318718 2117.00010299683 18 21 14
-111.850440502167 -180.235132575035 2121.99997901917 17 20 13
-106.663517653942 -181.258857250214 2134.0000629425 15 18 9
-101.410731673241 -182.282373309135 2145.99990844727 14 17 8
-95.468707382679 -182.116538286209 2144.00005340576 12 15 6
-89.3700197339058 -181.610688567162 2138.00001144409 11 14 5
-82.9129666090012 -180.255085229874 2121.99997901917 11 14 7
-77.1971046924591 -180.428311228752 2124.00007247925 10 13 6
-71.4363902807236 -180.516302585602 2125 11 14 7
-65.299279987812 -179.584696888924 2114.00008201599 11 14 7
-59.4753809273243 -179.417371749878 2111.99998855591 10 12 7
-54.1453622281551 -180.863887071609 2128.99994850159 9 11 6
-49.0175187587738 -183.41463804245 2158.99991989136 8 10 5
-43.6258874833584 -185.540407896042 2184.00001525879 8 10 7
-37.6147553324699 -185.287222266197 2180.99999427795 8 10 7
-31.9247096776962 -186.817869544029 2198.99988174438 8 10 7
-25.7826372981071 -185.799598693848 2187.00003623962 7 9 6
-19.7059474885464 -184.781059622765 2174.99995231628 7 9 6
-13.6693483218551 -183.422416448593 2158.99991989136 8 10 7
-7.80647806823254 -184.102565050125 2167.00005531311 7 9 6
20.5962490290403 -174.246117472649 2051.00011825562 17 20 13
25.6439130753279 -170.592024922371 2007.99989700317 19 22 15
30.7667925953865 -168.63688826561 1985.00001430511 18 21 14
35.9280742704868 -167.446106672287 1970.99995613098 18 21 12
41.012816131115 -166.255161166191 1957.00001716614 20 23 14
46.0209995508194 -165.063992142677 1942.999958992 20 23 14
51.4544546604156 -165.486738085747 1947.99995422363 21 24 15
57.1772754192352 -166.673809289932 1962.00001239777 21 24 15
62.6256838440895 -166.926190257072 1965.0000333786 21 24 15
67.882627248764 -166.668638586998 1962.00001239777 22 25 14
73.3468979597092 -166.920587420464 1965.0000333786 20 26 14
78.9073407649994 -167.342185974121 1970.00002861023 21 27 17
83.596333861351 -165.979728102684 1953.9999961853 22 28 18
88.5617956519127 -165.296643972397 1945.99997997284 24 30 20
93.9173996448517 -165.377855300903 1947.00002670288 26 29 20
99.3290543556213 -165.543764829636 1949.00000095367 26 29 20
103.94586622715 -164.43544626236 1935.99998950958 26 29 20
108.829878270626 -163.836568593979 1929.00002002716 30 33 26
113.852731883526 -163.492292165756 1924.99995231628 31 34 27
120.152615010738 -164.93134200573 1942.00003147125 30 33 26
126.286342740059 -166.030421853065 1955.00004291534 26 27 21
132.759749889374 -167.468905448914 1972.00000286102 27 28 20
137.293949723244 -166.444391012192 1960.00003814697 23 26 17
143.581539392471 -167.542695999146 1973.00004959106 21 24 15
148.353949189186 -166.85751080513 1965.0000333786 20 23 14
153.316885232925 -166.426882147789 1960.00003814697 17 20 13
160.923287272453 -168.798103928566 1988.00003528595 17 20 13
166.589826345444 -169.046312570572 1991.00005626678 21 23 18
177.71503329277 -174.643129110336 2056.99992179871 12 17 13
185.634329915047 -176.843330264091 2082.99994468689 12 16 15
-184.228867292404 -195.23997604847 2227.9999256134 5 10 6
-177.359879016876 -194.371089339256 2217.99993515015 14 16 11
-168.845444917679 -191.57387316227 2186.00010871887 15 18 11
-160.579264163971 -188.863858580589 2154.99997138977 12 15 8
-153.701856732368 -187.64340877533 2141.00003242493 16 19 12
-148.419559001923 -188.350781798363 2148.9999294281 21 24 17
-143.225803971291 -189.233332872391 2158.99991989136 20 23 16
-138.167813420296 -190.378621220589 2171.99993133545 18 21 14
-131.577134132385 -189.420089125633 2161.00001335144 18 21 14
-123.824536800385 -186.620458960533 2128.99994850159 18 21 14
-117.964439094067 -186.537861824036 2128.00002098084 16 19 12
-112.478293478489 -187.068685889244 2134.0000629425 14 17 10
-107.058934867382 -187.77459859848 2141.99995994568 14 17 8
-101.170256733894 -187.691301107407 2141.00003242493 15 18 9
-95.1085165143013 -187.257125973701 2135.99991798401 14 17 8
-89.0318900346756 -186.735019087791 2130.00011444092 13 16 7
-83.7299898266792 -187.878355383873 2142.99988746643 11 14 7
-78.3205181360245 -188.933849334717 2154.99997138977 11 14 7
-72.0720961689949 -187.97267973423 2144.00005340576 11 14 7
-65.9143030643463 -187.0988458395 2134.0000629425 12 15 8
-60.0923895835876 -187.101513147354 2134.0000629425 11 13 8
-54.7025799751282 -188.594505190849 2151.00002288818 8 10 5
-48.9927567541599 -189.210444688797 2157.99999237061 7 9 4
-43.5841046273708 -191.316708922386 2181.99992179871 7 9 6
-37.8028675913811 -192.195236682892 2191.99991226196 7 9 6
-31.5894708037376 -190.793856978416 2176.00011825562 6 8 5
-25.5929324775934 -190.356656908989 2171.0000038147 6 8 5
-19.4786228239536 -188.516333699226 2150.00009536743 6 8 5
-13.6624407023191 -189.218461513519 2157.99999237061 6 8 5
-7.86018185317516 -191.323295235634 2181.99992179871 6 8 5
20.1334655284882 -175.802126526833 2005.00011444092 15 18 11
25.5917515605688 -175.713449716568 2003.99994850159 17 20 13
30.7499933987856 -173.958629369736 1983.99996757507 18 21 14
36.0723808407784 -173.518806695938 1978.99997234344 20 23 14
41.493084281683 -173.60483109951 1980.00001907349 22 25 16
46.4216992259026 -171.849384903908 1960.00003814697 20 23 14
51.5315309166908 -171.058177947998 1950.99997520447 21 24 15
56.8543262779713 -171.055883169174 1950.99997520447 21 24 15
62.3362399637699 -171.491727232933 1955.9999704361 21 24 15
67.4300268292427 -170.875266194344 1949.00000095367 21 24 13
72.858601808548 -171.135306358337 1952.00002193451 19 25 13
78.2632082700729 -171.307444572449 1953.9999961853 18 24 14
83.6784094572067 -171.479344367981 1955.9999704361 18 24 14
88.6946320533752 -170.862033963203 1949.00000095367 21 27 17
93.9617231488228 -170.770511031151 1947.99995422363 24 27 18
99.4268655776978 -171.029418706894 1950.99997520447 25 28 19
104.263693094254 -170.236200094223 1942.00003147125 26 29 20
108.938194811344 -169.26746070385 1930.99999427795 29 32 25
113.966330885887 -168.912187218666 1927.00004577637 31 34 27
120.209529995918 -170.309737324715 1942.999958992 30 33 26
127.25006043911 -172.67119884491 1970.00002861023 26 27 21
132.619678974152 -172.665774822235 1970.00002861023 26 27 19
138.198927044868 -172.923102974892 1973.00004959106 23 26 17
143.648445606232 -173.004910349846 1973.99997711182 21 24 15
147.970452904701 -171.771928668022 1960.00003814697 20 23 14
152.763143181801 -171.152263879776 1952.99994945526 18 21 14
159.540742635727 -172.723278403282 1970.99995613098 18 21 14
166.583120822906 -174.469217658043 1991.00005626678 21 23 18
173.647463321686 -176.127165555954 2009.99999046326 12 17 13
189.369738101959 -186.196535825729 2125 14 18 17
-182.650223374367 -199.591055512428 2209.00011062622 1 6 2
-176.39297246933 -199.327558279037 2206.00008964539 12 15 8
-168.529435992241 -197.166234254837 2181.99992179871 16 19 12
-160.274490714073 -194.371953606606 2151.00002288818 12 15 6
-154.843986034393 -194.920852780342 2157.00006484985 16 19 10
-149.311110377312 -195.37915289402 2161.99994087219 16 19 10
-144.878163933754 -197.373628616333 2184.00001525879 18 21 12
-138.225600123405 -196.385577321053 2173.00009727478 17 20 11
-131.693333387375 -195.487588644028 2163.00010681152 16 19 12
-125.738516449928 -195.40274143219 2161.99994087219 16 19 12
-119.73325163126 -195.22725045681 2160.00008583069 16 18 13
-112.947843968868 -193.695738911629 2142.99988746643 16 19 12
-106.804467737675 -193.158194422722 2137.00008392334 16 19 12
-100.646160542965 -192.52997636795 2130.00011444092 15 18 11
-94.4365784525871 -191.720679402351 2121.00005149841 14 17 10
-88.7354910373688 -191.905438899994 2122.99990653992 13 16 9
-83.8045477867126 -193.897888064384 2144.99998092651 12 15 8
-78.8259357213974 -196.070909500122 2168.99991035461 12 14 9
-72.8084966540337 -195.803016424179 2165.99988937378 11 13 8
-66.4056390523911 -194.359704852104 2150.00009536743 9 11 6
-60.1742714643478 -193.187266588211 2137.00008392334 8 10 5
