ply
format ascii 1.0
comment KinectMotionCapture
element vertex 785
property float x
property float y
property float z
property uchar red
property uchar green
property uchar blue
end_header
-40.2214736076591 390.788851850668 1855.70558601297 22 25 18
-69.620448075832 388.379173474441 1865.25970806592 17 19 14
-82.8340480644494 387.296854815606 1868.02665500766 28 30 25
-141.604788274337 382.464906720276 1905.68099239146 86 88 83
-148.489695332575 381.905261255882 1899.45210498994 125 127 124
-154.828676526996 381.390613842143 1892.38386771551 131 135 134
-166.652029552596 380.421753481499 1893.68913578033 127 131 132
-178.439268859326 379.455644080967 1895.02030290779 145 149 150
-189.647394319766 378.537246622123 1895.53648706253 151 155 158
-198.660207029077 377.800380489708 1892.70457877899 149 150 154
-207.12045732459 377.109060400885 1889.03842885197 154 155 159
-216.64415520751 376.329456979886 1887.07098915966 166 167 169
-223.478101129408 375.772431404537 1880.87905784369 166 168 167
-229.783693479328 375.258965392278 1873.83503083923 182 184 181
341.448152704836 411.771048516208 1869.41037929696 189 192 185
328.867595716699 410.769264607847 1868.93123617932 154 156 151
318.854175392166 409.968096239666 1865.37364037798 125 126 121
312.013315441327 409.414802825731 1857.94167920981 174 175 170
300.124787537418 408.466701472016 1856.72914355047 82 83 77
257.510740154908 405.116589997858 1893.75236291432 54 55 49
206.662237930954 401.104438544545 1926.03793349783 46 49 42
149.756108649364 396.638371030646 1982.33780558749 52 54 49
108.906001406376 393.389357093579 1988.52694670644 39 41 36
82.3170389418162 391.292910336583 2007.53020726156 40 42 37
22.0625158741496 386.466886227251 1994.7042443772 27 30 23
20.5348223461863 386.326512847762 1981.24482599429 26 29 22
-16.758503755919 383.351894102138 1985.07330253965 24 27 20
-15.9913401058218 383.389605215009 1968.33764166201 31 34 27
-49.8274390458431 380.728391310087 1999.37642286147 33 36 29
-68.3001093869024 379.265534259053 2009.44524306248 25 28 21
-94.2415070975033 377.220491718507 2030.15352860617 23 26 19
-62.7410105480002 379.653266150065 1970.2475951171 30 33 26
-41.9159511218097 381.252895424627 1924.83101557548 21 24 17
-36.6144414836223 381.541587984457 1834.80609854611 20 23 16
-60.6517531678412 379.643948654228 1853.19003894723 33 35 30
-132.22697030424 373.967956898778 1892.67437006927 121 123 118
-140.251625067235 373.316923748261 1888.08886559491 89 91 88
-148.821307936082 372.623359605681 1884.34307981647 126 130 129
-161.76358516359 371.589622050088 1887.30696049092 121 125 126
-175.206638604024 370.51691888574 1891.14295153925 138 142 143
-186.427058113216 369.617001955593 1891.6503170832 145 149 152
-196.533674147458 368.803552621925 1890.49517277588 148 149 153
-206.617636166346 367.991784579031 1889.35675384085 155 156 160
-216.142125631114 367.223393676192 1887.38879710757 165 166 168
-221.372759207189 366.788389643853 1878.65435482603 161 163 162
-228.217136561404 366.227830534467 1872.45484364411 176 178 175
341.370488851146 401.681947249605 1870.53830693128 186 189 180
330.064161059789 400.793263736128 1868.51308489216 169 172 165
321.95111002871 400.140377421798 1862.62845406075 191 192 186
321.423341474179 400.047389238513 1847.42377491047 123 124 118
308.872526872934 399.066396376736 1846.9665924716 98 99 93
129.291310533384 385.657655347016 2024.26262482453 37 40 33
82.2239777074922 381.926059312419 2008.65063134592 34 37 30
48.4495309430222 379.386774457443 2037.26435538241 18 21 14
38.4857016993303 378.436963198767 1989.27739840994 18 21 14
7.92369500719126 376.081060951955 1999.2237225993 21 24 17
-15.5935303840082 374.298935706514 2015.51490201962 19 22 15
-15.3012202159402 374.264502518059 1999.6699754001 19 22 15
-30.9974321861659 373.056777621466 2005.5770297213 18 21 14
-33.6998585448278 372.801999319329 1993.73581069131 18 21 14
-44.6360647533604 371.943334355933 1993.21438084246 23 26 19
-60.795915138173 370.702046756607 2000.02020040989 22 25 18
-62.9414949217566 370.487311246593 1987.34752306428 19 22 15
-48.3378817367022 371.498091926578 1951.00448256528 18 21 14
-47.1671639142999 371.524499764206 1933.3262728369 16 19 12
-73.0669640028629 369.510610193244 1938.0082170928 19 22 13
-27.8166876449717 372.694328548994 1839.90392831468 13 16 9
-86.2872470699876 368.237659863599 1875.3077007614 30 33 26
-138.084637154151 364.208993655007 1885.90822355279 132 134 129
-148.311739686759 363.400420805991 1884.66576071185 126 131 127
-160.160006103109 362.473946773496 1885.95318322314 122 126 125
-175.246183927003 361.312206176676 1892.30269723534 107 111 112
-184.291839622541 360.589810935108 1889.4470536681 153 157 158
-193.864800420164 359.82905374198 1887.44399769746 157 158 160
-201.802510851883 359.187016084298 1882.92186106528 155 156 158
-210.808569845427 358.467355244241 1880.09464136561 154 156 155
-217.127934802686 357.942463111493 1873.04086690563 163 163 161
-223.455373248362 357.416772154184 1865.98094127838 173 174 169
345.765161024828 391.909086178417 1866.26378837969 172 175 166
333.171099858284 390.944100795788 1865.77504218671 153 156 149
325.683544440961 390.334304793494 1859.10902810618 111 112 106
326.411085536856 390.295126977505 1842.34425453583 83 84 78
316.364077542973 389.506815833338 1838.76237544056 75 76 70
149.276431543552 377.733315986244 2015.24266439038 24 25 17
137.91808116184 376.859861908895 2014.41513831161 27 30 23
172.556951399272 379.173653606377 1955.54893406195 27 30 23
75.5376584848575 372.195342537569 2033.39722828942 23 26 19
108.462235633167 374.38428586081 1975.75773727139 24 27 20
122.974170842847 375.207151916619 1925.76070479764 30 33 26
70.6660527563714 371.416794596589 1963.16506422371 25 28 21
40.205113628109 369.226983394645 1988.00681871235 26 29 22
23.6906534280381 367.999456656541 1994.55593823545 30 33 26
12.6141129850814 367.146778633417 1993.93280743022 30 33 26
8.10492381575623 366.745921612698 1984.48619745064 30 33 26
-15.9758938233594 364.99949248443 2001.60432873688 29 32 25
-31.6699389262274 363.830440549173 2007.51314975265 28 31 24
-26.7231872256437 364.078680510559 1985.16258246132 27 30 23
-24.7985695103103 364.118338801733 1966.79621581833 22 25 18
-42.7846362786104 362.792205103595 1975.98314675839 22 25 18
-54.8778830329897 361.870536723366 1977.09300213608 22 25 18
-63.4608769017566 361.189418747508 1973.33762997202 22 25 18
-72.5549850940026 360.37871986659 1954.38976079286 22 25 16
-84.576820097281 359.462164516686 1955.55140997144 23 26 17
-44.6731432051575 362.089810124171 1881.97604985411 19 22 13
-58.5294616635177 361.046127383177 1885.5126032656 16 19 12
-46.3107266457006 361.77987626158 1851.14442035425 17 20 13
-87.7853585829291 358.855094121151 1895.17125829067 23 26 19
-137.573992389564 354.971669125829 1886.2316119705 138 140 135
-146.151338824082 354.28883836425 1882.48061955347 113 118 114
-156.363364020254 353.495287768941 1881.24916268616 122 127 123
-170.373565969841 352.444875967109 1885.90916521601 115 117 116
-182.155476127788 351.54569315337 1887.24453455351 158 160 159
-193.360033652406 350.685872296816 1887.7636018831 161 161 161
-201.298017876509 350.046807117634 1883.24128182918 152 152 152
-207.619984681648 349.516638027454 1876.1853000283 159 159 159
-213.415439291337 349.021689848071 1868.27613992588 171 170 168
-222.418682514573 348.310422505962 1865.45129842994 166 165 161
352.078802752678 382.227995277103 1859.67543228014 171 174 165
336.916033283921 381.11402011395 1862.26426095115 148 151 144
325.609304428629 380.25204235752 1860.23917791917 136 137 132
321.913667573042 379.885984399722 1848.9124323796 141 142 137
272.80825307832 376.563804053971 1893.58101791388 82 83 77
156.685183074508 368.768591154756 2006.98173203488 37 38 30
155.070930322993 368.422501619567 1978.63690557218 26 28 23
132.518877385221 366.838847375125 1991.92365450894 20 22 17
94.6490911482516 364.264909527232 2024.97921276794 20 22 17
85.273928944086 363.537686820064 2021.88467844851 23 25 20
85.099450130151 363.405173756563 2006.93590636946 21 23 18
100.128694872426 364.253402048806 1972.13562853902 16 18 13
39.4206979487173 360.090910328233 2020.74024783944 20 22 17
63.9454181403707 361.547496768346 1973.06446580739 17 19 14
37.1136150011182 359.695987268204 1993.12825773666 17 19 14
-6.35415466840383 356.777424696647 2035.71025909861 27 30 23
9.54592326388726 357.675298275624 1999.07115055986 28 31 24
5.0505334114832 357.2617164147 1989.6347740228 30 33 26
-13.0957084060384 355.972784088037 1998.70577908365 31 34 27
-23.4879915471926 355.181488703152 1997.34395528524 31 34 27
-24.4482943097468 354.993669036479 1983.06057362289 30 33 26
-0.849616091004535 356.374075322451 1934.71280365745 27 30 23
-25.3478372612446 354.680238157718 1952.763653234 27 30 23
-50.2987781015716 352.959600128146 1971.72121753774 25 28 21
-53.1054708272558 352.65167177775 1959.80414437766 24 27 20
-59.4095896367925 352.120424398068 1952.76109550794 23 26 19
-76.6439139671074 350.894099459272 1961.25874398313 24 27 18
-84.6411250824208 350.255460934814 1956.69319677587 24 27 18
-75.522703864253 350.702377010064 1927.48688609172 24 27 18
-61.987595142724 351.426673514487 1891.60284943446 24 27 18
-75.215115843146 350.454119111722 1894.36026093273 27 30 23
-82.1970665593725 349.877050127938 1888.06064178194 28 31 24
-108.274215032361 348.093939647709 1909.90717654465 41 44 37
-148.943302299263 344.849369103146 1887.81936712632 105 107 102
-156.950308203364 344.208289559068 1883.24700158042 108 110 105
-169.319967319725 343.29389788855 1885.39125874812 167 169 166
-179.474306493979 342.518697260452 1884.20200713241 138 138 136
-189.064277382802 341.779048138678 1882.18672710018 154 153 151
-197.017959333082 341.141710504923 1877.65274170288 168 167 165
-204.429509664194 340.538095978026 1872.27689327096 176 172 169
-212.910248082462 339.867811304567 1868.59599761504 181 177 174
-221.381445846538 339.198157638937 1864.92202137913 157 154 149
-237.269460974667 338.068108881283 1873.16079467827 150 145 139
352.002243063113 372.107144584188 1860.80370505247 170 173 164
334.928617585392 370.906704510838 1865.71257430272 172 175 168
324.2647879365 370.097431367751 1862.91847847864 159 160 155
313.617985571141 369.289395732963 1860.13673236401 139 140 135
255.707785081468 365.611536079692 1915.7127242352 66 67 61
223.27471040749 363.485794810533 1940.36049121236 27 28 22
112.606987086166 356.167277061369 2018.19420021667 29 31 26
130.342165527065 357.081983004843 1980.41511272342 30 32 27
110.386989530567 355.723075049146 1990.64479608842 36 38 33
66.6260691297968 352.934049881029 2031.77990573243 33 35 30
70.1310380316018 352.98958111969 2012.08888205507 25 27 22
51.6596184882636 351.724841570427 2020.92428138403 26 28 23
50.2360380514144 351.483085912119 2007.53982328151 27 29 24
71.1082128870317 352.574489270327 1964.62519217663 24 26 21
59.8880471287551 351.743363684248 1963.89805348256 23 25 20
-16.2156773571478 346.883618277653 2034.68708886623 21 24 17
-11.0938896725745 347.030829626176 2012.46289716531 23 26 19
-13.1780449240277 346.747520974212 1999.83469491444 24 27 20
-22.9784017980417 346.005107013177 1997.66688758724 25 28 21
-10.407008459151 346.589266325912 1964.78892762452 25 28 21
-16.1539487744899 346.085478104921 1956.91489179287 25 28 21
-24.2494938894116 345.442405782916 1952.27803771268 25 28 21
-39.3199637094446 344.387518155139 1957.40444339426 24 27 20
-55.4913931847274 343.268850198147 1964.20249012456 24 27 20
-54.8582332022862 343.14077029316 1947.36914184129 23 26 19
-75.5604140557351 341.75703693279 1960.76258406267 27 30 21
-96.1604016113537 340.381447945653 1974.23014963942 26 29 20
-88.13221068995 340.685862081993 1946.70315368149 25 28 19
-76.2455011733161 341.213225069426 1913.32856411955 25 28 19
-63.9432118925591 341.761322882168 1879.02001111729 25 28 21
-71.53123489322 341.14528656316 1873.51617096227 25 28 21
-143.478719270259 335.919541475992 1880.61961002978 113 115 110
-153.699172103249 335.153230913739 1879.38218176483 109 111 106
-164.989224634467 334.325705822857 1879.839435524 159 161 158
-176.247699134721 333.500619417021 1880.31959322415 148 148 146
-186.932934244785 332.709057850829 1879.98043757251 164 163 161
-196.511964201925 331.981407416164 1877.97314963087 157 156 154
-203.923637302549 331.378044322759 1872.59721347427 156 152 149
-210.264655392426 330.835707825322 1865.52765383721 149 146 141
-217.146677449571 330.262204005782 1859.30078763925 157 154 147
-247.9097595102 328.329617129285 1891.33562388933 148 144 135
346.809679317573 361.701253841197 1868.1030099843 127 130 123
336.125979869229 360.901221993195 1865.29455692754 162 163 158
325.459247522509 360.102422778085 1862.49840992837 155 156 151
314.809366417332 359.304857168288 1859.7147794793 140 141 136
301.654488244585 358.36637271909 1860.05465593176 25 26 21
201.194853141522 352.515172598365 1968.76332100686 27 28 22
196.136916624795 351.46210027752 1913.21601423761 28 30 25
110.499413922538 346.484166453581 2006.73615212365 25 27 22
104.145020726681 345.940141517267 1999.65688803455 32 34 29
74.4942553249515 344.099078271008 2022.61764796628 26 28 23
72.4799367535227 343.797616368212 2010.03968538833 30 32 27
75.292356757553 343.762774688488 1991.0811971078 31 33 28
56.8133463724867 342.546686439994 1999.91134010202 33 35 30
63.1756900039497 342.705979653079 1976.1164418204 29 31 26
37.5440949191526 341.096587564145 1994.58114881905 28 30 25
36.625264939532 340.852182204837 1980.32754504444 26 28 23
2.20904453895709 338.763866350376 2010.94868565831 25 27 22
-11.7750550925311 337.80248420829 2014.39273016215 23 25 20
-10.2962057156595 337.689790153714 1996.93718699495 23 25 20
-14.1999234606454 337.280719702464 1986.69471241745 24 26 21
-22.2491020995295 336.644428112755 1982.091504731 24 26 21
-21.5009491762042 336.487681787909 1965.34137208358 27 29 24
-24.9027768179673 336.103358539211 1954.227522596 27 29 24
-44.6249454524938 334.831682982814 1965.86159644883 24 26 21
-54.4016347315064 334.101514572975 1963.71100829246 23 26 19
-61.8512114485323 333.49760504012 1958.3075922276 21 23 18
-85.9788356851179 331.992940415725 1976.62805362651 19 22 15
-83.0518561861848 331.949790435244 1956.51753325627 18 21 12
-99.0365796902481 330.887067705856 1963.45121050322 17 20 11
-53.5617119127896 333.125467335534 1881.56159870013 17 20 11
-45.304355686294 333.358362977702 1852.96503620099 17 20 11
-95.4538414643942 330.256311640045 1893.17275728959 27 30 23
-52.0528915428486 332.357099084084 1812.2490943987 16 19 12
-147.923819967602 326.416648223485 1888.46504626019 136 137 131
-153.737297651553 325.897014565932 1880.5426958098 135 136 130
-165.572677587719 325.060326451538 1881.83991478897 111 110 106
-175.195721290224 324.340596161114 1879.8007604611 115 114 109
-183.174908846371 323.707301093941 1875.24830598219 107 102 98
-192.228370654049 323.017939110094 1872.38717091762 125 118 112
-200.193192722809 322.385571722747 1867.84542946299 153 144 139
-207.617643851639 321.781307890137 1862.46022567863 127 118 111
-213.442471711138 321.259880988486 1854.52963816062 120 111 104
349.289105928033 351.746434808845 1866.14457176224 129 130 124
339.235380865283 350.989833699416 1862.55798393797 185 184 179
331.099616278923 350.333598802466 1856.65687060438 167 166 162
320.431468724033 349.545267062978 1853.85975071044 166 165 161
267.522635808139 346.560451661854 1903.18396908846 35 36 31
121.914459420672 338.338232513434 2038.43736426996 29 32 25
102.206025268802 336.43792142228 2003.14357922264 28 31 24
87.2698380725803 335.448904554629 2007.13262626314 24 27 20
77.8834938036042 334.744760226905 2004.02980824581 26 29 22
20.2009842011872 331.135968374754 2033.83367186705 27 30 23
17.9534246292685 330.571587195083 2006.26397319082 25 27 22
8.69397029644237 329.877008331922 2003.25348332415 27 29 24
-0.552325503587303 329.18339090499 2000.25253722859 32 34 29
-10.9713754923697 328.43121466081 1998.87121324024 32 35 28
-17.2328276078522 327.887726071737 1991.85903236345 29 32 25
-24.6804187909391 327.284612167311 1986.45705968453 27 30 23
-38.5780161333034 326.359992985711 1989.96429223248 25 28 21
-37.2391705478119 326.194158795962 1972.40698816382 24 27 20
-35.3849804137358 326.051662887028 1953.98834994022 23 26 17
-48.0942116489562 325.186401357206 1955.88698736301 22 25 16
-72.8904172510245 323.725832169887 1974.95803984312 21 24 17
-63.6130386431779 323.946620433765 1945.86581538113 20 23 16
-30.9695303672957 325.310499147695 1883.07795143045 20 23 16
-55.1479182152874 323.881345674342 1901.36199568297 17 20 13
-34.8461873434955 324.629118015599 1855.56172928057 16 19 12
-84.8241436599699 321.45486458399 1878.60173930181 16 19 12
-171.42210810351 315.303710737488 1875.07975085755 133 128 122
-179.956937707616 314.64668343617 1871.35971049786 126 116 107
-187.942458790369 314.015750453814 1866.80267667477 141 127 118
-195.385382736324 313.410370983824 1861.40407590012 126 107 100
-202.827662564593 312.804931674897 1856.00594175703 136 117 110
-212.401767856852 312.099867552376 1854.00233821418 133 116 108
347.44593973598 341.300948255184 1853.63929971197 168 165 160
338.012858628174 340.581398628786 1849.26778097971 177 172 168
327.321863678555 339.801932542374 1846.45414342802 179 176 171
150.645854536541 330.609441571694 2018.46706436419 40 42 37
124.930002652299 329.138294849737 2035.63635542164 38 41 34
113.64810462517 328.352338130231 2034.86469447765 35 38 31
74.5024259997655 326.255894168655 2069.46782297445 28 31 24
105.366738106106 327.453217155715 2015.27022010059 29 32 25
111.341776696368 327.47581069718 1992.42919482454 32 35 28
77.9790758933334 325.658125905774 2020.10972623593 29 32 25
72.2928530819251 325.135600819326 2012.27990538976 25 28 21
62.3323168564993 324.41398820397 2009.99608599524 25 28 21
40.2598028937771 323.131850225551 2023.63169573119 27 30 23
50.318851966876 323.337526353181 1995.10604432518 28 31 24
-2.96461716477858 320.62077114313 2050.335516316 29 32 25
2.27094322959509 320.603803284756 2028.19326375741 29 31 26
2.034868303042 320.332817630099 2013.19913795082 29 31 26
-7.78083586761458 319.622298670779 2011.02066107224 28 30 25
1.99551828493361 319.804573002688 1982.28995955061 27 30 23
-6.085141239901 319.171294752923 1977.66394596126 24 27 20
-12.3952529294851 318.618218405145 1970.61644215687 23 26 19
-11.0898445065339 318.408484962154 1953.03497089415 23 26 19
-40.8180150686706 316.799622096699 1978.41086757229 22 25 16
-36.6177127860659 316.719004411061 1956.75284854525 20 23 14
-49.3217443480207 315.878957796067 1958.65538304067 19 22 13
-77.5817557077601 314.346647806779 1982.62589415371 19 22 13
-42.3865060671642 315.640566860696 1916.74675214486 18 21 14
-20.1298749130689 316.349047546348 1868.65832576916 18 21 14
-27.7943837154444 315.727479674352 1863.09901140579 16 19 12
-60.4839289441272 314.004220970433 1893.73837368105 16 19 12
-100.446586947722 311.690720970893 1919.10231160134 15 18 11
-87.1170882045964 311.991027442051 1883.06707628969 12 15 8
-119.86193905949 310.283986831862 1914.90175959029 17 20 13
-172.400011833878 305.741362582188 1860.73612604307 71 57 46
-182.574262249592 305.020279542674 1859.53241998273 94 76 64
-190.575044175607 304.391010727257 1854.96462615503 119 95 85
-199.641652155143 303.717401640856 1852.09404094147 132 107 100
-210.827405651207 302.956202755966 1852.62723925239 130 107 99
-227.292030955233 301.977748613954 1861.68382001536 146 136 126
358.210388436267 331.657371973348 1841.6320677092 179 176 171
343.657978640665 330.718691285498 1843.42921040487 141 136 132
331.048874264853 329.865940740203 1842.93012756004 59 54 50
168.087190235676 321.928923245608 1997.71834748783 25 26 21
81.814585430017 317.655715995829 2075.96033290294 31 34 27
78.1123466282629 317.214452717601 2065.86345717112 31 34 27
81.795651894855 317.085899602387 2046.30048642991 34 37 30
96.2805451051092 317.119701334984 1997.51518497353 30 33 26
83.8089262765402 316.300793113922 1998.35097638323 29 32 25
59.1954916460584 314.974036469785 2015.08512796969 29 32 25
34.0995265112989 313.631854413711 2032.70414691531 28 31 24
13.9669609718518 312.501342154041 2044.0417247904 27 30 23
12.5951795683523 312.153002825792 2030.69427704531 26 29 22
3.37921499977911 311.478406539633 2027.71541505256 25 27 22
0.153860860884869 311.051107697917 2016.7292772935 25 27 22
8.80804215126174 311.110275220474 1989.65453841386 23 25 20
9.03581046140944 310.819793949603 1973.76152709012 22 25 18
10.9790905977922 310.596826339667 1955.40706450544 21 24 17
2.25147439378937 309.937548852389 1951.54725762758 21 24 17
-24.6536092544682 308.543119193365 1972.7952787807 20 23 16
-39.1391225723006 307.655120320376 1977.11154060956 20 23 14
-47.749034805604 307.005098961851 1973.33681225907 20 23 14
-36.6301613421054 307.144340264123 1941.87400377835 19 22 13
-61.4755923300681 305.845034664393 1960.91018855758 19 22 13
-82.1588631495269 304.716273959693 1974.31863055292 18 21 14
-50.1144946200287 305.360293393075 1896.27117372617 18 21 14
-37.7782725320672 305.526285420111 1861.98528389888 18 21 14
-87.366484608095 303.268944767423 1917.42578035692 19 22 15
-72.8406588452013 303.516957844433 1879.78715542102 19 22 15
-65.0283910923011 303.172355319557 1834.80835955897 11 14 7
-48.1494764217127 303.491711831776 1792.70042273521 21 24 17
-168.634977082973 296.623553733766 1856.00848785524 101 85 72
-178.823513946841 295.915333615663 1854.79478487399 127 108 94
-185.224108020307 295.347309849265 1847.68161274691 125 101 89
-195.38254526499 294.641371308482 1846.48974117861 135 108 97
-202.850933102611 294.034272506223 1841.07267237671 131 109 98
346.763071518805 320.712085385174 1840.68873759572 102 95 89
329.710136496463 319.704150683159 1845.61358087629 138 133 127
236.03830521133 315.384575484774 1929.60739286315 21 22 16
189.297026340146 313.245527697176 1972.29067367615 18 19 13
150.324372909712 311.417122128397 2005.78555286743 16 19 12
85.4362716246064 308.604134850746 2072.36415037299 17 20 13
93.5054189188706 308.595396342705 2047.33533164231 29 32 25
79.8378737097458 307.754795119001 2049.7744283525 36 39 32
64.9829090254443 306.871021357437 2053.82288840234 32 35 28
84.5328255253919 307.287775263749 2013.65171114369 28 31 24
89.2181295397463 307.1373671227 1992.34492672003 25 28 21
69.4546666277254 306.068076019053 2002.71505395779 24 27 20
32.7899647340817 304.3727634983 2035.41332287932 23 26 19
18.7063576799855 303.524524566728 2038.7860998986 22 25 18
4.67145505387556 302.680153666821 2042.19390891247 22 25 18
-6.91443155166827 301.927904661696 2042.43708752596 24 26 21
14.415064488007 302.382167775252 1998.61571445148 24 26 21
4.55599395289186 301.690032608632 1996.40559901033 25 27 22
-2.91162408356849 301.085374719495 1990.98910061743 24 27 20
2.62811806362562 300.950417116373 1967.83142715548 22 25 18
-5.47746764889112 300.320462904892 1963.18736087764 21 24 17
-22.9677563294504 299.354881250423 1971.50077604893 17 20 13
-58.5047227997391 297.750080260447 2005.01702290466 18 21 12
-46.6566519086886 297.833868558593 1972.8472132144 19 22 13
-34.3748392718357 297.926165891889 1939.75683864291 19 22 13
-43.6273545896741 297.256001884545 1936.75150268236 18 21 12
-64.3807513752062 296.184933446491 1950.10940109104 19 22 15
-114.853713482542 294.086472212523 2006.14407027764 18 21 14
-103.867066923742 294.126621888265 1974.58490577322 18 21 14
-39.5302812218277 295.993438374274 1865.60737065413 18 21 14
-79.4846394076103 294.269095466342 1907.03725805099 18 21 14
-90.9545136491943 293.524997604362 1907.3645777901 18 21 14
-67.8647321815988 293.588757743921 1840.11450129098 13 16 9
-58.2195110851869 293.546223634678 1808.81752666096 17 20 13
-94.838836617027 291.958998716547 1846.4899728314 24 27 20
-168.122632753305 287.368242108378 1856.33301721576 122 106 93
-176.691293152188 286.725620610351 1852.58852515918 135 116 102
-185.250349102316 286.083695875628 1848.8507046247 142 115 104
-193.799996008391 285.442469057014 1845.12000291915 136 108 96
-199.672158953769 284.885330426117 1837.15492030026 132 108 96
-201.306001627625 284.459058785922 1822.3820673759 149 135 122
362.528400503535 311.502101119422 1838.48442428727 145 138 130
346.690192815238 310.572275871153 1841.81987724021 127 120 112
174.298960370093 303.496738415345 2007.06847056784 24 24 16
149.081792227912 302.275532789936 2023.36549748408 32 33 25
107.04478167648 299.781704502409 2031.16812548755 22 25 18
75.4065674545981 298.362295620678 2056.39568148239 27 30 23
68.5728769999909 297.780299156335 2050.20380887764 20 23 16
88.7320280277333 298.095830067297 2009.23843490924 17 20 13
67.1183954126531 297.019529042043 2021.97270350266 25 28 21
50.9011247114342 295.765713265315 2012.68018031195 27 30 23
19.2148751966599 294.371273954144 2039.10837207987 28 31 24
10.6006911520202 293.732534171292 2035.33060414559 29 32 25
9.79856378944932 293.345732917192 2021.16087932535 29 31 26
-10.7883358717038 292.322888085738 2033.4046826856 28 30 25
-8.04003227181771 292.047794798933 2014.39820365661 25 27 22
-13.6781806154787 291.503410962177 2006.60312229919 22 25 18
-27.017783219984 290.71591046869 2009.28022056777 19 22 15
-27.9402199901679 290.319035063449 1995.02293538584 18 21 14
-33.6072753966368 289.772108640437 1987.20659132596 21 24 17
-54.4909691089526 288.754119329359 2000.47030356799 22 25 16
-59.5444671715588 288.227468518965 1991.86380639142 22 25 16
-41.4034713537168 288.407885631296 1950.67007536999 22 25 16
-41.9562983049322 288.011325467188 1935.44569320126 20 23 14
-82.2971603613873 286.41292546847 1976.59573914251 19 22 15
-74.7720798986124 286.26047938781 1949.93675021834 19 22 15
-72.505090122805 285.945669076143 1930.58144982899 19 22 15
-93.0818144027026 284.952095899909 1944.06781443617 19 22 15
-89.7425923275235 284.665427770295 1923.01986741051 21 24 17
-89.3110647821051 284.289611500632 1906.03880216004 21 24 17
-89.5040032320484 283.892437150948 1889.84027110611 22 25 18
-58.3752276492335 284.391895438167 1827.18500326955 13 16 9
-62.7139709162532 283.863807303234 1816.62656655919 12 15 8
-100.433028503526 282.389381001255 1855.97243809883 37 40 33
-135.697424712382 280.99658214288 1892.15771852203 40 43 36
-167.067497121358 278.127361237381 1855.81606404046 139 123 108
-176.17909728372 277.47581579288 1852.91297479008 162 143 128
-186.353043784918 276.796746073945 1851.7097018496 155 127 113
-193.824452337734 276.190048540069 1846.29044529929 144 115 101
-200.227838607585 275.611211873782 1839.17548875702 146 118 106
-206.107730058997 275.045407870574 1831.20475968735 145 126 112
340.893675352201 300.262555276584 1849.91688698318 128 121 113
154.689366810217 293.419096403456 2032.32612936788 29 29 21
136.436368279703 292.486294580219 2040.08651145119 17 17 9
130.754636145323 291.930800817391 2032.25948452276 23 26 19
117.587766636386 291.15350555488 2033.82681576094 17 20 13
137.961312967403 291.362503671678 1993.0163219137 21 24 17
97.5541246273997 289.788610944037 2029.17796965688 28 31 24
77.0919324778747 288.804764336563 2040.27733705818 30 33 26
92.9329582033809 288.870796068437 2004.82624350075 31 34 27
63.3527505971858 287.628943850626 2027.84118740622 27 30 23
44.7377202985817 286.314326177392 2021.75090460989 27 30 23
17.9087049822382 285.16696655653 2041.82028414945 28 31 24
22.559030398063 284.903094992712 2020.48727380161 28 31 24
20.5154827336487 284.449460481215 2007.88764612314 29 31 26
-0.710688285443961 283.467368788007 2020.90327108516 27 29 24
-11.7031998083619 282.769412528976 2020.34183833357 22 24 19
-24.4504027275203 282.025395124311 2022.21326892069 20 23 16
-30.0592544644822 281.475013880907 2014.43910044362 19 22 15
-30.3776053016425 281.064730846607 1999.38491998191 19 22 15
-31.9233831275036 280.619050329189 1985.91084546467 19 22 15
-37.6077874420762 280.062399124874 1978.08187555313 19 22 13
-36.8960927749995 279.671296542482 1961.30412647705 18 21 12
-32.7674746340927 278.947815206368 1923.53393729006 15 18 9
-61.6300781976011 277.795261754824 1948.30487110258 20 23 16
-69.0975999722543 277.190040363734 1942.88843963767 20 23 16
-82.8523063312618 276.427977877909 1946.49978581358 21 24 17
-77.8873528553594 275.707613801232 1906.86581649034 25 28 21
-89.361832430541 275.001926950308 1907.1902867612 26 29 22
-102.492956954832 274.258129277388 1910.01873660268 20 23 16
-79.8957883039815 273.49065527308 1826.35069010733 24 27 20
-107.493966856008 272.407987937148 1850.80325547557 23 26 19
-169.268262127259 268.80933967214 1860.34896252781 144 128 113
-178.909921614127 268.15542426373 1858.29694106296 149 130 115
-189.07137894347 267.491391167616 1857.10279795315 159 131 117
-193.312940050424 266.95430282124 1846.61447059973 148 119 105
-200.783747333019 266.347881770253 1841.19565132347 151 123 109
-207.722226039453 265.752486094069 1834.92774760903 141 119 105
339.546293408602 290.124500165359 1852.59419417452 118 111 103
329.490408516488 289.415217528343 1849.00598584422 75 68 60
155.210964990254 284.034522566319 2032.65671230343 32 32 24
125.665981406963 282.85998089454 2054.46220068979 42 43 35
121.274441617196 282.330912709119 2045.10052231841 18 21 14
141.147765375605 282.410151464196 2005.16208030248 16 19 12
145.312045190483 282.086867305414 1984.7117552955 15 18 11
112.292282906764 280.839483063588 2011.40874221373 27 30 23
105.946250938328 280.256344232029 2004.33534123724 23 26 19
76.8773395682394 279.120093403683 2026.48613848151 20 23 16
106.683264556855 279.41215721704 1972.75203398895 20 23 16
17.9250306721745 276.433834463765 2057.84453804242 27 30 23
23.8617696898493 276.14945230929 2034.9738992194 29 32 25
14.6306938655369 275.506354650669 2031.98424230164 27 30 23
15.6226418060212 275.099741047697 2015.40928176096 32 34 29
2.78988857064144 274.373613957963 2017.21908019311 30 32 27
-9.40700365593794 273.66414944221 2018.2548756105 26 28 23
-18.5988502656413 273.024072959953 2015.29367209046 25 28 21
-24.2272484485939 272.463818782078 2007.50528396919 25 28 21
-38.7112106100636 271.708161343657 2011.82304612283 25 28 21
-36.6986084313261 271.314389839977 1993.51797141066 25 28 21
-27.1515378580229 271.078522165325 1964.6192338346 24 27 18
-22.3955507081 270.732894589862 1942.12736919323 24 27 18
-21.2165136107516 270.306282872371 1924.45319012847 23 26 17
-27.6229016563452 269.717557113201 1917.33571296767 22 25 16
-36.3428437192623 269.080586454856 1913.48158222694 19 22 15
-76.6211166886839 267.801165811179 1954.67861602642 19 22 15
-82.3422245440861 267.233037052034 1946.82298079876 18 21 14
-71.8950885639609 266.059780158427 1882.75296476627 17 20 13
-94.6630961807349 265.154612008674 1899.59200457796 19 22 15
-67.8015516101045 264.719456221158 1826.42778717967 17 20 13
-45.9985051088732 264.640586032009 1776.77122841551 17 20 13
-172.14322960792 260.92803544703 1916.27605561426 24 21 14
-174.727922091392 259.463518651749 1869.93038090822 110 97 81
-183.805075883831 258.831787000709 1867.05236292729 140 121 106
-191.791325987469 258.218781581893 1862.49489142805 146 118 104
-196.554935272527 257.65797058046 1852.86303667853 147 118 102
-200.272050097273 257.112289191882 1841.51981147266 146 117 101
-208.805896878392 256.489617657159 1837.80065760106 141 118 102
-217.85970212066 255.859596400634 1834.93957414591 144 122 108
352.830609767337 280.324320682866 1837.47213931706 120 113 107
343.363859444454 279.633165244878 1833.07606239739 67 60 54
137.474150446395 273.809686475289 2040.74422118913 40 41 35
122.416350658527 273.041019886362 2044.64622478421 18 21 14
146.031759582222 273.076726242787 2000.00917645821 17 20 13
148.941945646731 272.674456717354 1981.11969978687 14 17 10
135.077472793629 271.927265078993 1983.41651258325 23 26 19
148.006821553309 271.247826426355 1935.97002431292 17 20 13
101.701309517061 269.862970417293 1980.20805856353 23 26 19
55.0652111402998 268.488853312049 2025.44182922173 26 29 22
65.8068977723434 268.232626674968 1996.17366009264 27 30 23
34.0536260411453 267.162759224603 2022.55461556899 27 30 23
22.9777389088381 266.491044000315 2021.93287497484 24 27 20
11.9282340632139 265.821438030559 2021.33027014713 30 32 27
3.2993151435563 265.197667127506 2017.54189640782 29 31 26
-9.49506320705584 264.499321160088 2019.37965432976 25 27 22
-17.4969718642508 263.888736404393 2014.81084387201 23 26 19
-21.9435321217691 263.340818288999 2005.40918451075 22 25 18
-41.1531739260012 262.535796431786 2016.1821270645 22 25 18
-50.87540813637 261.898434198373 2014.0714846311 20 23 16
-29.4093644050657 260.820617271412 1936.99269832333 19 22 13
-28.8397748007003 260.340890131673 1920.11148535376 16 19 10
-27.7557616723279 259.865244137415 1902.36787854067 18 21 14
-69.2220632445741 258.721689296769 1945.17474097468 18 21 14
-73.2538248789061 258.169569784905 1934.8387200775 17 20 13
-66.4881291947301 257.778557950799 1908.86306516788 16 19 12
-86.0722656088298 256.491996060506 1904.54047203315 18 21 14
-94.1483525978992 255.875024056246 1899.91815024393 17 20 13
-105.023454832777 255.21904713209 1899.44174814746 18 21 14
-47.6898255100706 254.980629050762 1780.43666556941 18 21 14
-65.4655568056664 253.689990521927 1772.48456225557 20 21 15
-176.38919891788 250.222927084403 1873.61972145909 105 92 76
-185.457988302196 249.600384670375 1870.74781356141 130 113 97
-191.281102394004 249.015404095041 1862.81814647829 145 117 103
-195.50762946567 248.447064776625 1852.34055932555 143 114 100
-196.55492165849 247.910897414454 1836.75702161278 149 120 106
-204.570469502091 247.298463825262 1832.17860893004 142 116 101
-213.110454044956 246.681070520113 1828.45473792222 142 119 105
360.393609520461 270.313262219494 1829.31743042648 113 108 104
355.97530070322 269.713811975052 1818.70065901058 48 43 39
167.588493995678 265.457671068009 2019.30292562612 32 33 27
165.602547980053 264.934282675662 2006.74470129498 25 26 21
154.197177641805 264.252435786057 2005.88376549742 21 24 17
168.986384567289 263.999624654239 1972.13893877838 21 24 17
161.885776671452 263.384325918036 1965.75340334161 16 19 12
97.8666309968559 261.866469866841 2031.73344877945 22 25 18
121.164307447953 261.738564516924 1986.86553515479 20 23 16
132.570275136707 261.413164707885 1956.8432360582 21 24 17
126.090955958309 260.807833860104 1949.67309993178 20 23 16
97.0416588970147 259.865506020564 1971.83909826525 29 32 25
18.9366593185536 258.214177240965 2058.48560308165 23 26 19
46.0662475715554 258.114464214025 2007.74952706345 20 23 16
33.1379685460069 257.430030876043 2009.49028799876 18 21 14
14.2405849756737 256.665112604519 2019.25475971356 14 16 11
-3.9739294949992 255.915181634637 2028.27900261926 15 17 12
13.6778727349838 255.652253403244 1989.19847235292 16 18 13
-3.91627987235799 254.912253599556 1997.43773696366 18 21 14
-22.6188874566682 254.163045186408 2007.34319104396 20 23 16
-43.5965262278715 253.390761854764 2020.54004505714 21 24 17
-50.3705168391482 252.80169965534 2014.39141435353 19 22 15
-54.2221343101175 252.247816069925 2004.18568039245 18 21 12
-45.8546317886341 251.837313577481 1976.90103746101 18 21 12
-37.6068824881062 251.417093869162 1949.52953364443 19 22 13
-39.3166536336476 250.875445424209 1935.93609077349 19 22 13
-47.4118727758377 250.259887265602 1931.29961236256 18 21 14
-63.5422197695923 249.55771709362 1938.12984478087 18 21 14
-61.3003947769095 249.05397354059 1918.75505044206 18 21 14
-65.4020604274923 248.47973907071 1908.36824261506 18 21 14
-83.1523836592114 247.767210199118 1917.72917710521 19 22 15
-88.9495666522062 247.176511360166 1909.81827906489 20 23 16
-101.517792868658 246.520983068959 1911.82019637518 15 18 11
-42.7238875604508 245.96274171455 1791.4017113195 20 23 16
-169.360168270875 241.06332339795 1863.84720312512 97 88 73
-180.619963359659 240.433034871811 1864.32739019213 129 113 97
-186.999233334587 239.835322773297 1857.22982045893 149 123 108
-194.996287773777 239.227463139182 1852.66454273068 142 113 99
-196.04178333903 238.658707314138 1837.08214236459 144 115 101
-204.589632299326 238.046516951315 1833.35289110368 133 107 94
-211.008094193244 237.445564435574 1826.22659942163 136 113 99
364.140434159947 260.190840553133 1825.8068338845 111 106 102
191.417212468995 256.318133477498 1990.83098409014 35 38 31
156.085416833372 255.350643208556 2019.55875077311 22 24 19
166.604481989752 254.954034151803 1991.36381862693 20 23 16
162.660626252636 254.376192095718 1981.09109782387 20 23 16
143.164663840258 253.615019477298 1990.42166593423 14 17 10
121.277416880975 252.832371514799 2002.95907306097 21 24 17
78.5287284348728 251.823831387473 2042.36662202335 20 23 16
106.067442014912 251.600242582714 1991.92679670767 21 24 17
129.068214557095 251.310454116517 1946.84253665628 22 25 18
43.1422153216201 249.344774834984 2027.81783966564 20 23 16
36.2876283424796 248.746423106744 2021.61044140464 17 20 13
26.4118725886884 248.118648470222 2019.3888509682 15 18 11
8.74034384255395 247.419128731664 2027.57193452714 18 20 15
1.32387699350511 246.818322824627 2022.19253623265 19 21 16
5.83915443774963 246.322872381929 2000.7607482125 19 21 16
-6.37694910707509 245.677733354006 2001.78264827957 20 23 16
-13.2283338190216 245.079640551595 1995.57786719893 20 23 16
-25.9836249833798 244.433887303847 1997.44422664884 20 23 16
-43.988415376816 243.750418052786 2006.62083965558 18 21 14
-60.1569637600639 243.08652538418 2013.42357295449 16 19 10
-41.1603317542166 242.127836612075 1955.55235587616 15 18 9
-40.537697821758 241.575400377309 1938.70922758615 16 19 10
-71.6915431628757 240.817137294646 1966.76133501181 18 21 14
-66.4755125206349 240.292308965554 1943.36702139949 19 22 15
-74.5174676044906 239.683879556582 1938.7694858267 19 22 15
-77.9949118671646 239.100719374408 1927.59981308862 18 21 14
-84.3418815351977 238.500400604661 1920.52535085688 19 22 15
-85.0420995864794 237.926906253388 1905.19322552769 20 23 16
-83.5420081328011 237.359412403993 1886.51574091547 18 21 14
-38.9079199642377 236.970449029804 1804.00332191918 13 16 9
-38.8376842781202 236.373245106868 1786.75952159447 15 18 11
-159.067199373377 231.843667624399 1849.02996485695 118 109 94
-173.614882635091 231.224920293761 1854.53755880806 107 94 78
-182.176032409695 230.617453311165 1850.79839495084 150 124 109
-191.264442598674 230.010340095685 1847.91234166506 137 109 95
-195.528426011416 229.406492365119 1837.40742175421 140 111 97
-203.011983746254 228.800198605527 1831.97936004778 134 108 95
-206.784365730018 228.193113089742 1820.59575947487 140 114 101
261.303469200318 248.507433416653 1936.46769042111 21 22 17
197.616566345253 246.829547251011 1984.16075336208 23 25 20
177.953081955405 246.106860300691 1993.37007615337 27 29 24
148.989612595122 245.318001623032 2014.36403354132 22 25 18
159.448248575268 244.836450451814 1986.12486474711 19 22 15
141.205088648926 244.137228106167 1993.89356217065 11 14 7
92.090327180383 243.22783144555 2041.03796084459 21 24 17
80.891725703943 242.595360020192 2040.32746078111 19 22 15
80.7802940292022 242.036403430515 2025.42223289822 19 22 15
118.220135101878 241.129077977471 1946.33777040159 27 30 23
84.3791441927735 240.357527793804 1974.91220909213 21 24 17
48.9117440769116 239.591682367921 2006.01306229974 16 19 12
20.8889213407564 238.879165738184 2027.68959566445 20 23 16
10.4512700218233 238.262596501676 2026.29547405113 23 25 20
-10.1469426929894 237.601790065971 2038.53291013319 22 24 19
-1.40702650246705 237.072752077488 2011.51763741249 20 22 17
-14.1899844136377 236.449478878758 2013.36376003606 19 22 15
-13.3100962152912 235.879313108195 1996.70703104987 16 19 12
-18.9833736789589 235.282245787202 1988.88592251441 15 18 11
-37.603274786957 234.644314491923 1998.85219040199 15 18 11
-34.835199839276 232.89852979994 1947.73958100473 18 21 12
-46.9705134821947 232.281988240788 1948.82019224765 20 23 14
-53.3025475330218 231.677444108887 1941.75683023829 18 21 14
-60.217696229399 231.071475213845 1935.50549091357 20 23 16
-68.2819878391849 230.464068410721 1930.89176829614 19 22 15
-70.070169198307 229.861130625451 1917.24117374543 18 21 14
-95.1865948247024 229.246783541437 1937.31941480706 19 22 15
-83.9612138830232 228.644357598889 1904.69472807322 21 24 17
-69.50109559716 228.029101246876 1867.0040977551 19 22 15
-113.773377826251 226.825210182003 1899.13069395506 12 15 8
-67.2475808872008 226.150392473118 1813.04772611517 20 23 16
-168.770958925868 221.958914234987 1848.12091186723 98 85 69
-177.35029712251 221.355755725012 1844.368879135 123 104 89
-189.678093529583 220.769643291238 1846.54544075014 110 82 68
-196.084173196367 220.159295649651 1839.42807762062 119 90 76
-202.498402060846 219.548298100637 1832.30480367188 114 88 75
-203.088428857453 218.905183394183 1815.81716906477 119 92 81
249.787803270046 238.685467049946 1951.53745105269 20 22 17
231.809275065255 238.005567575688 1958.26304690366 22 24 19
221.463123714474 237.361191933125 1955.70007809583 22 23 18
175.340724278269 236.586916852245 1997.6038740324 22 23 18
157.64635815767 235.930125424601 2004.53558208934 17 20 13
145.01062393943 235.29461920326 2005.25333171795 20 23 16
111.285557169275 234.601979619768 2032.6771693593 12 15 8
77.1272485796484 233.922838554782 2061.02204576173 18 21 14
77.7036564171447 233.337821943225 2045.38027879214 21 24 17
111.413011170885 232.814276451601 1987.06061941145 22 25 18
87.2562262921388 232.168372681535 2002.89421817317 28 31 24
94.3398402305533 231.576315124972 1978.38304728373 24 27 20
93.4126038848628 230.96670933584 1964.12149974278 19 22 15
42.1570286848088 230.31114628737 2015.89103467285 17 20 13
42.522906763014 229.709208841001 2000.09656448045 19 22 15
-9.48542010016484 229.089852653971 2053.7906703187 19 22 15
3.53913066966127 228.493520951569 2021.2352344288 21 24 17
-8.06020681634401 227.89370894421 2021.46943433544 22 25 18
-18.4393371146827 227.295639466864 2020.11812404079 19 22 15
-5.69015978768683 226.677054430962 1987.36265687088 16 19 12
-4.8969479597647 226.061311610016 1970.64286347727 16 19 12
24.0594031459755 225.395817304017 1915.05270341933 15 18 11
-14.0414551573895 224.834799744212 1951.6563528088 18 21 14
-20.9813703583435 224.224053023078 1945.38732999275 20 23 16
-40.7157195776857 223.645335653872 1957.01608384953 24 27 20
-45.8781024134349 223.032930731515 1948.3302194157 25 28 21
-51.635012561424 222.420949069071 1940.44840821849 20 23 14
-68.8993650215255 221.848130909435 1948.92730432522 20 23 14
-82.0806618215733 221.266128755583 1951.72020273947 17 20 11
-84.3822325952777 220.642737912131 1938.9326687533 15 18 9
-66.841229909337 219.926934355002 1897.29915589467 17 20 11
-77.2215299185475 219.329081906065 1895.94699875094 19 22 13
-83.6338707552149 218.712712872449 1888.82506626622 16 19 10
-52.4407058107255 217.888768980903 1826.20977235914 13 16 7
-44.4799675473286 217.174075314363 1797.39367991878 12 15 6
-132.399333963642 215.735095838624 1878.16135850872 23 30 23
-169.880395867565 212.70086073405 1850.9751678501 111 95 80
-176.29648373274 212.084456152917 1843.85081336141 119 100 85
-184.868695959684 211.487656917163 1840.10368413064 93 70 56
-193.43148064033 210.891657914096 1836.36368765974 113 90 76
-197.191416119242 210.247660534374 1824.98892285795 97 77 66
-199.390532226376 209.584431981161 1811.04012755399 96 78 66
250.326517340541 228.969635562795 1951.87876377721 19 24 18
212.104333659461 228.33576063347 1983.4536517804 20 25 19
187.961427334114 227.71348496113 1998.0620999764 22 23 18
189.685579876133 227.082649605881 1980.78175782081 23 22 18
161.925828285318 226.475378219015 2000.17916242549 18 21 14
148.651986337867 225.861293327916 2001.66947927576 19 22 15
113.045116232903 225.285573738574 2031.43515410748 11 14 7
84.4490005342462 224.713321719373 2052.69651115988 18 21 14
66.4924055094396 224.130592248483 2060.67383013255 21 24 17
111.320414284833 223.399412214463 1988.1811369154 23 26 19
55.7984645854592 222.287863640013 2029.44476753615 23 26 19
61.7045825669988 221.636890291429 2006.55007401388 16 19 12
56.0001706438587 221.020474446547 1998.70629744022 16 19 12
11.6447842947625 220.557518503805 2041.89261576638 21 24 17
16.2805333636333 219.906387646999 2020.54737164592 22 25 18
9.44130165022905 219.300786793115 2014.3510680265 23 26 19
21.1058953272638 218.6032850918 1983.27962550654 21 24 17
31.4387761923483 217.900573171144 1953.71284281666 18 21 14
7.85940574784494 217.375953391877 1969.96534147469 17 20 13
3.29249526415909 216.749300972963 1960.47574438429 18 21 14
-10.1193776714852 216.175976647045 1963.10153719201 18 21 14
-10.5958800674972 215.521523648386 1947.93147252116 20 23 16
-33.3076855015821 215.016021388737 1963.57794777481 23 26 19
-40.7844826473138 214.410399584062 1958.15479036728 23 26 19
-48.8404659464987 213.809206995704 1953.54682762072 22 25 18
-47.6585142512536 213.135281871489 1935.87321424199 18 21 12
-55.1660430468821 212.52727501212 1930.42776672483 19 22 13
-75.8442950252598 212.032731822936 1943.84305942193 18 21 12
-53.0676653463493 211.158116880359 1894.88824127651 17 20 11
-45.2994548572749 210.402058007535 1867.16740845007 17 20 11
-62.5543986407928 209.877014837204 1875.65336709698 18 21 12
-66.7667936023326 209.228214059749 1865.18561705932 21 24 15
-62.5822162532386 208.489891098827 1842.27783065631 14 17 8
-12.6246418684302 207.251413050931 1751.26896774464 12 15 6
-75.1046668703865 207.21976685125 1827.01783343186 13 16 7
-111.624200216786 206.930482114109 1864.76919541009 18 21 12
-156.202945233777 206.758142706313 1915.20587703046 25 32 25
-152.593189755762 206.024735917431 1893.11615703936 21 28 21
-173.698603910752 203.496556265852 1858.04182220294 119 101 87
-176.860198609349 202.83063330972 1845.86536523843 124 105 91
-182.205371078916 202.1931388513 1837.04686561469 90 68 54
-189.172461984502 201.578247054031 1830.75812155477 124 105 91
-191.881328390288 200.897797877115 1817.67474678405 91 75 62
-193.568384333536 200.197537387849 1802.86193061755 105 88 78
179.103006576665 218.90056262562 2024.94414733676 17 22 16
180.791312570644 217.575450526346 1992.81297962346 24 25 20
179.353825713223 216.917353354869 1979.41603713103 18 21 14
162.27569885884 216.344080796503 1985.55985659358 19 22 15
152.72288742437 215.731613978985 1982.33712181708 9 12 5
101.064544382125 215.385171857504 2032.58121087209 16 19 12
115.757808183567 214.628151697791 1998.76427901678 22 25 18
98.3136388700707 214.07949806158 2005.87761334085 25 28 21
87.6799111168585 213.487831826429 2004.34177235148 22 25 18
87.4468794215368 212.819516287274 1989.34784009396 17 20 13
59.7868929412306 212.362705778403 2010.05336529954 15 18 11
38.939829855531 211.86305843252 2022.11122073958 18 21 14
21.2094851810924 211.345574304689 2030.25258942315 24 27 20
19.7986210478489 210.690193125454 2016.87525454569 21 24 17
29.132743370043 209.931986929852 1989.05453711948 20 23 16
26.995680022234 209.271942563733 1976.38577794276 17 20 13
34.9332821627679 208.508839671881 1950.02274168931 16 19 12
17.8591407958657 207.990699276762 1957.40476620127 16 19 12
-6.23057505296787 207.553156970818 1974.52278227816 16 19 12
-15.4879233717324 206.965387694414 1971.51436011765 19 22 15
-25.9042522046671 206.391938102436 1970.13620851599 19 22 15
-39.6899880712802 205.167142560284 1957.66606281781 17 20 13
-30.364651646557 204.35459236464 1928.60336993772 16 19 12
-48.875319448513 203.882648554775 1938.64966413934 18 21 12
-42.0007787844361 203.08795796331 1912.75116304305 18 21 12
-19.4544404218926 201.34622048564 1847.56835557347 17 20 11
-34.5451278425619 200.827072798044 1852.68252423627 18 21 12
-62.599347815703 200.501504866847 1876.80833030369 21 24 15
-76.959337630669 199.987589311761 1881.21748160433 23 26 17
-66.219524935726 197.615045635494 1814.88348528605 11 14 5
-147.184587653582 198.194361599284 1919.22973192659 12 15 6
-159.564747886443 197.678826905202 1921.36869137708 13 20 13
-174.810238583794 194.285288963891 1860.89472198476 109 93 80
-175.805833676558 193.556802900227 1845.34768647096 100 82 70
-180.615178239943 192.897908406138 1835.68218042992 83 64 50
-184.375880769003 192.215885426232 1824.30666696994 113 95 81
