ply
format ascii 1.0
comment KinectMotionCapture
element vertex 793
property float x
property float y
property float z
property uchar red
property uchar green
property uchar blue
end_header
163.773834705353 14.7912437096238 2901.00002288818 20 23 14
168.729215860367 14.5358871668577 2851.0000705719 22 25 16
175.887510180473 14.4844641909003 2841.00008010864 22 25 16
186.739534139633 14.728719368577 2888.99993896484 16 19 10
-121.552541851997 6.88454415649176 2905.99989891052 19 22 13
-110.922865569592 6.721215788275 2836.99989318848 23 26 17
-102.415144443512 6.67159212753177 2815.99998474121 24 27 18
-87.6278653740883 6.71683624386787 2835.00003814697 20 23 14
-80.0008699297905 6.72641443088651 2838.99998664856 22 25 16
-72.2753629088402 6.72887591645122 2839.99991416931 22 25 18
-64.4532144069672 6.7218504846096 2836.99989318848 18 21 14
-57.2468340396881 6.78589753806591 2864.00008201599 16 19 10
-49.9963127076626 6.86415145173669 2897.0000743866 15 18 11
-41.9988110661507 6.84999162331223 2891.00003242493 16 19 12
-34.210842102766 6.87136268243194 2900.00009536743 15 18 11
-26.2103918939829 6.8500735796988 2891.00003242493 15 18 11
-18.2969979941845 6.84299226850271 2888.00001144409 15 18 11
-10.4323513805866 6.85722660273314 2894.00005340576 15 18 11
-2.52003455534577 6.83117005974054 2882.99989700317 16 19 12
5.32850390300155 6.80036563426256 2869.99988555908 11 13 8
21.2662015110254 6.88563333824277 2905.99989891052 11 13 8
51.6750365495682 6.71248789876699 2832.99994468689 10 13 6
59.7668439149857 6.75270007923245 2849.99990463257 11 14 7
69.3496093153954 6.93269353359938 2926.00011825562 11 14 7
76.9153982400894 6.89469557255507 2910.00008583069 14 17 10
84.422655403614 6.8590585142374 2894.99998092651 16 19 12
92.5173908472061 6.87316758558154 2901.00002288818 18 21 14
100.159786641598 6.85409782454371 2892.99988746643 18 21 14
107.085794210434 6.79237488657236 2867.00010299683 18 21 14
115.111894905567 6.80408673360944 2871.99997901917 18 21 14
122.693918645382 6.78972946479917 2865.9999370575 18 21 14
130.151599645615 6.77062571048737 2858.00004005432 18 20 15
137.902960181236 6.76809577271342 2857.00011253357 21 23 18
147.127225995064 6.83425553143024 2884.99999046326 19 22 15
155.321717262268 6.84828869998455 2891.00003242493 18 21 12
161.74179315567 6.78651174530387 2865.00000953674 21 24 15
168.67034137249 6.7507834173739 2849.99990463257 19 22 13
177.621319890022 6.79558329284191 2868.99995803833 21 24 17
184.477567672729 6.75984052941203 2854.00009155273 18 21 14
195.49523293972 6.87330355867743 2901.99995040894 13 16 9
-130.464226007462 -1.05756684206426 2927.99997329712 71 73 68
-119.628496468067 -1.03302835486829 2859.99989509583 32 34 29
-110.727444291115 -1.02293596137315 2832.00001716614 17 19 14
-102.306090295315 -1.01609237026423 2812.99996376038 22 24 19
-95.8718433976173 -1.0294757084921 2849.99990463257 16 18 13
-85.4642614722252 -0.998788280412555 2765.00010490417 23 25 20
-80.5645063519478 -1.03275908622891 2858.99996757507 21 23 18
-72.4789947271347 -1.02879956830293 2848.00004959106 19 21 16
-64.7713094949722 -1.0298959678039 2851.0000705719 18 20 15
-57.1669042110443 -1.03315839078277 2859.99989509583 18 20 15
-49.3577979505062 -1.03316828608513 2859.99989509583 17 19 14
-42.4201264977455 -1.05485168751329 2920.00007629395 17 20 13
-34.1046862304211 -1.04438234120607 2891.00003242493 17 20 13
-26.681849732995 -1.06317328754812 2943.00007820129 16 19 12
-18.3350183069706 -1.04547594673932 2894.00005340576 14 17 10
-10.331423021853 -1.0353634133935 2865.9999370575 12 15 8
-2.54188850522041 -1.05053733568639 2907.99999237061 11 14 7
5.44918654486537 -1.06029107701033 2934.99994277954 10 12 7
13.1335500627756 -1.03427877184004 2862.99991607666 10 12 7
22.0346078276634 -1.08774157706648 3010.99991798401 9 11 6
36.9705930352211 -1.0451024863869 2892.99988746643 8 10 5
44.947687536478 -1.04690133593976 2898.00000190735 12 13 8
52.2769950330257 -1.03533221408725 2865.9999370575 12 13 8
60.0604712963104 -1.03459949605167 2864.00008201599 13 14 9
76.545387506485 -1.04613392613828 2895.99990844727 12 13 7
84.131084382534 -1.04214565362781 2884.99999046326 12 13 7
92.3260822892189 -1.04574160650373 2894.99998092651 16 19 12
100.125223398209 -1.04464020114392 2891.99995994568 18 21 12
107.085846364498 -1.03559100534767 2867.00010299683 18 21 12
114.470668137074 -1.0315973777324 2855.99994659424 17 20 11
123.978286981583 -1.04602344799787 2895.99990844727 19 22 13
130.197197198868 -1.03263615164906 2858.99996757507 22 23 17
138.047814369202 -1.03297282475978 2859.99989509583 23 24 18
147.076308727264 -1.04161503259093 2884.0000629425 22 23 17
155.805334448814 -1.04736629873514 2900.00009536743 20 21 15
163.266152143478 -1.04444799944758 2891.99995994568 19 22 15
-104.960940778255 -8.92235152423382 2885.99991798401 21 23 18
-87.8132954239845 -8.78353137522936 2841.00008010864 30 32 27
-80.9871181845665 -8.88569001108408 2874.00007247925 20 22 17
-73.089711368084 -8.87962803244591 2871.99997901917 18 20 15
-64.8621246218681 -8.82717594504356 2855.00001907349 19 21 16
-57.1268834173679 -8.83654877543449 2858.00004005432 19 21 16
-49.5303273200989 -8.87373462319374 2869.99988555908 18 20 15
-41.5629707276821 -8.84598027914763 2861.00006103516 17 20 13
-34.6827022731304 -9.09030251204968 2940.00005722046 18 21 14
-26.7634186893702 -9.12745483219624 2951.99990272522 16 19 12
-10.42874250561 -8.94508697092533 2892.99988746643 11 14 7
5.40091004222631 -8.99456720799208 2908.99991989136 10 12 7
37.456177175045 -9.0624550357461 2930.99999427795 8 10 5
45.6300787627697 -9.09639894962311 2941.99991226196 11 12 7
52.8606474399567 -8.96027870476246 2898.00000190735 12 13 8
60.2910965681076 -8.88907629996538 2875 13 14 9
68.0460184812546 -8.87660775333643 2871.00005149841 13 14 8
75.99026709795 -8.88886116445065 2875 13 14 8
82.7020928263664 -8.76815710216761 2835.99996566772 12 13 7
92.1027585864067 -8.92878975719213 2888.00001144409 14 17 10
99.986657500267 -8.92863795161247 2888.00001144409 18 21 12
107.048384845257 -8.86045955121517 2865.9999370575 21 24 15
114.190012216568 -8.80773086100817 2848.99997711182 24 27 18
122.394196689129 -8.83845984935761 2858.99996757507 22 25 16
131.016805768013 -8.89390800148249 2877.00009346008 25 26 18
137.999445199966 -8.8380528613925 2858.99996757507 25 26 18
147.48415350914 -8.9398417621851 2891.99995994568 23 24 16
156.396195292473 -8.99833906441927 2911.00001335144 20 23 16
163.999915122986 -8.97954404354095 2904.99997138977 19 22 15
172.457963228226 -9.00710187852383 2914.00003433228 21 24 17
-119.669958949089 -16.655994579196 2861.00006103516 19 22 15
-113.972268998623 -16.9707182794809 2914.99996185303 25 28 21
-105.142556130886 -16.8313160538673 2891.00003242493 19 22 15
-95.6697091460228 -16.5579784661531 2844.00010108948 20 22 17
-88.4312763810158 -16.6572257876396 2861.00006103516 20 22 17
-81.0714736580849 -16.7506337165833 2877.00009346008 19 21 16
-73.0386450886726 -16.7101062834263 2869.99988555908 19 21 16
-65.1573240756989 -16.6986659169197 2868.00003051758 20 22 17
-57.2866536676884 -16.6872031986713 2865.9999370575 21 23 18
-49.4266711175442 -16.675716266036 2864.00008201599 19 21 16
-41.5192916989326 -16.640916466713 2858.00004005432 17 20 13
-34.2225506901741 -16.8914012610912 2901.00002288818 17 20 13
-26.5185721218586 -17.0312356203794 2924.99995231628 14 17 10
-18.5123551636934 -17.0138347893953 2921.99993133545 11 14 7
-10.4647679254413 -16.9032476842403 2903.00011634827 11 14 7
-2.52789515070617 -16.8392173945904 2891.99995994568 12 15 8
5.4547400213778 -17.107056453824 2937.99996376038 10 12 7
13.3215915411711 -16.9090572744608 2904.00004386902 10 12 7
20.8124313503504 -16.5596455335617 2844.00010108948 7 9 4
28.9200767874718 -16.7575422674418 2878.00002098084 7 9 4
37.8522463142872 -17.2465406358242 2961.99989318848 8 10 5
45.9401719272137 -17.2464158385992 2961.99989318848 11 12 7
52.8605282306671 -16.8736279010773 2898.00000190735 11 12 7
60.0602850317955 -16.6754964739084 2864.00008201599 13 14 9
68.0221617221832 -16.7102385312319 2869.99988555908 13 14 8
75.3028765320778 -16.587758436799 2848.99997711182 13 14 8
91.3052633404732 -16.6687741875649 2862.99991607666 13 16 9
100.332640111446 -16.872264444828 2898.00000190735 16 19 10
107.122845947742 -16.697296872735 2868.00003051758 20 23 14
114.750869572163 -16.6678596287966 2862.99991607666 25 28 19
122.008636593819 -16.5918283164501 2849.99990463257 24 27 18
129.604786634445 -16.5681708604097 2845.99995613098 26 27 19
138.047397136688 -16.6492778807878 2859.99989509583 25 26 18
147.432819008827 -16.8293230235577 2891.00003242493 22 25 16
155.751124024391 -16.8754458427429 2898.9999294281 20 23 16
164.902821183205 -17.0030426234007 2921.0000038147 19 22 15
172.161653637886 -16.9326979666948 2908.99991989136 19 22 15
180.840209126472 -17.0020330697298 2921.0000038147 11 16 10
-103.323727846146 -24.297134950757 2841.00008010864 26 29 22
-95.4002514481544 -24.2548082023859 2835.99996566772 27 30 23
-88.2764086127281 -24.4262553751469 2855.99994659424 25 28 21
-81.0148119926453 -24.5891232043505 2875 20 23 16
-73.2165202498436 -24.606566876173 2877.00009346008 21 24 17
-65.2479603886604 -24.564104154706 2871.99997901917 22 25 18
-57.5263053178787 -24.6156919747591 2878.00002098084 21 24 17
-49.391970038414 -24.4790725409985 2861.99998855591 17 20 13
-41.446503251791 -24.4022961705923 2852.9999256134 15 18 11
-25.9654391556978 -24.4966764003038 2864.00008201599 10 13 6
-18.3285586535931 -24.7448198497295 2892.99988746643 11 14 7
-10.446703992784 -24.787649512291 2898.00000190735 9 12 5
-2.55585671402514 -25.0100642442703 2924.00002479553 7 10 3
5.44543657451868 -25.0870399177074 2933.00008773804 10 12 7
13.3353034034371 -24.864612147212 2907.00006484985 10 12 7
21.0831183940172 -24.6421489864588 2881.00004196167 7 9 4
28.9099216461182 -24.6078260242939 2877.00009346008 7 9 4
38.120474666357 -25.5143251270056 2983.00004005432 8 10 5
45.8159260451794 -25.2660997211933 2953.9999961853 10 11 6
53.1156957149506 -24.906650185585 2911.99994087219 11 12 7
61.7586821317673 -25.1886509358883 2944.9999332428 13 14 9
68.3537274599075 -24.6666353195906 2884.0000629425 13 14 8
75.9633854031563 -24.5807934552431 2874.00007247925 14 15 9
83.6056098341942 -24.5205741375685 2867.00010299683 13 14 8
92.6443561911583 -24.845190346241 2904.99997138977 15 18 11
100.332260131836 -24.7849058359861 2898.00000190735 13 16 7
107.010401785374 -24.5022270828485 2865.00000953674 17 20 11
114.389725029469 -24.4076736271381 2854.00009155273 20 23 14
121.537275612354 -24.2788810282946 2838.99998664856 23 26 17
129.057869315147 -24.2355819791555 2834.00011062622 23 26 15
136.985018849373 -24.2692120373249 2838.00005912781 21 24 13
146.259367465973 -24.5251469314098 2868.00003051758 16 22 10
156.395271420479 -24.892196059227 2911.00001335144 16 22 12
162.756949663162 -24.6520806103945 2882.99989700317 15 20 13
173.877328634262 -25.1216497272253 2937.99996376038 14 19 12
180.220454931259 -24.8900298029184 2911.00001335144 20 25 19
-112.485565245152 -32.4595086276531 2877.00009346008 22 25 18
-103.905111551285 -32.2344750165939 2857.00011253357 25 28 21
-94.7942733764648 -31.7950211465359 2818.00007820129 15 18 11
-87.997779250145 -32.1227461099625 2846.99988365173 16 19 12
-80.9016972780228 -32.3940292000771 2871.00005149841 20 23 16
-73.6233294010162 -32.6427035033703 2892.99988746643 21 24 17
-65.4748156666756 -32.5189866125584 2881.99996948242 21 24 17
-57.7258951961994 -32.5870402157307 2888.00001144409 20 23 16
-49.6160760521889 -32.4406661093235 2875 14 17 10
-41.2574373185635 -32.0459939539433 2839.99991416931 12 15 8
-34.0099073946476 -32.5314179062843 2882.99989700317 12 15 8
-26.5002083033323 -32.98294916749 2923.00009727478 11 14 7
-18.594553694129 -33.1184826791286 2934.99994277954 11 14 7
-10.313275270164 -32.2835557162762 2861.00006103516 9 12 5
-2.55759200081229 -33.0170504748821 2926.00011825562 8 11 4
5.46954479068518 -33.2427248358727 2946.00009918213 10 12 7
13.2939498871565 -32.7010340988636 2898.00000190735 10 12 7
21.141555160284 -32.5993821024895 2888.99993896484 7 9 4
29.8241972923279 -33.4906652569771 2967.99993515015 7 9 4
37.31519728899 -32.9488478600979 2920.00007629395 8 10 5
46.4360825717449 -33.7836071848869 2993.99995803833 10 11 6
53.1701520085335 -32.8919067978859 2914.99996185303 11 12 7
69.0170004963875 -32.8573510050774 2911.99994087219 13 14 8
76.2537494301796 -32.552283257246 2884.99999046326 14 15 9
84.5383405685425 -32.7097848057747 2898.9999294281 14 15 9
92.3249945044518 -32.6641462743282 2894.99998092651 15 18 11
100.36638379097 -32.7087230980396 2898.9999294281 15 18 9
108.80271345377 -32.8660868108273 2913.00010681152 14 17 8
114.429242908955 -32.2110615670681 2855.00001907349 18 21 12
122.307248413563 -32.2329513728619 2857.00011253357 22 25 16
129.740282893181 -32.1419723331928 2848.99997711182 20 26 14
137.080863118172 -32.0396795868874 2839.99991416931 18 24 10
148.349493741989 -32.8172892332077 2908.99991989136 16 22 10
153.708234429359 -32.2749391198158 2861.00006103516 16 22 10
165.522396564484 -33.0749712884426 2931.99992179871 17 23 11
173.876479268074 -33.1416949629784 2937.99996376038 13 20 12
180.776745080948 -32.9376496374607 2920.00007629395 14 21 14
-112.60212957859 -40.3563752770424 2880.00011444092 20 23 16
-105.140961706638 -40.5112840235233 2891.00003242493 28 31 24
-96.0719138383865 -40.0215424597263 2855.99994659424 15 18 11
-87.9044979810715 -39.8540385067463 2844.00010108948 24 27 20
-80.1685303449631 -39.8686528205872 2845.00002861023 22 25 18
-73.3683705329895 -40.4017232358456 2882.99989700317 23 26 19
-65.7242983579636 -40.5423566699028 2892.99988746643 18 21 14
-58.0653175711632 -40.7109633088112 2904.99997138977 15 18 11
-41.9544763863087 -40.4734425246716 2888.00001144409 12 15 8
-34.0804643929005 -40.4877215623856 2888.99993896484 12 15 8
-26.5091024339199 -40.9784503281116 2924.00002479553 12 15 8
-18.3600224554539 -40.6142324209213 2898.00000190735 13 16 9
-10.4573974385858 -40.6563803553581 2901.00002288818 13 16 9
-2.5287305470556 -40.5443087220192 2892.99988746643 13 16 9
5.38781937211752 -40.6704284250736 2901.99995040894 10 12 7
13.4773533791304 -41.1748886108398 2937.99996376038 10 12 7
21.5146336704493 -41.2027947604656 2940.00005722046 8 10 5
29.8340506851673 -41.6090302169323 2969.00010108948 7 9 4
37.0849259197712 -40.669821202755 2901.99995040894 8 10 5
45.0709387660027 -40.7255850732327 2905.99989891052 14 15 10
53.8629218935966 -41.3838997483253 2953.00006866455 13 14 9
61.2127371132374 -40.9070067107677 2918.99991035461 11 12 7
75.5660533905029 -40.065199136734 2858.99996757507 16 17 11
84.5377966761589 -40.6251698732376 2898.9999294281 18 19 13
92.2925025224686 -40.5544750392437 2894.00005340576 18 21 14
100.504226982594 -40.6799092888832 2903.00011634827 19 22 13
107.868246734142 -40.4689721763134 2888.00001144409 20 23 14
115.31025916338 -40.3140410780907 2877.00009346008 20 23 14
122.520506381989 -40.1030108332634 2861.99998855591 19 22 13
130.331456661224 -40.1021167635918 2861.99998855591 18 24 12
139.155477285385 -40.3954051434994 2882.99989700317 17 25 10
147.634595632553 -40.5625328421593 2894.99998092651 16 22 10
156.608402729034 -40.8416837453842 2914.99996185303 15 21 9
164.674520492554 -40.8685766160488 2917.00005531311 15 21 9
173.579469323158 -41.0915538668633 2933.00008773804 16 22 12
-105.976603925228 -48.7894043326378 2914.00003433228 24 27 20
-97.4503457546234 -48.5056340694427 2897.0000743866 27 30 23
-87.5638052821159 -47.4348291754723 2832.99994468689 21 24 17
-82.3658257722855 -48.9424988627434 2923.00009727478 22 25 18
-73.4950378537178 -48.3571216464043 2888.00001144409 22 25 18
-65.6329095363617 -48.374455422163 2888.99993896484 17 20 13
-58.1248290836811 -48.6931316554546 2907.99999237061 14 17 10
-50.2021200954914 -48.7103350460529 2908.99991989136 13 16 9
-42.0558378100395 -48.476304858923 2894.99998092651 13 16 9
-34.4223007559776 -48.8617606461048 2917.99998283386 13 16 9
-26.4091677963734 -48.7783029675484 2913.00010681152 13 16 9
-18.4042267501354 -48.6445315182209 2904.99997138977 13 16 9
-10.2698700502515 -47.7069206535816 2848.99997711182 13 16 9
13.2662365213037 -48.4269298613071 2891.99995994568 11 13 8
21.6681379824877 -49.5821945369244 2960.99996566772 9 11 6
29.5524578541517 -49.247071146965 2940.99998474121 7 9 4
37.2379831969738 -48.7946718931198 2914.00003433228 9 11 6
45.2101714909077 -48.8110706210136 2914.99996185303 13 14 9
53.5889081656933 -49.1957776248455 2937.99996376038 12 13 8
60.0589029490948 -47.9561947286129 2864.00008201599 11 12 7
68.2813003659248 -48.2403002679348 2881.00004196167 12 13 7
76.1205032467842 -48.222940415144 2880.00011444092 14 15 9
84.4496488571167 -48.4901517629623 2895.99990844727 15 16 10
93.0890440940857 -48.8745011389256 2918.99991035461 16 19 12
108.091503381729 -48.4542138874531 2894.00005340576 19 22 13
115.349449217319 -48.1853820383549 2878.00002098084 20 23 14
122.733607888222 -48.0002090334892 2867.00010299683 19 22 13
131.514444947243 -48.3507178723812 2888.00001144409 16 22 10
138.913065195084 -48.1821522116661 2878.00002098084 16 24 11
148.296415805817 -48.6831851303577 2907.99999237061 17 23 11
154.189586639404 -48.0457581579685 2869.99988555908 17 23 11
162.866771221161 -48.2955351471901 2884.99999046326 15 21 11
171.329259872437 -48.4615340828896 2894.99998092651 14 20 10
181.579038500786 -49.0961596369743 2933.00008773804 14 19 12
-114.124998450279 -56.8412989377975 2918.99991035461 12 15 6
-105.430118739605 -56.452926248312 2898.9999294281 20 23 14
-96.6421440243721 -55.9476166963577 2872.99990653992 17 20 11
-89.8811146616936 -56.630115956068 2907.99999237061 27 30 21
-81.0406804084778 -56.0077913105488 2875.99992752075 21 24 15
-73.7742930650711 -56.4564727246761 2898.9999294281 19 22 13
-65.7458901405334 -56.3597902655602 2894.00005340576 15 18 9
-57.9244159162045 -56.4383007586002 2898.00000190735 14 17 8
-50.0981099903584 -56.5362125635147 2903.00011634827 14 17 8
-42.3459820449352 -56.7703731358051 2914.99996185303 15 18 11
-34.6933007240295 -57.2771206498146 2940.99998474121 15 18 11
-26.4995824545622 -56.9268651306629 2923.00009727478 14 17 10
-18.4103902429342 -56.5959997475147 2905.99989891052 13 16 9
-10.43919660151 -56.4013905823231 2895.99990844727 12 15 8
-2.57239071652293 -57.3168061673641 2943.00007820129 12 15 8
5.39886625483632 -56.635145097971 2907.99999237061 12 14 9
13.4083153679967 -56.9271855056286 2923.00009727478 10 12 7
21.5142648667097 -57.2580993175507 2940.00005722046 10 12 7
29.2708352208138 -56.7320100963116 2913.00010681152 7 9 4
37.327092140913 -56.8874813616276 2921.0000038147 8 10 5
45.1166927814484 -56.6533654928207 2908.99991989136 11 12 7
61.0649026930332 -56.7107386887074 2911.99994087219 12 13 8
67.474864423275 -55.4442405700684 2846.99988365173 12 13 7
76.6748487949371 -56.4951561391354 2901.00002288818 11 12 6
84.5363587141037 -56.4554035663605 2898.9999294281 10 11 5
93.1200906634331 -56.8634830415249 2920.00007629395 12 15 8
99.9139696359634 -56.2004186213017 2885.99991798401 15 18 9
107.418209314346 -56.0046620666981 2875.99992752075 18 21 12
115.388460457325 -56.0619868338108 2878.99994850159 20 23 14
123.503021895885 -56.1776421964169 2884.99999046326 19 22 13
131.422162055969 -56.1958588659763 2885.99991798401 15 21 11
140.021950006485 -56.4866103231907 2901.00002288818 16 22 12
148.957997560501 -56.8746142089367 2921.0000038147 18 24 14
153.436034917831 -55.6075386703014 2855.99994659424 18 24 14
163.994342088699 -56.5600320696831 2904.99997138977 16 19 10
172.215417027473 -56.6557422280312 2910.00008583069 15 18 9
181.453585624695 -57.0628717541695 2930.99999427795 11 14 7
-97.313866019249 -64.2352774739265 2892.99988746643 18 21 12
-89.5092710852623 -64.3029361963272 2895.99990844727 25 28 19
-81.7160978913307 -64.3927305936813 2900.00009536743 20 23 14
-73.4426826238632 -64.0827417373657 2885.99991798401 18 21 12
-57.7439181506634 -64.1508400440216 2888.99993896484 15 18 9
-50.2011179924011 -64.5955502986908 2908.99991989136 15 18 9
-42.577963322401 -65.0845989584923 2930.99999427795 16 19 12
-34.4334132969379 -64.8185685276985 2918.99991035461 16 19 12
-26.5718251466751 -65.085381269455 2930.99999427795 15 18 11
-18.6572689563036 -65.3965249657631 2944.9999332428 14 17 10
-10.4498974978924 -64.3752068281174 2898.9999294281 12 15 8
-2.56537063978612 -65.1747062802315 2934.99994277954 12 15 8
5.44522283598781 -65.130278468132 2933.00008773804 10 12 7
13.3301913738251 -64.5306035876274 2905.99989891052 9 11 6
21.4335396885872 -65.041147172451 2928.99990081787 10 12 7
29.5317713171244 -65.2629062533379 2938.99989128113 7 9 4
37.3778119683266 -64.9516582489014 2924.99995231628 6 8 3
52.4569898843765 -63.862569630146 2875.99992752075 11 12 7
60.3932254016399 -63.9507547020912 2880.00011444092 13 14 9
69.4649592041969 -65.0824755430222 2930.99999427795 14 15 9
75.7225379347801 -63.6161416769028 2865.00000953674 12 13 7
84.1563791036606 -64.0815272927284 2885.99991798401 12 13 7
92.7045270800591 -64.5468160510063 2907.00006484985 13 16 9
101.159229874611 -64.8787841200829 2921.99993133545 14 17 8
107.827931642532 -64.1004964709282 2887.00008392334 16 19 10
115.988440811634 -64.2546564340591 2894.00005340576 18 21 12
123.501732945442 -64.0534907579422 2884.99999046326 19 22 13
131.921708583832 -64.318485558033 2897.0000743866 18 21 14
139.586076140404 -64.2059594392776 2891.99995994568 18 21 14
152.736037969589 -63.1148591637611 2842.99993515015 16 19 12
166.307151317596 -65.399669110775 2946.00009918213 16 19 12
-117.641128599644 -75.0227645039558 3009.0000629425 13 16 7
-94.5544540882111 -70.088654756546 2811.00010871887 25 28 19
-89.9718180298805 -72.5832059979439 2911.00001335144 14 17 8
-81.686943769455 -72.2850784659386 2898.9999294281 17 20 11
-73.7217217683792 -72.2361952066422 2897.0000743866 17 20 11
-65.3809309005737 -71.763314306736 2878.00002098084 20 23 14
-57.9630807042122 -72.3126754164696 2900.00009536743 20 23 14
-50.062470138073 -72.3382905125618 2901.00002288818 16 19 10
-41.9092290103436 -71.9399005174637 2884.99999046326 17 20 13
-34.1734848916531 -72.2396224737167 2897.0000743866 16 19 12
-26.6168359667063 -73.2125118374825 2936.00010871887 15 18 11
-18.4289794415236 -72.5395157933235 2908.99991989136 15 18 11
-10.6768636032939 -73.8613307476044 2961.99989318848 14 17 10
-2.5714582297951 -73.362685739994 2941.99991226196 14 17 10
5.52127417176962 -74.1606280207634 2973.99997711182 13 15 10
13.2841598242521 -72.2154751420021 2895.99990844727 8 10 5
28.8079585880041 -71.4918002486229 2867.00010299683 7 9 4
37.4284721910954 -73.0374082922935 2928.99990081787 6 8 3
45.4568713903427 -73.0867460370064 2930.99999427795 9 10 5
60.8328618109226 -72.3373368382454 2901.00002288818 13 14 9
69.5352181792259 -73.1593668460846 2934.00001525879 14 15 9
78.4439072012901 -74.0062072873116 2967.99993515015 15 16 10
85.6133699417114 -73.2072740793228 2936.00010871887 14 15 9
92.9266512393951 -72.6575925946236 2914.00003433228 14 17 10
100.569494068623 -72.4319666624069 2904.99997138977 14 17 8
107.901334762573 -72.0317214727402 2888.99993896484 15 18 9
115.506112575531 -71.8557834625244 2881.99996948242 18 21 12
124.013960361481 -72.2282528877258 2897.0000743866 18 21 12
129.734352231026 -71.029931306839 2848.99997711182 18 21 14
139.825761318207 -72.2249448299408 2897.0000743866 18 21 14
146.608933806419 -71.6746747493744 2875 15 18 11
156.172499060631 -72.4705457687378 2907.00006484985 15 18 11
166.813254356384 -73.6651346087456 2954.99992370605 15 18 11
179.668188095093 -75.6822004914284 3036.00001335144 17 18 10
-90.5578508973122 -81.0557156801224 2930.0000667572 23 26 17
-81.7422121763229 -80.2546665072441 2901.00002288818 16 19 10
-73.3899250626564 -79.7854512929916 2884.0000629425 17 20 11
-66.0161301493645 -80.3950652480125 2905.99989891052 21 24 15
-57.9822920262814 -80.2576094865799 2901.00002288818 21 24 15
-49.8201996088028 -79.8710435628891 2887.00008392334 17 20 11
-41.9522486627102 -79.899363219738 2888.00001144409 16 19 12
-34.137636423111 -80.0658911466599 2894.00005340576 16 19 12
-26.3717081397772 -80.4813131690025 2908.99991989136 15 18 11
-18.7454875558615 -81.8649530410767 2959.00011062622 15 18 11
-10.5757927522063 -81.1734944581985 2934.00001525879 14 17 10
-2.60988180525601 -82.6122537255287 2986.00006103516 14 17 10
5.52305579185486 -82.3078900575638 2974.99990463257 12 14 9
29.0688145905733 -80.0385102629662 2892.99988746643 11 13 8
37.4151952564716 -81.0063555836678 2927.99997329712 7 9 4
60.9159246087074 -80.3679674863815 2904.99997138977 11 12 7
68.5152187943459 -79.9797475337982 2891.00003242493 13 14 8
77.1213844418526 -80.7256698608398 2917.99998283386 17 18 12
85.1748287677765 -80.8075293898582 2921.0000038147 18 19 13
92.5108417868614 -80.2529975771904 2901.00002288818 16 19 12
100.637391209602 -80.4176330566406 2907.00006484985 16 19 12
108.049288392067 -80.0288841128349 2892.99988746643 16 19 10
114.823251962662 -79.2527720332146 2865.00000953674 16 19 10
121.65792286396 -78.6148980259895 2842.00000762939 17 20 13
130.506753921509 -79.277016222477 2865.9999370575 15 18 11
138.520732522011 -79.3857797980309 2869.99988555908 16 19 12
147.830843925476 -80.1859423518181 2898.9999294281 19 20 14
157.835826277733 -81.2625512480736 2937.99996376038 18 19 13
170.367434620857 -83.4729745984077 3017.99988746643 17 18 12
179.961696267128 -84.1066986322403 3040.99988937378 14 15 7
-113.220065832138 -88.0160853266716 2895.99990844727 33 35 30
-106.624871492386 -89.111901819706 2931.99992179871 15 18 11
-99.1599783301353 -89.5997807383537 2947.99995422363 16 19 10
-91.1437422037125 -89.6316394209862 2948.99988174438 21 24 15
-82.9807817935944 -89.5113945007324 2944.9999332428 16 19 10
-73.7196505069733 -88.0536660552025 2897.0000743866 13 16 7
-65.4699578881264 -87.5988155603409 2881.99996948242 17 20 13
-57.7415972948074 -87.8125354647636 2888.99993896484 20 23 16
-50.2853877842426 -88.5732546448708 2914.00003433228 18 21 14
-41.9661514461041 -87.8140702843666 2888.99993896484 18 21 12
-34.3376621603966 -88.4833782911301 2911.00001335144 18 21 12
-26.6523472964764 -89.3653482198715 2940.00005722046 15 18 11
-18.2447470724583 -87.5419080257416 2880.00011444092 13 16 9
-10.7053993269801 -90.2778208255768 2970.00002861023 14 17 10
5.56196039542556 -91.0682082176209 2996.00005149841 9 12 5
13.7195456773043 -90.9160748124123 2990.9999370575 7 9 4
21.7839125543833 -90.4902517795563 2976.99999809265 16 18 13
29.6411141753197 -89.6691530942917 2950.00004768372 8 10 5
37.8363206982613 -90.0029838085175 2960.99996566772 9 11 6
53.1479567289352 -88.5729715228081 2914.00003433228 7 9 4
60.6633983552456 -87.933786213398 2892.99988746643 7 9 4
68.466804921627 -87.8112018108368 2888.99993896484 9 11 6
76.1159509420395 -87.5365510582924 2880.00011444092 15 17 12
83.948902785778 -87.5049158930779 2878.99994850159 17 19 14
91.9354856014252 -87.6251310110092 2882.99989700317 16 18 13
101.120576262474 -88.7786075472832 2921.0000038147 16 18 13
108.607925474644 -88.3818790316582 2907.99999237061 15 18 11
116.30442738533 -88.19779753685 2901.99995040894 13 16 9
121.44210934639 -86.2205177545547 2836.99989318848 15 18 11
130.641475319862 -87.1911123394966 2868.99995803833 15 16 8
138.51872086525 -87.2194468975067 2869.99988555908 25 26 18
146.706849336624 -87.4300003051758 2877.00009346008 18 19 11
171.832650899887 -92.5000384449959 3043.99991035461 5 6 0
-106.332249939442 -96.85018658638 2924.00002479553 23 26 19
-98.7547636032104 -97.249373793602 2936.00010871887 17 20 11
-91.7604044079781 -98.3440428972244 2969.00010108948 18 21 12
-83.1766799092293 -97.7823883295059 2951.99990272522 13 16 7
-74.4309648871422 -96.889354288578 2924.99995231628 13 16 7
-66.3094148039818 -96.6917872428894 2918.99991035461 10 13 6
-58.0604486167431 -96.2290912866592 2904.99997138977 10 13 6
-49.6461018919945 -95.302477478981 2877.00009346008 13 16 9
-34.1837629675865 -95.999538898468 2898.00000190735 15 18 11
-26.497807353735 -96.8281924724579 2923.00009727478 17 20 13
-18.4091571718454 -96.2654203176498 2905.99989891052 16 19 12
-10.4024512693286 -95.6031382083893 2885.99991798401 13 16 9
22.3030894994736 -100.969269871712 3048.00009727478 42 44 39
30.454495921731 -100.405670702457 3030.99989891052 10 12 7
38.2957197725773 -99.2788001894951 2996.99997901917 8 10 5
61.2495392560959 -96.7587307095528 2921.0000038147 6 8 3
68.370908498764 -95.5651327967644 2884.99999046326 6 8 3
76.5640139579773 -95.9614291787148 2897.0000743866 8 10 5
84.122508764267 -95.5625921487808 2884.99999046326 9 11 6
91.8383449316025 -95.395490527153 2880.00011444092 16 18 13
100.391983985901 -96.056342124939 2900.00009536743 15 17 12
109.091706573963 -96.7501625418663 2921.0000038147 13 15 10
115.501031279564 -95.4565405845642 2881.99996948242 12 14 9
141.943231225014 -97.4042192101479 2940.99998474121 17 18 10
162.343561649323 -100.081793963909 3022.0000743866 7 8 0
-97.4412709474564 -103.865027427673 2897.0000743866 17 20 11
-90.3989598155022 -104.870609939098 2924.99995231628 13 16 7
-83.6260467767715 -106.413878500462 2967.99993515015 13 16 7
-73.05558770895 -102.937467396259 2871.00005149841 13 16 7
-66.0810843110085 -104.301191866398 2908.99991989136 9 12 5
-59.0387471020222 -105.915807187557 2953.9999961853 8 11 4
-34.1359861195087 -103.767022490501 2894.00005340576 12 15 8
-26.542667299509 -104.986667633057 2927.99997329712 15 18 11
-18.3264818042517 -103.732109069824 2892.99988746643 16 19 12
-10.5644660070539 -105.094909667969 2930.99999427795 13 16 9
-2.56081135012209 -105.059176683426 2930.0000667572 12 15 8
30.5242985486984 -108.930662274361 3038.00010681152 11 13 8
38.614496588707 -108.356334269047 3022.0000743866 8 10 5
45.8107478916645 -105.917371809483 2953.9999961853 8 10 5
53.1644076108933 -104.518100619316 2914.99996185303 8 10 5
69.2228525876999 -104.731015861034 2921.0000038147 6 8 3
84.3251422047615 -103.688456118107 2891.99995994568 8 10 5
91.8367505073547 -103.25662791729 2880.00011444092 16 18 13
99.8363494873047 -103.39830070734 2884.0000629425 17 19 14
117.182224988937 -104.8284471035 2924.00002479553 14 16 11
135.463729500771 -106.652274727821 2974.99990463257 18 19 13
148.28272163868 -104.245312511921 2907.99999237061 15 16 8
159.869655966759 -106.680169701576 2976.0000705719 8 9 1
167.706295847893 -106.498003005981 2970.99995613098 4 5 0
-105.637483298779 -112.078756093979 2904.99997138977 34 37 30
-96.4640453457832 -110.653191804886 2868.00003051758 12 15 6
-88.2957205176353 -110.230579972267 2857.00011253357 16 19 10
-80.9196382761002 -110.810957849026 2871.99997901917 22 25 16
-75.7259950041771 -114.825181663036 2976.0000705719 20 23 14
-66.6023045778275 -113.128870725632 2931.99992179871 19 22 15
-58.6179383099079 -113.168679177761 2933.00008773804 18 21 14
-50.3690242767334 -112.629555165768 2918.99991035461 14 17 10
-41.6879616677761 -110.739782452583 2869.99988555908 13 16 9
-34.2650823295116 -112.091012299061 2904.99997138977 11 14 7
-26.3246092945337 -112.053029239178 2904.00004386902 12 15 8
-18.4148214757442 -112.169221043587 2907.00006484985 15 18 11
-10.4345120489597 -111.706472933292 2894.99998092651 15 18 11
-2.55726696923375 -112.902767956257 2926.00011825562 14 17 10
21.6803289949894 -114.329881966114 2963.00005912781 57 59 54
29.8103615641594 -114.48372900486 2967.00000762939 10 12 7
37.6554504036903 -113.711357116699 2947.00002670288 9 11 6
46.2751127779484 -115.138180553913 2983.99996757507 8 10 5
60.7231147587299 -111.740626394749 2895.99990844727 10 12 7
70.7382187247276 -115.173354744911 2984.99989509583 10 12 7
77.4069130420685 -113.011203706264 2928.99990081787 10 12 7
84.6734568476677 -112.045049667358 2904.00004386902 10 12 7
92.2176614403725 -111.580327153206 2891.99995994568 12 14 9
98.5536575317383 -109.842285513878 2846.99988365173 14 16 11
108.639612793922 -112.232320010662 2908.99991989136 15 17 12
118.342213332653 -113.92766982317 2953.00006866455 12 14 9
134.869262576103 -114.269986748695 2961.99989318848 8 11 4
140.0076597929 -111.914068460464 2901.00002288818 13 16 7
151.135414838791 -114.341624081135 2963.99998664856 5 8 0
-107.417166233063 -122.031226754189 2953.9999961853 20 23 16
-97.3702147603035 -119.596011936665 2894.99998092651 20 23 14
-89.1283601522446 -119.143523275852 2884.0000629425 7 10 1
-81.7069038748741 -119.806297123432 2900.00009536743 22 25 16
-74.5794400572777 -121.08863145113 2930.99999427795 22 25 16
-66.7145401239395 -121.337987482548 2937.00003623962 20 23 16
-58.556791394949 -121.050097048283 2930.0000667572 19 22 15
-50.3162369132042 -120.472818613052 2915.99988937378 19 22 15
-42.268130928278 -120.225921273232 2910.00008583069 15 18 11
-34.1700352728367 -119.689621031284 2897.0000743866 14 17 10
-26.3150129467249 -119.938142597675 2903.00011634827 15 18 11
-18.3194316923618 -119.484141469002 2891.99995994568 17 20 13
-10.463135316968 -119.938910007477 2903.00011634827 15 17 12
13.5626001283526 -122.169844806194 2957.00001716614 7 9 4
21.3213637471199 -120.392926037312 2914.00003433228 2 4 1
29.4882468879223 -121.26000225544 2934.99994277954 9 11 8
37.833571434021 -122.333504259586 2960.99996566772 9 11 8
45.2351830899715 -120.514780282974 2917.00005531311 9 11 6
60.9525367617607 -120.099425315857 2907.00006484985 11 13 8
68.7462016940117 -119.850181043148 2901.00002288818 11 13 8
77.8281912207603 -121.666431427002 2944.9999332428 10 12 7
85.7505425810814 -121.499471366405 2940.99998474121 9 11 6
92.7897691726685 -120.216943323612 2910.00008583069 11 13 8
100.455559790134 -119.884446263313 2901.99995040894 12 14 9
107.330344617367 -118.725597858429 2874.00007247925 10 12 7
118.419982492924 -122.069343924522 2954.99992370605 9 11 6
128.281906247139 -123.801775276661 2996.99997901917 9 11 6
133.637189865112 -121.237948536873 2934.99994277954 9 12 5
139.763563871384 -119.62416023016 2895.99990844727 15 18 11
150.469556450844 -121.893018484116 2950.99997520447 5 8 1
162.06593811512 -124.615930020809 3016.99995994568 16 19 12
-116.454072296619 -131.191238760948 2979.00009155273 18 20 15
-107.269406318665 -129.916578531265 2950.00004768372 13 16 9
-99.2852076888084 -130.006939172745 2951.99990272522 13 16 7
-91.6605591773987 -130.625635385513 2966.00008010864 14 17 8
-83.7055146694183 -130.847781896591 2970.99995613098 15 18 9
-74.9340578913689 -129.70444560051 2944.9999332428 16 19 10
-66.2588104605675 -128.472819924355 2917.00005531311 17 20 13
-57.7761232852936 -127.329081296921 2891.00003242493 17 20 13
-49.9873161315918 -127.594545483589 2897.0000743866 17 20 13
-42.0783907175064 -127.59555876255 2897.0000743866 15 18 11
-34.4051867723465 -128.477290272713 2917.00005531311 16 19 12
-26.0243788361549 -126.451939344406 2871.00005149841 18 20 15
-18.1733425706625 -126.364320516586 2868.99995803833 17 19 14
-10.4196574538946 -127.333626151085 2891.00003242493 10 12 7
-2.5728908367455 -129.668161273003 2944.00000572205 8 10 5
5.54658472537994 -131.606101989746 2987.99991607666 4 6 1
13.4109538048506 -128.787025809288 2924.00002479553 7 9 6
21.5257704257965 -129.579439759254 2941.99991226196 25 27 24
29.6081770211458 -129.799097776413 2947.00002670288 8 10 7
46.0715927183628 -130.854457616806 2970.99995613098 10 12 7
61.5382939577103 -129.266500473022 2934.99994277954 12 14 9
68.3655738830566 -127.062931656837 2884.99999046326 14 16 11
76.875165104866 -128.118321299553 2908.99991989136 11 13 8
85.4862928390503 -129.129469394684 2931.99992179871 10 12 7
93.4573784470558 -129.083454608917 2930.99999427795 10 12 7
101.388014853001 -128.993213176727 2928.99990081787 10 12 7
109.531365334988 -129.167050123215 2933.00008773804 10 12 7
118.25717240572 -129.957243800163 2950.99997520447 9 11 6
127.851143479347 -131.539881229401 2986.99998855591 11 13 8
135.318994522095 -130.876421928406 2971.99988365173 8 11 4
162.223652005196 -132.980316877365 3019.99998092651 20 23 16
-116.373255848885 -139.226749539375 2976.99999809265 16 18 13
-107.266969978809 -137.966632843018 2950.00004768372 15 18 11
-98.7111926078796 -137.267500162125 2934.99994277954 13 16 7
-83.5627391934395 -138.721659779549 2966.00008010864 16 19 10
-74.3980184197426 -136.759132146835 2924.00002479553 16 19 10
-65.2805864810944 -134.422212839127 2874.00007247925 18 21 14
-56.8155460059643 -132.973715662956 2842.99993515015 18 21 14
-48.4850332140923 -131.431460380554 2809.99994277954 18 21 14
-42.0774295926094 -135.501772165298 2897.0000743866 16 19 12
-34.3926027417183 -136.391371488571 2915.99988937378 17 20 13
-26.5041906386614 -136.766284704208 2924.00002479553 17 19 14
-18.299613147974 -135.129734873772 2888.99993896484 15 17 12
-10.5131259188056 -136.439755558968 2917.00005531311 9 11 6
-2.59555387310684 -138.918906450272 2970.00002861023 7 9 4
5.47963241115212 -138.076946139336 2951.99990272522 9 11 6
13.5986870154738 -138.684779405594 2964.99991416931 6 8 5
21.6496586799622 -138.403728604317 2959.00011062622 22 24 21
38.4962745010853 -140.928074717522 3013.00001144409 9 11 8
68.1270509958267 -134.468421339989 2875 15 17 12
76.4505863189697 -135.308593511581 2892.99988746643 12 14 9
84.6679881215096 -135.821178555489 2904.00004386902 12 14 9
91.9885337352753 -134.930476546288 2884.99999046326 11 13 8
111.097306013107 -139.134898781776 2974.99990463257 11 13 8
118.494912981987 -138.290420174599 2957.00001716614 12 14 9
125.622555613518 -137.258678674698 2934.99994277954 12 14 9
135.543584823608 -139.219805598259 2976.99999809265 10 13 6
142.073854804039 -137.673333287239 2944.00000572205 14 17 10
151.074811816216 -138.558432459831 2963.00005912781 14 16 11
163.347989320755 -142.202213406563 3040.99988937378 8 10 5
-107.809789478779 -146.758571267128 2964.99991416931 17 20 13
-99.3141978979111 -146.167173981667 2953.00006866455 15 18 9
-89.9875238537788 -144.140094518661 2911.99994087219 16 19 10
-82.7155336737633 -145.330220460892 2936.00010871887 16 19 10
-64.6657347679138 -140.928372740746 2846.99988365173 18 21 14
-55.8349639177322 -138.306319713593 2793.99991035461 16 19 12
-49.035981297493 -140.683695673943 2842.00000762939 15 18 11
-42.0618802309036 -143.357917666435 2895.99990844727 16 18 13
-26.8661100417376 -146.725818514824 2963.99998664856 10 12 7
-18.6792127788067 -145.983844995499 2948.99988174438 8 10 5
-10.6318024918437 -146.033719182014 2950.00004768372 6 8 3
-2.58063431829214 -146.182373166084 2953.00006866455 6 8 3
5.55003480985761 -148.013949394226 2990.00000953674 7 9 6
13.6350486427546 -147.172182798386 2973.00004959106 7 9 6
22.0588482916355 -149.250850081444 3015.00010490417 21 23 20
30.1894694566727 -148.755177855492 3005.00011444092 3 5 2
46.4570783078671 -148.307740688324 2996.00005149841 10 12 7
53.4504540264606 -145.088866353035 2930.99999427795 9 11 6
68.8836574554443 -143.89780163765 2907.00006484985 16 18 13
75.180321931839 -140.827015042305 2845.00002861023 13 15 10
84.8117172718048 -143.992990255356 2908.99991989136 14 16 11
90.0094732642174 -139.733910560608 2822.99995422363 12 14 9
110.795892775059 -146.856591105461 2967.00000762939 13 15 10
118.331775069237 -146.160826086998 2953.00006866455 14 16 11
126.304343342781 -146.058797836304 2950.99997520447 14 16 11
134.174466133118 -145.857617259026 2947.00002670288 9 14 8
-117.266550660133 -156.673356890678 3000 20 22 17
-106.679901480675 -153.229430317879 2934.00001525879 14 17 10
-98.6726656556129 -153.232097625732 2934.00001525879 22 25 16
-90.0779366493225 -152.242258191109 2914.99996185303 19 22 13
-82.1499675512314 -152.296736836433 2915.99988937378 18 21 12
-74.4706466794014 -152.873307466507 2927.00004577637 19 22 13
-65.0501996278763 -149.584710597992 2864.00008201599 19 22 15
-56.5329529345036 -147.758260369301 2828.9999961853 18 21 14
-27.2098518908024 -156.798616051674 3002.00009346008 7 9 4
-19.21078376472 -158.418402075768 3032.99999237061 6 8 3
-10.8369523659348 -157.060772180557 3006.99996948242 5 7 2
5.5536050349474 -156.277433037758 2992.00010299683 10 12 9
13.9144537970424 -158.470898866653 3033.99991989136 9 11 8
22.1168119460344 -157.895877957344 3023.00000190735 29 31 28
38.6604443192482 -158.05096924305 3026.00002288818 13 15 14
59.9823743104935 -149.429067969322 2861.00006103516 15 17 12
78.1115368008614 -154.387205839157 2956.00008964539 14 16 11
85.8882665634155 -153.862789273262 2946.00009918213 15 17 12
91.3462936878204 -149.630054831505 2865.00000953674 16 18 13
100.376911461353 -151.455491781235 2900.00009536743 16 18 13
110.008902847767 -153.855115175247 2946.00009918213 16 18 13
116.926297545433 -152.389869093895 2917.99998283386 17 19 14
124.80317056179 -152.282267808914 2915.99988937378 17 19 14
-96.9885438680649 -158.489137887955 2884.0000629425 24 27 18
-90.3845205903053 -160.744860768318 2924.99995231628 19 22 13
-82.7112048864365 -161.351770162582 2936.00010871887 22 25 16
-74.773944914341 -161.518782377243 2938.99989128113 22 25 16
-66.3657709956169 -160.586461424828 2921.99993133545 21 24 17
-57.9701960086823 -159.434050321579 2901.00002288818 19 22 15
-50.1893721520901 -159.875214099884 2908.99991989136 14 17 10
-42.6841787993908 -161.525264382362 2938.99989128113 10 12 7
-2.57176021113992 -161.748230457306 2943.00007820129 7 9 6
14.0424892306328 -168.288186192513 3062.00003623962 7 9 6
30.4390285164118 -166.528254747391 3029.99997138977 5 7 6
52.8641231358051 -159.325107932091 2898.9999294281 10 12 7
60.0855834782124 -157.509908080101 2865.9999370575 15 17 12
68.0981278419495 -157.947823405266 2874.00007247925 15 17 12
78.5322263836861 -163.331612944603 2971.99988365173 12 14 9
86.7314040660858 -163.49421441555 2974.99990463257 14 16 11
94.7552919387817 -163.326859474182 2971.99988365173 14 16 11
102.658599615097 -162.994414567947 2966.00008010864 15 17 12
110.19267141819 -162.167191505432 2950.99997520447 15 17 12
117.444083094597 -161.065012216568 2930.99999427795 16 18 13
124.585852026939 -159.962683916092 2911.00001335144 16 18 13
133.165910840034 -160.728469491005 2924.99995231628 12 17 11
-113.703228533268 -167.792841792107 2908.99991989136 22 24 19
-82.2581425309181 -168.438628315926 2920.00007629395 22 25 16
-74.873611330986 -169.767633080482 2943.00007820129 22 25 16
-66.681869328022 -169.365882873535 2936.00010871887 19 22 15
-58.3682097494602 -168.502405285835 2921.0000038147 15 18 11
-50.5847632884979 -169.138520956039 2931.99992179871 9 12 5
-43.3219857513905 -172.081932425499 2983.00004005432 11 13 8
-18.5573641210794 -169.027134776115 2930.0000667572 8 10 7
-2.57605663500726 -170.066148042679 2947.99995422363 8 10 7
14.2071861773729 -178.719118237495 3098.00004959106 8 10 7
22.5252751260996 -177.622497081757 3078.9999961853 53 55 52
30.2071198821068 -173.468172550201 3006.99996948242 11 13 12
37.8790087997913 -171.044290065765 2964.99991416931 8 10 9
45.7710959017277 -170.293152332306 2951.99990272522 9 11 6
52.972037345171 -167.580425739288 2904.99997138977 10 12 7
60.5241470038891 -166.540428996086 2887.00008392334 14 16 11
69.0202787518501 -168.03839802742 2913.00010681152 12 14 9
87.1370956301689 -172.41795361042 2989.00008201599 11 13 8
95.2627435326576 -172.357648611069 2987.99991607666 10 12 7
111.011050641537 -171.486482024193 2973.00004959106 11 13 8
116.63942784071 -167.907014489174 2911.00001335144 11 13 8
125.30991435051 -168.884098529816 2927.99997329712 12 14 9
-113.817147910595 -175.909027457237 2911.99994087219 18 20 15
-104.744017124176 -174.039646983147 2881.00004196167 26 28 23
-91.8315649032593 -179.542884230614 2971.99988365173 24 27 20
-82.368403673172 -176.645755767822 2924.00002479553 23 26 19
-74.6678784489632 -177.312657237053 2934.99994277954 20 23 16
-66.5209218859673 -176.95227265358 2928.99990081787 14 17 10
-58.4064498543739 -176.591694355011 2923.00009727478 10 13 6
-50.5487658083439 -177.016243338585 2930.0000667572 6 9 2
-43.0883429944515 -179.253026843071 2967.00000762939 10 13 6
-26.1018425226212 -173.998937010765 2880.00011444092 9 11 6
-10.4072038084269 -174.483358860016 2888.00001144409 8 10 9
5.49188628792763 -178.773105144501 2959.00011062622 0 1 0
14.1700794920325 -186.687380075455 3089.99991416931 13 15 14
29.7441426664591 -178.892329335213 2960.99996566772 15 17 14
38.1972640752792 -180.643364787102 2990.00000953674 16 18 15
45.6922240555286 -178.044229745865 2947.00002670288 9 10 5
70.2265873551369 -179.066032171249 2963.99998664856 14 15 9
79.0297314524651 -180.694952607155 2990.9999370575 10 11 5
86.5223407745361 -179.30294573307 2967.99993515015 12 13 7
103.967875242233 -181.472033262253 3003.99994850159 11 14 7
110.261015594006 -178.387939929962 2953.00006866455 11 14 7
118.278756737709 -178.324103355408 2951.99990272522 11 14 7
135.343462228775 -179.585084319115 2973.00004959106 13 16 9
-124.267846345901 -187.635883688927 2971.99988365173 50 52 47
-112.4457269907 -181.641757488251 2877.00009346008 19 21 16
-88.9861360192299 -181.840598583221 2880.00011444092 22 24 19
-80.9855908155441 -181.527584791183 2875 16 19 12
-73.2918381690979 -181.908831000328 2881.00004196167 12 15 8
-67.1547651290894 -186.709776520729 2957.00001716614 6 9 2
-59.203889220953 -187.090620398521 2963.00005912781 7 10 3
-50.0986613333225 -183.366924524307 2904.00004386902 10 13 6
-43.261282145977 -188.104137778282 2979.00009155273 9 12 5
-34.4104990363121 -184.253603219986 2917.99998283386 9 12 5
-27.1160751581192 -188.927203416824 2992.00010299683 9 11 6
-18.8285708427429 -187.728211283684 2973.00004959106 9 11 8
-10.5257974937558 -184.445157647133 2921.0000038147 9 11 10
-2.56541534326971 -185.392528772354 2936.00010871887 9 11 10
22.2093518823385 -191.70606136322 3036.00001335144 24 26 25
38.6942960321903 -191.262140870094 3029.00004386902 8 10 7
46.0474081337452 -187.535330653191 2970.00002861023 10 11 6
61.6944245994091 -185.82709133625 2943.00007820129 15 16 10
77.3891508579254 -184.938728809357 2928.99990081787 11 12 6
87.1027037501335 -188.661441206932 2987.99991607666 12 13 7
93.4398621320724 -185.059636831284 2930.99999427795 11 14 7
102.545730769634 -187.077015638351 2963.00005912781 11 14 7
111.340433359146 -188.273280858994 2982.00011253357 11 14 7
129.838660359383 -191.548779606819 3033.99991989136 12 15 8
-115.568786859512 -194.757044315338 2957.00001716614 18 20 15
-89.7557213902473 -191.34210050106 2904.99997138977 20 22 17
-80.6731507182121 -188.644349575043 2864.00008201599 13 16 9
-74.4596719741821 -192.796543240547 2927.00004577637 10 13 6
-65.8581629395485 -191.020399332047 2900.00009536743 7 10 3
-58.9222609996796 -194.250032305717 2948.99988174438 7 10 3
-51.4081306755543 -196.29380106926 2980.00001907349 9 12 5
-43.8843183219433 -199.061959981918 3022.0000743866 8 11 4
-35.7654839754105 -199.787825345993 3032.99999237061 9 12 5
-27.3417662829161 -198.734924197197 3016.99995994568 9 11 6
-18.6443068087101 -193.927049636841 2944.00000572205 9 11 8
-10.6948157772422 -195.508435368538 2967.99993515015 9 11 10
-2.57494417019188 -194.125354290009 2947.00002670288 9 11 10
5.4581337608397 -193.730071187019 2940.99998474121 0 1 0
21.6014850884676 -194.519639015198 2953.00006866455 0 1 0
29.7322236001492 -194.979906082153 2960.00003814697 16 18 15
46.9916462898254 -199.654221534729 3030.99989891052 10 11 5
53.2406382262707 -192.34099984169 2920.00007629395 10 11 5
77.941507101059 -194.310620427132 2950.00004768372 11 12 6
85.8464688062668 -193.97859275341 2944.9999332428 12 13 7
94.170093536377 -194.56847012043 2953.9999961853 11 14 7
101.019725203514 -192.259982228279 2918.99991035461 11 14 7
110.73949187994 -195.352151989937 2966.00008010864 11 14 7
118.872351944447 -195.414304733276 2967.00000762939 12 15 8
-90.741403400898 -201.459333300591 2937.00003623962 11 13 8
-82.3886469006538 -200.639128684998 2924.99995231628 11 14 7
-75.2203315496445 -202.836841344833 2957.00001716614 12 15 8
-66.3782730698586 -200.507000088692 2923.00009727478 13 16 9
-58.7204918265343 -201.606646180153 2938.99989128113 12 15 8
-51.3201616704464 -204.078048467636 2974.99990463257 11 14 7
-43.6650291085243 -206.274792551994 3006.99996948242 9 12 5
-18.6563488095999 -202.093482017517 2946.00009918213 9 11 6
-10.5791548267007 -201.407968997955 2936.00010871887 9 11 10
