ply
format ascii 1.0
comment KinectMotionCapture
element vertex 756
property float x
property float y
property float z
property uchar red
property uchar green
property uchar blue
end_header
151.227608323097 446.501314640045 2252.00009346008 172 174 171
158.469006419182 449.66185092926 2267.99988746643 172 174 171
165.869548916817 453.020185232162 2285.00008583069 165 167 164
173.136100172997 455.783039331436 2299.00002479553 160 162 159
199.769377708435 459.494352340698 2318.00007820129 215 217 214
205.446273088455 458.091914653778 2311.00010871887 151 151 149
211.359351873398 457.283735275269 2306.99992179871 150 150 148
217.627450823784 457.268089056015 2306.99992179871 151 151 149
223.700821399689 456.855654716492 2305.0000667572 154 154 152
229.662895202637 456.244617700577 2302.00004577637 162 162 160
235.608071088791 455.63331246376 2299.00002479553 165 165 163
241.325840353966 454.625248908997 2293.99991035461 165 165 163
246.692091226578 453.022450208664 2286.00001335144 168 170 167
252.124816179276 451.617509126663 2279.00004386902 168 170 167
258.085578680038 451.203167438507 2276.99995040894 173 175 172
264.847159385681 452.175498008728 2282.00006484985 178 180 177
271.754026412964 453.345626592636 2288.00010681152 183 185 182
279.178649187088 455.30778169632 2298.00009727478 181 186 182
287.277787923813 458.260059356689 2312.99996376038 185 190 186
-266.882061958313 414.079487323761 2118.99995803833 208 210 207
-260.145992040634 412.534326314926 2111.00006103516 208 210 207
-253.332078456879 410.793215036392 2101.99999809265 201 203 200
-247.037529945374 409.833371639252 2096.99988365173 200 202 199
-240.999728441238 409.264147281647 2094.00010108948 199 199 197
-234.977528452873 408.694475889206 2091.00008010864 196 196 194
-229.299947619438 408.710837364197 2091.00008010864 194 194 192
-223.942548036575 409.313261508942 2094.00010108948 194 194 192
-218.88093650341 410.50186753273 2099.99990463257 193 193 191
-214.090675115585 412.276655435562 2108.99996757507 189 189 187
-209.34970676899 414.246737957001 2118.99995803833 187 187 185
-204.9380838871 416.998594999313 2132.99989700317 185 187 184
-199.889704585075 418.577313423157 2141.00003242493 182 184 181
-194.797217845917 420.155704021454 2148.9999294281 175 177 174
-190.364107489586 423.297971487045 2164.99996185303 161 163 160
-186.610385775566 428.199857473373 2190.00005722046 155 157 154
-162.930324673653 444.885432720184 2275.00009536743 215 217 214
-156.192973256111 443.332880735397 2266.99995994568 192 194 191
-149.498701095581 441.779851913452 2259.0000629425 151 153 150
-142.784014344215 440.030694007874 2250 158 158 156
-136.057108640671 438.085526227951 2240.00000953674 158 158 156
-129.790276288986 437.508761882782 2236.99998855591 158 158 156
-123.650014400482 437.322825193405 2236.00006103516 170 170 168
-117.199309170246 435.962855815887 2229.00009155273 174 174 172
-110.586866736412 433.819979429245 2217.99993515015 173 173 171
-104.128248989582 432.067841291428 2209.00011062622 172 172 170
-97.984753549099 431.488811969757 2206.00008964539 177 177 175
-91.8155759572983 430.713623762131 2201.99990272522 179 179 177
-85.7068598270416 430.133581161499 2198.99988174438 178 178 176
-79.4691815972328 428.770691156387 2191.99991226196 183 183 181
-73.235809803009 427.211701869965 2184.00001525879 181 181 179
-67.0457631349564 425.652235746384 2176.00011825562 182 182 180
-60.9552077949047 424.483448266983 2170.00007629395 183 183 181
-54.8971258103848 423.314243555069 2164.00003433228 185 185 183
-48.8941669464111 422.340154647827 2158.99991989136 186 186 184
-42.938195168972 421.561181545258 2154.99997138977 187 187 185
-37.0554700493813 421.368688344955 2154.00004386902 187 187 185
-31.1635881662369 420.98006606102 2151.99995040894 187 187 185
-25.2707302570343 420.395344495773 2148.9999294281 187 187 185
-19.4031652063131 420.005887746811 2147.0000743866 186 186 184
-13.5590536519885 420.007199048996 2147.0000743866 185 185 183
-7.71130435168743 419.812321662903 2145.99990844727 185 185 183
-1.86810398008674 419.421494007111 2144.00005340576 186 186 184
3.96236451342702 418.834507465363 2141.00003242493 187 187 185
9.79477725923061 419.029593467712 2141.99995994568 187 187 185
15.6398992985487 419.419854879379 2144.00005340576 187 187 185
21.4858409017324 419.61407661438 2144.99998092651 188 188 186
27.298940345645 419.220924377441 2142.99988746643 188 188 186
33.1319868564606 419.218569993973 2142.99988746643 188 188 186
39.0194691717625 419.802635908127 2145.99990844727 188 188 186
44.9022613465786 420.190662145615 2148.00000190735 188 188 186
50.819419324398 420.773804187775 2151.00002288818 188 188 186
56.805431842804 421.747744083405 2155.99989891052 186 188 185
62.7312809228897 422.13436961174 2157.99999237061 189 191 188
68.6677992343903 422.52054810524 2160.00008583069 188 190 187
74.6150016784668 422.906279563904 2161.99994087219 181 183 180
80.6845501065254 423.878341913223 2167.00005531311 180 182 179
86.7810472846031 424.849927425385 2171.99993133545 180 182 179
92.9471552371979 426.01665854454 2177.99997329712 184 186 183
99.0094318985939 426.596134901047 2180.99999427795 184 186 183
105.183966457844 427.566349506378 2186.00010871887 190 192 189
111.334532499313 428.340464830399 2190.00005722046 193 195 192
117.774300277233 430.092036724091 2198.99988174438 189 191 188
124.150104820728 431.451976299286 2206.00008964539 169 171 168
130.858615040779 433.789253234863 2217.99993515015 169 171 168
137.446820735931 435.539305210114 2226.99999809265 170 172 169
144.212454557419 437.679976224899 2237.99991607666 173 175 172
151.306092739105 440.602362155914 2253.00002098084 179 181 178
158.480882644653 443.524181842804 2267.99988746643 163 165 162
166.027128696442 447.227627038956 2286.99994087219 165 167 164
173.073679208755 449.366092681885 2298.00009727478 167 169 166
199.697852134705 453.02626490593 2316.99991226196 215 217 214
205.550208687782 452.033877372742 2312.00003623962 145 145 143
211.649641394615 451.627641916275 2309.99994277954 150 150 148
217.737585306168 451.221078634262 2308.00008773804 151 151 149
223.716989159584 450.618624687195 2305.0000667572 155 155 153
229.57968711853 449.820309877396 2301.00011825562 159 159 157
235.624954104424 449.412673711777 2299.00002479553 165 165 163
241.448268294334 448.613733053207 2295.00007629395 166 166 164
246.925458312035 447.228103876114 2288.00010681152 166 168 165
252.474576234818 446.03767991066 2282.00006484985 166 168 165
258.330464363098 445.433348417282 2279.00004386902 171 173 170
264.749616384506 445.805847644806 2280.99989891052 173 175 172
271.535366773605 446.764409542084 2286.00001335144 180 182 179
278.712004423141 448.308765888214 2293.99991035461 185 190 186
286.428093910217 450.634360313416 2305.99999427795 184 189 185
-265.892684459686 406.804084777832 2111.00006103516 208 210 207
-259.177893400192 405.280292034149 2102.9999256134 208 210 207
-252.867460250854 404.334306716919 2098.00004959106 201 203 200
-246.583446860313 403.387904167175 2092.99993515015 200 202 199
-240.55615067482 402.826637029648 2089.99991416931 201 201 199
-234.769225120544 402.650445699692 2088.99998664856 199 199 197
-229.206413030624 402.859449386597 2089.99991416931 194 194 192
-223.851457238197 403.45373749733 2092.99993515015 194 194 192
-218.583807349205 404.240399599075 2096.99988365173 193 193 191
-213.699877262115 405.797958374023 2105.00001907349 190 190 188
-208.870708942413 407.548129558563 2114.00008201599 186 186 184
-204.376369714737 410.069197416306 2127.00009346008 183 185 182
-199.717402458191 412.39720582962 2138.99993896484 180 182 179
-194.81135904789 414.339542388916 2148.9999294281 175 177 174
-190.641805529594 418.016880750656 2167.99998283386 157 159 156
-186.794459819794 422.658175230026 2191.99991226196 155 157 154
-163.085669279099 439.11337852478 2276.99995040894 216 218 215
-156.342446804047 437.582463026047 2269.00005340576 191 193 190
-149.509876966476 435.665279626846 2259.0000629425 153 155 152
-142.858177423477 434.133291244507 2250.99992752075 161 161 159
-136.188805103302 432.408004999161 2242.00010299683 158 158 156
-129.916101694107 431.839317083359 2239.00008201599 159 159 157
-123.659335076809 431.270241737366 2236.00006103516 172 172 170
-117.103010416031 429.543435573578 2226.99999809265 175 175 173
-110.495552420616 427.430361509323 2216.00008010864 173 173 171
-104.136161506176 426.088273525238 2209.00011062622 172 172 170
-97.947783768177 425.324320793152 2204.99992370605 178 178 176
-91.780886054039 424.559980630875 2200.99997520447 179 179 177
-85.5964720249176 423.602283000946 2196.00009918213 179 179 177
-79.3664902448654 422.258228063583 2188.99989128113 181 181 179
-73.1408149003983 420.720845460892 2180.99999427795 180 180 178
-66.9892728328705 419.375836849213 2174.00002479553 181 181 179
-60.9317980706692 418.416261672974 2168.99991035461 182 182 180
-54.9013465642929 417.456150054932 2164.00003433228 184 184 182
-48.8526299595833 416.1097407341 2157.00006484985 185 185 183
-42.9016463458538 415.34161567688 2153.00011634827 186 186 184
-37.006713449955 414.958864450455 2151.00002288818 186 186 184
-31.1080627143383 414.382725954056 2148.00000190735 186 186 184
-25.237400084734 413.999050855637 2145.99990844727 186 186 184
-19.3865858018398 413.80786895752 2144.99998092651 185 185 183
-13.5600995272398 414.194941520691 2147.0000743866 185 185 183
-7.71549437195063 414.19580578804 2147.0000743866 186 186 184
-1.86999083962291 414.003223180771 2145.99990844727 186 186 184
3.96822299808264 413.617312908173 2144.00005340576 187 187 185
9.80468094348907 413.61677646637 2144.00005340576 188 188 186
15.6411062926054 413.615792989731 2144.00005340576 187 187 185
21.4875005185604 413.807302713394 2144.99998092651 190 190 188
27.3137874901295 413.612514734268 2144.00005340576 189 189 187
33.1654697656631 413.803100585938 2144.99998092651 189 189 187
39.0224754810333 413.993179798126 2145.99990844727 188 188 186
44.9057184159756 414.375841617584 2148.00000190735 188 188 186
50.7760681211948 414.565056562424 2148.9999294281 188 188 186
56.757103651762 415.525525808334 2154.00004386902 186 188 185
62.7070218324661 416.099637746811 2157.00006484985 185 187 184
68.6730816960335 416.673392057419 2160.00008583069 184 186 183
74.6207162737846 417.053669691086 2161.99994087219 184 186 183
80.6907191872597 418.012291193008 2167.00005531311 184 186 183
86.8276357650757 419.163316488266 2173.00009727478 185 187 184
92.911571264267 419.928044080734 2177.00004577637 186 188 185
99.0623757243156 420.88520526886 2181.99992179871 185 187 184
105.191953480244 421.649008989334 2186.00010871887 192 194 191
111.393816769123 422.605216503143 2190.99998474121 194 196 193
117.836773395538 424.332499504089 2200.00004768372 184 186 183
124.328330159187 426.059305667877 2209.00011062622 168 170 167
130.809471011162 427.592664957047 2217.00000762939 176 178 175
137.395426630974 429.318428039551 2226.0000705719 173 175 172
144.223242998123 431.622207164764 2237.99991607666 177 179 176
151.451751589775 434.889823198318 2255.00011444092 179 181 178
158.632457256317 437.771111726761 2269.99998092651 162 164 161
166.257277131081 441.615998744965 2289.99996185303 164 166 163
173.463106155396 444.110423326492 2302.99997329712 167 169 166
200.057238340378 447.526574134827 2321.00009918213 213 215 212
205.742985010147 446.162104606628 2313.99989128113 145 145 143
211.756616830826 445.568591356277 2311.00010871887 150 150 148
217.753320932388 444.974690675735 2308.00008773804 151 151 149
223.927199840546 444.766014814377 2306.99992179871 156 156 154
229.795679450035 443.978607654572 2302.99997329712 160 160 158
235.641747713089 443.190932273865 2299.00002479553 163 163 161
241.254985332489 442.017376422882 2292.99998283386 164 164 162
246.942922472954 441.036373376846 2288.00010681152 166 168 165
252.713590860367 440.247744321823 2283.99991989136 166 168 165
258.688598871231 439.844340085983 2282.00006484985 170 172 169
264.884173870087 439.826101064682 2282.00006484985 172 174 171
271.554201841354 440.578490495682 2286.00001335144 178 180 177
278.366684913635 441.523134708405 2290.99988937378 184 189 185
285.702437162399 443.238198757172 2299.99995231628 183 188 184
-264.525145292282 399.000972509384 2099.99990463257 206 208 205
-258.332878351212 398.258715867996 2095.99995613098 207 209 206
-252.161622047424 397.51610159874 2092.00000762939 202 204 201
-246.011391282082 396.773159503937 2088.00005912781 200 202 199
-240.22750556469 396.599858999252 2086.99989318848 202 202 200
-234.898000955582 397.186458110809 2089.99991416931 200 200 198
-229.332163929939 397.392690181732 2091.00008010864 194 194 192
-223.867192864418 397.788614034653 2092.99993515015 194 194 192
-218.286529183388 397.994250059128 2094.00010108948 193 193 191
-213.308945298195 399.339973926544 2101.0000705719 191 191 189
-208.391532301903 400.875508785248 2108.99996757507 186 186 184
-203.718319535255 402.981102466583 2119.99988555908 180 182 179
-199.638411402702 406.41713142395 2138.00001144409 188 190 187
-195.188045501709 409.282743930817 2153.00011634827 176 178 175
-191.447049379349 413.859128952026 2177.00004577637 162 164 161
-163.097724318504 432.949125766754 2276.99995040894 213 215 212
-156.422927975655 431.62989616394 2269.99998092651 184 186 183
-149.58718419075 429.73980307579 2259.99999046326 157 159 156
-142.86881685257 428.039193153381 2250.99992752075 163 163 161
-136.259734630585 426.528364419937 2243.00003051758 156 156 154
-129.925847053528 425.777643918991 2239.00008201599 161 161 159
-123.55799973011 424.836248159409 2233.99996757507 174 174 172
-116.84887856245 422.563195228577 2221.99988365173 175 175 173
-110.454000532627 421.240508556366 2214.99991416931 172 172 170
-104.191161692142 420.297682285309 2210.00003814697 175 175 173
-97.999632358551 419.544607400894 2206.00008964539 179 179 177
-91.7461439967155 418.410629034042 2200.00004768372 180 180 178
-85.5250060558319 417.276173830032 2194.00000572205 180 180 178
-79.3725177645683 416.331440210342 2188.99989128113 178 178 176
-73.1463879346848 414.815723896027 2180.99999427795 180 180 178
-67.0251995325089 413.679867982864 2174.99995231628 180 180 178
-60.8802624046803 412.16316819191 2167.00005531311 181 181 179
-54.8294261097908 411.026328802109 2161.00001335144 183 183 181
-48.8110706210136 409.889042377472 2154.99997138977 183 183 181
-42.8850017488003 409.321904182434 2151.99995040894 185 185 183
-36.9751341640949 408.75431895256 2148.9999294281 185 185 183
-31.1104469001293 408.566772937775 2148.00000190735 186 186 184
-25.239335373044 408.188462257385 2145.99990844727 186 186 184
-19.3880721926689 407.999962568283 2144.99998092651 186 186 184
-13.5485082864761 408.001244068146 2144.99998092651 185 185 183
-7.71249225363135 408.192247152328 2145.99990844727 186 186 184
-1.87100586481392 408.382833003998 2147.0000743866 186 186 184
3.97222954779863 408.192574977875 2145.99990844727 186 186 184
9.8100071772933 408.001810312271 2144.99998092651 187 187 185
15.6350117176771 407.620429992676 2142.99988746643 188 188 186
21.4691106230021 407.619029283524 2142.99988746643 189 189 187
27.3031406104565 407.617092132568 2142.99988746643 188 188 186
33.1525430083275 407.805055379868 2144.00005340576 188 188 186
39.0436574816704 408.372938632965 2147.0000743866 187 187 185
44.930063188076 408.750146627426 2148.9999294281 186 186 184
50.8272126317024 409.126907587051 2151.00002288818 186 186 184
56.7087270319462 409.312963485718 2151.99995040894 186 188 185
62.653660774231 409.87902879715 2154.99997138977 184 186 183
68.6783120036125 410.825073719025 2160.00008583069 184 186 183
74.660912156105 411.39018535614 2163.00010681152 186 188 185
80.7713270187378 412.525415420532 2168.99991035461 186 188 185
86.8741869926453 413.470059633255 2174.00002479553 186 188 185
92.9612815380096 414.224028587341 2177.99997329712 186 188 185
99.0244597196579 414.787322282791 2180.99999427795 190 192 189
105.151757597923 415.540367364883 2184.99994277954 188 190 187
111.453048884869 416.863471269608 2191.99991226196 173 175 172
117.899179458618 418.566405773163 2200.99997520447 169 171 168
124.337658286095 420.078784227371 2209.00011062622 180 182 179
130.760237574577 421.400368213654 2216.00008010864 182 184 181
137.282222509384 422.911643981934 2223.99997711182 184 186 183
144.169554114342 425.37322640419 2236.99998855591 184 186 183
151.328638195992 428.404718637466 2253.00002098084 167 169 166
158.574312925339 431.435614824295 2269.00005340576 167 169 166
166.12434387207 435.036301612854 2288.00010681152 167 169 166
173.626512289047 438.256144523621 2305.0000667572 168 170 167
200.157955288887 441.433757543564 2322.00002670288 213 215 212
205.846801400185 440.088361501694 2315.00005722046 146 146 144
211.680248379707 439.122796058655 2309.99994277954 151 151 149
217.768967151642 438.727259635925 2308.00008773804 152 152 150
223.943218588829 438.521355390549 2306.99992179871 157 157 155
229.91181910038 437.934994697571 2303.99990081787 162 162 160
235.555961728096 436.77806854248 2298.00009727478 162 162 160
241.272032260895 435.810923576355 2292.99998283386 163 163 161
247.06819653511 435.033529996872 2289.00003433228 166 168 165
253.063261508942 434.63596701622 2286.99994087219 166 168 165
259.046733379364 434.238135814667 2285.00008583069 169 171 168
265.2508020401 434.219986200333 2285.00008583069 171 173 170
271.810531616211 434.771537780762 2288.00010681152 177 179 176
278.385788202286 435.322701931 2290.99988937378 184 189 185
285.597741603851 436.823606491089 2299.00002479553 183 188 184
-263.78720998764 392.193019390106 2094.00010108948 203 205 202
-257.610857486725 391.461372375488 2089.99991416931 207 209 206
-251.214474439621 390.354841947556 2084.00011062622 205 207 204
-245.203465223312 389.809846878052 2081.00008964539 202 204 201
-239.208072423935 389.264494180679 2078.00006866455 202 202 200
-234.464660286903 390.779405832291 2085.99996566772 201 201 199
-229.128763079643 391.357511281967 2088.99998664856 195 195 193
-223.882853984833 392.122566699982 2092.99993515015 193 193 191
-218.093365430832 391.950696706772 2092.00000762939 192 192 190
-213.019415736198 393.090009689331 2098.00004959106 191 191 189
-208.208680152893 394.791185855865 2107.00011253357 186 186 184
-203.636720776558 397.054225206375 2118.99995803833 177 179 176
-199.839428067207 401.00359916687 2140.00010490417 187 189 186
-195.746034383774 404.578030109406 2158.99991989136 175 177 174
-192.164406180382 409.464180469513 2184.99994277954 163 165 162
-163.252979516983 427.158623933792 2279.00004386902 214 216 213
-156.227707862854 424.921095371246 2266.99995994568 183 185 182
-149.333447217941 422.870516777039 2256.00004196167 161 163 160
-142.752453684807 421.569138765335 2249.00007247925 160 160 158
-136.391341686249 420.829594135284 2244.99988555908 156 156 154
-130.051553249359 420.08963227272 2240.9999370575 163 163 161
-123.567208647728 418.786853551865 2233.99996757507 175 175 173
-116.857595741749 416.546255350113 2221.99988365173 174 174 172
-110.562011599541 415.617436170578 2217.00000762939 173 173 171
-104.246124625206 414.500594139099 2210.99996566772 176 176 174
-98.0069860816002 413.570821285248 2206.00008964539 179 179 177
-91.7530432343483 412.453055381775 2200.00004768372 179 179 177
-85.5314508080482 411.334812641144 2194.00000572205 179 179 177
-79.305998980999 410.028636455536 2187.00003623962 177 177 175
-73.1183812022209 408.722013235092 2180.0000667572 180 180 178
-66.9994577765465 407.602369785309 2174.00002479553 180 180 178
-60.8848743140697 406.294703483582 2167.00005531311 181 181 179
-54.8335798084736 405.174136161804 2161.00001335144 182 182 180
-48.837423324585 404.24057841301 2155.99989891052 183 183 181
-42.9081954061985 403.681576251984 2153.00011634827 184 184 182
-36.9779467582703 402.934581041336 2148.9999294281 185 185 183
-31.0983303934336 402.562201023102 2147.0000743866 186 186 184
-25.2530220896006 402.564346790314 2147.0000743866 186 186 184
-19.4166675209999 402.753531932831 2148.00000190735 186 186 184
-13.562174513936 402.567267417908 2147.0000743866 185 185 183
-7.71307991817594 402.380555868149 2145.99990844727 185 185 183
-1.86940538696945 402.193427085876 2144.99998092651 185 185 183
3.97253222763538 402.38082408905 2145.99990844727 185 185 183
9.81075409799814 402.192831039429 2144.99998092651 186 186 184
15.6434997916222 402.004390954971 2144.00005340576 187 187 185
21.4607268571854 401.62792801857 2141.99995994568 189 189 187
27.2924788296223 401.626110076904 2141.99995994568 189 189 187
33.1396013498306 401.811301708221 2142.99988746643 188 188 186
39.0102453529835 402.183532714844 2144.99998092651 188 188 186
44.8916591703892 402.555406093597 2147.0000743866 187 187 185
50.8074387907982 403.114259243011 2150.00009536743 187 187 185
56.6866844892502 403.297692537308 2151.00002288818 185 187 184
62.687486410141 404.230654239655 2155.99989891052 186 188 185
68.7153041362762 405.163168907166 2161.00001335144 186 188 185
74.7010707855225 405.720174312592 2164.00003433228 185 187 184
80.6656926870346 406.089276075363 2165.99988937378 186 188 185
86.7208763957024 406.832963228226 2170.00007629395 186 188 185
92.8402170538902 407.763630151749 2174.99995231628 188 190 187
99.0318953990936 408.881276845932 2180.99999427795 191 193 190
105.159640312195 409.62353348732 2184.99994277954 182 184 181
111.461378633976 410.927712917328 2191.99991226196 170 172 169
117.854423820972 412.418931722641 2200.00004768372 171 173 170
124.346904456615 414.09707069397 2209.00011062622 181 183 180
130.769953131676 415.399789810181 2216.00008010864 180 182 179
137.354135513306 417.076945304871 2224.99990463257 185 187 184
144.180208444595 419.315963983536 2236.99998855591 180 182 179
151.406973600388 422.491639852524 2253.99994850159 164 166 163
158.516064286232 425.104379653931 2267.99988746643 173 175 172
165.918692946434 428.278923034668 2285.00008583069 174 176 173
173.262536525726 431.077897548676 2299.99995231628 166 168 165
197.867557406425 444.156765937805 2369.99988555908 209 211 208
200.77583193779 436.458796262741 2328.9999961853 204 206 203
206.306204199791 434.757620096207 2319.9999332428 145 145 143
212.153628468513 433.805733919144 2315.00005722046 149 149 147
218.350619077682 433.602929115295 2313.99989128113 149 149 147
224.347442388535 433.025151491165 2311.00010871887 154 154 152
230.327278375626 432.446926832199 2308.00008773804 159 159 157
235.777586698532 430.931627750397 2299.99995231628 161 161 159
241.499423980713 429.978162050247 2295.00007629395 163 163 161
247.1933811903 429.024308919907 2289.99996185303 165 167 164
253.302156925201 428.819566965103 2289.00003433228 166 168 165
259.40477848053 428.614556789398 2288.00010681152 170 172 169
265.733391046524 428.783804178238 2289.00003433228 172 174 171
272.185534238815 429.140001535416 2290.99988937378 176 178 175
278.526276350021 429.308623075485 2292.00005531311 182 187 183
285.2443754673 430.038750171661 2296.0000038147 181 186 182
-263.678878545761 386.339455842972 2092.99993515015 202 204 201
-257.258415222168 385.249346494675 2086.99989318848 208 210 207
-250.86984038353 384.158939123154 2081.00008964539 206 208 205
-244.984492659569 383.806496858597 2078.9999961853 203 205 202
-239.109307527542 383.453756570816 2076.99990272522 202 202 200
-234.14358496666 384.577691555023 2082.99994468689 200 200 198
-228.815540671349 385.147482156754 2085.99996566772 195 195 193
-223.470523953438 385.717004537582 2088.99998664856 192 192 190
-217.900067567825 385.917007923126 2089.99991416931 192 192 190
-212.831258773804 387.039959430695 2095.99995613098 190 190 188
-208.223327994347 389.085918664932 2107.00011253357 187 187 185
-203.747227787971 391.501069068909 2119.99988555908 186 188 185
-199.760183691978 395.024061203003 2138.99993896484 174 176 173
-195.94132900238 399.101108312607 2161.00001335144 180 182 179
-192.617923021317 404.470860958099 2190.00005722046 151 153 150
-163.694694638252 422.095030546188 2285.00008583069 214 216 213
-156.101301312447 418.412178754807 2265.00010490417 181 183 180
-149.278208613396 416.575998067856 2255.00011444092 166 168 165
-142.762944102287 415.478259325027 2249.00007247925 156 156 154
-136.522904038429 415.118962526321 2246.99997901917 158 158 156
-130.061164498329 414.020270109177 2240.9999370575 167 167 165
-123.410411179066 412.182092666626 2230.99994659424 175 175 173
-116.761095821857 410.158723592758 2220.00002861023 174 174 172
-110.520347952843 409.428089857101 2216.00008010864 175 175 173
-104.348197579384 408.881783485413 2213.00005912781 178 178 176
-98.0143025517464 407.595932483673 2206.00008964539 177 177 175
-91.6764810681343 406.124830245972 2197.99995422363 178 178 176
-85.4208990931511 404.838025569916 2190.99998474121 180 180 178
-79.2394131422043 403.735548257828 2184.99994277954 177 177 175
-73.1574073433876 403.002083301544 2180.99999427795 181 181 179
-67.0044869184494 401.713907718658 2174.00002479553 181 181 179
-60.9175600111485 400.610029697418 2167.99998283386 181 181 179
-54.8630878329277 399.505615234375 2161.99994087219 182 182 180
-48.8637648522854 398.585617542267 2157.00006484985 183 183 181
-42.9114364087582 397.849917411804 2153.00011634827 182 182 180
-36.9807407259941 397.113770246506 2148.9999294281 183 183 181
-31.1296507716179 397.116303443909 2148.9999294281 184 184 182
-25.2666939049959 396.933615207672 2148.00000190735 184 184 182
-19.4181371480227 396.935343742371 2148.00000190735 184 184 182
-13.5695179924369 396.936565637589 2148.00000190735 184 184 182
-7.71366385743022 396.567761898041 2145.99990844727 184 184 182
-1.86954706441611 396.383374929428 2144.99998092651 184 184 182
3.97098157554865 396.383285522461 2144.99998092651 184 184 182
9.81607101857662 396.567553281784 2145.99990844727 185 185 183
15.6519804149866 396.381795406342 2144.99998092651 186 186 184
21.4623510837555 395.826011896133 2141.99995994568 185 185 183
27.2945426404476 395.824164152145 2141.99995994568 185 185 183
33.1421047449112 396.006643772125 2142.99988746643 185 185 183
39.0131957828999 396.373569965363 2144.99998092651 187 187 185
44.9159555137157 396.924763917923 2148.00000190735 187 187 185
50.8112758398056 397.290766239166 2150.00009536743 187 187 185
56.7436628043652 397.841095924377 2153.00011634827 185 187 184
62.6922026276588 398.390918970108 2155.99989891052 187 189 186
68.7204673886299 399.309933185577 2161.00001335144 186 188 185
74.7066810727119 399.858891963959 2164.00003433228 184 186 183
80.7089954614639 400.407433509827 2167.00005531311 186 188 185
86.6474285721779 400.585949420929 2167.99998283386 188 190 187
92.8044617176056 401.687860488892 2174.00002479553 191 193 190
98.9484488964081 402.604550123215 2178.99990081787 188 190 187
105.167470872402 403.705567121506 2184.99994277954 174 176 173
111.418806016445 404.806137084961 2190.99998474121 174 176 173
117.702431976795 405.906200408936 2197.00002670288 184 186 183
124.243520200253 407.744854688644 2207.00001716614 182 184 181
130.661562085152 409.028649330139 2213.99998664856 182 184 181
137.302502989769 410.866230726242 2223.99997711182 183 185 182
144.12634074688 413.072884082794 2236.00006103516 170 172 169
151.350885629654 416.202545166016 2253.00002098084 164 166 163
158.45775604248 418.77743601799 2266.99995994568 173 175 172
165.712907910347 421.536594629288 2282.00006484985 174 176 173
173.124447464943 424.479812383652 2298.00009727478 163 165 162
201.307490468025 431.260138750076 2335.00003814697 194 196 193
206.765606999397 429.398715496063 2325.00004768372 145 145 143
212.718591094017 428.645074367523 2321.00009918213 149 149 147
218.743592500687 428.075790405273 2318.00007820129 149 149 147
224.557429552078 427.136778831482 2312.99996376038 153 153 151
230.343475937843 426.197499036789 2308.00008773804 157 157 155
235.691577196121 424.519300460815 2299.00002479553 162 162 160
241.621464490891 423.948734998703 2296.0000038147 163 163 161
247.426450252533 423.193216323853 2292.00005531311 164 166 163
253.430306911469 422.806710004807 2289.99996185303 165 167 164
259.309202432632 422.235190868378 2286.99994087219 171 173 170
265.63549041748 422.401905059814 2288.00010681152 174 176 173
272.085249423981 422.75282740593 2289.99996185303 176 178 175
278.788179159164 423.472583293915 2293.99991035461 181 186 182
286.133289337158 425.114989280701 2302.99997329712 178 183 179
-263.570487499237 380.490392446518 2092.00000762939 200 205 199
-256.905883550644 379.052728414536 2084.00011062622 207 209 204
-250.645637512207 378.160238265991 2078.9999961853 206 207 202
-244.765385985374 377.813071012497 2076.99990272522 204 205 200
-238.780200481415 377.283722162247 2073.99988174438 203 202 198
-233.372688293457 377.663552761078 2075.99997520447 202 201 197
-228.282749652863 378.588944673538 2081.00008964539 198 197 195
-223.164990544319 379.514068365097 2085.99996566772 194 193 191
-217.810899019241 380.075097084045 2088.99998664856 195 194 192
-212.84607052803 381.363600492477 2095.99995613098 198 197 195
-208.139047026634 383.197784423828 2105.99994659424 190 190 188
-203.761503100395 385.759502649307 2119.99988555908 181 183 180
-199.680879712105 389.049023389816 2138.00001144409 176 178 175
-196.31789624691 393.976241350174 2164.99996185303 171 176 172
-192.807510495186 398.903340101242 2191.99991226196 155 160 156
-162.918448448181 413.903564214706 2273.9999294281 217 219 216
-156.043708324432 412.094920873642 2263.99993896484 165 167 164
-149.289056658745 410.467773675919 2255.00011444092 161 161 159
-142.836853861809 409.568250179291 2250 156 156 154
-136.53290271759 409.032315015793 2246.99997901917 158 158 156
-130.070716142654 407.949805259705 2240.9999370575 172 172 170
-123.419471085072 406.138628721237 2230.99994659424 176 178 175
-116.874866187572 404.509037733078 2221.99988365173 172 174 171
-110.578380525112 403.607130050659 2217.00000762939 174 176 173
-104.261599481106 402.522742748261 2210.99996566772 175 177 174
-97.9326888918877 401.255786418915 2203.9999961853 176 178 175
-91.5581434965134 399.6242582798 2194.9999332428 177 179 176
-85.3492543101311 398.538380861282 2188.99989128113 178 180 177
-79.2090445756912 397.634208202362 2184.00001525879 178 180 177
-73.1293186545372 396.911531686783 2180.0000667572 180 182 179
-67.0403093099594 396.006435155869 2174.99995231628 180 182 179
-60.9502047300339 394.918709993362 2168.99991035461 181 183 180
-54.89257350564 393.830627202988 2163.00010681152 180 182 179
-48.8447658717632 392.559945583344 2155.99989891052 180 182 179
-42.9146476089954 392.017126083374 2153.00011634827 181 183 180
-37.0007231831551 391.473889350891 2150.00009536743 183 185 182
-31.1175007373095 391.112238168716 2148.00000190735 183 185 182
-25.2568256109953 390.932261943817 2147.0000743866 181 183 180
-19.4105543196201 390.933930873871 2147.0000743866 182 184 181
-13.5705377906561 391.117244958878 2148.00000190735 183 185 182
-7.71783851087093 390.935987234116 2147.0000743866 183 185 182
-1.87055906280875 390.754252672195 2145.99990844727 184 186 183
3.97313153371215 390.754163265228 2145.99990844727 184 186 183
9.81680862605572 390.753656625748 2145.99990844727 184 186 183
15.6604517251253 390.752643346787 2145.99990844727 183 185 182
21.4840043336153 390.387177467346 2144.00005340576 185 185 183
27.3220781236887 390.385299921036 2144.00005340576 185 185 183
33.1291258335114 390.018850564957 2141.99995994568 183 183 181
38.9797352254391 390.198260545731 2142.99988746643 183 183 181
44.8774956166744 390.741348266602 2145.99990844727 185 185 183
50.8150719106197 391.466110944748 2150.00009536743 185 185 183
56.800615042448 392.372518777847 2154.99997138977 188 190 187
62.7259612083435 392.732232809067 2157.00006484985 184 186 183
68.6937868595123 393.273532390594 2160.00008583069 182 184 181
74.6431946754456 393.632292747498 2161.99994087219 185 187 184
80.6032568216324 393.990755081177 2164.00003433228 189 191 188
86.573913693428 394.348621368408 2165.99988937378 191 193 190
92.7259549498558 395.434379577637 2171.99993133545 179 181 178
99.0011990070343 396.883845329285 2180.0000667572 171 173 170
105.127111077309 397.604525089264 2184.00001525879 178 180 177
111.223600804806 398.142755031586 2187.00003623962 181 183 180
117.336042225361 398.680448532104 2190.00005722046 183 185 182
123.97114187479 400.856167078018 2201.99990272522 189 191 188
130.553096532822 402.667254209518 2211.99989318848 193 195 192
137.497752904892 405.387997627258 2226.99999809265 172 174 171
144.265741109848 407.380104064941 2237.99991607666 172 174 171
151.294723153114 409.917801618576 2252.00009346008 169 171 168
158.18963944912 411.908775568008 2263.00001144409 175 177 174
165.579631924629 414.991408586502 2279.99997138977 174 176 173
173.061579465866 418.073415756226 2296.99993133545 171 173 170
201.666712760925 425.663858652115 2338.99998664856 188 190 187
207.224920392036 424.011558294296 2329.99992370605 144 144 144
213.100254535675 423.086881637573 2325.00004768372 146 146 146
219.230830669403 422.707766294479 2322.99995422363 143 143 143
224.961534142494 421.600431203842 2316.99991226196 152 152 152
230.658978223801 420.492887496948 2311.00010871887 158 158 158
236.118048429489 419.021040201187 2302.99997329712 162 162 160
241.953924298286 418.276786804199 2299.00002479553 161 161 159
247.659400105476 417.350232601166 2293.99991035461 163 165 162
253.558367490768 416.787296533585 2290.99988937378 166 168 165
259.213536977768 415.860235691071 2286.00001335144 173 175 172
265.42130112648 415.842443704605 2286.00001335144 174 176 173
271.747171878815 416.006207466125 2286.99994087219 174 176 173
278.563857078552 416.89720749855 2292.00005531311 177 182 178
286.525189876556 419.424742460251 2305.99999427795 183 188 184
-264.091938734055 375.541716814041 2095.99995613098 192 197 193
-256.553113460541 372.871279716492 2081.00008964539 199 201 198
-250.541836023331 372.350603342056 2078.00006866455 206 208 205
-244.66398358345 372.008740901947 2075.99997520447 209 209 207
-238.91144990921 371.845781803131 2075.00004768372 203 202 200
-233.163684606552 371.682465076447 2073.99988174438 204 203 201
-227.85946726799 372.235715389252 2076.99990272522 200 200 200
-222.752332687378 373.147189617157 2082.00001716614 196 196 196
-217.617332935333 374.058365821838 2086.99989318848 193 193 193
-212.759211659431 375.507056713104 2095.00002861023 193 193 193
-207.856968045235 376.955509185791 2102.9999256134 189 189 189
-203.583478927612 379.65852022171 2118.00003051758 178 180 179
-199.60144162178 383.078426122665 2137.00008392334 176 178 177
-196.603715419769 388.649344444275 2167.99998283386 177 182 178
-193.524822592735 394.399672746658 2200.00004768372 158 163 159
-163.001820445061 407.922327518463 2275.00009536743 215 217 214
-156.054928898811 405.961334705353 2263.99993896484 161 163 160
-149.498462677002 404.896408319473 2257.99989700317 156 156 154
-143.037661910057 404.010355472565 2253.00002098084 156 156 154
-136.664345860481 403.303146362305 2249.00007247925 169 169 167
-130.080163478851 401.878178119659 2240.9999370575 184 184 182
-123.373158276081 399.914711713791 2230.00001907349 175 177 174
-116.778217256069 398.130089044571 2220.00002861023 170 175 171
-110.486716032028 397.241652011871 2214.99991416931 177 179 176
-104.2220890522 396.352767944336 2210.00003814697 177 179 176
-97.8510081768036 394.925385713577 2201.99990272522 178 180 177
-91.4814546704292 393.318206071854 2193.00007820129 178 180 177
-85.2385833859444 392.069190740585 2186.00010871887 178 180 177
-79.1423469781876 391.357779502869 2181.99992179871 178 180 177
-73.1011778116226 390.825361013412 2178.99990081787 178 180 177
-67.0144557952881 389.933705329895 2174.00002479553 180 182 179
-60.8985237777233 388.682872056961 2167.00005531311 180 182 179
-54.8458807170391 387.61094212532 2161.00001335144 181 183 180
-48.8257370889187 386.538594961166 2154.99997138977 180 182 179
-42.9178401827812 386.18329167366 2153.00011634827 181 183 180
-37.0206832885742 385.827481746674 2151.00002288818 183 185 182
-31.1343017965555 385.471224784851 2148.9999294281 183 185 182
-25.2587087452412 385.11461019516 2147.0000743866 182 184 181
-19.4029584527016 384.93686914444 2145.99990844727 182 184 181
-13.5652320459485 385.117471218109 2147.0000743866 183 185 182
-7.71481776610017 384.93886590004 2145.99990844727 182 184 181
-1.87157036270946 385.118633508682 2147.0000743866 182 184 181
3.97342769429088 384.939134120941 2145.99990844727 183 185 182
9.81753971427679 384.938627481461 2145.99990844727 183 185 182
15.6616196036339 384.937673807144 2145.99990844727 182 184 181
21.4956253767014 384.756952524185 2144.99998092651 185 185 183
27.324115857482 384.575814008713 2144.00005340576 184 184 182
33.1625305116177 384.573578834534 2144.00005340576 183 183 181
39.0190221369267 384.750217199326 2144.99998092651 183 183 181
44.9435710906982 385.464578866959 2148.9999294281 185 185 183
50.8424825966358 385.81982254982 2151.00002288818 185 185 183
56.778471916914 386.35390996933 2154.00004386902 185 187 184
62.6724436879158 386.528849601746 2154.99997138977 183 185 182
68.6352550983429 387.062132358551 2157.99999237061 184 186 183
74.579656124115 387.415558099747 2160.00008583069 188 190 187
80.6464329361916 388.306617736816 2164.99996185303 190 192 189
86.7401957511902 389.197260141373 2170.00007629395 191 193 190
92.9035618901253 390.266805887222 2176.00011825562 178 180 177
99.0992933511734 391.335844993591 2181.99992179871 174 176 173
105.2310988307 392.045795917511 2186.00010871887 181 183 180
111.333444714546 392.575860023499 2188.99989128113 183 185 182
117.3981949687 392.926245927811 2190.99998474121 185 187 184
123.923875391483 394.710838794708 2200.99997520447 193 195 192
130.562573671341 396.674185991287 2211.99989318848 189 191 188
137.507751584053 399.354457855225 2226.99999809265 173 175 172
144.469603896141 401.854753494263 2240.9999370575 172 174 171
151.305645704269 403.816670179367 2252.00009346008 171 173 170
158.270910382271 405.957251787186 2263.99993896484 176 178 175
165.518894791603 408.635258674622 2279.00004386902 171 173 170
173.073962330818 411.85063123703 2296.99993133545 183 185 182
197.993442416191 425.078749656677 2371.00005149841 211 213 210
201.594710350037 419.148445129395 2338.00005912781 198 200 197
207.239508628845 417.699843645096 2329.99992370605 143 143 143
213.115185499191 416.788876056671 2325.00004768372 146 146 146
219.246119260788 416.415214538574 2322.99995422363 144 144 144
225.171372294426 415.682822465897 2319.00000572205 153 153 153
230.674967169762 414.233148097992 2311.00010871887 158 158 158
236.236870288849 412.962317466736 2303.99990081787 163 163 161
241.865307092667 411.870568990707 2298.00009727478 162 162 160
247.676327824593 411.136895418167 2293.99991035461 163 165 162
253.464937210083 410.40301322937 2289.99996185303 167 169 166
259.344488382339 409.848034381866 2286.99994087219 173 175 172
265.555322170258 409.830361604691 2286.99994087219 174 176 173
272.121906280518 410.349935293198 2289.99996185303 173 175 172
278.825521469116 411.048293113709 2293.99991035461 176 181 177
286.792725324631 413.538098335266 2308.00008773804 181 186 182
-264.235258102417 370.040982961655 2096.99988365173 197 202 198
-256.446748971939 367.058128118515 2079.99992370605 192 197 193
-250.076144933701 366.016000509262 2073.99988174438 204 206 203
-243.973150849342 365.326434373856 2069.9999332428 207 207 205
-238.236606121063 365.166038274765 2069.00000572205 203 203 203
-232.617259025574 365.181744098663 2069.00000572205 203 203 203
-227.216646075249 365.550220012665 2071.00009918213 201 201 201
-222.018480300903 366.271436214447 2075.00004768372 198 198 200
-217.006534337997 367.345482110977 2081.00008964539 193 193 193
-212.265968322754 368.948817253113 2089.99991416931 190 192 191
-207.673594355583 370.905071496964 2101.0000705719 188 190 189
-203.309148550034 373.390734195709 2115.00000953674 176 178 177
-199.335068464279 376.759052276611 2134.0000629425 176 178 177
-196.436002850533 382.422417402267 2165.99988937378 178 183 179
-162.94176876545 401.581227779388 2273.9999294281 214 216 213
-155.997157096863 399.650007486343 2263.00001144409 160 162 159
-149.442955851555 398.601204156876 2256.99996948242 155 155 153
-142.984420061111 397.728651762009 2252.00009346008 151 151 149
-136.491864919662 396.678984165192 2246.00005149841 177 177 175
-129.915401339531 395.275563001633 2237.99991607666 184 184 182
-123.382076621056 393.871694803238 2230.00001907349 178 180 177
-116.891883313656 392.467349767685 2221.99988365173 174 179 175
-110.694281756878 391.945689916611 2219.00010108948 179 181 178
-104.276828467846 390.540391206741 2210.99996566772 179 181 178
-97.9914665222168 389.487951993942 2204.99992370605 178 180 177
-91.5715768933296 387.728422880173 2194.9999332428 178 180 177
-85.3618010878563 386.675000190735 2188.99989128113 178 180 177
-79.2206972837448 385.797739028931 2184.00001525879 178 180 177
-73.1065347790718 384.920090436935 2178.99990081787 178 180 177
-66.9885501265526 383.86532664299 2173.00009727478 179 181 178
-60.9029941260815 382.810056209564 2167.00005531311 180 182 179
-54.7737777233124 381.224393844604 2157.99999237061 181 183 180
-48.7840138375759 380.344897508621 2153.00011634827 182 184 181
-42.9010652005672 380.171597003937 2151.99995040894 182 184 181
-37.0406322181225 380.174547433853 2151.99995040894 183 185 182
-31.1800688505173 380.177021026611 2151.99995040894 182 184 181
-25.2841040492058 379.649132490158 2148.9999294281 181 183 180
-19.4224789738655 379.474133253098 2148.00000190735 181 183 180
-13.5535961017013 378.945350646973 2144.99998092651 181 183 180
-7.718984503299 379.299461841583 2147.0000743866 181 183 180
-1.87258049845695 379.476457834244 2148.00000190735 180 182 179
3.97742493078113 379.476398229599 2148.00000190735 179 181 178
9.8136905580759 378.945887088776 2144.99998092651 180 182 179
15.655480325222 378.944933414459 2144.99998092651 180 182 179
21.5072352439165 379.120230674744 2145.99990844727 183 183 181
27.3516215384007 379.1184425354 2145.99990844727 183 183 181
33.1804417073727 378.939539194107 2144.99998092651 183 183 181
39.0219017863274 378.936946392059 2144.99998092651 184 184 182
44.9468828737736 379.640430212021 2148.9999294281 185 185 183
50.8462265133858 379.990249872208 2151.00002288818 185 185 183
56.7299239337444 380.162984132767 2151.99995040894 183 185 182
62.6188814640045 380.33527135849 2153.00011634827 185 187 184
68.5766786336899 380.860418081284 2155.99989891052 188 190 187
74.6196582913399 381.73845410347 2161.00001335144 189 191 188
80.6523486971855 382.439345121384 2164.99996185303 184 186 183
86.8264809250832 383.669793605804 2171.99993133545 180 182 179
92.9957404732704 384.723097085953 2177.99997329712 177 179 176
99.1973653435707 385.775983333588 2184.00001525879 181 183 180
105.286881327629 386.298477649689 2187.00003623962 185 187 184
111.39240860939 386.820524930954 2190.00005722046 186 188 185
117.513872683048 387.342125177383 2193.00007820129 191 193 190
123.87652695179 388.569861650467 2200.00004768372 190 192 189
130.571991205215 390.680104494095 2211.99989318848 176 178 175
137.579381465912 393.496334552765 2227.9999256134 181 183 180
144.544452428818 395.95890045166 2242.00010299683 174 176 173
151.249259710312 397.537738084793 2250.99992752075 173 175 172
158.142387866974 399.469375610352 2262.00008392334 177 179 176
165.458053350449 402.283430099487 2278.00011634827 171 173 170
173.236951231956 405.979931354523 2299.00002479553 182 184 181
201.608821749687 412.8138422966 2338.00005912781 207 209 206
207.520827651024 411.916792392731 2332.99994468689 141 141 141
213.313326239586 410.842835903168 2326.99990272522 145 145 145
219.450116157532 410.474807024002 2325.00004768372 146 146 146
225.381135940552 409.753292798996 2321.00009918213 154 154 154
231.0900837183 408.678382635117 2315.00005722046 158 158 158
236.663222312927 407.426714897156 2308.00008773804 163 163 161
241.987034678459 405.821710824966 2299.00002479553 163 163 161
247.693136334419 404.922515153885 2293.99991035461 164 166 163
253.371387720108 404.023110866547 2289.00003433228 167 169 166
259.588718414307 404.005885124207 2289.00003433228 171 173 170
265.805333852768 403.98833155632 2289.00003433228 172 174 171
272.377729415894 404.499918222427 2292.00005531311 170 172 169
278.60090136528 404.481679201126 2292.00005531311 173 178 174
286.190271377563 406.404256820679 2302.99997329712 177 182 178
296.25129699707 411.679118871689 2332.99994468689 194 199 195
-264.630496501923 364.881426095963 2099.99990463257 206 212 210
-256.586849689484 361.597061157227 2081.00008964539 191 197 197
-249.489694833755 359.528422355652 2069.00000572205 192 198 198
-243.517816066742 359.023302793503 2065.99998474121 204 208 209
-237.791806459427 358.86538028717 2065.00005722046 204 205 207
-232.407882809639 359.228551387787 2066.99991226196 199 200 202
-226.793006062508 359.243899583817 2066.99991226196 200 201 205
-221.605435013771 359.954118728638 2071.00009918213 199 200 204
-216.395512223244 360.664129257202 2075.00004768372 196 197 199
-211.569413542747 362.069070339203 2082.99994468689 191 192 194
-207.39121735096 364.690691232681 2098.00004959106 185 189 190
-202.938571572304 366.96445941925 2111.00006103516 171 175 174
-199.255362153053 370.802611112595 2132.99989700317 175 179 178
-195.814713835716 375.336110591888 2158.99991989136 175 180 176
-162.88161277771 395.244538784027 2273.00000190735 214 216 213
-155.939266085625 393.343031406403 2262.00008392334 160 162 159
-149.6522128582 393.00599694252 2259.99999046326 155 155 153
-143.121600151062 391.972959041595 2253.99994850159 161 161 159
-136.562392115593 390.765607357025 2246.99997901917 185 185 183
-129.750534892082 388.688147068024 2234.99989509583 183 183 181
-123.280264437199 387.479811906815 2227.9999256134 183 185 182
-116.847671568394 386.270970106125 2220.99995613098 181 186 182
-110.702261328697 385.931313037872 2219.00010108948 180 182 179
-104.331515729427 384.721517562866 2211.99989318848 180 182 179
-98.0430021882057 383.685290813446 2206.00008964539 178 180 177
-91.5782079100609 381.778866052628 2194.9999332428 178 180 177
-85.3679850697517 380.741655826569 2188.99989128113 178 180 177
-79.1901722550392 379.704028367996 2183.00008773804 178 180 177
-73.0782970786095 378.839790821075 2177.99997329712 178 180 177
-66.9317618012428 377.627313137054 2171.0000038147 179 181 178
-60.9355494379997 377.110123634338 2167.99998283386 180 182 179
-54.8285394906998 375.722736120224 2160.00008583069 181 183 180
-48.8555617630482 375.030726194382 2155.99989891052 182 184 181
-42.9042056202888 374.338269233704 2151.99995040894 182 184 181
-37.0605550706387 374.515146017075 2153.00011634827 182 184 181
-31.1968438327312 374.517649412155 2153.00011634827 181 183 180
-25.3212545067072 374.345719814301 2151.99995040894 181 183 180
-19.4329433143139 373.825490474701 2148.9999294281 180 182 179
-13.5672278702259 373.478829860687 2147.0000743866 180 182 179
-7.71955074742436 373.479634523392 2147.0000743866 181 183 180
-1.87358947005123 373.827785253525 2148.9999294281 180 182 179
3.9795683696866 373.827755451202 2148.9999294281 179 181 178
9.82813630253077 373.653292655945 2148.00000190735 179 181 178
15.6712252646685 373.478412628174 2147.0000743866 180 182 179
21.5188357979059 373.477101325989 2147.0000743866 182 182 180
27.3536238819361 373.301327228546 2145.99990844727 182 182 180
33.2138165831566 373.473107814789 2147.0000743866 183 183 181
39.0611439943314 373.470485210419 2147.0000743866 184 184 182
44.971089810133 373.989254236221 2150.00009536743 184 184 182
50.8263036608696 373.985797166824 2150.00009536743 185 185 183
56.6813424229622 373.981893062592 2150.00009536743 185 187 184
62.5361874699593 373.977512121201 2150.00009536743 186 188 185
68.5816779732704 375.016421079636 2155.99989891052 188 190 187
