ply
format ascii 1.0
comment KinectMotionCapture
element vertex 801
property float x
property float y
property float z
property uchar red
property uchar green
property uchar blue
end_header
179.696173272436 115.454794106444 2994.16815745855 18 21 14
177.271571606782 116.341658352121 3000.69581040169 17 20 11
177.404615282539 117.487093659636 3008.896532817 18 21 12
179.262273224233 118.802418042137 3018.1933968761 19 22 13
177.743024311256 119.768847208455 3025.22750865145 19 22 13
170.260827711591 120.131299089431 3028.35280445724 18 21 12
155.062922786385 119.723434750386 3026.50056770488 14 17 8
132.955257167055 118.637352319408 3020.27411557887 17 20 11
127.970544104043 119.265963068847 3025.1311009438 17 20 11
135.91538485702 121.16960292522 3038.2157284661 16 19 10
131.825143161498 121.879102593108 3043.58944451129 18 21 12
134.665875228485 123.264192269862 3053.31703731116 18 21 12
119.320520724139 122.874925967718 3051.60847138885 18 21 12
103.059988983479 122.407382663322 3049.40334998004 19 22 15
100.695123869002 123.286721695876 3055.87279586801 21 24 15
100.08952452428 124.331578896955 3063.4046199623 23 26 19
98.6288217116118 125.29062970054 3070.38168511337 22 25 18
93.6748060234205 125.915371709856 3075.20875932941 21 24 17
81.6872226438545 125.877461221089 3075.78192192032 19 22 15
7.10380243664144 119.980580432791 3038.77197282923 18 21 14
12.5819845792483 121.614176600691 3050.09487535961 17 20 13
-6.67467209086325 120.943358902831 3046.64392836804 18 20 15
-19.7835134247066 120.853158992596 3046.92133571873 19 21 16
-56.9270711682286 118.563987751423 3033.13132445064 21 23 18
-67.4833266872867 118.732995124321 3035.08673142499 9 14 8
173.397139989238 87.3188599153983 2845.87633919923 45 48 41
186.096365173099 90.0387543443399 2864.03819153762 14 17 10
140.17306723954 86.0102934236916 2839.38557650565 13 16 9
167.61731696793 90.4059892876972 2868.16377570846 12 15 8
151.795793877438 89.8484271456817 2865.53601696518 14 17 10
178.628378638088 94.124865369024 2893.52232543251 18 21 14
182.564598966017 95.7893825019942 2904.95460157441 19 22 15
183.244018817992 97.0790067563699 2914.00836262415 16 19 12
176.50835441721 97.5361404037879 2917.79559415666 14 17 10
161.475920160197 97.0754927610958 2915.7868439339 13 16 9
163.016176753731 98.4529635162561 2925.38970701704 11 14 7
207.897042331263 104.577838524722 2964.93806824705 19 22 15
213.776001399061 106.390192632017 2977.25348233849 22 25 18
196.27779018996 105.651305205219 2973.48334300346 22 25 18
181.238382858817 105.191565192344 2971.48138299911 21 24 17
166.153585366713 104.737605239438 2969.52397964723 18 21 14
176.299246929302 106.993891937155 2984.62176647549 17 20 13
184.826636475381 109.061477877093 2998.52059259275 18 21 14
173.949463875468 109.058900027896 2999.40312587559 16 19 10
177.467961049463 110.579730343498 3009.85453481556 16 19 10
168.271815752013 110.757945636698 3011.87488062486 17 20 11
164.170699616854 111.472100809924 3017.2590449097 18 21 12
166.053113017288 112.806436341539 3026.52851659278 19 22 13
160.262809149304 113.340795014181 3030.78248663394 19 22 13
142.457198124348 112.640746829017 3027.31185943731 19 22 13
129.754396917732 112.475655805779 3027.19746965507 17 20 11
124.774440712756 113.104221322856 3032.04973807497 16 19 10
133.616120237311 115.132119815694 3045.6419975429 18 21 12
130.400309550098 115.931027606593 3051.55142334856 20 23 14
127.193172345516 116.728843809967 3057.4523975939 20 21 16
102.254357089453 115.357207316513 3049.82845787983 23 25 20
95.5296856641166 115.812985668985 3053.60463569522 24 26 21
94.9125179769923 116.8733898172 3061.14598733452 19 21 16
91.68914218372 117.673209985945 3067.06245271129 18 20 15
37.5894398472507 113.497889136527 3042.04870236392 18 20 15
21.0824107694498 113.02695507151 3040.08885760773 16 18 13
-37.7708163189059 108.469165451256 3012.7670718957 13 18 12
-22.6771170807045 111.083452777111 3029.98369410272 16 21 15
-58.8264098137348 108.768829676275 3016.62703407274 14 19 13
-92.4490411392362 106.724782884564 3004.97243664899 12 17 11
-55.9711691155509 111.355895556149 3034.66469961976 12 17 11
176.709781025551 80.4615310193155 2849.26832300932 19 22 15
160.94597278626 79.8620138049568 2846.58945350699 12 15 8
208.731977404672 86.7787434402831 2890.22081738611 13 16 9
162.779806722217 82.6192984003231 2865.61623281625 15 18 11
169.066912497944 84.6148975173032 2878.91617697851 16 19 12
167.197267478225 85.6480724407252 2886.28803443192 18 21 14
174.398754059353 87.7275034406996 2900.08484178141 19 22 15
175.058651201528 89.0390153856223 2909.15475417948 13 16 9
175.746567148327 90.3469951150216 2918.19736555027 12 15 8
175.63376881107 91.5568704778963 2926.63268850668 13 16 9
204.626380879694 96.06498294793 2955.27397305107 12 15 8
199.632772444298 96.6957320823092 2960.13947559991 15 18 11
207.161452943375 98.7338507313538 2973.61714265749 21 24 17
197.178487879552 98.7991834509754 2975.01858680348 21 24 17
176.27106632284 97.6539025809584 2969.02627124358 21 24 17
173.783299590702 98.5659453675241 2975.61258881215 19 22 15
176.363458148022 100.033551199964 2985.58673910732 18 21 14
174.756972616733 101.033598600609 2992.70217153191 18 21 14
171.474270876738 101.846861753076 2998.67589942563 16 19 10
163.958581299562 102.198414367955 3001.83606515998 16 19 10
162.383898498651 103.194463585766 3008.92050793284 17 20 11
165.938751501387 104.738244506512 3019.33242290802 19 22 13
170.387428400092 106.368434093115 3030.261233538 20 23 14
169.743009685763 107.446252180829 3037.82673423551 19 22 13
136.515351507416 105.067368803656 3024.41250202124 19 22 13
123.798994456409 104.880208590585 3024.3144973675 17 20 11
122.253092577495 105.872697560095 3031.3712243045 16 19 10
125.042098385743 107.313928947193 3041.14154648168 16 19 10
131.329789777585 109.110368414808 3053.05343550997 19 22 13
118.580436206683 108.927437824366 3052.98790959387 21 22 17
80.5790981275138 106.155161528639 3037.28693311806 22 24 19
79.0353250284572 107.147343571809 3044.34125366677 22 24 19
78.3813367293749 108.226439787514 3051.91640603865 16 18 13
-2.78677503414038 101.142270056753 3010.28434572205 13 15 10
-42.1563063189212 99.5393185021337 3002.85440191153 15 17 12
-56.2079046124673 99.3215814326778 3002.66992147842 11 16 10
-85.3096469196637 97.6172265713933 2993.56103038209 12 17 11
-82.6541908356377 99.0753786524559 3003.46180638047 10 15 9
-71.9808716464976 101.314197650577 3018.03820310372 11 16 10
-86.1257102106765 101.108231583743 3017.94457188865 14 19 13
158.924597937245 71.039456680521 2837.14781916002 15 18 11
174.027857822048 74.1814783609169 2857.11076723195 17 20 13
168.030217612459 74.7374768580624 2861.5674269687 19 22 15
160.122012538458 76.3431290471513 2873.43414261476 17 20 13
159.052039569628 77.488568779524 2881.41223052829 15 18 11
158.002684296502 78.6314699968749 2889.37055779861 16 19 12
160.273792826144 80.1628586863031 2899.64217226146 19 22 15
175.812428555146 83.2499740531663 2919.18090081323 16 19 12
194.764765519543 86.7138355931939 2940.94240360946 17 20 13
204.691030972022 89.0961027438374 2956.2397720044 15 18 11
204.694027354611 90.3080391743327 2964.55946662535 17 20 13
208.060384460074 91.9030901127839 2975.15098312678 16 19 12
185.529452907526 90.5081133603514 2967.97358545757 18 21 14
177.174516383233 90.7561070896123 2970.5655324571 20 23 16
179.732147947767 92.2513823689321 2980.55796285695 20 23 16
175.585610090833 92.9776683777763 2985.98510080878 20 23 16
174.821462507368 94.0846092442333 2993.66518970928 21 24 17
165.614241432548 94.2383388901809 2995.70049073919 18 21 12
167.416233247269 95.6270855297773 3005.04178030774 17 20 11
166.699531734298 96.7281002099574 3012.6759682886 16 19 10
177.080989300379 99.0528856333365 3027.52948211795 16 19 10
178.137989124895 100.333785131532 3036.20959018845 17 20 11
154.39835005209 98.8896595092553 3028.82281181862 16 19 10
134.864112338728 97.9241874398679 3024.27414737611 17 20 11
136.762362940089 99.3008046582466 3033.52164326972 15 18 9
130.074132257706 99.7422896254818 3037.26374744476 16 19 10
129.425500557165 100.834739609203 3044.83160695401 19 22 13
121.005745470125 101.091031899754 3047.48669322081 21 24 15
109.100796182666 100.979631382428 3047.98866073083 21 22 17
72.8183472224568 98.2922736984645 3033.40240749373 18 20 15
32.0404438502706 95.1629406669631 3016.26064627552 16 18 13
38.2693486103358 97.0024396219781 3028.22454712475 14 16 11
-6.22083387382677 93.5341280543945 3009.15092186703 10 12 7
-30.7066063066985 92.1843262103721 3002.4907860984 10 12 7
-51.7594383236117 91.2088267073481 2998.03468098086 11 13 8
-69.3564100711894 90.6046813032752 2995.75994466809 11 16 10
-68.4624218741519 91.9062249888295 3004.59887449256 11 16 10
190.362799160044 68.995322563497 2869.99665397681 22 25 18
168.09749949903 67.5103352274622 2862.5687834375 22 25 18
160.462264245735 67.8616155227785 2865.84770004415 20 23 16
164.285198585305 69.6310962317058 2877.37695727648 17 20 13
133.377150921369 68.4201547435549 2872.82298429785 15 18 11
150.440215813254 71.7921449621453 2893.63998425442 22 25 18
168.436022366795 75.25102592037 2914.93516269885 16 19 12
194.830203753866 79.6957976531997 2941.91468541804 17 20 13
194.785871596494 80.9304752480556 2950.27835468665 15 18 11
203.926162658776 83.2564482316097 2964.94728036348 16 19 12
197.273901789051 83.6884285275369 2968.65540861109 16 19 12
194.797691238159 84.616238899496 2975.22792027861 16 19 12
182.271329212242 84.3575074859785 2974.95216379047 17 20 13
180.637638467413 85.3836322509832 2982.09075717121 16 19 12
177.335610750494 86.2111826412657 2988.0815643982 18 21 14
170.664474546968 86.6455739386029 2991.80774194435 20 23 16
165.679274192317 87.2763927223876 2996.66488485056 19 22 13
167.48106391519 88.6872947337852 3006.00310054503 18 21 12
164.213644842056 89.5105171673503 3011.96018054724 17 20 11
176.293174993329 92.0792952823159 3027.92557766154 17 20 11
172.223605933286 92.7991380217671 3033.27723677265 17 20 11
153.606774361009 91.8770988623488 3029.22806442288 18 21 12
135.787033015523 91.0591012162896 3025.78923956423 18 21 12
146.28568718914 93.4182092214838 3040.5213025672 15 18 9
141.342450811326 94.0437875341554 3045.33754916342 13 16 7
126.03537317256 93.5224563921346 3043.61083071542 14 17 8
113.279568092078 93.2928472368376 3043.55827247321 16 19 12
92.6816843134763 92.2118278049648 3038.66599282906 15 16 11
25.929840763915 86.1132346240011 3005.24493557423 13 14 9
-3.62251764663624 84.1166289299234 2995.2094603156 6 8 3
-1.8399920086698 85.5300957122494 3004.56676430112 7 9 4
-8.77903097171684 85.9984981273058 3008.55394641945 10 12 7
-31.5154479270774 84.7783515400503 3002.97166828853 11 13 8
-69.2742585618604 81.9764364918448 2988.45148622961 9 11 6
-64.8818714242019 83.6742060239251 2999.42586729599 12 17 11
-87.8204158057407 82.479636634755 2994.04052438855 11 16 10
218.084292361931 65.3825074464928 2891.18140698924 28 31 24
186.917068851242 62.6844271289292 2877.18521917727 24 27 20
157.261112937111 60.2103020633304 2864.48937629028 16 19 12
170.906259082856 63.2579204668754 2883.08038698763 17 20 13
162.471324356562 63.4952864403165 2885.75334416201 19 22 15
146.614266916932 62.8037635908095 2883.18067088678 18 21 14
149.682734652801 64.4914635292562 2894.05430245409 19 22 15
169.329678997503 68.2326723064546 2916.50196737069 11 14 7
169.200903679381 69.4947387646386 2924.94544188418 12 15 8
154.141551751997 68.9099220508927 2922.98177344049 12 15 8
174.845005074816 72.7250411393852 2945.78629472974 12 15 8
194.000261023711 76.3209765175385 2967.32677551908 16 19 12
190.679897163854 77.1567261387565 2973.33457896431 15 18 11
216.717822329672 81.5422599308868 2999.25971540169 10 13 6
163.052604840045 76.2947675980026 2971.13916302012 8 11 4
150.442937283763 76.0227922994234 2970.94774975355 10 13 6
163.130474114072 78.7766690840555 2987.69893906275 12 15 8
157.281575565633 79.3097645574659 2992.01128118808 18 21 14
161.608550808066 81.0459612807947 3003.04493771131 18 21 14
147.275195044911 80.5770657307668 3001.76045840669 17 20 13
149.090217894726 82.0084515044703 3011.08250591935 17 20 13
156.061541025833 84.0328071812821 3023.69909976814 17 20 13
154.527959247825 85.0576962894154 3030.73846609448 17 20 13
144.431560937958 85.0904949244248 3032.25735965414 17 20 13
150.649993785396 87.0025410017033 3044.22093683443 14 17 10
146.578056394693 87.7259550767351 3049.57441989105 12 15 8
109.690099666756 84.714560884004 3034.22042795512 12 15 8
103.823087767266 85.250054085225 3038.55040252269 15 18 11
36.3553416226439 78.8435638052282 3004.46884486679 12 13 8
2.52104607169912 76.2760623484989 2991.68489020105 10 11 6
-1.81118301989924 77.0324746058761 2997.29196964754 7 9 4
-16.6189485553758 76.623754500876 2996.4696923554 9 11 6
-24.4660249872259 76.9946976535543 2999.95606422222 11 13 8
-50.7457110462957 75.3393001697766 2992.28832162798 11 13 8
-74.4795615976162 73.9844954326018 2986.29950290065 10 12 7
-108.994801078199 73.9953205367825 2990.81492326414 11 16 10
201.884206874796 56.1568523144643 2880.29166575238 20 23 16
160.89564087389 52.0923147178819 2859.24591482781 18 21 14
176.125264990677 55.4226243004934 2879.05589032164 16 19 12
173.431377269737 56.3950508707186 2885.83830222426 18 21 14
177.318747109106 58.2168515082006 2897.29584119017 19 22 15
176.311631545842 59.3964485561569 2905.20680017644 18 21 14
184.399586252929 61.7381227398244 2919.50148146213 15 18 11
171.05049509096 61.3254383312349 2918.647876352 14 17 10
151.861871511519 60.1799053886917 2913.78262488381 14 17 10
146.731699865936 60.8299915205925 2918.78087871935 12 15 8
176.577049670364 65.8855121730988 2947.91138471372 12 15 8
176.538172849633 67.1529815873238 2956.26479013582 16 19 12
164.810865399089 66.9557673637373 2956.60303990406 15 18 11
196.657764963489 72.1785730702539 2986.55540921794 10 13 6
176.566315815782 70.9371445058072 2981.18360305658 9 12 5
114.285807457101 64.521167170803 2947.62075673522 9 12 5
146.309539427476 69.7215717575005 2977.40050188964 10 13 6
152.269907287 71.7018492803201 2989.61025683997 11 14 7
154.040340085488 73.1609917617401 2998.97248050349 11 14 7
140.539966533715 72.7677933882459 2998.26655885731 12 15 8
139.783169133982 73.916007075225 3005.93358665386 16 19 12
139.046442854152 75.0616408621549 3013.58072699774 16 19 12
148.60170121861 77.4281487453012 3027.83193081071 14 17 10
139.349726501459 77.5487023646432 3029.91623842929 12 15 8
120.621469915822 76.5555425282093 3025.98822436996 11 14 7
112.173296160756 76.7847112698061 3028.6755396429 13 16 9
139.985222848019 81.2564736643027 3054.24356895486 14 17 10
67.5333292392075 74.0254241063002 3016.73108132103 13 16 9
-3.48379256290166 67.0334426686979 2980.59266638696 14 15 10
7.80675342552506 69.6009147266335 2995.92482015523 13 14 9
-3.4852717483167 69.5591917097069 2997.22475597333 9 11 6
-16.5498334714043 69.3213457776946 2997.48035287549 9 11 6
-40.1517480185491 67.8937425848486 2991.37094148361 9 11 6
-69.9741721311313 65.7815586418852 2981.6210657161 10 12 7
-82.3637726911297 66.9313378059629 2990.92002888838 7 12 6
-70.9032844593498 69.4772569495448 3006.08661300812 0 5 0
153.627132379783 43.8528173092647 2854.92858578594 21 24 17
165.569742725931 46.8151840290231 2872.38868338459 20 23 16
178.414110482219 49.8764815581418 2890.35594777385 19 22 15
178.207397169234 51.1816890216264 2898.87010180464 13 16 9
198.600442277896 55.2045520046601 2921.95249642432 10 13 6
191.891133738232 55.6289046011072 2925.71806338015 16 19 12
177.733166159096 55.079161946954 2924.27137018276 15 18 11
156.073991058093 53.5619321668638 2917.66328373206 13 16 9
172.553374249296 57.0152281177916 2937.63096197636 12 15 8
138.339578192422 53.8922096619647 2922.47180561548 11 14 7
165.754545452162 58.730332792694 2949.79678286801 15 18 11
159.021786884489 59.1578406575666 2953.58516970101 14 17 10
205.108688404187 66.3184650888977 2993.19974541731 10 13 6
152.259688741144 60.8684897751574 2965.71551288188 9 12 5
126.147134659109 58.8502046251878 2956.51853108465 10 13 6
143.843458923754 62.3625409791877 2976.68595202525 11 14 7
136.257578301939 62.6851727571723 2979.9200929916 11 14 7
101.519005760093 59.6289610770194 2965.27251126765 10 13 6
130.405189886106 64.4938553448626 2992.54950097873 11 14 7
134.737310052915 66.2898907424867 3003.56920438606 14 17 10
134.842965397657 67.5559714951406 3011.77929247484 14 17 10
146.099832645217 70.1794676086971 3027.1366093997 14 17 10
124.83226974353 68.8261053871498 3021.53233601012 12 15 8
108.650900799801 68.1069343228067 3019.28579524674 11 14 7
107.069492113387 69.1605963119461 3026.3684017809 13 16 9
-15.5995130080226 59.5613432224115 2982.39184085944 13 14 9
-16.486628050866 60.740233861665 2990.1837419619 9 11 6
-33.946612027381 59.9701069631231 2987.79750675981 9 11 6
-38.3311974305487 60.7397130173921 2993.45462676023 9 11 6
-91.0415057840943 57.191632289484 2978.30443205851 9 11 6
-33.7485690418404 66.3427520335652 3029.1692930987 12 17 11
-115.932069824214 58.2173617021456 2988.69942103809 2 7 1
149.620110844911 36.0147873918994 2852.98085253092 22 25 18
170.541458356246 40.2706863488735 2876.92110175754 19 22 15
178.48220663588 42.718369011406 2891.34629319493 17 20 13
172.332137380426 44.5784976231884 2904.26336111445 11 14 7
179.584670944648 46.8976881903968 2917.97404169578 17 20 13
182.761930419475 48.6542074452811 2928.72946999315 15 18 11
171.060413482481 48.4114170424608 2929.04884553957 12 15 8
162.651928829061 48.6147036920354 2931.70057430976 11 14 7
186.703292872534 53.1216224143473 2956.74663603329 11 14 7
166.656515675788 51.7782772036862 2951.34553320005 15 18 11
199.243765639904 57.3617193403665 2981.92633103346 14 17 10
157.380900111466 53.1717854782681 2961.76764381952 12 15 8
164.933331446008 55.4531195498797 2975.18577881314 11 14 7
155.697875796211 55.5455760734686 2977.25817333411 10 13 6
87.3431552650339 48.0225354975168 2939.97135420693 10 13 6
114.322964800067 52.8058614000567 2966.31930135959 8 11 4
109.220694020992 53.4537053852803 2971.29018061054 8 11 4
98.1686724310418 53.344828064231 2972.36205254075 9 12 5
116.911744998276 57.0138276391207 2992.88412934718 12 15 8
149.427307572747 62.3905332477677 3022.14942222708 12 15 8
133.327632667171 61.6264375940518 3019.82839791085 13 16 9
130.046262996112 62.4752421280494 3025.79555003977 13 16 9
101.840111279264 60.2239806507096 3015.87815680696 13 16 9
101.104786300268 61.3975659116348 3023.51977442276 14 17 10
-53.7840148138193 47.580318926603 2959.73200385629 13 14 9
-53.8848930950766 48.8894490309381 2968.14082021343 10 12 7
-54.8351871280603 50.0903888599004 2975.99186228445 10 12 7
-66.2678266578531 50.0299735996534 2977.43453078407 10 12 7
-38.2549313997131 54.6823530245666 3002.77630021607 11 13 8
-23.2807522219378 57.7498286275136 3020.04462658049 0 2 0
-75.1736108055239 52.8894564819319 2997.19176384091 12 17 11
-85.772223073207 52.9391550141834 2999.20686548733 11 16 10
-82.2352059096954 54.6504537759542 3009.61173265078 0 5 0
168.439289039078 31.3760919747509 2867.57000674387 23 26 19
173.878824181039 33.5288470809285 2880.27146417057 17 20 13
178.002836145546 39.5673251436847 2917.79409501466 17 20 13
169.600356153919 39.7594762967697 2920.44150688845 15 18 11
169.471033876467 41.0884897282001 2928.87562980723 11 14 7
178.503634504386 43.6602248708517 2943.61517013757 11 14 7
179.276618458609 45.09346438288 2952.55479437828 11 14 7
215.964948752648 51.3718074053155 2986.04533720212 15 18 11
226.915638687248 54.137565545529 3001.68566645947 14 17 10
149.90241911878 45.1058655294361 2957.63282805796 13 16 9
139.788779396417 45.0780617171051 2959.17779961035 12 15 8
147.342065702006 47.4004020390402 2972.58936274119 9 12 5
98.3881520429239 42.2428216046468 2948.278920819 8 11 4
79.6972467567345 41.1169206644857 2944.33343544432 7 9 4
106.738096618785 47.3085604092125 2978.91475206937 9 11 6
109.311607255768 48.9509383996738 2988.86967259909 13 15 10
119.606103754835 51.5814791819838 3003.76434954498 13 15 10
141.097810233412 55.6337927168005 3025.75140440445 13 15 10
109.525871922002 52.8626384573678 3013.5848139868 14 16 11
108.785823969712 54.0508959501891 3021.22929087741 14 16 11
85.6625314852191 52.3943572996401 3014.67877510464 14 16 11
68.5038288320881 51.5115154679164 3012.00968447058 14 16 11
33.1159841203541 48.3501241714502 2998.02238511069 15 17 12
-13.6834869355305 43.794248700792 2977.15159321701 13 14 9
-34.5853483303742 42.5119103805144 2972.59092268319 13 14 9
-57.2985811094653 41.0221103150807 2967.02547698882 10 12 7
-76.5951507964506 39.9733885598217 2963.67001826767 10 12 7
-43.4411293053856 45.3883215816979 2992.29566201026 11 13 8
-39.9385904726213 47.1315642956903 3002.73004536364 12 14 9
-41.6708889281967 48.2271319279983 3009.95629403337 0 1 0
-52.1966993276877 48.252034964373 3011.90310495393 11 16 10
-93.6468551364795 44.5481086671027 2995.51348713473 6 11 5
-66.2370092039337 49.1612542292904 3020.04264504981 0 4 0
201.115547796237 28.8667939132899 2892.17329872444 23 26 19
191.924446123371 28.9271118847597 2894.20639915461 19 22 15
189.267191994067 29.9292842923068 2900.94803693743 16 19 12
188.264393905162 31.1642709671899 2908.84618420318 17 20 13
209.501268830863 35.554151698387 2932.45330759527 18 21 14
172.29719403018 31.6428698441954 2914.71207210459 16 19 12
154.78622117783 30.5454778158658 2911.00759209351 14 17 10
151.306955484752 31.4308618889007 2917.16585145783 12 15 8
167.772750886439 35.0980996031013 2937.1154020788 11 14 7
164.35736708293 35.9754450911212 2943.21141388179 12 15 8
133.40992380694 33.0414221653717 2930.44876257999 12 15 8
128.274906270315 33.6943305298295 2935.45141133224 13 16 9
127.333114279132 34.9220040473134 2943.29039736457 14 17 10
120.528825386312 35.3440378571332 2947.15062393081 14 17 10
126.317704028895 38.8181663563958 2967.81201127701 10 13 6
119.537521689376 39.2372348631678 2971.64873794995 10 12 7
112.750745797614 39.6572247495039 2975.49221378023 8 10 5
127.208257593819 42.9154233436016 2993.2454097175 9 11 6
106.824277560573 41.5190657806187 2988.18698948821 11 13 8
121.382215615465 44.764522966965 3005.84234384053 11 13 8
125.759766322159 46.6455141216471 3016.80437762638 13 15 10
138.758763190892 49.6461085045085 3033.21015560192 15 17 12
77.904120069396 42.9815993596223 3002.518864868 16 18 13
45.2334825886624 40.0455242692639 2990.05076487632 15 17 12
29.7118615352767 39.3605548193066 2988.56127688101 14 16 11
21.9342193161896 39.6850930904941 2991.98555816934 16 18 13
28.8924000498825 41.9027783559506 3004.58629074228 13 14 9
-16.2569466140443 37.4513885597651 2984.89561447444 12 13 8
-45.0281980350522 35.1274976847934 2975.55010819483 10 12 7
-60.8044542973198 34.4749074465316 2974.3083532508 10 12 7
-63.4985572817928 35.4825729146577 2981.08577061957 11 13 8
-46.8841841738934 38.9098237890582 2999.50634201429 12 14 9
-38.9628571254215 41.2266083065703 3012.55291855028 21 23 18
-104.101899783809 34.4423315936716 2981.88307353264 4 9 3
-64.4395193125353 40.6999129584675 3013.8403184476 12 17 11
166.948105483224 16.6822740037408 2868.38835746018 23 26 19
189.542095772215 21.4349551989073 2893.42837996197 21 24 17
155.755849897705 17.8811711646153 2877.90832691403 18 21 14
183.236153446613 24.7041370358038 2914.79410628336 17 20 13
179.78982842607 25.5911326164484 2920.91941689278 15 18 11
158.16292344484 23.8557114949557 2914.31153432107 13 16 9
177.06662438118 27.9564535133875 2936.02686491358 11 14 7
157.042910255488 26.4658615954422 2930.62496095088 12 15 8
150.271724694414 26.8786582563311 2934.4536806659 13 16 9
132.644996920155 25.7562188858735 2930.86818683167 10 13 6
122.48921142937 25.7023715438399 2932.45885897745 11 14 7
163.454138856879 32.8294718803689 2968.66245394026 14 17 10
136.564967812455 30.4178134373087 2958.87789535039 15 18 11
100.31103290949 26.7298883596377 2942.99430133904 14 17 10
158.466879274887 36.1567133292236 2990.12703693595 12 15 8
144.145112896328 35.511385188297 2988.85712586099 10 12 7
131.47777474523 35.1042483552823 2988.74295716336 9 11 6
112.826338818837 33.8880953809823 2984.77161734217 9 11 6
123.932459813484 36.7379630188482 3000.24516991218 10 12 7
108.642511003881 35.99160536439 2998.53470110387 9 11 6
111.279049587315 37.6756140172949 3008.42054311531 13 15 10
90.7921016426454 36.2444520371775 3003.46985346385 15 17 12
108.062679325065 39.8804734008693 3022.62485714616 17 19 14
59.9512781881795 34.7849809801015 3000.30242988894 15 17 12
-9.0775053027734 26.9666889984226 2965.14585043383 14 16 11
0.367641465857105 29.5792920466559 2979.46968608929 15 17 12
52.3828557782564 37.7684767047045 3020.13022324414 13 14 9
-8.36129469267766 31.1396158017906 2990.74119003994 12 13 8
-55.4114769949812 26.3579180553806 2970.15273455389 10 12 7
-77.3229884956956 24.8837601848636 2965.20576518661 11 13 8
-74.8029948446902 26.5827724689597 2975.20545835066 11 13 8
-73.1244374974378 28.1645041454436 2984.64113490792 13 15 10
-64.3871518365287 31.9893744804203 3006.57359896248 18 23 17
165.388169312692 9.204287697887 2868.2088216124 27 28 20
169.184789183677 11.2187879267876 2879.72799572298 17 18 12
195.957184623267 16.6674538217361 2907.60081833796 17 18 12
171.98343237924 14.4957894782175 2899.13680055353 18 19 13
166.847749633886 15.1494598443098 2904.13999724437 19 20 14
146.866249851961 13.6052285553768 2898.70410168987 17 20 13
178.901399299955 19.7467567322432 2929.75032078233 15 18 11
182.107777053889 21.6096704800015 2940.46110913852 10 13 6
176.216927611805 22.1326046975901 2944.81661095056 10 13 6
151.173972325441 19.870302082892 2936.01081457208 11 14 7
138.556493066908 19.4327762364203 2935.85162674001 11 14 7
137.615277358528 20.6883413659616 2943.68558030492 12 15 8
171.906613283526 26.9972006784777 2975.3011357238 14 17 10
171.087358705125 28.2373169586695 2983.01626341692 14 17 10
193.871610566471 32.8316305196946 3006.47351287223 13 16 9
169.50985827127 30.7099485576734 2998.38739750016 13 16 9
168.751527448821 31.9424672168221 3006.04348777007 11 14 7
136.635187502029 28.7640966373595 2993.06077330063 11 14 7
104.395843879904 25.6014021609966 2980.19788637793 10 13 6
87.3684328181326 24.5901394074046 2977.41773965097 10 13 6
102.734538163611 28.0850336425582 2995.65061456767 11 14 7
95.9438533687975 28.4959117606209 2999.49931871183 10 13 6
83.9997308690119 28.2001947288828 3000.06742770111 10 13 6
76.3239288197202 28.496658357952 3003.39472961521 11 14 7
61.7447272803768 27.855169386469 3002.37988803292 13 16 9
35.9233107798866 27.0558355520678 3002.63302059132 16 19 12
-0.457881266008542 23.5122893900989 2988.27136498114 17 18 13
-48.3683680024418 19.8475168506027 2975.45734573059 8 10 5
-72.0104098784722 18.088783694291 2969.43672223347 8 13 7
-79.1052673083699 18.5385456966519 2973.58172727966 9 14 8
-70.4205745165871 21.0672500288891 2987.25585800957 8 13 6
-79.2524624031374 21.2839177770399 2990.32605472879 12 17 10
176.870010358329 3.73240202423336 2877.4540078502 27 28 22
164.352903602607 3.25776530814614 2877.20063360938 18 19 13
173.914242966707 6.1773728240056 2892.78096033336 19 20 14
172.874283650725 7.45908166420656 2900.70910373131 18 19 13
149.637884440536 5.36180796853181 2892.91913573865 19 20 14
161.782929227607 8.64205957147035 2910.13122969803 17 20 13
183.104540049975 13.2820697449146 2933.61724006977 15 18 11
192.949621372588 16.1657800653762 2948.92077458229 10 13 6
179.608534389721 15.5667013733268 2948.08710803967 10 13 6
164.5645621265 14.7248594261377 2946.14649342136 11 14 7
133.61969536792 11.5409629868673 2933.41821479586 12 15 8
149.395313247266 15.2785962262962 2952.62580815361 12 15 8
168.622042973572 19.4961154017596 2974.00344461162 14 17 10
187.961872329232 23.6992200743972 2995.27056408099 14 17 10
172.883862391529 22.8619639610453 2993.36307159237 14 17 10
201.656618194828 28.3921550878549 3020.65436671948 14 17 10
140.944665075529 22.3347345677914 2996.81687754299 11 14 7
102.766145530306 18.2337105788688 2980.07132389324 11 14 7
96.809837738419 18.7631998034823 2984.49052014512 11 14 7
116.46582348077 22.9262948511867 3005.44994289594 11 14 7
119.119550472186 24.6578122016564 3015.31203264141 11 14 7
93.5047196170622 22.4045953980349 3007.07277427767 11 14 7
54.9033601745847 18.357621578245 2990.73911830522 11 14 7
54.9228074138259 19.7351710503634 2999.01833728909 13 16 9
56.693184721559 21.349382742057 3008.35769689419 14 17 10
44.6486112888405 21.0455517105806 3009.02709223242 15 18 11
11.7571472745261 17.8804176210069 2996.81213107304 13 14 9
-37.773725223873 12.467393605309 2974.52928157479 12 13 8
-48.2952669571004 12.4293768611617 2976.48115316273 11 13 8
-57.0931294647909 12.6314486629418 2979.51938161025 7 12 6
-58.9045461594737 13.7825897557993 2986.81631996979 8 13 6
-70.3472744502869 13.6319471344981 2988.28200448081 11 16 9
-80.0579994582868 13.7205183277074 2990.82692275038 13 18 11
146.449666884044 -6.79140720922189 2865.290043597 18 21 14
155.148832415617 -3.94546963365328 2880.32016290725 19 22 15
143.392648347703 -4.30816240958426 2880.71154524118 17 20 13
151.354363275964 -1.60069322066098 2895.07752015139 17 20 13
173.400002538714 3.26648591980755 2919.22789342233 17 20 13
176.560426892477 5.19022548113979 2929.97532415553 15 18 11
183.075218584417 7.61704655148093 2942.98577626278 11 14 7
171.372178603292 7.24791210760134 2943.32533780863 10 13 6
158.806580686777 6.7561473840882 2943.12264751932 11 14 7
138.592211391761 6.54198314474702 2946.223543095 13 16 9
164.499624133449 11.8478553306442 2972.14225468619 13 16 9
166.183491697151 13.4948651269869 2981.56267220042 14 17 10
175.479362586261 16.2654770198308 2996.01172521471 15 18 11
118.998994639409 9.27436222876132 2966.69296185344 15 18 11
165.504401384827 17.5382228165267 3005.72889787183 12 15 8
180.022510356113 21.0390753578524 3023.38605577103 12 15 8
103.695487749371 12.6238007958419 2989.89665645549 11 14 7
106.290058714799 14.3876605481126 2999.81270881639 11 14 7
100.362724625832 14.91135955714 3004.2039895443 11 14 7
69.5599179585757 11.8594009006748 2992.73238996111 11 14 7
48.9574039119298 10.2989681539886 2987.91556532013 12 15 8
44.6553920488779 11.0808711852332 2993.48887108674 13 16 9
47.2660336908346 12.8427934266145 3003.38925139154 13 16 9
34.334841388338 12.3982823188331 3003.54261766822 14 17 10
11.8291928470478 10.6152357756133 2997.8143794584 13 14 9
-41.1773573477991 4.57777216914018 2973.40724607862 11 12 7
-44.736991761142 5.49780428598001 2979.64019180449 10 12 7
-31.6987120545198 8.72219218767134 2995.97354691496 7 12 6
-38.7046620262512 9.15098665146646 3000.03336453394 7 12 5
-62.3806299730107 7.28450438732697 2994.06235539765 10 15 8
152.240255368683 -13.1543674532124 2870.39938728438 17 20 13
153.582254823617 -11.4423307173513 2880.14967393109 18 21 14
174.657037833506 -6.59721645368078 2903.85047367445 16 19 12
171.172933504135 -5.68187066027775 2910.00910954696 17 20 13
160.274584297761 -5.93955910545224 2910.95003890574 16 19 12
157.61695670088 -4.89411546657265 2917.68565207828 15 18 11
165.743962281439 -2.16382474582649 2931.88411791488 11 14 7
173.933936103947 0.558490971981296 2946.02123405834 10 13 6
158.04449226726 -0.474756998266379 2943.53122777775 11 14 7
143.774623680487 -1.24363657441345 2942.22804227652 12 15 8
130.299344297116 -1.87843523088699 2941.53291016647 12 15 8
126.007468589429 -1.09502374603204 2947.09592763217 13 16 9
149.448330697279 3.91965565222691 2971.25593283678 13 16 9
136.808474514018 3.41391715436967 2971.12938526383 16 19 12
128.354940926903 3.55121936715724 2973.83526292008 16 19 12
116.502891989753 3.1804683601741 2974.32336933132 14 17 10
158.043592612597 10.8302810111958 3009.87795634787 14 17 10
141.153602197132 9.68966646920938 3006.98012918351 12 15 8
94.396017719629 4.11952090642326 2984.80108049924 12 15 8
88.4310328856248 4.64583614125164 2989.22936229652 11 14 7
85.8861557331929 5.6776186278259 2995.85503172331 13 16 9
73.0618578066751 5.19566832860952 2995.9077838006 13 16 9
67.0804148348303 5.72421487068808 3000.35241682781 13 16 9
54.2038621814624 5.24897741884089 3000.45606646541 13 16 9
20.5706724965511 1.77155043398153 2987.60689729748 13 16 9
32.6758917883723 4.93672743609519 3003.4586372204 13 16 9
-17.586845447116 -0.892208151817675 2980.54744029803 15 16 11
-34.1494159678133 -1.83880662989871 2978.71305200821 10 11 6
-39.436123426944 -1.16335514851956 2983.86299923306 10 12 7
-26.3867585531385 2.11679819788174 3000.17710450027 11 16 10
-24.6310292479253 3.77717894724355 3009.52418602185 9 14 8
138.424003152002 -22.6929418992383 2861.43977950353 15 17 12
169.213058687734 -16.1427237669028 2892.24607475687 16 19 12
178.832048400489 -13.0831257958861 2907.74812546228 16 19 12
153.142780113958 -15.7586672082518 2898.22829464333 17 20 13
137.253888446991 -16.8268427358196 2895.74290232777 16 19 12
132.062041605467 -16.1638806620013 2900.80049748603 16 19 12
137.642772592792 -13.779443173009 2913.32750279602 14 17 10
147.42736574611 -10.7406263226625 2928.66817827745 10 13 6
154.785448338403 -8.10652877046036 2942.22750399875 11 14 7
131.329570361319 -10.3522015581551 2934.67707714511 11 14 7
135.299879910771 -6.80858697061826 2954.29990399326 12 15 8
108.348454988697 -9.56062298580146 2944.62747208069 13 16 9
136.036998384824 -3.80482251838049 2971.54515187599 15 18 11
128.425889040406 -3.54708976921558 2974.81393738495 16 19 12
131.802349217328 -1.59539013447474 2985.34270886551 15 18 11
145.393901943214 1.91071741539062 3002.50226480772 14 17 10
121.676259230576 -0.30109334902978 2995.20676941382 13 16 9
102.133712570395 -1.85482291108002 2990.75330007885 12 15 8
89.3564409348837 -2.36651595199272 2990.76408816022 12 15 8
81.6792144538803 -2.10012375865748 2994.09724910113 13 16 9
82.5675362228688 -0.545176937239489 3002.9043528996 13 16 9
89.5005739597941 1.90549426146658 3015.49561762083 13 16 9
55.1374678518974 -1.80541356252134 3001.98886529941 13 16 9
65.5413690371369 1.15498322814628 3016.72614920065 12 15 8
33.613719352064 -2.15217656825467 3004.9923446617 12 15 8
-5.37126094037976 -6.46397969296314 2989.07877151984 12 13 7
-21.0372279604263 -7.32133362063836 2987.75776171178 9 10 4
-26.2949008478621 -6.64903380223331 2992.87934299214 9 12 5
-31.5517659766815 -5.97682844353331 2998.00013611735 9 14 8
-38.5576276331476 -5.55771600082339 3002.06129703645 8 13 7
-28.9088139042137 -2.73907040541604 3016.15243539108 8 13 7
226.724662680559 -15.2462864259711 2925.69232409864 27 29 24
191.394010900262 -19.6490806315699 2908.99755364276 19 22 15
169.053669249958 -21.8556553310205 2901.75085120531 16 19 12
156.505606209491 -22.4214177794139 2901.5416853563 23 26 19
125.780640534922 -25.9664663983422 2888.64875768006 17 20 13
128.827894545145 -23.9457856222783 2899.49424036815 14 17 10
141.028969997013 -20.4437027038407 2916.61790847755 12 15 8
131.719582789408 -20.4589532543682 2918.77963718685 10 13 6
114.067200187237 -21.8181190275817 2915.25426919293 10 13 6
99.6952906076789 -22.6323516891664 2914.0591150722 10 13 6
122.915628701139 -17.4050044638949 2938.40667167108 10 13 6
147.945116090136 -11.9267870384107 2963.75479424676 12 15 8
113.461813768748 -15.9550669877407 2948.99705884397 12 15 8
106.634107831431 -15.564038056033 2952.88545923099 13 16 9
155.507025044683 -6.38436752393357 2993.68579399993 12 15 8
149.639316562314 -5.87493549636497 2998.02031211468 14 17 10
138.681067239937 -6.16099026227662 2999.02525354595 13 16 9
126.846582515114 -6.57608307702134 2999.50213429254 12 15 8
104.760646557465 -8.57315863651903 2993.38874867781 11 14 7
80.8907312576297 -10.8242553554734 2986.25026866093 11 14 7
86.8849777740883 -8.4563382693289 2998.36908864594 11 14 7
81.7815133260078 -7.80333882401291 3003.34039125311 11 14 7
32.8431530452371 -13.8399754074749 2980.56167587098 11 14 7
50.0409793172283 -9.77060506144539 2999.72487398897 11 14 7
50.9355434689565 -8.19698547882047 3008.52301918315 12 15 8
50.9928578630685 -6.75731700071891 3016.7554543605 13 16 9
7.71123805115703 -11.8297059289461 2998.13569975448 11 12 6
-5.3176941781703 -12.3327815621631 2998.39511687665 10 11 5
-41.0298527349564 -16.2033583802479 2984.83434542752 9 12 5
-45.4464974250692 -15.3969719881069 2990.51786465593 9 14 8
-84.8575726446788 -19.7587999848622 2975.03480372982 11 16 10
180.820279641222 -28.5718720104727 2902.39503726218 16 19 12
175.69158651257 -27.9162670351615 2907.39100722591 15 18 11
149.996080426196 -30.7250508452294 2897.89706380261 15 18 11
135.749382844013 -31.5849378835293 2896.58398217246 17 20 13
158.658157935715 -26.2257746561024 2921.22178093228 15 18 11
148.558097954804 -26.3968008519633 2922.77443580641 12 15 8
136.7747049056 -26.8400867101012 2923.20474868333 11 14 7
103.318752786207 -30.8501345262003 2908.84139180132 11 14 7
87.2532115907347 -31.9645623502249 2906.53825114814 10 13 6
134.695900729866 -22.6727472873733 2947.32533930696 11 14 7
140.472474699238 -20.2418161734196 2959.65099790322 12 15 8
160.583044333575 -15.4995286553422 2981.49031705286 13 16 9
153.021607351188 -15.2633750493509 2984.71296655997 13 16 9
128.568838368501 -17.7427646210034 2976.77010113253 13 16 9
152.248074216081 -12.4815410353366 3000.65729640854 14 17 10
145.535212819232 -12.1099893951006 3004.43419536234 14 17 10
113.32051185716 -15.7906915209401 2991.6233992183 13 16 9
87.7971782262161 -18.3767272834763 2983.34247325515 12 15 8
80.9632671256648 -17.9895468495226 2987.23726642529 12 15 8
69.8444239476328 -18.2732606181378 2988.40133393086 11 14 7
61.2721159976148 -18.1512343133469 2991.2277518998 11 14 7
81.0487842369048 -13.6096699552604 3012.01139754836 11 14 7
25.993580417035 -20.7075538602144 2985.54427136475 11 14 7
51.008263052839 -15.3731061706239 3009.51143506566 12 15 8
42.4123992531205 -15.247962854625 3012.36078364867 13 16 9
31.2003128594918 -15.5195827635883 3013.61565557854 11 12 6
-38.271878716861 -24.6741433549 2979.09654898195 10 11 5
-61.8609795817209 -26.7758333377826 2973.07438098931 10 13 6
-77.6733503158322 -27.6780337862675 2971.90538052975 10 15 9
-79.5318392917213 -26.4641732088123 2979.23945460596 12 17 11
176.219287064976 -38.0818758188547 2891.36553997663 24 29 23
178.435690722691 -36.1468483080556 2901.63148170248 13 18 11
147.037337326163 -40.0188713245649 2888.03865534409 9 14 7
150.891400506576 -37.8000620725555 2899.47059061485 19 24 17
154.788959004998 -35.5867655809065 2910.86014917543 17 20 13
154.597396638985 -34.0828471119393 2919.33022653407 15 18 11
162.715131601718 -31.1765893386173 2933.51189037769 12 15 8
136.016984173079 -34.1703734619826 2923.62368043483 11 14 7
135.022999278032 -32.8100743330534 2931.4948927848 11 14 7
114.025568143982 -34.8072949618669 2925.71753654807 11 14 7
109.68055581375 -34.0042927017446 2931.33042395744 11 14 7
107.854920700983 -32.7839594869959 2938.63091700893 12 15 8
135.45038656064 -26.6990106664237 2965.59237619104 13 16 9
119.410350459779 -27.8510031543082 2963.26946064279 12 15 8
128.640881696367 -24.8400914188458 2977.74754284414 12 15 8
142.167867999081 -21.1461441178254 2994.94345156584 14 17 10
145.606373313611 -19.1198425813235 3005.39958517906 15 18 11
104.894611788493 -24.26452662211 2987.07276496827 16 19 12
104.904810808217 -22.7856305998863 2995.34618859499 14 17 10
88.7192331034265 -23.9186855677697 2993.16499905376 13 16 9
81.0403854410078 -23.6747625125394 2996.50309078058 12 15 8
81.9262620270629 -22.0612609786041 3005.30396832092 12 15 8
104.326905990277 -17.0370939459999 3027.66170461675 11 14 7
69.1380685204148 -21.1623422427621 3013.61924576752 11 14 7
-25.0944373930198 -31.5365666176028 2979.77861549572 12 13 7
-23.4212353679739 -29.7771592181745 2989.19301173084 11 12 6
-67.0114231363672 -35.0460795879707 2970.90905477032 10 13 6
-94.1839305280472 -37.7314674194185 2962.86321976353 11 16 10
-103.953388197449 -37.7128370280483 2965.47679765408 12 17 11
-111.987815302003 -37.423158775195 2969.16122242514 13 18 12
130.199644333649 -51.8284396889454 2868.24459028293 18 23 16
135.620274128955 -49.2815050091884 2880.90656142951 13 18 11
142.737721195515 -46.4530571056742 2894.67611688806 14 19 12
158.984833697024 -42.0510156878871 2914.73421919515 16 19 12
166.241571027243 -39.2402914039081 2928.36773906403 15 18 11
150.360107148225 -40.4476852202664 2925.89554724752 11 14 7
155.189629933836 -38.0739137741298 2937.75318052548 10 13 6
127.604728933866 -41.2730407197781 2927.35897024931 10 13 6
121.607744389023 -40.7540043522281 2931.82044188789 10 13 6
116.444065149684 -40.092263983584 2936.85024676827 10 13 6
115.471914112394 -38.7206107719122 2944.69776180426 11 14 7
123.761443842318 -35.7922408472459 2958.70556273815 11 14 7
131.271625255635 -33.013393505969 2972.09212028414 11 14 7
123.649564916756 -32.7845147714292 2975.37638274524 11 14 7
133.780624465026 -29.5931862295902 2990.35047081336 13 16 9
119.394884225687 -30.4927575312544 2989.18166375598 14 17 10
127.061614743185 -27.7337488874687 3002.41569787812 16 19 12
110.9394070245 -28.9095105455989 3000.17789303407 15 18 11
73.4134322326185 -32.0804902546085 2992.56627140947 13 16 9
93.1468282275252 -27.376010937937 3013.36847043466 12 15 8
83.7723541878161 -27.4210616677574 3015.59923578389 12 15 8
72.6565663863168 -27.7417655141702 3016.76573637274 12 15 8
60.6511388854183 -28.1978815718208 3017.41842904036 12 15 8
-48.5499854026061 -41.1373985388566 2974.73185960499 13 14 8
-64.3217267824641 -42.1083171380813 2973.53300795071 13 16 9
-103.709188769784 -46.786836114842 2958.07330552441 13 18 12
-131.87281402386 -49.6614320656665 2949.62272076609 14 19 13
-123.309133548978 -46.7676379406848 2963.36339624565 13 18 12
149.105310814949 -55.759635858124 2882.64329226836 17 22 16
121.742403437938 -59.0601795584546 2872.04362839497 17 22 15
151.037702655281 -52.2259611174499 2901.45745199721 11 16 9
163.180588389258 -48.4878613513841 2918.60402016966 17 20 13
182.844448482617 -43.4444941412298 2940.84242905007 15 18 11
164.516964924346 -45.129325704052 2936.61900807114 11 14 7
154.432045742574 -45.3493325039597 2938.16386721978 11 14 7
136.833824932232 -46.8753971111101 2934.60938334069 10 13 6
114.172947788832 -49.2651877507772 2927.70805662222 10 13 6
115.681378115225 -47.441164938131 2937.27652346003 11 14 7
134.822716227673 -42.5824671823308 2958.64418913876 11 14 7
166.678321142894 -35.571480582661 2988.32328371352 11 14 7
145.658788328871 -37.6670890032697 2982.58275428639 10 13 6
132.161955346943 -38.4577524027851 2981.93206195928 10 13 6
144.849510181317 -34.7886559020124 2998.54796431582 12 15 8
118.619746470602 -37.7290948009898 2989.60366733393 12 15 8
127.134007382617 -34.7855663031282 3003.38606645137 13 16 9
106.75387149448 -36.7107232360316 2998.40232308708 14 17 10
78.6223334715208 -39.9114351312849 2988.55116571038 14 17 10
70.920494200561 -39.6796948958487 2991.91388905981 13 16 9
82.9300832612256 -36.1755537517947 3007.81049246379 13 16 9
73.5323882265062 -36.2306372101434 3010.06546159523 12 15 8
52.9188268343028 -38.1256742655696 3005.30906150241 12 15 8
54.6816787344597 -36.3336073972357 3014.62960703104 12 15 8
-55.4259354451112 -49.6985422031381 2971.48916271144 14 15 9
-63.373913522379 -49.4350056654379 2975.09160605454 14 17 10
-73.9514982216063 -49.5907960131909 2977.11619818137 14 19 13
-108.172714334625 -53.523301285578 2964.91820832134 14 19 13
124.617419589923 -67.5099697027524 2866.18650435349 21 26 20
179.08005299971 -54.3589812486977 2922.10453822932 13 18 11
173.148378059732 -53.8531905448187 2926.50311416812 17 20 13
174.651997373309 -52.0068901838315 2936.07306580086 16 19 12
180.329760311288 -49.4213727553036 2948.47399742221 12 15 8
166.960494276706 -50.2554205621479 2947.70304142706 11 14 7
131.913561246405 -54.9363386789494 2932.18454996863 11 14 7
135.102970087035 -52.7960929590664 2942.87119916221 11 14 7
126.625687797387 -52.7279287576685 2945.61121604103 11 14 7
133.219720164735 -50.0046232044161 2958.49882286713 12 15 8
120.547965638229 -50.6728020353147 2958.42795943085 12 15 8
84.2665537847287 -55.4499056680374 2942.73229271034 11 14 7
101.009786497488 -50.9693693951694 2962.28613880835 10 13 6
154.300099433904 -38.6855853524186 3013.82850156472 11 14 7
128.906283716469 -41.5451856692222 3005.45939512048 12 15 8
110.233705216394 -43.2276449920641 3001.57797006217 13 16 9
87.232297983507 -45.629258958538 2995.01654223907 14 17 10
82.11652197964 -44.9720685910077 2999.99945098666 14 17 10
74.429165222198 -44.7497316007208 3003.3491827816 14 17 10
70.1686274268663 -43.9472950286396 3008.87826933749 12 15 8
59.0223918882646 -44.3008095796537 3010.07985438719 12 15 8
30.5848296302207 -47.5343387642108 3000.53743398082 12 15 8
22.8081412353691 -47.3004010308549 3003.97415882752 12 15 8
-12.7270261196242 -51.6626822609851 2990.31030619596 17 18 12
-37.0988626610664 -54.1431366336442 2983.70414035281 17 18 12
-75.4904002546977 -58.903600702266 2968.68482888961 16 19 12
-67.7637051129829 -56.0700374612874 2981.84829811655 14 19 13
-47.7304256008124 -51.2464454753584 3002.3354414175 12 17 13
-59.1481400350031 -51.5649839454239 3003.80143957423 10 15 11
138.305153965264 -70.6653954830721 2885.65203153066 15 18 9
170.927324204019 -62.999786366854 2917.3073189626 18 21 12
173.221560602637 -60.975309928287 2927.48308895569 16 19 12
173.072183373244 -59.4100895343687 2935.90221545231 15 18 11
167.148119447895 -58.9073534174546 2940.29334716571 11 14 7
167.033541566832 -57.3464168388859 2948.67855054105 10 13 6
128.658625581408 -62.7275124949289 2930.90030617534 10 13 6
135.176904284262 -59.9563862202051 2943.85606962838 9 12 5
145.095049887584 -56.5908222064571 2959.01617030662 11 14 7
112.341479412714 -60.8894850242037 2945.4149045574 13 16 9
97.1013718691522 -62.0248427214503 2943.71209882957 11 14 7
112.968209823128 -57.618909219085 2962.73033481773 9 12 5
100.240337652081 -58.3035585374858 2962.71729352092 9 12 5
125.540754396776 -52.2739650996393 2987.71488610748 10 13 6
98.420305472533 -55.4915469561947 2978.27910499974 9 12 5
110.28599881177 -51.8602468520899 2994.29980494351 10 13 6
104.345915303024 -51.3544722955943 2998.70673310197 15 18 11
113.766804668558 -48.1822929163566 3012.97195157995 16 19 12
101.86709920799 -48.7152151544543 3013.53135046058 13 16 9
73.645895192862 -52.0489658759752 3003.78855797804 13 16 9
65.0866834739818 -51.9799081804544 3006.60979993318 12 15 8
45.3160748127472 -53.8214831617863 3002.42534296389 12 15 8
41.8820184988671 -52.8641438759753 3008.52807379733 12 15 8
-23.8351426466465 -62.4647163317962 2976.01406194502 12 15 8
-16.1189438399543 -59.5888005956874 2989.18203234951 14 15 9
-33.5456460424828 -60.9580633665796 2986.85129987414 15 16 10
-92.8313609879474 -69.3226111765839 2959.10437103581 16 19 12
-90.3808834715005 -67.316799459025 2969.12774992684 16 18 13
-84.3957706473435 -64.7341033140021 2981.22355771023 12 17 13
118.685356265522 -81.6576475419469 2872.75124221497 12 15 6
150.437252998802 -74.0160657718162 2903.8573660164 21 24 15
151.033770368073 -72.2696866217876 2912.92594228289 16 19 12
160.749046885882 -68.8295463458452 2928.27613478102 15 18 11
145.684194121968 -70.0197679137698 2926.40774516438 12 15 8
145.518934656399 -68.4357409003731 2934.83952550417 11 14 7
155.365054592195 -65.0120348431609 2950.06255536637 10 13 6
136.919542243001 -66.8096119884944 2945.97266462747 9 12 5
110.051780679651 -70.1297527248772 2936.30111939261 9 12 5
105.711681416671 -69.3113303141448 2941.90684896204 9 12 5
108.936343948532 -67.1204225138534 2952.55100288572 8 11 4
125.671484190644 -62.4976357170554 2972.09186036141 9 12 5
117.192388841401 -62.4495282269966 2974.83664200837 11 14 7
77.4042316330483 -68.0164010773132 2957.07231553904 11 14 7
69.67203133458 -67.8036985144104 2960.46800159728 9 12 5
101.863407103991 -60.477955437338 2989.76714988032 10 13 6
92.4976142427285 -60.5761552992153 2991.99715010953 15 18 11
113.840464794912 -55.2427026610688 3013.94233146243 16 19 12
125.038570066069 -51.7314935972379 3029.22679631216 18 21 14
74.5781029077786 -59.0525264008849 3005.31523228326 17 20 13
31.6474938155573 -64.9967048340741 2986.47576895181 15 18 11
74.6743591611123 -55.9372405085125 3021.76313584499 12 15 8
