ply
format ascii 1.0
comment KinectMotionCapture
element vertex 760
property float x
property float y
property float z
property uchar red
property uchar green
property uchar blue
end_header
-18.1919237116581 564.351708058841 2376.14502077287 210 211 215
-31.1035244786142 565.749397327774 2376.00665595399 220 221 225
-50.1950644733404 567.737096372287 2370.58190873168 208 208 210
-73.9729644673499 570.173598108717 2361.24232183362 208 208 208
-87.8024683542264 571.661487040067 2360.58520759349 204 204 202
294.151110746739 520.971804167586 2290.61521462986 195 196 191
285.624853632552 521.943071312474 2293.27004817078 197 197 197
281.99703085142 522.479223111869 2301.04435261487 196 196 198
284.012461376792 522.512440114065 2314.6254447141 193 193 195
281.835288767574 522.916836084109 2323.8125241824 199 199 201
278.262083531215 523.444362893768 2331.53386736684 205 205 207
271.151655107542 524.286629329687 2335.63598481417 205 205 207
264.033688137765 525.129243392951 2339.74587461204 195 195 197
257.62147197491 525.908504454964 2344.58087844737 184 183 188
248.343203726457 526.943973584573 2346.55640966036 202 201 206
239.045414653642 527.98132697391 2348.55070900575 189 188 193
220.374733017601 529.859907672299 2341.30726153802 202 201 206
191.533431707997 532.654024727702 2324.18965422376 206 204 207
167.631712511689 535.007750652863 2312.15143721728 129 127 130
158.865207926849 536.001845252252 2315.04146616027 123 121 124
155.90209649576 536.473010235161 2323.58255459033 180 178 181
149.308295445392 537.270445451391 2328.59518877122 184 182 185
143.442192959121 538.001823180264 2334.3122179481 166 164 167
137.576392939499 538.73263205897 2340.02903084692 154 152 155
130.975865008944 539.52931010911 2345.04879467009 178 176 179
119.949451241848 540.726445142825 2345.90220959798 190 188 191
111.852077725274 541.658386457541 2349.55421488664 162 160 163
104.484298314129 542.523926422053 2353.90844585152 152 150 153
97.8521150284743 543.322413286105 2358.95937656834 175 175 177
85.2576720093015 544.662547071211 2358.51457609284 198 198 200
76.3626289224257 545.666582257657 2361.53111429606 185 185 187
67.4524333166446 546.671996940436 2364.5624952856 179 179 181
58.5271601354855 547.6787227029 2367.60865475336 195 195 197
42.8131110951666 549.305007671379 2364.5514010403 190 190 192
31.5764447812579 550.523400153839 2365.61045801364 198 198 200
22.5824399679286 551.537034603754 2368.72351006521 202 202 204
12.056747103014 552.6908883771 2370.5033458463 207 207 209
0.747586927295707 553.91660486701 2371.63296996897 203 203 205
-10.5880909277425 555.145120574398 2372.78885065808 203 203 205
-21.1859723945591 556.30630580325 2374.63928720209 213 214 218
-34.8718580161709 557.751276532223 2373.84556335106 219 220 224
-53.2048255629314 559.624091699972 2369.10176942068 206 206 208
-72.3697926750089 561.574769908458 2363.75507023275 204 204 204
-82.3351098241525 562.680075837623 2366.4025293121 205 205 203
285.149360537248 513.824069213535 2282.18934526454 196 197 192
289.89773545583 513.658753368919 2298.7535635199 193 193 193
285.579218068988 514.26120857785 2305.7870289851 195 195 197
283.380070327321 514.682350474386 2314.99345504416 190 190 192
281.906400370902 515.040397929629 2324.90604342851 192 192 194
278.33272435858 515.576033332893 2332.62665565385 205 205 207
274.770795091593 516.10974560606 2340.33588742522 202 202 204
265.526923685853 517.12859650469 2342.2793803902 224 224 226
257.69103897931 518.026953827338 2345.67668712435 186 185 190
247.696939557849 519.110430577356 2346.93904445101 193 192 197
239.832086715784 520.011348870481 2350.36473846165 204 203 208
221.882811779879 521.77947870335 2343.83815738374 191 190 195
190.160021872731 524.73543730381 2323.89001562051 202 200 203
166.977753246879 526.960072493701 2312.57302459216 118 116 119
156.758576604428 528.068945878017 2314.05513331507 129 127 130
152.334325313011 528.677342975849 2321.19237805997 175 173 176
143.542856801712 529.662777871623 2324.10881429337 173 171 174
139.123209650526 530.269549552049 2331.24206513694 153 151 154
136.910893143491 530.684066460582 2340.46254714501 171 169 172
132.513279571324 531.286999019397 2347.5744857394 192 190 193
121.490533816361 532.464949039493 2348.42709381364 182 180 183
111.179798080037 533.581397544528 2349.99866462873 154 152 155
104.550591573831 534.377399298388 2355.04666881577 164 162 165
97.9180280695502 535.173339466675 2360.09835349583 187 187 189
86.8130966679814 536.359321024756 2361.03138607428 179 179 181
75.6813529564733 537.54809301227 2361.9906312486 179 179 181
66.0200834404114 538.608713310816 2364.34243320835 188 188 190
56.3400248148218 539.671040580165 2366.71297858406 191 191 193
42.1251542111607 541.131235376969 2365.02538521175 190 190 192
30.1318204392849 542.397387894795 2365.41185592635 197 197 199
19.6207588346398 543.533960370675 2367.17937897594 200 200 202
9.08685018319311 544.672764422738 2368.96925965475 206 206 208
-1.46962259073957 545.813928252448 2370.78153590864 201 201 203
-11.2868185006922 546.890136701486 2373.2858711607 205 205 207
-22.6512749842311 548.103056574838 2374.4726345108 213 214 218
-37.8735522549452 549.65712739971 2372.3546266974 205 206 210
-57.7506903594944 551.623819929027 2366.29618544747 205 205 205
-74.6168196390475 553.325953499831 2362.95484473482 199 199 199
-75.3237112121123 553.598140244769 2373.53561034264 194 194 192
290.109022652772 505.475150182795 2288.41733496117 199 200 195
292.770290010117 505.518730315587 2302.77214134857 197 197 197
289.863056991813 506.011686692842 2311.25452093014 193 193 195
284.859580038655 506.673779504903 2317.54209979885 193 193 195
281.271753743559 507.219896678055 2325.27521426315 186 186 188
278.403386872249 507.706344755106 2333.71962326814 190 190 192
274.840993741859 508.248135266027 2341.42812170271 206 206 208
268.443695765166 509.020726140779 2346.24963525141 193 193 195
258.474382578134 510.085493975415 2347.48980680841 204 203 208
249.197337308122 511.093961666607 2349.46777654453 193 192 197
238.465997705655 512.222202169102 2350.03836104657 207 206 211
217.634986176926 514.181689224013 2340.67712937851 205 204 209
185.90094131341 517.042298846303 2320.75425649067 183 181 184
165.600755630726 518.96515995452 2312.28822952709 112 110 113
156.10250431957 519.998595225106 2314.48216993477 134 132 135
149.494228797587 520.793213087685 2319.50993172558 169 167 170
142.152971383589 521.648215336209 2323.83938342504 154 152 155
137.728991086406 522.260958410575 2330.97605457722 137 135 138
134.046156412636 522.811357467623 2338.80288090546 181 179 182
128.170145416269 523.543040820409 2344.52970420826 195 193 196
118.609371436926 524.580996843656 2346.78506238444 167 165 168
109.768573209651 525.559176157094 2349.75155612693 147 145 148
103.876123422076 526.291251269159 2355.49464549055 176 174 177
95.7555104701298 527.209080293111 2359.1718136725 193 193 195
86.1341566598384 528.252448997719 2361.48686636639 177 177 179
75.0002348517591 529.422772966507 2362.45100103192 178 178 180
65.3367594935013 530.470314907314 2364.80692640114 185 185 187
55.6542846216441 531.519632866022 2367.18145607355 194 194 196
43.6952598822269 532.760762127064 2367.53755583817 193 193 195
30.9509752490826 534.068630371524 2367.24631913322 198 198 200
18.1723609480402 535.380223689923 2366.98895957366 204 204 206
6.87578120304 536.567616637749 2368.11175534544 206 206 208
-3.68677439839438 537.693566752541 2369.93232051738 200 200 202
-12.7477792622441 538.692767718737 2373.11403787216 207 207 209
-25.6447400495459 540.016951223532 2372.97233729889 210 211 215
-40.108762476835 541.47494333547 2371.53248092644 210 211 213
-59.2236503843897 543.328896015596 2366.15068618096 192 192 192
-69.1628801603814 544.404966933212 2368.77656103506 200 200 198
-63.6804498447505 544.168930207935 2384.6223039451 199 200 195
288.786170995056 497.646645650904 2288.05383928614 199 200 195
290.043025719729 497.831160202881 2300.94859949778 200 200 200
289.233088269769 498.173124497834 2311.62137809323 190 190 192
285.635031425744 498.729081874075 2319.36319726614 193 193 195
282.754445702084 499.228362861885 2327.81784307353 184 184 186
278.474078271645 499.835089861912 2334.81279369921 186 186 188
274.201564214533 500.440355068834 2341.80016186147 205 205 207
269.225158036151 501.099565899036 2348.06128500631 202 202 204
259.971096417819 502.092280931566 2350.01875987263 203 202 207
251.413349169037 503.030885229122 2352.71002897928 206 205 210
237.100220210659 504.420737642473 2349.71383270355 195 194 199
210.509726009608 506.776188848337 2334.67704107359 209 208 213
182.363541959518 509.258665349698 2318.33214170041 187 185 188
163.500436406371 511.015055059764 2311.29783380162 111 109 112
156.171967865799 511.864169827665 2315.61545612778 156 154 157
146.654384817326 512.886053521124 2317.83063839644 141 139 142
140.034123607242 513.679099544652 2322.87019662785 155 153 156
135.603853836463 514.298119607963 2330.01218558406 156 154 157
131.914726984079 514.857420107746 2337.84394450934 197 195 198
125.29750801775 515.648388958645 2342.88112659492 191 189 192
116.465595286387 516.615318513894 2345.84012177598 145 143 146
108.357524124602 517.524667093217 2349.5060891809 151 149 152
100.979161630422 518.375724540097 2353.87330765545 196 194 197
92.8504368248313 519.286615400518 2357.55955648552 193 193 195
86.9447831784558 520.019441051974 2363.31564654673 171 171 173
77.3058927601107 521.051146403947 2365.64949934809 181 181 183
66.1507821740646 522.204858748614 2366.63712997416 182 182 184
55.7194406650217 523.301071262933 2368.33145497502 193 193 195
43.0077229228392 524.581410271298 2368.01228551698 190 190 192
33.2792804916679 525.622105293177 2370.43373612162 205 205 207
19.749753704271 526.970043337232 2369.49942486725 209 209 211
8.45704093842503 528.138272119401 2370.62155096887 194 194 196
0.17900896478551 529.063061623737 2374.45400981048 205 205 207
-8.87237865310153 530.050540694244 2377.6282474309 214 214 216
-23.288308402587 531.473621165925 2376.14613208562 204 205 207
-40.0451738232071 533.088341264814 2372.70887257682 199 200 202
-58.3919937091961 534.834245798557 2367.99725371836 194 194 194
-65.2492928658366 535.645780200206 2373.26979940254 195 195 193
-69.7937693047606 536.268170658154 2380.52469912566 193 194 189
266.065012646921 491.062987765391 2253.49201103615 170 171 163
281.879582802622 490.214639637116 2281.84052399933 198 199 194
283.116312666687 490.428640001245 2294.75091050489 197 197 197
287.199510113835 490.430844517636 2310.5339910686 193 193 195
287.114402033528 490.736597446021 2321.90960256892 197 197 199
284.237228022589 491.246210144065 2330.35933347288 184 184 186
279.960322036315 491.857925906091 2337.35010949649 201 201 203
274.271844833882 492.573250294433 2342.89312681745 225 225 227
270.006607604511 493.182417138862 2349.87235447988 210 210 212
260.040703093491 494.214528792054 2351.11396774056 207 206 211
250.767187231767 495.195737175706 2353.09279947783 202 201 206
234.299392316519 496.714237845336 2347.96580055585 198 197 202
207.701567053432 498.992584452712 2332.94802264684 195 194 199
178.105111412008 501.500667691986 2315.2053232607 202 200 203
159.953602893635 503.15586296112 2308.89625479894 138 136 139
151.889819424885 504.055471070767 2312.51968350715 138 136 139
143.087441328977 505.010703486446 2315.45141703271 151 149 152
139.373878230809 505.582342669043 2323.30561785935 146 144 147
134.209994324167 506.262387026533 2329.74982997355 194 192 195
129.050502440059 506.941363426862 2336.19017643004 192 190 193
120.219904700207 507.897984568382 2339.14938938413 177 175 178
113.585133431522 508.688040818084 2344.20413604748 144 142 145
107.685693200768 509.421763781329 2349.95392347284 165 163 166
100.305029561004 510.267863098617 2354.32415982835 199 197 200
91.4311371258347 511.227789862239 2357.32587648541 182 182 184
82.5422600586774 512.189032435059 2360.3426164695 173 173 175
75.1317107699254 513.03730715495 2364.7422081927 184 184 186
65.46770287909 514.05826232038 2367.10259188843 183 183 185
54.2836441344341 515.196341234148 2368.12127907819 187 187 189
42.320154948448 516.395264463916 2368.48771229524 186 186 188
33.3441212279428 517.364781951734 2371.58977709571 206 206 208
20.5710056212918 518.62759299434 2371.3341672504 204 204 206
7.76321421287207 519.894228306793 2371.11208792144 196 196 198
-2.79803620700125 520.987947879015 2372.93578284692 210 210 212
-13.3820922335373 522.084011740885 2374.78177759195 215 215 217
-27.0456657652809 523.419835844353 2373.98236717143 198 199 201
-47.642981715966 525.296195928427 2367.23517710514 188 189 191
-61.4006346705631 526.642671377062 2366.52761467809 191 191 191
-62.875721597313 527.032209910791 2376.43695576728 185 185 183
277.76531760953 482.533731784965 2278.55915339193 199 200 195
283.189225775374 482.484337494417 2295.85267115119 195 195 195
290.781082803497 482.27983707268 2315.26737405563 194 194 196
289.297452021398 482.704241832706 2325.18004610646 195 195 197
287.13135233563 483.174584284648 2334.34638313687 192 192 194
279.323185815225 484.038930921806 2337.7211920669 179 179 181
274.342153531196 484.704667759696 2343.98628230394 187 187 189
267.941651837732 485.469685275773 2348.81175868786 227 227 229
260.110341294603 486.335357426424 2352.20935406427 212 211 216
249.405487252093 487.404386040158 2352.76238950504 210 209 214
232.933939645109 488.882982596574 2347.64535271393 189 188 193
202.735257980942 491.33927640797 2329.09141780801 223 222 227
173.847177497897 493.708893703498 2312.08334162561 229 227 230
154.237322185251 495.422969666269 2304.37957407066 137 135 138
145.432443435517 496.368345206529 2307.31524762431 150 148 151
137.339379955406 497.263094047008 2310.96847001451 148 146 149
135.067960406618 497.740227170236 2320.23838756755 175 173 176
132.085277105807 498.266885511223 2328.79037141749 194 192 195
126.919514666305 498.949482918365 2335.23640944496 171 169 172
118.082963880211 499.896168140451 2338.20334022852 152 150 153
112.915757641522 500.577869676041 2344.65060653735 166 164 167
107.752829492655 501.258471686582 2351.09378714907 194 192 195
101.112617258589 502.045587273596 2356.15437140014 183 181 184
88.5265827838833 503.26468895059 2355.7191096084 166 166 168
78.8849520034542 504.270633025118 2358.05982897737 183 183 185
72.9575856823597 505.005871575678 2363.83712342011 181 181 183
62.538914857599 506.068997395573 2365.52375644316 183 183 185
51.3468637955343 507.189361265536 2366.55299839799 182 182 184
38.6229295209488 508.423016899771 2366.25252207754 195 195 197
29.6368949077079 509.38318077026 2369.36590037289 200 200 202
17.6100594539244 510.567504743072 2369.7973951341 191 191 193
4.79448145141959 511.811049360319 2369.58679864483 208 208 210
-6.53522329369682 512.946037651736 2370.75023341673 211 211 213
-21.702535187814 514.365881967656 2368.59782063324 204 204 206
-39.2086786050956 515.960854737805 2364.49061458033 190 191 193
-55.2402427790972 517.448757349476 2361.76911094065 187 188 190
-64.4089593210362 518.428059237226 2365.06106650114 183 183 181
-66.6622581930203 518.892398472193 2374.31521872733 201 201 199
277.839017288607 474.544808654448 2279.6667278709 201 202 197
285.361825944752 474.400728537956 2299.14106673471 194 194 194
292.25672727211 474.292995193901 2317.81630766138 192 192 194
290.07273341374 474.77952658018 2326.99835899427 192 192 194
287.202398628745 475.309889160028 2335.4382316223 198 198 200
281.516995213262 476.025415736949 2340.97816674399 185 185 187
276.541409853414 476.693148985102 2347.23755303624 179 179 181
268.723337658534 477.549633706231 2350.62336043521 190 190 192
260.89367348716 478.407078545161 2354.02053693321 239 238 243
250.19055639135 479.457077133517 2354.57466018967 237 236 241
233.003383916869 480.943304178438 2348.74987452828 250 249 254
199.208318043094 483.549947604711 2326.66009626883 247 246 251
169.589422810568 485.88320308331 2308.96585703704 212 210 213
150.691155436019 487.498827802363 2301.9869325089 136 134 137
141.876244444192 488.434794708552 2304.93395881926 137 135 138
136.681762278676 489.125300971325 2311.40700919182 161 159 162
133.679010791024 489.665857171735 2319.97720479239 183 181 184
129.960924375159 490.253840751484 2327.83348164561 185 183 186
124.055802578376 490.990049031198 2333.58854362133 162 160 163
117.415888940685 491.776137543254 2338.64864532102 151 149 152
111.50949096238 492.511415782636 2344.40511202341 180 178 181
107.081258170583 493.144567446042 2351.54298958507 202 200 203
99.6978125682015 493.980504576304 2355.9171525954 168 166 169
90.0788869591347 494.970672130213 2358.23765715642 165 165 167
76.7172820840414 496.220575083736 2357.15108650436 187 187 189
67.7969633236715 497.163975953684 2360.20134770851 178 178 180
58.8616806513831 498.108748989562 2363.26660333487 181 181 183
49.160854501725 499.107118530205 2365.66722409336 184 184 186
39.4408495144982 500.107417670947 2368.08626668502 202 202 204
25.9298335892773 501.373296273298 2367.14570222052 197 197 199
14.6495642502336 502.484466698082 2368.26390501568 189 189 191
4.1008877740305 503.545229709226 2370.07998479455 212 212 214
-7.99099789243307 504.715244649739 2370.57852808929 209 209 211
-26.9734977171958 506.372063099439 2365.0944063737 198 198 200
-48.3140823256139 508.198404384462 2357.67577651101 183 183 185
-59.0062757126213 509.274960198369 2359.63203653453 182 182 182
-65.1127690618565 510.027208002935 2365.58469280388 185 185 183
285.589886168139 466.081446453357 2288.80823559471 197 200 193
289.633890501881 466.202224813074 2304.61271033715 191 191 191
293.030690534136 466.359027546912 2319.63763481392 189 189 189
289.440559368734 466.94638913558 2327.36694214191 189 189 189
287.273463286514 467.443835437242 2336.53026267157 190 190 190
282.295468012436 468.115115778832 2342.79151778541 214 214 214
276.611702224545 468.829993640576 2348.32992259852 212 212 214
268.793333647292 469.678378027358 2351.71722153544 207 207 209
261.676825090174 470.482874832602 2355.83095898008 200 200 202
251.690858328295 471.468571525312 2357.09935446334 178 178 180
233.072883629968 473.002203519204 2349.85455149518 163 163 165
197.839583296457 475.595166678328 2326.36082677534 181 181 183
167.495929653359 477.886035578782 2307.97563875917 195 195 197
148.591849595839 479.453920703516 2301.00954220233 137 137 139
141.221273482553 480.287072500163 2305.37167513283 143 143 145
136.024448553016 480.980675124824 2311.84659426375 179 179 181
132.290047546017 481.579295382267 2319.71749965082 187 187 189
128.567634562159 482.176021061539 2327.57678077152 159 159 161
121.925277179494 482.960281730815 2332.63991714246 150 150 152
116.749150647859 483.649181600196 2339.09497752346 159 159 161
108.62972663196 484.528619455895 2342.77663927224 202 202 204
102.715529448396 485.264586064893 2348.54074896002 189 189 191
95.320078967744 486.096699922014 2352.92739807004 165 165 167
87.9174236865636 486.9292372702 2357.32147690369 176 176 178
75.2944726084772 488.104225652131 2356.92939377058 183 183 185
64.87684456483 489.135671690731 2358.61967355441 182 182 184
54.4362833630578 490.169478098866 2360.33237744168 177 177 179
46.9751005390493 491.007359349277 2364.78378516415 197 197 199
35.7441842919766 492.094705837925 2365.85650077676 207 207 209
22.9776252168046 493.284997270468 2365.60476072348 190 190 192
11.6893951789643 494.378478149832 2366.73348311731 204 204 206
4.92436783666017 495.17151035486 2371.91713614241 211 211 213
-7.16593809303934 496.319933498351 2372.41696415136 206 206 208
-28.4331219328107 498.084037959603 2364.93464481571 196 196 198
-50.5415995996694 499.908457957155 2356.86191875933 175 175 175
-58.9415319776778 500.815268073004 2360.81808385026 175 173 174
-58.9040931285125 501.153762582883 2372.06682740459 206 205 203
491.554749803894 444.789075410294 2462.93708098055 155 159 142
296.131566794646 457.514773610875 2300.86133253655 200 203 196
293.205709957164 458.075192438802 2309.35189708313 194 194 194
290.997333201581 458.592247665429 2318.55364958312 192 192 192
287.400909837436 459.188540183781 2326.28788516997 193 193 193
284.521841993188 459.741438872937 2334.73309902783 196 196 196
280.950823167147 460.333496791136 2342.44273340485 210 210 210
272.424490101429 461.215982904744 2345.11110200641 207 207 209
266.728747833095 461.931780903881 2350.66126364574 201 201 203
257.465600079991 462.858505379124 2352.63751455375 203 203 205
248.898649231322 463.744578820175 2355.3456870088 207 207 209
230.990265871324 465.187972065048 2348.82649591741 173 173 175
197.909721365793 467.542180649141 2327.48140645387 172 172 174
166.123864122403 469.827918900494 2307.69494976274 172 172 174
146.492930578963 471.39134960683 2300.03471634766 133 133 135
142.016666876362 472.045075698946 2307.2169105802 141 141 143
135.367250979202 472.82913528284 2312.2870858807 190 190 192
131.63045181232 473.436342986561 2320.15910345518 185 185 187
124.981413961946 474.219394963923 2325.22871443145 149 149 151
119.794986660931 474.912912109744 2331.69365903927 152 152 154
113.877750436991 475.650323276946 2337.460573034 172 172 174
105.013424417581 476.568018185131 2340.45936979057 198 198 200
97.611427397152 477.396180862666 2344.85310369398 177 177 179
91.6836290323033 478.133390366066 2350.63053585659 167 167 169
87.2417204634259 478.778290778974 2357.780257207 175 175 177
74.6166724500901 479.929425262882 2357.3937819573 184 184 186
61.9570208583058 481.084332389417 2357.0411109776 179 179 181
50.7599394804257 482.149752291659 2358.08346880483 169 169 171
44.7896146908273 482.889846235903 2363.90270401678 210 210 212
36.5624140594618 483.77075295264 2367.69117244092 203 203 205
23.0433302527069 484.984134429621 2366.76637855425 194 194 196
13.26746634984 485.963760125796 2369.24394540097 212 212 214
0.439749548106327 487.136686672365 2369.05584023879 197 197 199
-13.9431149019851 488.409487023562 2367.56276405661 182 182 184
-32.9411940846001 489.977133177539 2362.10729250004 175 175 177
-50.476447142624 491.455171392374 2358.04661346891 157 155 156
-55.8123790790979 492.158910077855 2364.65816980874 176 174 175
-51.159487625831 492.223921443565 2379.86625297784 217 216 214
316.544449386938 448.084005321572 2311.74236236515 175 178 169
301.089657629788 449.328511781947 2307.06684187444 196 199 192
294.67799935774 450.087286261087 2311.90465746594 201 201 201
292.472865406423 450.617449579884 2321.10091460107 196 196 196
290.287395211138 451.144590212442 2330.27842992948 194 194 194
286.710049671381 451.746025677685 2337.99296082938 201 201 201
279.606302810311 452.539685047023 2342.09562748949 171 171 171
270.366293525622 453.451007605957 2344.05151579482 153 153 155
263.241250613119 454.246290242082 2348.17508983069 139 139 141
253.968287730601 455.160764655582 2350.16323570307 142 142 144
246.106676456326 455.997587964982 2353.59518399957 153 153 155
230.342625563653 457.275997096328 2349.22208944415 239 239 241
197.979920460367 459.487742190504 2328.60214020188 244 244 246
164.7521193896 461.75763064875 2307.41607900425 237 237 239
145.840340411239 463.229659531706 2300.47179510029 142 142 144
142.812087696631 463.807055835976 2309.06153100295 158 158 160
133.255899906495 464.753402275619 2311.32621272389 183 183 185
128.054649936919 465.452575097138 2317.80470271233 170 170 172
122.126641057419 466.19249422086 2323.58194343839 162 162 164
118.397828686435 466.805800805645 2331.44512859452 177 177 179
109.53676281834 467.7129420818 2334.44224779484 194 194 196
99.1867078758992 468.7064734973 2336.071030255 187 187 189
91.0300726929001 469.574091140459 2339.79139026504 165 165 167
85.825061115103 470.2707012779 2346.27399434963 175 175 177
80.6245579435068 470.966287754996 2352.75261065876 174 174 176
69.4711533482568 472.008628794501 2353.75500784101 177 177 179
59.037480767048 473.010047944805 2355.4656580488 170 170 172
46.3352817451015 474.145699365907 2355.15808328107 173 173 175
39.6024997787992 474.931600149956 2360.31077019203 211 211 213
30.6090147973874 475.850717453279 2363.43761347781 196 196 198
22.3548292732252 476.726564017926 2367.25362618768 199 199 201
9.55154384485102 477.872836109002 2367.04486198548 208 208 210
-5.56108368453856 479.158397480148 2364.85765593803 192 192 194
-25.2809432634065 480.721493429515 2358.70268618535 180 180 182
-38.2109351839195 481.881999306827 2358.61763965552 170 170 172
-43.5342492312092 482.587538014409 2365.21640020238 172 170 171
-48.0868474415126 483.245979833619 2372.47403658908 196 194 195
-36.5030864797205 482.929443537961 2393.60925384232 202 201 199
335.406344685112 439.280389503224 2332.57264639161 176 179 170
301.860502836015 441.38815580039 2308.89220949554 196 199 192
295.45029106555 442.1440189125 2313.72868114638 182 182 182
293.948477988157 442.652063335882 2323.6470465795 185 185 185
291.766423406145 443.192336206205 2332.81922921443 195 195 195
287.486790860339 443.837283853056 2339.8074632519 192 192 192
278.262075080493 444.733734765288 2341.75036290373 202 202 202
269.017758613189 445.6321684585 2343.71209543179 211 211 213
261.888676351894 446.422610602017 2347.84073386541 197 197 199
253.324786913511 447.28731823934 2350.54868630925 176 176 178
245.460937544534 448.116344966911 2353.98400939827 163 163 165
227.542891137993 449.46940728923 2347.48776472585 208 208 210
193.015196539755 451.695290719082 2324.7648644635 213 213 215
161.216648493398 453.788768830743 2305.019425892 223 223 225
146.634476642449 454.984948189816 2302.31901797862 141 141 143
144.332800051828 455.534653345607 2311.60825510677 165 165 167
134.780241629657 456.467215290966 2313.8713701539 178 178 180
129.58251121795 457.168715951137 2320.34602111581 166 166 168
122.927103260407 457.947398171497 2325.42294139283 172 172 174
118.466765951701 458.608020781402 2332.58830117848 187 187 189
107.400785726611 459.623212615889 2333.50789730944 198 198 200
97.0446814600572 460.601349186357 2335.14496218924 172 172 174
88.1431717499179 461.501883739372 2338.18321919338 163 163 165
81.4486661209455 462.282929698501 2343.29861467654 178 178 180
74.0078820812169 463.104424206129 2347.7318502161 172 172 174
65.8151937476297 463.96712242513 2351.48873862638 165 165 167
57.6112748333579 464.830735202248 2355.256643998 171 171 173
46.402119591086 465.860320455367 2356.31628769655 201 201 203
38.1680223827043 466.726764700334 2360.11374207064 195 195 197
29.9227376493008 467.594059106741 2363.92218016896 192 192 194
21.6663389881333 468.462282849723 2367.74151720631 207 207 209
5.8357863416667 469.753628776721 2364.84945714045 197 197 199
-13.8359973824249 471.262987704489 2358.65468966161 166 166 168
-30.5364534144008 472.609616924133 2355.20137635286 159 159 161
-37.3831705312022 473.404321528064 2360.46556350981 165 165 167
-43.4689319336692 474.15575429053 2366.39775311242 216 214 215
-45.7237991988633 474.68960910191 2375.64318840442 222 220 221
384.109716312469 428.360394828138 2362.34195747023 164 168 151
337.641481352831 430.930905547962 2324.5019504488 155 159 145
306.948007976221 432.794790165246 2303.69309021244 179 182 173
297.048519510423 433.709525144881 2304.8860995795 199 202 195
292.02409038113 434.399514415898 2311.19069902639 188 188 188
293.318846375275 434.794221767566 2324.01675631316 187 187 187
291.134198388349 435.348191054893 2333.18915207106 189 189 189
287.557942406758 435.9657055913 2340.90022454391 188 188 188
277.625312908749 436.882171318335 2342.12588764216 190 190 190
271.216996757448 437.632681616129 2346.96160590075 193 193 195
263.381878141213 438.450980632213 2350.36998447865 210 210 212
255.535165950569 439.270269451955 2353.78972935477 204 204 206
246.246255749437 440.159481196112 2355.79744496178 202 202 204
224.743570742755 441.639842860022 2345.75676235032 205 205 207
186.612286023385 443.933379566356 2319.51705895181 212 212 214
160.566451237813 445.650793849903 2305.45096120891 189 189 191
147.42845727703 446.744190928224 2304.16547311337 152 152 154
142.227848796888 447.449857903961 2310.64236626016 169 169 171
133.396211630672 448.333917965142 2313.61367371797 164 164 166
127.465241885371 449.074859010136 2319.39370358803 149 149 151
120.072585930413 449.888104361375 2323.78036644966 182 182 184
114.871365911303 450.591859937719 2330.25848720967 194 194 196
105.999858323874 451.478895427992 2333.26860897603 195 195 197
94.9028678581949 452.478713789779 2334.22127092686 164 164 166
85.9952696412685 453.369313053811 2337.26704233961 167 167 169
76.3318274464617 454.298870638554 2339.64071065533 177 177 179
68.8771029209314 455.116903824779 2344.08830088515 172 172 174
60.6704773450666 455.973457231875 2347.85993738356 171 171 173
55.4388017039065 456.677556616031 2354.36791236984 193 193 195
46.4691085420066 457.573507243813 2357.47455405166 209 209 211
38.2347329963899 458.432055270449 2361.27345187636 195 195 197
26.2273283998136 459.486720878339 2361.70515280082 199 199 201
14.9436244148942 460.505359939863 2362.84044234519 201 201 203
-6.1984530378183 462.040726836333 2355.26769782996 185 185 187
-18.3192328169905 463.107988129388 2355.80978250798 160 160 162
-28.1898254218764 464.058588995729 2358.38604405531 159 159 161
-33.5066919648983 464.769624557385 2364.97758970249 175 175 177
-47.2237004836584 465.924958965937 2364.25791731207 220 218 219
-62.5110501525032 467.165971033886 2362.25079729952 211 209 210
-32.534725388051 465.995507534956 2399.25666323358 190 189 187
438.698127390321 417.983740914647 2410.27651730354 161 165 148
302.150388814514 425.091514704884 2299.67669680271 174 177 168
292.237050993976 425.991779188459 2300.88559751676 196 199 192
291.396899504513 426.507648023156 2311.56267608506 193 193 193
291.285830884383 426.989629258149 2322.93802031843 191 191 191
289.798616134717 427.527705981076 2332.83745063556 186 186 186
284.101256898514 428.245270498607 2338.38895685724 189 189 189
276.988796747888 429.023870858087 2342.50250165776 196 196 196
270.578208382208 429.771925554176 2347.34083919568 173 173 175
264.87518954049 430.488876756313 2352.89805613705 140 140 142
257.032095723881 431.299660177699 2356.31546500843 173 173 175
247.031404532594 432.206632217312 2357.61011753709 182 182 184
221.94449729878 433.787278940769 2344.02891406312 166 166 168
184.525304419862 435.92828543343 2318.52154615708 143 143 145
157.752788668761 437.603408085365 2303.76639472224 141 141 143
146.053038571817 438.605562256487 2303.90001350603 164 164 166
138.673053662252 439.413334725076 2308.27524056392 179 179 181
134.19346973977 440.088855583263 2315.45751056698 147 147 149
128.264098894634 440.829683514725 2321.23596942367 161 161 163
122.335024124487 441.570061339445 2327.0142007991 190 190 192
114.207600364369 442.411647233363 2330.70940091556 193 193 195
106.068839730682 443.254161085305 2334.41572156328 180 180 182
95.7085712124548 444.200848484002 2336.06190762239 158 158 160
86.0637969718043 445.115210510239 2338.41894643858 176 176 178
77.140738985142 445.9966431001 2341.48142446166 174 174 176
69.6876785771665 446.809159303482 2345.92817760581 159 159 161
62.2274340887312 447.622155354662 2350.38233156876 204 204 206
56.2528005268499 448.364384646431 2356.20552985184 212 212 214
48.7816407353669 449.177767312857 2360.67012788851 204 204 206
40.552821793423 450.027742502974 2364.46477498511 199 199 201
25.5415287583372 451.205648209168 2362.19285374708 208 208 210
8.97552231716414 452.462029670259 2358.61936858644 177 177 179
-9.15702413103281 453.798243433058 2353.75552515373 160 160 162
-17.4946250843164 454.659809446426 2357.65648127707 156 156 158
-25.0830227126708 455.485010325788 2362.23608933412 180 180 182
-37.2513882172565 456.535980339228 2362.82783518494 225 225 227
-60.1466834328397 458.119240015502 2354.15516465818 202 200 201
-81.5950357273514 459.636460226801 2346.88923766057 174 172 173
-36.3100801014897 457.833630906653 2397.12674580265 222 221 219
289.003275135478 417.667881288889 2286.90588072427 175 178 169
287.425932595583 418.23492224655 2296.89052836819 196 199 192
287.971107401452 418.717332209032 2309.03105913047 192 192 192
289.954588346023 419.140246126638 2322.58594275983 190 190 190
288.462982321919 419.695004413525 2332.48726814953 184 184 184
282.761378740843 420.413133482581 2338.04290562794 182 182 182
277.059817334668 421.130785484208 2343.59857173641 176 176 176
269.939324660117 421.904590041552 2347.72080176939 197 197 199
263.522650067852 422.650316139817 2352.56552718602 168 168 170
254.248764878246 423.511097770618 2354.56252469281 155 155 157
242.80937860209 424.460998716793 2354.4453213575 163 163 165
216.993850288332 425.999627875301 2340.17695024695 203 203 205
183.15785355056 427.876119505547 2318.23573305709 165 165 167
156.381600101228 429.473592696556 2303.49543192627 147 147 149
143.231671621163 430.514714740915 2302.229521212 167 167 169
134.393385408749 431.378708571032 2305.21039705116 167 167 169
129.174751175358 432.091719298459 2311.7041046341 153 153 155
123.960288469649 432.803673419102 2318.19382599441 174 174 176
115.826422660773 433.638582394663 2321.89641000613 192 192 194
109.146983137128 434.412009055656 2326.99797075293 185 185 187
101.729218144793 435.216789903297 2331.41115615178 171 171 173
92.8302840150179 436.085493963638 2334.45122225747 166 166 168
82.4390126419656 437.019490040146 2336.1300703816 178 178 180
76.4685423892848 437.762727670128 2341.94898540516 170 170 172
70.4984907176649 438.505470265117 2347.76755793749 171 171 173
63.0397318305769 439.313014360581 2352.22070463101 208 208 210
55.5736536717384 440.121009415936 2356.68105281791 208 208 210
49.5972158233418 440.863171322557 2362.50605274367 202 202 204
38.3685413395547 441.838607212796 2363.59308258978 203 203 205
20.3419887658711 443.11970883439 2358.6321312232 201 201 203
0.745222487419817 444.475726684545 2352.38553405619 156 156 158
-12.8712839487983 445.566940907576 2351.57553854753 160 160 162
-18.1861814183319 446.284421198037 2358.16417634752 173 173 175
-26.5370464684143 447.139374241445 2362.07928130913 220 220 222
-41.7575376030403 448.308789077746 2360.01668966531 217 217 219
-66.192670739615 449.904635147922 2350.03674637414 180 178 179
282.81516567182 409.901698948359 2281.44574371358 176 179 170
290.988103867115 410.149575240612 2301.63347266602 195 198 191
290.143017208722 410.703806280717 2312.30978201281 189 189 189
289.325212187097 411.254126286408 2322.95957834018 186 186 186
287.127461749259 411.850288414067 2332.13874894215 182 182 182
282.83276472446 412.518763699269 2339.13880269727 178 178 178
278.545913765353 413.185778112609 2346.13128110941 175 175 175
271.429029578007 413.953761599594 2350.25078821291 157 157 159
264.30443071642 414.72218692441 2354.37789079854 210 210 212
255.745565499763 415.543289350753 2357.08763678906 223 223 225
243.594866608573 416.497450062414 2356.25957632841 198 198 200
214.912517425183 418.066648129599 2339.16516969458 196 196 198
178.913665355095 419.919134617306 2315.12418197703 212 212 214
152.847310123955 421.412813473041 2301.11152933846 158 158 160
141.85663034747 422.346347683804 2301.96808212994 162 162 164
133.739177204134 423.172671526761 2305.65563700102 149 149 151
128.518399981506 423.888710908968 2312.15136281208 175 175 177
124.030498449957 424.575776785053 2319.34018597529 193 193 195
114.43469862503 425.459243831812 2321.65349657916 186 186 188
107.751031349558 426.230579355321 2326.75956461523 166 166 168
98.8592580507421 427.088267525397 2329.79414805368 161 161 163
93.6362067113499 427.802205358684 2336.29244270433 183 183 185
83.9851494930159 428.690705544521 2338.65954297896 174 174 176
79.4995667467036 429.374694528129 2345.84685615951 179 179 181
71.3092256349292 430.205872848904 2349.60607237102 202 202 204
64.5967626226649 430.978037513323 2354.74061245273 210 210 212
56.3878822877446 431.810580012114 2358.51803676198 201 201 203
46.6708392663198 432.704981035016 2360.94978977338 201 201 203
30.1816252569012 433.877646228257 2357.31242182063 187 187 189
10.6289848043604 435.180261152147 2351.02956214337 167 167 169
-2.95898682979967 436.241636982195 2350.1956412559 159 159 161
-9.02317455853829 436.993092090727 2356.10640457884 153 153 155
-15.8448972207537 437.775669446978 2361.3479021168 223 223 225
-30.2709747317644 438.877263333499 2359.92337922562 214 214 216
-52.3600137299312 440.305186632948 2351.88961448069 201 201 203
-71.4739983183836 441.613151008618 2346.58761955894 188 186 187
-69.2070065494175 442.015095573041 2359.86407200987 219 217 218
279.41036433779 402.000925452959 2278.9092703701 176 179 170
293.154529311092 402.132701338819 2304.9181364312 193 196 189
289.516159769799 402.791835413943 2312.68473723739 187 187 187
285.889302505396 403.4489710177 2320.43986371365 184 184 184
284.385027020022 404.037700377227 2330.34874915598 178 178 178
280.082147655198 404.712602824024 2337.35597816403 178 178 178
276.494525618758 405.363452367369 2345.0734103979 193 193 193
267.95277845315 406.17254899736 2347.76793236214 167 167 169
262.952261408563 406.867497599637 2354.04771592644 162 162 164
255.815784213586 407.631611947707 2358.1872510332 193 193 195
244.380181997478 408.537975571746 2358.07306270951 216 216 218
214.983048545554 410.044482730747 2340.28080379193 195 195 197
173.950711537905 411.952413504865 2311.31090547662 195 195 197
149.313154337636 413.323636880583 2298.73135277378 168 168 170
138.312709746992 414.239695945423 2299.600522831 153 153 155
130.185248768274 415.059173221407 2303.29902755016 150 150 152
124.954180524742 415.779324007484 2309.80402699143 185 185 187
119.727460978829 416.498500751433 2316.30518991666 196 196 198
113.042981679943 417.267769834725 2321.41203188095 173 173 175
104.889410603704 418.088710669753 2325.13624799954 162 162 164
97.4593798724102 418.884511873157 2329.56294064599 166 166 168
91.4952224685015 419.628221498013 2335.37551715676 181 181 183
84.0540951977471 420.424491133219 2339.81282175492 169 169 171
80.3086936172162 421.087270503536 2347.68516818527 192 192 194
71.3775455703831 421.937260635049 2350.7603269393 212 212 214
64.6647871045474 422.706897402134 2355.8955340329 206 206 208
54.2162388775163 423.614161130035 2357.6348721072 202 202 204
40.7512338503127 424.634825892097 2356.68486063931 188 188 190
20.4945866180677 425.911868393364 2349.68796037661 169 169 171
4.67824450982546 427.028083990783 2346.80767322245 152 152 154
-5.15425685916604 427.922239197507 2349.3541144113 150 150 152
-14.2493416162615 428.789534933087 2352.58950698133 183 183 185
-23.3594199914418 429.658249101854 2355.83957879196 228 228 230
-40.0853312226648 430.820478032381 2352.43879715456 209 209 211
-56.8653276058062 431.989007574157 2349.09045380297 165 165 167
-70.6430936409754 433.044973012988 2348.44580121483 217 215 216
-59.9493175325549 433.147376691448 2368.98595812092 220 218 219
293.925360447002 394.168271403342 2306.74673830223 187 190 183
289.5889467969 394.854153310267 2313.78564459188 182 182 182
283.857065375392 395.577042883428 2319.370644813 180 180 180
280.939313615828 396.22170886059 2327.84070920552 174 174 174
277.331745362474 396.883623421349 2335.5763129229 168 168 168
274.443312545126 397.523679263176 2344.01794454838 179 179 179
267.314166370768 398.282417273213 2348.15099446371 203 203 205
262.311516176079 398.980334321063 2354.43279538463 216 216 218
255.88605382665 399.718719267061 2359.28699435113 198 198 200
245.165501938745 400.582657809449 2359.88593020742 194 194 196
212.902041230842 402.084542675203 2339.27268468717 189 189 191
171.145589515682 403.88242744703 2309.62119841417 177 177 179
146.500509038223 405.184514801106 2297.0593347106 167 167 169
138.384229101912 405.995122972485 2300.74804733915 145 145 147
131.706555013749 406.762400705222 2305.84876379132 158 158 160
127.93280488711 407.440118397223 2313.74671502761 192 192 194
119.068991337087 408.274278326616 2316.75734932788 189 189 191
112.382422560049 409.041291608795 2321.86693742327 162 162 164
102.76098634437 409.900759970029 2324.20891449538 171 171 173
96.7941768625349 410.645393619712 2330.02398798827 178 178 180
91.5645793310969 411.365817711863 2336.52782443816 176 176 178
85.6004990247468 412.109222773214 2342.34036940426 184 184 186
81.1178999836173 412.803934790663 2349.52279701975 214 214 216
70.7035011562285 413.691754902225 2351.23143583538 214 214 216
63.9883129315217 414.459175357394 2356.3690454434 197 197 199
50.5519601670574 415.449927949861 2355.39500286065 192 192 194
32.5867796377093 416.595418749883 2350.39315136701 178 178 180
16.0605294190628 417.697508723189 2346.80299190421 155 155 157
2.48932651190659 418.703698644922 2345.96057587608 147 147 149
-4.33218865540619 419.482151509702 2351.20247696658 174 174 176
-14.1818368767432 420.364699128634 2353.76766082969 211 211 213
-25.5665397215132 421.301720578879 2355.01530678223 213 213 215
-40.7782764888274 422.374161514133 2352.95801678049 175 175 177
-57.5600156340639 423.505334578384 2349.61726313047 164 164 166
-72.1037221821037 424.561815661954 2348.31621526451 225 223 224
-69.0738986737798 424.996776972417 2362.2471939786 212 210 211
291.905514836867 386.271973223158 2305.66847847931 185 188 181
289.661737555772 386.9152618752 2314.8867269793 179 179 179
283.227849917381 387.654708962744 2319.74913539824 178 178 178
281.011358769848 388.293702716107 2328.9409231484 176 176 176
275.992394054255 388.997728871068 2335.23768386439 167 167 169
272.392272694896 389.666370579955 2342.96489843639 165 165 167
263.128882591647 390.473006107743 2344.95913909567 185 185 187
256.691480304938 391.210642419237 2349.82564308625 194 193 198
251.676716488436 391.91242888815 2356.11856327196 196 196 198
238.798642821007 392.81363666114 2354.60337597819 185 185 187
205.083953781296 394.254846508442 2332.60637075032 179 179 181
166.183349312168 395.845620375214 2305.81757195901 182 182 184
148.014396365777 396.908710511907 2299.61300111015 154 154 156
139.901761107469 397.710839453311 2303.29934774605 147 147 149
133.227660626768 398.475101532094 2308.39696126552 164 164 166
127.276825946566 399.219578822236 2314.19619465411 193 193 195
117.68199891366 400.063325666121 2316.51440988976 183 183 185
111.721999235054 400.808073817541 2322.32270422406 166 166 168
102.831115400431 401.634013081117 2325.36109688594 177 177 179
97.5988298519148 402.358137263641 2331.86705570479 181 181 183
90.1606324167692 403.1439833616 2336.30299152714 179 179 181
82.7152187440436 403.930342845686 2340.74635514382 197 197 199
78.9649717637815 404.6101394273 2348.62066014934 220 220 222
69.2870001658812 405.46112467926 2351.02036933357 210 210 212
62.5677932471498 406.226532541629 2356.1626048665 194 194 196
43.9024152898746 407.34580682114 2350.44268740018 182 182 184
28.1650138824547 408.383447421384 2347.4959621554 165 165 167
13.8778406728326 409.381596186931 2345.94845654127 147 147 149
2.5574752550992 410.29322901606 2347.1359669048 152 152 154
-7.28110003377314 411.16160092707 2349.69258818771 223 223 225
-20.1633021883016 412.125141084888 2349.58919716112 222 222 224
-31.5637360110541 413.045482041282 2350.85492957705 162 162 164
-46.7911016966611 414.087725755174 2348.81762245835 185 185 187
-59.7785628623155 415.063061263179 2348.81701183821 201 201 203
-74.328165682366 416.090860221111 2347.52605826316 190 188 189
-75.1340713922297 416.681901809242 2358.15801976595 199 197 198
296.329520846051 377.619328651793 2299.7200757248 174 177 168
289.188226300445 378.371506389918 2303.86649659968 185 187 182
288.335286606772 379.002237012208 2314.53929752175 177 177 177
284.002010562569 379.698101887516 2321.573612644 174 174 176
283.19391181101 380.322265579749 2332.20285643708 173 172 177
278.885847528248 381.014051133028 2339.21240098753 176 175 180
273.17094489285 381.733473461822 2344.78105348026 176 175 181
264.618768667473 382.511628892423 2347.49050475078 162 161 167
256.05107666021 383.291268583254 2350.21514404906 187 186 192
249.607641293359 384.026569596971 2355.08798413339 215 214 220
232.43243770931 384.994750337519 2349.32788020442 162 161 166
200.13481630607 386.301404230812 2328.77707397011 174 173 178
164.097847179292 387.705684416237 2304.84051959106 200 199 204
149.528427848477 388.642427961641 2302.16545489464 147 145 148
142.865497416253 389.403100031749 2307.25250699257 163 161 162
136.198736569874 390.163796273722 2312.34302133379 177 175 176
127.347815920656 390.975426399121 2315.34418268816 180 178 179
115.566239538979 391.857473475928 2315.57714580039 165 163 164
107.407658493487 392.655576304246 2319.30971233993 174 172 173
102.16865491011 393.383774240762 2325.82140232564 184 182 183
96.9339123956061 394.110992735643 2332.32900576802 180 178 179
91.7036142423182 394.837225128479 2338.83267948146 187 185 186
81.3073166163139 395.691670277932 2340.52793849937 207 205 206
76.0717993816269 396.417689124419 2347.03648855786 217 215 216
64.1583431469441 397.313118466726 2347.39843242066 204 204 204
53.7029274436573 398.173630621745 2349.15149986246 176 176 176
37.9999316425885 399.172450123045 2346.17600924145 171 171 171
26.7368075952001 400.059117151143 2347.31036801253 137 137 137
15.4469440273699 400.948742338882 2348.47084230798 152 152 152
0.369067741150086 401.941977983948 2346.292333377 199 199 199
-14.0006638258749 402.920064105457 2344.83011252422 222 222 222
-24.6321063178234 403.799907246054 2346.75512005809 191 191 191
-33.7701160062132 404.640446856427 2350.03709226306 164 164 164
-47.4832446442059 405.609039105921 2349.34116750324 203 203 203
-64.2827060151965 406.667421544537 2346.02843286607 210 210 210
-77.3161622977256 407.624070366957 2346.07659580288 190 188 189
-76.5986450782208 408.191559412458 2358.03307550743 202 200 201
299.185910790084 369.617548355689 2303.73461087326 175 178 169
288.563998612023 370.416392633284 2304.24521694342 186 188 183
289.107652973114 371.044601342479 2316.36537069675 174 174 174
284.775965250353 371.745632147842 2323.39734507012 173 173 175
281.858914781193 372.42255411753 2331.8619456493 172 171 176
276.841220673484 373.13190419304 2338.15665775974 173 172 177
270.412836806951 373.863951442975 2343.01503238663 185 184 190
263.980618477396 374.596039821702 2347.87720861316 178 177 183
253.988154989588 375.389874889419 2349.18041250568 155 154 160
247.538573015071 376.123356152333 2354.05962522066 197 196 202
231.072716108551 377.036268016934 2349.02020758828 218 217 222
202.357457830763 378.178169379428 2332.02163443802 161 160 165
167.765054564003 379.441789872149 2309.50521288195 196 195 200
152.484378984483 380.358562927394 2306.1224784668 159 157 160
145.10602526141 381.129510117763 2310.50152849243 165 163 166
135.545169670071 381.943041075913 2312.79013763714 178 176 179
125.965262666858 382.758518463137 2315.0977152761 168 166 169
114.908244396578 383.605092587112 2316.03299583543 159 157 160
108.209081635995 384.365939140345 2321.1560013825 188 186 189
102.971694698583 385.096734292208 2327.66570214758 183 181 184
98.4733573231731 385.811373346518 2334.86115079631 197 195 198
91.7733031894863 386.571005472898 2339.98522098181 219 217 220
80.6383158414428 387.425154984687 2340.99714419094 229 227 230
71.6978499303673 388.234258561259 2344.08726089488 193 191 194
58.2875632982094 389.14223512548 2343.09956851825 179 179 181
47.8165602710114 389.988659751639 2344.87053437572 146 146 148
35.829692398448 390.870978165623 2345.30697702765 136 136 138
29.7987493022687 391.620984310418 2351.18494209522 204 204 206
18.5165288312352 392.490952846367 2352.34073192712 223 223 225
-0.31454338962833 393.538256065373 2346.79632644726 219 219 221
-19.2112785085969 394.593306416587 2341.31598017314 161 161 163
-30.6125869644154 395.476843149 2342.58802076087 163 163 165
-40.5245581211013 396.326883402477 2345.2198967945 203 203 205
-57.2952610426118 397.344594920643 2341.88495357814 184 184 186
-73.3579481274704 398.349928251286 2339.26567897801 173 173 175
-79.5399008342557 399.115403942939 2345.29131242897 194 192 193
-71.1701004361078 399.516919186577 2363.84393721618 222 220 221
