ply
format ascii 1.0
comment KinectMotionCapture
element vertex 796
property float x
property float y
property float z
property uchar red
property uchar green
property uchar blue
end_header
44.4569238518993 90.9510024748016 2033.90026693801 17 20 11
28.9522333171108 90.811218271571 2030.89614138637 18 24 14
11.3177990890518 90.4562866421174 2025.78761570604 22 28 18
5.43391292088335 91.3597343579992 2032.91378179071 22 28 18
-40.9252517949006 91.080378246837 2025.14413604386 26 29 22
-46.171099083208 92.0639683605729 2033.0417843952 8 10 5
230.799138254753 54.2318468793732 1818.861332874 127 114 97
225.506221147385 55.2314931208518 1826.80368700481 88 69 52
221.484974848305 56.3985031507199 1836.29233556485 104 85 70
220.015952790377 57.8992184900399 1848.86524133849 79 57 46
222.395457686069 59.8980779993676 1866.04534689701 65 46 40
226.74337478588 62.1402865955127 1885.48555110277 60 45 40
234.998176892175 64.8732069865007 1909.47576534403 24 16 13
212.482640060087 65.2607652809831 1910.52141633667 17 19 14
230.576531008797 69.2112860684395 1945.81663807786 20 22 17
246.873660512952 72.8963949019348 1978.68389462825 20 26 16
228.857991952242 72.220847741274 1971.16750847597 19 22 11
208.163646907522 71.2273358615307 1960.68976976219 21 25 10
192.613978337737 70.8963049782831 1956.34166492226 24 28 13
185.53484307624 71.627870280011 1961.84631653595 19 22 13
192.922253548192 74.1410514839729 1983.89618437097 21 24 17
195.77295161449 76.0788125491363 2000.61708062694 23 26 19
186.105935089497 76.4807032961369 2003.07228723354 23 26 19
175.091561130109 76.7245562902871 2004.05464112352 22 25 18
158.059069959157 76.252004987062 1998.36576122554 20 23 16
144.301267101543 76.1859236529557 1996.44987577029 20 23 16
129.161207865755 75.9662500633002 1993.09547356493 20 23 16
107.255588450809 74.9605638743705 1982.40543824656 20 23 16
98.0542595687499 75.4669413728634 1985.79967636108 21 24 17
103.694534605463 77.7075438676486 2005.37403457172 20 23 16
95.1814296965496 78.2907666590391 2009.49040772408 20 23 16
67.6372907393188 76.6843844884846 1993.15200019985 15 18 11
34.7293603167356 76.0832017662574 1984.82584317209 15 18 11
63.0642719800729 80.8700525859593 2028.24880539635 15 18 11
52.4359367758103 81.2276667447345 2030.24791256306 19 22 15
32.1378659345446 80.5098804401992 2022.17007206506 19 22 15
24.8898623032257 81.2605008388481 2027.83959613131 19 22 15
7.60213876536575 82.4577325347417 2036.32747925182 21 24 17
-49.9504583120105 80.8644743655478 2017.19503316627 24 29 23
224.331432633503 45.9470093293154 1826.5083555379 71 54 38
218.408871061404 46.8642885849112 1833.67088257488 64 46 32
213.758161811712 47.9543576958006 1842.37905966656 85 65 56
214.208786651199 49.7340649566341 1857.25589644645 36 21 14
221.083836378877 52.3697226477829 1879.7964441033 39 26 20
228.680324072564 55.0809443992815 1903.02667201968 20 15 11
193.337426845286 52.0428957382385 1874.80606461047 14 13 9
206.126006031477 55.4320987606233 1904.11621381157 17 19 14
222.26119247377 59.2322623899306 1937.12761500977 18 23 17
229.460016456264 61.8264324212974 1959.35278190332 19 25 15
225.690939214253 62.9709843515111 1968.59434215927 18 21 10
210.202598950814 62.5941060855656 1964.19211362768 20 22 8
200.543761331228 62.9816166834878 1966.64132384006 23 25 12
193.487838799475 63.7072244240389 1972.12346755291 20 23 16
189.716267578835 64.8516632358946 1981.36752108535 21 24 17
179.36284242353 65.1598506281212 1983.10128160603 22 25 18
177.586860743659 66.5522707118941 1994.57809949571 21 24 17
171.855993623816 67.4435779155726 2001.55410976577 20 23 16
157.476269443742 67.2594324073877 1998.85634189305 19 22 15
133.704306551265 65.9270030303782 1985.81717778485 20 23 16
111.838648684286 64.8539268904646 1975.09742026394 20 23 16
99.9538982640575 65.0213036711327 1975.5381268373 19 22 15
88.0376619786936 65.1925777386547 1976.00986116489 18 21 14
103.777798655029 68.7073232252686 2006.62158082001 19 22 15
117.614595369652 71.9620967306774 2034.91070314377 19 22 15
98.9654705537442 71.3158909209091 2028.01867393626 14 17 10
53.6800976455476 67.530664081544 1992.77759912484 16 19 12
45.0606668657127 68.1186814897467 1996.99884679654 13 16 9
58.3518738470432 71.2751566003005 2024.42736693287 14 17 10
50.4580200275653 71.9380376720731 2029.33395045787 19 22 15
45.3122243072688 72.9207290833637 2037.13271679297 18 21 14
-5.42795447163336 68.6565304927152 1997.45975791366 17 20 13
6.2958946982703 73.176633900609 2036.16218476774 18 21 14
-82.0981674988803 67.995414922965 1985.83766658177 2 7 3
216.852109903092 35.753011604154 1818.43783880517 28 20 9
215.965249865337 37.3922844306033 1831.82941751046 46 36 24
210.0378637954 38.3123684795961 1838.99632079787 67 57 47
206.022506184152 39.4992990536705 1848.4765153981 26 17 10
217.339221117793 42.8166502469193 1876.42471075167 22 15 7
217.881438246135 44.6139414446825 1891.20799613655 18 17 12
178.011633037634 40.8393131839401 1857.67250050783 19 20 15
195.90516156723 45.0202657942925 1893.13228952832 14 19 13
237.20322356669 52.3455849910587 1955.89908436418 16 21 15
239.910508779606 54.3773552603243 1972.74849718428 17 23 13
226.423620874484 54.2179546498218 1970.57771956663 18 21 10
221.367425203465 55.1965651570586 1978.28777704211 21 23 10
209.126533040511 55.2185433423261 1977.68705600392 23 25 14
194.88240377276 54.9850332506368 1974.86193644269 21 24 17
184.537284043692 55.2757269761369 1976.58969726665 19 22 15
162.294029531505 54.0188834802446 1964.85515021358 17 20 13
171.053157086499 56.8107038876226 1988.33585643229 18 21 14
161.321185156564 57.1931104693921 1990.85810662533 19 22 15
147.576096901405 57.0655672319355 1988.93901726635 20 23 16
131.785145104895 56.6879553880724 1984.83739488302 21 24 17
111.922469671665 55.8077804035321 1976.35120128451 20 23 16
99.3664931381915 55.8686379701139 1976.05727948647 17 20 13
81.3883310693782 55.2586069858121 1969.91087488876 16 19 12
68.7457115057977 55.3302103765606 1969.70140267232 18 21 14
96.0250491965482 60.3573405433573 2012.72014295533 17 20 13
89.5394551738078 61.1761984382307 2019.03940685535 13 16 9
58.5321695786152 58.9916744027961 1999.1405198219 15 18 11
47.194035908058 59.2370102456067 2000.44415272673 14 17 10
48.1592230127417 60.9784935910234 2014.81533320667 16 19 12
36.8010975351956 61.226143327869 2016.13847627885 19 22 15
15.770032970746 60.3229993918274 2007.39899584288 16 19 12
-1.8887239383889 59.8410856470954 2002.33339084559 15 18 11
-9.2170598676411 60.5961722009844 2008.08202597543 14 17 10
-3.34799063681857 62.9039384685286 2027.41892355084 15 18 11
-28.763294434158 61.5373267331397 2014.59942623214 17 20 13
-124.85528813348 51.9819032044444 1930.05491539501 10 15 11
-68.6997287723146 60.1390491745316 2000.61695253418 24 29 25
216.683198311179 28.3598290780799 1833.86838636468 69 62 52
212.026374446927 29.4661041236232 1842.58024012894 52 45 35
219.469227988871 32.3152433556308 1865.94264488575 30 26 17
211.679993998458 32.956090111637 1870.74859603617 20 17 8
235.889960143286 38.163651428523 1913.9547813573 15 16 10
217.907540985195 37.337146614344 1906.42768953197 15 17 12
217.887564523537 39.0624744517044 1920.36263045599 14 19 13
234.701856105954 43.1378025901449 1954.07591033446 15 20 14
231.569324692583 44.3952359332599 1964.08559666688 17 23 13
225.856040875409 45.2898769230424 1971.04365372533 18 21 12
216.88678761159 45.7348743341011 1974.21650927034 21 23 10
209.209015678937 46.3610225738729 1978.91428722597 22 24 13
183.16149302803 44.486557092764 1962.54624949945 20 23 16
152.392621583769 42.0032510009133 1941.03786422945 18 21 14
203.275955572606 50.5552983014465 2012.52620490382 16 19 12
159.226866671422 46.3058242946698 1976.12575948441 17 20 13
158.086227710798 47.8275103361853 1988.36981436939 19 22 15
137.010914994041 46.7019789153778 1978.28989461619 21 24 17
131.868408639595 47.6959388485835 1986.08372907975 21 24 17
109.997907715634 46.4985035674367 1975.38716101278 18 21 14
98.1075508489035 46.6228838582438 1975.83978973283 16 19 12
63.2928863745255 43.7890231741342 1951.3155262926 14 17 10
51.9483066787902 44.0164785228472 1952.62820292495 14 17 10
60.8926005523909 46.8461948998931 1975.91943524425 14 17 10
65.1722082466644 49.0598593991405 1994.01478118684 13 16 9
65.4271957472106 50.7487545952732 2007.68206356014 13 16 9
52.7424725614818 50.8007514874046 2007.51729869484 14 17 10
28.3770333868616 49.4012012603708 1995.07738574031 15 18 11
32.0758827226943 51.5156404323663 2012.34685161834 15 18 11
-3.87698013884341 50.373199950039 2001.45604222053 12 15 8
217.185931186261 21.1096606604625 1850.02809077668 20 20 12
220.82633392652 23.4489445419366 1868.73961019796 11 13 2
241.75909833064 28.3256652909344 1908.16378111243 14 17 10
211.008342971647 25.5653105763288 1885.26110680769 13 16 9
217.349109443635 28.2627896116116 1906.90615915021 7 12 6
231.495485234599 32.0727988818388 1937.63995774862 16 21 15
210.883140243409 30.8297130633893 1927.11767868865 16 21 15
205.086752098189 31.7373754091343 1934.15667286462 16 22 12
205.792183182526 33.5724351583351 1948.77196436104 17 20 11
190.244270406964 33.0884905242594 1944.44471657709 18 20 9
183.793974969429 33.9036208397206 1950.72947939481 18 20 9
187.834695255174 36.1915722291634 1969.05106449554 18 21 14
159.711012048125 33.9731921472006 1950.54478736723 18 21 14
150.587124523017 34.4262567495047 1953.86966685028 17 20 13
193.050520280016 42.0036465041573 2015.44201211974 17 20 13
148.215894936678 37.5238778428162 1978.4387441314 18 21 14
141.752487164161 38.3402004824913 1984.73635146659 19 22 15
119.93759467308 37.0733400575204 1973.99482440966 18 21 14
120.791723323647 38.8888855397918 1988.46567906679 17 20 13
51.9317267659432 33.0711108778342 1940.09228087821 16 19 12
32.4510937575653 32.2085620089022 1932.64101768972 14 17 10
38.62939124281 34.7502782247233 1953.05351649679 13 16 9
49.6355755240621 37.9062575442451 1978.50010543569 14 17 10
49.8453602496824 39.6278110787562 1992.20744794456 13 16 9
48.7279068524811 41.1671875020054 2004.42586459163 12 15 8
35.3112748205531 41.1121811902458 2003.58680173929 10 13 6
40.4031998464722 43.4409814057095 2022.27539687244 10 13 6
31.7831149946737 44.0040969154064 2026.50097453699 11 14 7
-58.3707133279852 34.2299555282656 1946.01114501059 12 15 8
-43.6891121960357 37.7955425827482 1974.83267311235 15 18 11
-128.872287478424 32.2868819040978 1928.45263908339 18 20 17
204.839884130057 8.25845609529713 1821.67698032446 17 20 13
184.923552170014 7.04549962473405 1811.87600624885 19 20 12
206.914111508696 12.2598646803066 1853.03402395259 15 18 9
197.171444376866 12.6031153495262 1855.57268186599 13 19 9
211.092391230296 16.5280028755234 1886.5133557758 16 21 14
227.063476723059 20.7266304527196 1919.62881884525 15 20 13
228.358100282614 22.6944947560005 1935.05631436655 15 20 13
219.363687140135 23.1205875151246 1938.2569481423 16 21 14
203.87400934601 22.5912075744166 1933.87858747939 17 20 13
184.429911423785 21.4957351012559 1925.00856109953 14 17 8
183.809356662334 23.1725375787391 1938.1301478627 14 15 7
187.799398955978 25.5099564433252 1956.49440784554 15 16 8
185.294354508359 26.891903997255 1967.27983435873 17 20 13
153.875481615432 24.1122285587495 1945.04380407833 17 20 13
132.861251216009 22.8595701254544 1934.92201799798 16 19 12
157.407963774103 28.1053416344216 1976.3709145433 14 17 10
123.085661278188 24.9818629591805 1951.40087163461 15 18 11
98.5805391595735 23.2820013557278 1937.72646679694 16 19 12
124.025484699234 28.5917372039763 1979.69119797154 15 18 11
107.673280731742 29.7683060946852 1988.67005960046 21 24 17
76.2543321600364 27.1656403515481 1967.82485183225 20 23 16
29.9111184633358 24.316223587642 1944.83186646684 11 13 8
47.0033525946616 28.3720014884503 1976.85512548437 15 17 12
49.2482598593269 30.3962031858291 1992.74789575618 13 15 10
31.7358351780954 29.7659004439452 1987.55891252237 6 8 3
-44.4675903760641 26.6004536798384 1961.67298884099 11 13 8
-8.96404603112355 32.9475453320118 2011.91723447207 13 15 10
-35.7494283010746 31.1793958057298 1997.68343596285 17 19 14
279.534443417174 10.9348304366442 1914.31607360762 18 20 15
221.1604871657 3.5244527340344 1857.18251557638 18 21 12
210.018783803744 5.47309787001576 1872.20944861451 14 20 10
195.814389736689 5.10389623432822 1869.36492656254 13 18 11
183.488524065059 5.03825814363634 1868.86119727994 13 18 11
236.168416394339 14.9710954978394 1945.44633322791 12 17 10
233.010817277505 16.2714025466651 1955.47491328745 14 19 12
213.027153724815 15.0093586052552 1945.74805558544 17 20 13
198.809493604846 14.6416246797307 1942.91682783519 16 19 10
183.240608437099 14.0838728466502 1938.6209767765 15 16 8
187.228405437354 16.4646347704268 1956.98139812563 15 16 8
160.461200986189 14.2563322891826 1939.96078455272 15 18 11
143.436812346128 13.5217045383657 1934.30259350629 16 19 12
165.924094957201 18.6137737250788 1973.56818577392 15 18 11
162.783006861386 19.9115902011222 1983.58073825109 14 17 10
130.605745843633 18.7464321078666 1974.61203317459 16 19 12
97.4132132539864 15.7267185373342 1951.33859424619 16 19 12
108.240304671638 19.046111343375 1976.93887260418 19 22 15
84.9326597716407 17.4820736323101 1964.88943695192 21 24 17
40.7242806636794 14.7709821536527 1944.00715065964 14 17 10
55.236815387214 20.3281290836901 1986.87231922752 15 17 12
51.3752905727842 21.5360585312654 1996.19631412012 13 15 10
52.3101198266631 23.4001579815357 2010.57951778793 7 9 4
45.7531941324665 24.2272638855754 2016.96839604004 7 9 4
-61.7794646025267 11.3052112892757 1917.35891692474 8 10 5
-44.5136733294023 15.4334486203647 1949.19912166266 11 13 8
266.338926514665 -0.0855904928895312 1899.2907697919 24 29 23
230.12334260822 -4.11218227221605 1869.2490407615 16 21 14
207.082917467876 -5.96003615072754 1855.55929052555 15 20 13
212.655042313343 -3.18706853139605 1876.53954886835 13 18 11
199.098706397431 -3.48799418968576 1874.45831365031 11 16 9
221.450933581606 1.92335252612785 1915.22807603369 13 18 11
206.628674075405 1.41628154491047 1911.60057120786 11 14 7
229.217255230492 6.79771046397593 1952.14005244146 11 14 7
232.544977004057 9.12195916852665 1969.74704371781 14 17 10
204.090446817058 6.49370648106973 1950.21297220578 17 20 13
190.492900280344 6.19778981750441 1948.17225725816 17 20 13
180.773896181278 6.50987765749944 1950.69202328278 16 19 12
147.431429069047 3.21789454187488 1926.19080355388 17 20 13
151.411712311385 5.64254405655823 1944.55219960893 13 16 9
169.963938473146 10.2525279110518 1979.29448151282 14 17 10
160.880796826659 10.6671659641273 1982.58491700526 17 20 13
144.483413307224 9.99259956789289 1977.71213288095 16 19 12
140.669914119985 11.2055587801885 1986.98803206076 14 17 10
142.210215078155 13.2061784173879 2002.1667250694 16 19 12
106.315622191178 9.68719426385078 1975.9822888213 17 20 13
68.9062340027116 5.99345205890145 1948.49373938661 16 19 12
77.095577584493 8.98413853297181 1971.09394787815 15 18 11
67.1407879153181 9.32551968101403 1973.8435229213 14 17 10
86.2824253225023 13.8607804340709 2008.01189262914 12 14 9
108.28822079328 18.766206576222 2044.94903802781 13 15 10
33.7523298209237 9.87954118683448 1978.57665783819 12 14 9
42.8318665387164 12.9405921226888 2001.69940086719 8 10 5
-65.8136575036501 1.22369561333874 1914.35317997768 8 10 5
-69.9144985861904 2.47232430016675 1923.90880413247 16 18 13
-46.3683680200417 7.54896815390677 1962.12522458554 13 15 10
153.095916613365 -24.0253175984001 1791.39314525918 14 17 10
213.376542351616 -12.1409773471797 1878.56338179496 13 16 9
234.38400307577 -6.80972864275919 1917.84619912611 16 19 12
220.23394952871 -5.39513317093338 1928.85417840418 13 16 9
206.693320537458 -5.72823664261379 1926.76243968653 10 13 6
202.178600570305 -4.6015684273355 1935.3301680787 10 13 6
198.974502144059 -3.26904770738118 1945.40016147335 13 16 9
199.699456868027 -1.31863135064136 1959.9790160508 18 21 14
189.354242443197 -1.12696751686159 1961.72150748379 18 21 14
156.693720429757 -4.43068841534344 1937.9617503477 17 20 13
151.494852435304 -3.40345209956266 1945.80663451815 14 17 10
130.47438488323 -4.8348179773654 1935.71745490484 15 18 11
153.025206930567 0.486955450004545 1974.88600138653 18 21 14
109.479249802765 -2.55724698776516 1953.39515392983 16 19 12
141.62506050885 4.15247721847312 2002.66901597244 17 20 13
115.099559810279 1.93062604297117 1986.82729880899 16 19 12
128.059617631375 5.67812211504815 2014.49730231672 15 18 11
65.0618079462753 -1.96531287845469 1959.15558838657 13 16 9
83.4280218250623 2.58492897134083 1992.67450376171 13 16 9
80.9484362029975 4.01120512380804 2003.42809753728 12 14 9
74.4176596524824 4.83489473236515 2009.79151423013 12 14 9
-42.4329480723817 -6.78053586779004 1926.32700031855 8 10 5
-40.9996972344238 -4.73441382711232 1941.60560828568 8 10 5
-48.4744995795725 -3.97744401266115 1947.49907054459 17 19 14
-107.760540440374 -10.6046376572238 1899.65760334206 10 12 7
-91.144623681926 -6.39065109425985 1930.71356006323 10 12 7
199.489122925553 -29.4156271424104 1819.80538096339 17 20 13
180.825589793964 -30.6389878508758 1811.5960533506 17 20 13
179.898126835088 -28.8270926652838 1825.0024378475 16 17 11
175.814631119934 -27.5586478942408 1834.53790898747 16 17 11
220.386007024408 -18.1165474167223 1902.24318912663 16 17 11
231.245217381359 -14.4020063946098 1929.17041732904 16 17 9
229.330824129614 -12.8423187367679 1940.75995788129 13 14 6
175.015790588055 -16.1592153386617 1918.6669785103 8 11 4
173.713336106815 -14.4884534505339 1931.04968525431 10 15 9
192.050825035348 -9.64606725917672 1965.9708554413 12 17 11
180.378392760172 -9.68012327819118 1966.2308364798 16 19 12
136.454044609231 -14.8727717805184 1929.84626027192 16 19 12
157.597449640042 -9.63117840713879 1967.590086756 16 19 12
132.602503642945 -11.7508393323605 1953.04755895129 16 19 12
130.71691746284 -10.1949693839831 1964.60905791135 18 21 14
108.23208475193 -11.8780947051961 1953.1774058484 17 20 13
83.6509852179192 -13.8617747801966 1939.62039595352 15 18 11
138.606357083987 -3.4701388094171 2013.87813684853 14 17 10
165.058261116267 2.41989623516586 2056.17408470431 15 18 11
55.1562942122503 -10.8330465268428 1963.21767268479 14 17 10
87.8021080364686 -4.02967442654217 2011.98084527985 11 13 8
75.1795793711234 -4.13245555809405 2011.77719646071 8 10 5
-10.9522178782622 -13.4167729935696 1947.0594545139 8 10 5
-33.4430734562359 -14.911070248826 1937.02278385902 7 9 4
-81.4367938405334 -20.1556816199444 1900.4357687294 8 10 5
-55.2762574756929 -14.4173955610213 1941.62623026025 10 12 7
-51.7226459513953 -12.0414577104455 1959.00160788364 17 19 14
190.090545563854 -40.2834156814458 1809.4892326442 21 24 17
159.98398598405 -43.5533411846272 1787.43942390749 16 19 12
167.261068381533 -40.2692920276367 1810.90216236431 19 20 14
209.588822389097 -28.9912030296502 1890.48307482044 13 14 8
205.588986719428 -25.8130085275903 1913.82365466746 11 12 4
202.34299299408 -22.5389759922909 1937.81806497621 10 13 6
205.635881529712 -20.0894505095093 1955.44146816164 8 11 4
196.604555673199 -19.7145997148775 1958.68599250608 7 12 6
129.384395723907 -28.9996724173188 1895.02690859907 9 14 8
174.016417601095 -17.821258151546 1973.75162803893 16 19 12
148.447030144075 -20.1355603777828 1958.3910498353 16 19 12
126.732533031419 -21.7900609243986 1947.60712172417 15 18 11
112.888382594079 -22.1451949380367 1945.82004039384 17 20 13
116.964787340082 -19.6035572703344 1964.06869557688 15 18 11
51.8648020076951 -20.5622223376552 1960.83891876444 14 17 10
-53.15688181425 -31.1924384057161 1889.57164188724 7 9 4
49.2287758962293 -13.5459014036619 2012.01506487296 7 9 4
-62.1210594434212 -28.7254893673242 1908.02762970541 7 9 4
-88.9043055348715 -30.8868534178171 1893.84982687432 6 8 3
-93.0717362134765 -29.5975470637905 1903.46590118292 14 16 11
-107.594590981425 -27.9576183678674 1916.22768274996 13 15 10
228.230020314489 -34.7603160858883 1913.918172895 12 15 8
185.833326890532 -40.2611416151249 1877.47907070804 15 18 11
203.739622451349 -35.1592041591656 1912.79039856182 15 18 11
215.980964046018 -31.0861822913354 1941.12564749453 13 16 9
246.471934951591 -23.8910049345684 1990.55413084071 9 12 5
136.082569236744 -39.025306234308 1889.85730758339 9 12 5
137.275513280149 -34.9151820518387 1919.2395918379 12 15 8
176.07063695116 -26.442844716393 1977.23709038159 16 19 12
151.167230352739 -28.726238050965 1962.6275243374 16 19 12
122.847043455819 -31.5472118405727 1944.40544136481 12 15 8
164.713414863324 -22.6873665387982 2004.96384710945 11 14 7
28.9653821948033 -35.3996220735064 1923.42294042991 11 13 8
27.6463731622858 -33.6840695170313 1935.81512820484 12 14 9
8.07869154039986 -34.8970453437848 1928.50209852771 8 10 7
-35.3274833033019 -39.883202536894 1895.82351503555 8 10 7
50.4309893319235 -24.3554236045652 2001.08260375217 8 10 7
-65.4346928597671 -34.9258978566793 1933.48986331498 9 11 6
-126.836019785462 -42.4852151982658 1883.63560812475 11 13 8
140.080860850045 -63.8273549879841 1780.44288904983 15 18 11
177.757265329025 -52.8681055322494 1854.7707437845 14 17 10
186.438209538544 -47.286713121588 1893.50380571809 14 17 10
207.021434124469 -41.634216941951 1931.74350625161 12 15 8
214.16556572874 -38.4113701571446 1953.93040317763 9 12 5
174.614040195741 -43.4409378859419 1921.68123994914 9 12 5
134.780633172571 -46.471574263189 1903.58699257173 9 12 5
193.246535934021 -32.4378257600672 1997.90956936193 12 15 8
139.464597653321 -37.8338554343861 1964.25856325068 11 14 7
57.2131434402228 -45.9252114169391 1913.9320987814 10 12 7
-23.0922723573506 -57.4032479291548 1839.50183884955 10 12 7
9.59500700140259 -49.9379930145519 1889.54325672466 8 10 5
42.5122082652254 -42.5016976105301 1939.36063895218 7 9 4
25.7060483102056 -43.3289421307466 1934.91634163128 6 8 3
7.48704330070327 -44.3707865841821 1929.07291947614 9 11 8
29.2593260811724 -38.8678491697964 1966.15397236515 8 10 7
2.17038626794785 -41.3443805197306 1950.90940019026 8 10 7
9.78948771772714 -38.1811392829974 1972.63311687033 8 10 7
-43.4574393964358 -44.8223987946441 1930.13274959763 8 10 5
-93.5362842605221 -50.8811195137585 1891.48555311119 8 10 5
-118.459643923683 -50.8814177845293 1893.56262348249 17 19 14
191.94159548569 -65.6159902781471 1829.81642866875 22 25 18
179.598409681338 -65.8526051455667 1829.3555066689 12 15 8
188.909537285864 -62.0503283434782 1854.97254229995 11 14 7
162.250451539729 -62.8720422265087 1851.80973476856 15 18 11
158.837164387926 -61.4472134434625 1862.07347472666 14 17 10
179.981249130057 -55.5530088258392 1901.13741775017 12 15 8
198.053890877461 -50.2669479106381 1936.25634801475 9 12 5
160.358880757556 -53.0816065039967 1920.25744743211 9 12 5
119.742998065704 -56.32424962609 1901.5546351474 9 12 5
175.069921349833 -42.595590565779 1991.95413477506 11 14 7
121.690168216774 -50.0018347122729 1945.44800214444 11 14 7
73.3390471045543 -56.4493995626626 1905.14228358274 13 16 9
9.61628722237728 -57.3774811553661 1904.79178495206 7 9 4
8.24031131356096 -55.6117679583418 1917.23312795652 6 8 3
26.5273875773158 -50.5513520124331 1950.75522464464 9 11 8
3.54432814911965 -52.4323847849004 1939.84756971197 9 11 8
-9.31970058867959 -52.6027861534784 1939.89372827631 9 11 8
-11.9766380203754 -51.073606098758 1950.80822586877 8 10 7
-60.4907372420294 -57.1021569125902 1913.43691120681 8 10 5
-84.5209965753151 -59.0501873141118 1902.16179632096 8 10 5
-85.2206821404193 -55.1797085206433 1929.20784344361 16 18 13
178.710108605672 -77.3793637606463 1814.93698947729 22 25 18
172.68587190999 -76.4195132816605 1822.19418940679 12 15 8
196.64751416252 -69.7557019560612 1865.43173090856 12 15 8
223.354957149907 -62.6308250677943 1911.54248151429 15 18 11
196.992444871485 -65.5641497620209 1894.22682275586 15 18 11
147.332481755378 -72.8248584658114 1849.6733486878 14 17 10
160.045985657749 -68.3750753645404 1878.90129548307 13 16 9
134.015173793603 -71.1483405192164 1862.64984373949 10 13 6
175.465515134706 -57.4086287323917 1952.65725407882 9 12 5
149.35963674117 -58.1553095011362 1950.35092292459 11 14 7
86.6890762356967 -63.3737806515053 1921.24947905507 14 17 10
68.0677821353157 -64.6593668777721 1914.42431368196 12 14 9
-47.6759992042521 -80.9439323858358 1814.96378488728 11 13 8
-12.3794645345985 -72.6813022045778 1867.96429706347 10 12 7
-25.2965046144897 -72.8697083189307 1868.06575776771 9 11 6
5.62565612354238 -65.4680542944668 1915.61829891509 8 10 5
1.56480077839261 -64.1495023245208 1925.12388201084 9 11 8
-10.6274632223773 -64.2273212504558 1925.90653177592 9 11 8
-17.4045339229973 -63.3734281849299 1932.51005814297 10 12 9
-12.574229263306 -60.5522830925951 1951.38567780946 10 12 7
-37.8070585719019 -62.8201176839131 1938.51818097049 10 12 7
-81.0000385465348 -68.0704289815812 1907.08384300077 10 12 7
-75.5052441092712 -65.1311462710767 1926.69906312451 14 16 11
-83.7524662543552 -64.4952597315006 1931.96087424264 8 10 5
174.355355406751 -87.5124181011621 1810.8399438771 21 24 17
174.677057887707 -85.3053328601702 1825.78129834402 12 15 8
162.282732482439 -85.5850399724118 1825.37718989684 14 17 10
227.914869209227 -70.7525975659112 1918.1338567678 14 17 10
184.753498280231 -74.9259546881929 1895.01075094 15 18 11
167.231394104465 -76.1949831597861 1888.50887365354 13 16 9
148.994679705528 -77.5783738016422 1881.31660824367 11 14 7
129.387783221238 -79.1980106083892 1872.68571450213 11 14 7
138.370474126312 -75.4238530819579 1897.21613932987 10 13 6
119.253961076025 -74.8570282760867 1903.36214553858 8 11 4
112.639603371051 -67.8927743490031 1951.4113069383 14 17 10
72.1431044585779 -73.2181087560255 1920.14456827276 13 15 10
-8.93787152748793 -81.6090411232821 1872.95114467517 9 11 6
-13.7685937440915 -80.3873778373222 1881.81862774246 8 10 5
-2.38876545964883 -76.3011993268222 1908.17360894625 6 8 3
7.74235972055726 -72.466516978329 1932.97192317925 9 11 8
-5.11109643002383 -72.6873298381315 1933.01503380457 10 12 7
-16.6382756466894 -72.6662657667372 1934.53953900117 10 12 7
-20.6825473079064 -71.3389652262374 1944.02736121872 11 13 8
-17.8639874310127 -68.8316951646747 1960.69633583289 11 13 8
-28.0381817138338 -68.5720491231113 1963.67586331383 11 13 8
-91.257179379435 -77.371980273906 1911.5588784225 12 14 9
183.314313196764 -95.0104125281457 1822.88984847171 16 19 12
179.211528699398 -93.6665769190558 1832.43333092462 15 18 11
187.881331692645 -89.788781942282 1857.25947834623 14 17 10
204.321722879451 -84.4040973582299 1891.15052453396 13 16 9
149.022198401348 -93.182206518549 1839.66795416376 13 16 9
209.297010996353 -79.2335061399863 1925.12194239372 15 18 11
206.700027780407 -77.6647128911617 1935.97104975087 14 17 10
209.306771435216 -75.0942584576477 1952.84068454022 13 16 9
178.189431368872 -79.0469272744772 1930.47859561459 12 15 8
146.271560480254 -83.1058924728686 1907.50990902856 11 14 7
176.281488896156 -75.2871692557788 1955.90666771255 10 13 6
127.840062694391 -78.3019795217927 1942.10656789993 8 11 4
137.925004663631 -72.3236908701826 1980.80402537185 11 14 7
133.423953691974 -71.1358629666398 1989.34914087421 22 24 19
8.59531269038394 -87.9345556929361 1893.31768684629 10 12 7
34.1000635400541 -81.2047313362917 1935.0131420026 8 10 5
51.0173764513042 -76.0860116144336 1967.05266019854 10 12 7
29.4880056505402 -77.9313618057161 1957.53035357688 7 9 4
3.12030753967241 -80.6172323703445 1943.01742729186 12 14 9
-17.233668270817 -82.1962537651764 1935.12239142496 13 15 10
-6.25928750405214 -78.1929076931989 1960.47532128794 10 12 7
-8.19310577040389 -76.4992458430898 1972.06434983974 11 14 7
-51.986192325125 -82.1684384185804 1939.87058988547 11 14 7
-39.5239008489097 -77.9380083103098 1966.54659597464 21 24 17
-88.4129721962017 -84.4151345397293 1929.61359558508 15 18 11
183.396849525882 -104.252103541926 1824.17380657259 17 20 13
175.478574558044 -103.676310817607 1829.11751227865 14 17 10
193.703913323195 -97.7899717601213 1865.41300061777 12 15 8
168.358021621771 -98.5877574729302 1863.77679189173 14 17 10
198.434607311397 -90.4167825849559 1913.47220559214 15 18 11
175.05536257136 -84.5409191139802 1955.65777298887 11 14 7
173.818513388547 -82.7074725812378 1967.95128798229 11 14 7
98.3309120753755 -95.2339089761157 1895.97670452243 10 13 6
111.439539034642 -90.5907278606978 1924.78370413918 9 12 5
143.311947003775 -80.3376407551074 1987.97512051332 11 14 7
88.9394913365717 -88.5985739023047 1941.16416951728 19 21 16
123.678419872496 -79.9645385930454 1993.24625215176 15 17 12
28.8111167608864 -93.617568200516 1916.59336143602 10 12 7
37.5490095117699 -89.8921852282997 1939.95717398974 7 9 4
75.397930059014 -80.8101012007144 1994.55308013282 9 11 6
5.2415376146695 -89.600929935173 1946.48986684172 11 13 8
5.99801992088134 -87.388065130313 1960.99862429792 11 13 8
-54.6485254101774 -96.3270784309758 1910.59877828671 10 12 7
-3.31575192724598 -84.9558884255076 1978.38999436147 10 13 6
2.34402096772346 -81.8914670821125 1997.82289300259 10 13 6
-73.8679682871353 -93.4862196222854 1932.09824796527 6 9 2
161.925363335787 -118.005197740243 1799.34971586014 19 21 16
164.750935268766 -115.175235134336 1817.38060505757 14 17 10
181.028755291861 -109.576092659447 1851.40139003151 12 15 8
222.397530818785 -98.8478644417254 1915.0119261398 12 15 8
210.794286223967 -99.0886940778703 1915.23376383924 16 19 12
179.204968116517 -103.401078877118 1891.97627479094 15 18 11
167.477256465201 -103.626145456355 1892.31904250252 15 18 11
178.383155533971 -99.2627197881266 1919.10400325659 14 17 10
153.669331252493 -102.102919338626 1904.38847488468 13 16 9
122.982356122176 -106.103608689387 1883.02303394728 11 14 7
156.840057152155 -97.1916229664998 1935.93944541435 11 14 7
98.9956038029138 -102.23771055715 1911.9388306469 9 12 5
106.893175433686 -98.5574861678629 1934.72685959624 8 11 4
81.0535428389567 -101.467912638661 1919.72274571232 9 12 5
124.274530549719 -90.9714603589777 1981.52826412376 12 14 9
98.4104382791955 -93.8786190214108 1966.54795607884 14 16 11
70.6072427420743 -92.9294439544478 1977.01238941298 7 9 4
24.8631844098428 -99.4962741361462 1941.22100644974 10 12 7
-48.2991902391188 -108.986534592211 1890.57784067254 9 11 6
-5.4904072195141 -98.8624618144414 1950.01356548613 10 12 7
-0.628382685750495 -95.8616386784097 1968.83113051237 9 12 5
-108.972218068247 -105.170282606337 1924.75661907125 23 26 17
168.981100362276 -125.848978817786 1809.08958812849 17 19 14
182.0016223421 -120.818925028616 1839.34380699775 15 18 11
202.158089367496 -114.319731672555 1877.8821426246 13 16 9
226.316048822154 -107.032881948541 1920.83265343936 13 16 9
203.173980175185 -109.716922041695 1907.3674246654 14 17 10
178.642411600444 -112.656403481418 1892.48558750233 15 18 11
164.97632174499 -113.305047510324 1890.56507003404 15 18 11
169.398131434197 -110.204767038268 1909.80507515767 14 17 10
134.915237005781 -115.119422943672 1883.8419904646 13 16 9
108.081437989555 -118.414381229589 1867.04811353262 12 15 8
102.035001050493 -117.439403886892 1874.32512288813 11 14 7
168.736468323847 -101.733757707811 1964.47362242279 11 14 7
133.334340236885 -106.747564652469 1938.02109550401 10 13 6
85.234011314439 -114.251825048579 1897.62285357265 9 12 5
97.0572612826022 -109.715250062863 1924.88785140491 8 11 4
77.7978264736689 -109.229305791492 1931.18773514041 10 12 7
36.4555802006006 -115.216592041895 1899.44176298203 13 15 10
109.980509919076 -98.6473592871215 1994.02277594637 18 20 15
61.8572812695986 -105.932997506027 1955.03187083788 13 15 10
-4.74720440201981 -114.550900013924 1910.50088762445 11 13 8
-34.5587506188596 -118.11543274789 1892.45273487241 10 12 7
-10.2013091392426 -111.281900958276 1932.4380008028 10 13 6
-138.238374856347 -126.799303866006 1853.57329257416 9 12 5
181.741040389592 -132.389786889367 1825.72572103761 16 19 12
144.568975768076 -138.172734133583 1795.47647074962 15 18 11
198.411981981651 -124.25162335738 1874.56788029965 13 16 9
209.762494385712 -119.581245688899 1902.28287538532 13 16 9
197.478991075393 -119.99842652306 1901.78903751566 15 18 11
159.247354069966 -123.688545019908 1885.03549863683 16 19 12
170.126743788313 -119.176293960812 1911.82478723998 14 17 10
123.306719495173 -126.795042175009 1871.58901445257 13 16 9
112.072992784204 -126.908064627527 1872.84193490267 12 15 8
103.424789368734 -126.474810239351 1877.11462813365 12 15 8
105.904859082885 -123.737721191193 1894.08542349539 14 17 10
115.669188249686 -119.52035910868 1919.19141169438 10 13 6
114.323336238725 -117.608929890864 1931.58130445871 10 13 6
75.9817582014337 -123.243647011358 1902.47115209163 11 14 7
61.22023702601 -119.644989818366 1927.93396894042 12 14 9
-2.4703388555265 -127.972756173791 1886.13452334618 14 16 11
23.669656385914 -120.585810459926 1928.51895849893 8 10 5
3.43606667459007 -122.397533379646 1920.53877063967 11 13 8
-8.07757381406082 -122.473875114314 1922.06422821481 12 14 9
-63.8617261952508 -128.962847393012 1890.56298674313 11 14 7
-60.5336711033004 -126.112952048225 1908.09195668553 11 14 7
-123.554362910837 -136.048932890856 1855.94595879395 11 14 7
-150.033824517023 -136.637369443625 1856.82136934388 11 14 7
-117.755793255594 -128.278668765231 1904.3029692583 3 6 0
144.42453301855 -149.946909650867 1781.77276867172 19 21 16
164.361734705639 -143.193788914414 1820.49130766492 14 17 10
178.160529153086 -131.042656619106 1894.26467476248 16 19 12
136.734201426063 -137.743669310545 1859.8735287097 16 19 12
154.667148934471 -131.619842554716 1895.00701815129 14 17 10
162.356416708746 -127.736252655275 1917.97183857584 14 17 10
115.412491197642 -135.507471792122 1877.88163666525 12 15 8
84.5600810801801 -139.788687735138 1856.72193682348 12 15 8
84.7406372980584 -132.977242508549 1899.46314262744 11 14 7
94.5774247514244 -128.70133347378 1924.48852546276 13 16 9
84.6177092039291 -128.5520525221 1927.27138430103 11 14 7
79.9585701597305 -127.304867073491 1935.96471057716 8 10 5
56.6342894933043 -129.885444442849 1924.08237644643 9 11 6
54.6188004882904 -128.088304895942 1935.73721129064 14 16 11
7.67866658386573 -135.417767904427 1898.41210937315 12 14 9
12.3149226802051 -132.251461630114 1917.42940745965 7 9 4
39.2863231805012 -124.615937102548 1960.36841437754 8 10 5
18.4015965546682 -126.620499130385 1951.64640731821 13 16 9
-10.7102537179915 -130.236828554402 1934.32801099608 10 13 6
-40.6320675616332 -133.971732217874 1916.4141985345 10 13 6
-109.596766018625 -145.36737711078 1857.63356528011 11 14 7
148.943949763679 -158.350158196778 1788.44595840779 16 18 13
149.820258252568 -155.784010515157 1804.20075879805 13 15 10
181.3537905635 -146.357433694445 1856.5148913437 11 13 8
241.312299085028 -126.221678226783 1969.70874356063 16 19 12
202.014887529348 -132.667172536626 1937.41651472648 14 17 10
93.9990237115831 -149.449959627304 1854.44483413655 11 14 7
104.896535547417 -144.79412808996 1881.19456823517 11 14 7
137.523281333942 -135.503516347066 1932.44355706001 12 14 9
126.348494328855 -135.662130992156 1933.64435017503 12 14 9
84.8233610405025 -142.273234267981 1900.75494025061 12 14 9
68.8752604434919 -143.393995798864 1896.91920614846 13 15 10
84.0371114785272 -137.934220657687 1927.81769746051 13 15 10
98.7379166641293 -130.407512917157 1971.62171976648 9 11 6
46.6745166258167 -139.041488681421 1928.2406152036 12 14 9
2.39605627392692 -145.975335603133 1893.88193532969 11 13 8
-21.2430631536757 -148.583815561416 1882.31636473343 8 10 5
-18.663172183091 -145.782665836508 1899.17856797186 6 8 3
-8.58477757180642 -141.468636182074 1923.95805927482 8 11 4
-41.8458946597733 -145.992125436379 1902.39223031616 16 19 12
-23.5299468241132 -140.034716481247 1935.75308193156 14 17 10
155.146405849872 -168.731174558152 1782.40422819195 8 15 7
188.32263053813 -158.671730619907 1837.24467123503 16 18 13
189.955277396029 -155.942672209676 1853.6412476273 14 16 11
179.521171263231 -155.98900073883 1855.50718500768 11 13 8
183.775150709252 -152.685503717254 1874.88381272651 12 14 9
172.054352760396 -153.021645539832 1875.23646974379 12 14 9
187.331059662481 -147.262844188626 1907.39362085644 16 19 12
194.324152763657 -141.142024572203 1943.47228883305 15 18 11
123.552896686559 -154.613396620138 1875.45609750053 15 18 11
123.393022871378 -152.335599984517 1889.44830391755 12 15 8
123.924770567605 -149.918695136029 1904.15006913431 14 17 10
140.225178641622 -144.061704284173 1936.69340464455 14 16 11
129.058610370083 -144.240510824423 1937.88935863094 12 14 9
74.3592744449577 -153.857764798484 1890.18588318736 11 13 8
57.0582619720308 -155.298446578021 1884.90707601531 11 13 8
31.7372750519467 -158.441943955178 1870.83929640537 11 13 8
62.8328876609494 -149.473766762833 1919.40497515842 12 14 9
17.4493458438825 -156.872616213856 1883.37856605085 10 12 7
-13.4449168226398 -161.122457050162 1863.67269849964 10 12 7
56.8213600327558 -143.974231190665 1954.31914257015 11 13 8
-7.02844870122643 -155.151278837356 1898.92883337963 8 10 5
-32.7483597539509 -158.243726265309 1885.24964617039 9 11 6
-58.0485621762765 -158.902983102732 1886.38141144295 10 13 6
-66.3247475854401 -158.313664610363 1891.67886624751 14 17 10
-61.6809883580065 -152.795530764697 1924.51122122913 21 24 17
-91.202100064605 -156.538720693207 1907.61797748806 18 21 14
-149.766854804324 -166.119482216195 1860.913707865 12 15 8
196.008517446755 -166.10444984873 1847.71528775308 16 18 13
186.220924555588 -166.020217151363 1850.33684035276 14 16 11
173.862430972835 -166.527091276464 1849.93106340341 11 13 8
167.224720832061 -165.695417990043 1856.39948674806 11 13 8
188.815969304525 -158.352677364052 1896.22220590534 13 15 10
227.347038000572 -144.910834451306 1969.33444020946 13 16 9
168.505870471399 -156.034921263987 1914.63096162796 14 17 10
128.033821518398 -160.553450246914 1895.97355784535 13 16 9
131.132314498378 -155.230447180132 1927.5350688204 15 17 12
129.139468108761 -153.380818146724 1939.15999913162 13 15 10
81.6926182898774 -161.592679098882 1899.6343351611 12 14 9
49.869387044458 -166.281305218786 1878.08164293728 11 13 8
89.5057494009777 -155.26064346743 1936.28404711242 11 13 8
14.3712679896439 -169.365392749304 1867.02624080281 12 14 9
32.873316616536 -163.003803270921 1901.55980103633 10 12 7
-39.2380780932955 -171.544246389592 1865.31963007646 9 11 6
11.8707327673624 -158.306618742432 1934.4742949953 12 14 9
-23.3028684495071 -163.487254262145 1910.65365118424 13 16 9
-28.7802058919855 -162.341042053027 1918.75713720605 6 9 2
-58.0711802377278 -166.203157170781 1901.65294075462 8 11 4
-48.5853005280297 -161.907642717561 1925.60697317677 19 22 15
-41.0596855117098 -158.051503049904 1947.32111318176 23 26 19
-66.4024746220706 -161.037621353948 1934.6689700705 24 27 20
-84.9667458287731 -162.589361953692 1929.24376478089 24 27 20
170.473156779795 -183.865652519026 1803.42959569982 18 23 17
165.667293572995 -182.571149144429 1812.26162766961 15 17 12
179.943702331499 -176.735392686084 1843.98380637701 13 15 10
156.725622149703 -179.834529063605 1830.65540923034 12 14 9
162.591281654448 -173.638065435395 1866.42520812311 13 15 10
206.795618364308 -160.922362964395 1932.59455518765 13 16 9
149.969442149927 -171.825439772066 1880.10822321446 11 14 7
161.464063714025 -166.795528352593 1907.62663900051 12 15 8
138.651151508332 -169.713376375242 1895.28635688412 13 16 9
160.029198231528 -162.455494687268 1933.91642132638 13 16 9
133.232806551649 -166.260356403065 1917.16042401868 16 19 12
118.764094852976 -167.219329002162 1914.66587901506 18 21 14
120.676988642265 -164.454063612949 1930.77881468597 17 20 13
94.2441589585479 -165.76074180413 1928.87991837059 15 18 11
91.5765451243815 -164.038543038611 1939.77615186538 14 17 10
82.2823178062868 -163.796479921812 1943.30170505036 12 15 8
24.2869211447858 -174.319850666687 1893.33755303486 10 13 6
32.2085470792537 -170.226871213371 1916.04035284484 11 14 7
-45.2071383627897 -182.472944114952 1860.10939237057 10 13 6
-21.7817218575438 -175.007567105546 1899.50953927112 14 17 10
14.6760985434979 -164.784788813517 1952.48441567406 14 17 10
-14.4438027757663 -168.758088278541 1935.22677417639 15 18 11
-38.2482593338893 -171.548712011672 1923.85196872325 12 15 8
-47.0962895269178 -166.501204908183 1955.98132176849 14 17 10
-80.0615237908477 -171.146801586353 1935.55663353325 15 18 11
-122.840269122415 -177.797319038351 1905.33481361528 21 24 17
170.817909345287 -190.652746906311 1819.67773475517 14 16 11
130.663019483707 -195.441981736871 1800.74539751237 12 14 9
109.821937851613 -197.974442927714 1790.6408264351 13 15 10
204.371593963976 -172.885572771284 1916.93138477771 15 17 12
190.143304573834 -173.908437169205 1914.20754004758 14 17 10
168.122057432051 -176.760108501089 1902.4879134095 11 14 7
133.058880981768 -182.652897355797 1875.82871564731 12 15 8
167.951847291788 -172.063251700426 1930.30295461736 13 16 9
171.831990925406 -168.808765886234 1948.64114134154 14 17 10
141.152278826923 -173.613850602773 1927.38737738992 17 20 13
109.672304070531 -178.552302714194 1905.53075057067 19 22 15
110.90060075107 -175.900089692818 1920.92330106365 20 23 16
107.561509249547 -174.311819342319 1931.08954489391 20 23 16
91.6580360322206 -173.251756682649 1941.05693914224 16 19 12
90.343412285478 -171.215283013718 1953.39767810529 13 16 9
57.7153428064596 -176.242454977986 1931.27732975535 11 14 7
14.2330211364201 -183.649736260326 1897.61495511074 11 14 7
0.0508189514425439 -184.442036290736 1896.22817710949 11 14 7
-22.2478134068327 -187.022436423329 1886.16115148681 9 12 5
-6.85328969921351 -181.234391663564 1916.78007728918 10 13 6
-9.60912971550387 -177.143128277967 1941.58421851597 20 23 16
-77.6355117077476 -189.655519522579 1883.45344924002 20 23 16
-89.3650639867842 -189.818813164542 1885.2061618687 17 20 13
-93.5930215828793 -188.35036513832 1894.8558632402 12 15 8
-46.2452187458062 -173.470272795466 1971.7535749548 9 12 5
172.165354645399 -199.632929325626 1822.50078732845 17 19 14
185.824338611338 -193.778494987941 1853.41640808196 11 13 8
136.48295058429 -203.441534709261 1808.90164771631 18 20 15
98.3917638975487 -210.257434874666 1778.30052205714 9 11 6
137.732308660222 -198.161145369943 1839.47185664118 18 20 15
160.328891178973 -185.386489363856 1908.66779939174 17 20 13
171.927065019012 -180.218509994081 1936.06297985425 18 21 14
128.276356404501 -188.228567250472 1899.82308732499 17 20 13
125.555225118003 -186.468587710497 1910.7672183011 17 20 13
119.580921117533 -185.483199931496 1917.97105992433 20 23 16
102.439020909323 -187.118519255282 1912.56268142334 21 24 17
99.0745850764556 -185.513800605361 1922.75166149782 23 26 19
83.8307089860266 -186.677089300623 1919.63981686432 21 24 17
80.4508277408193 -182.703993100675 1943.66385815517 15 18 11
55.7970627261373 -185.998313330315 1930.37305604125 14 17 10
12.9792963343447 -193.401420804763 1897.46739845413 9 12 5
-19.3174579720008 -198.338920945632 1876.42170510138 11 14 7
-8.70838092526594 -193.517642709987 1902.01649694194 13 16 9
-24.9853007104388 -194.786440310272 1898.52916482089 8 11 4
-42.7754889203702 -193.970828981045 1907.57240611209 7 10 3
-79.590456464004 -199.759829854185 1882.63742298348 11 14 7
-93.3730227896326 -200.39435252607 1882.24739055923 17 20 13
-67.4975687302055 -192.282389269095 1923.3701145804 20 23 16
-20.8430427829192 -179.679691939384 1985.70584246254 17 20 13
-44.0951682014079 -182.437723772774 1975.19499411395 12 15 8
-117.832912806117 -196.132031679044 1912.99133820005 16 19 12
-191.257229941997 -209.628635695824 1851.86447078747 16 19 12
194.424614796764 -203.328781903141 1850.5388007248 12 14 9
176.368693448078 -205.373635332262 1843.26443121251 28 30 25
127.637321336458 -215.055554076148 1799.56361565416 9 11 6
127.892946753766 -212.458052241436 1814.51322006202 22 24 19
147.435212325754 -205.101388951598 1852.11748597022 21 23 18
150.407231400409 -201.887092690173 1869.94648448663 13 16 9
179.828571671003 -189.788882069851 1932.46532023375 18 21 14
166.162319684094 -190.708130050733 1930.58462106832 18 21 14
158.965053853302 -190.045843142425 1936.2168173999 19 22 15
135.433401101546 -193.316350722948 1923.22513103961 20 23 16
98.6968870545062 -199.715881036672 1895.46832193639 20 23 16
113.033558461574 -193.857969720825 1925.71047514694 20 23 16
110.359352434898 -192.087276646394 1936.60642519065 21 24 17
105.725010285279 -190.788376231727 1945.2674843345 21 24 17
90.4947211706943 -191.988596912799 1942.14760616452 21 24 17
86.5163938891782 -190.53229342561 1951.550878059 18 21 14
73.8841741341689 -191.100906217584 1951.42570235113 19 22 15
41.8213313002083 -196.170970420638 1930.16766220094 15 18 11
4.91434505857091 -202.308168724917 1903.95827126828 13 16 9
-14.7807907029165 -201.988909646491 1910.71544848923 12 15 8
-12.8146424632938 -199.123462086718 1926.76069482265 11 14 7
-26.4243329758647 -197.412697729951 1940.02246846502 10 13 6
-91.238913214053 -209.618816165579 1885.74228785331 11 14 7
-61.2519258324746 -200.457041533728 1931.12950627551 21 24 17
-48.2135512544661 -195.151011755929 1958.49138948483 28 31 24
-76.3614087139923 -199.0349231301 1943.08910117964 19 22 15
153.565578090049 -220.456465075754 1817.12538364633 22 24 19
139.832116472312 -221.398596888234 1815.31480685817 29 31 26
99.8346682673077 -228.967198053249 1782.46681015023 8 10 5
140.459050948805 -216.15909192017 1845.0922249929 2 4 0
158.851411524093 -209.031337638495 1881.03837757754 15 18 11
162.429517436302 -203.192782979024 1913.46467468036 18 21 14
155.853070886053 -202.369599536371 1919.87351716918 18 21 14
144.717283531676 -202.668235659683 1921.05627816786 19 22 15
120.490369201974 -206.16415782191 1907.37140369134 20 23 16
123.627139986963 -200.510070027419 1938.84630790399 18 21 12
111.098808612229 -201.117136195832 1938.623652891 18 21 12
102.500661944939 -200.765060552454 1942.8586372141 20 23 14
93.2273971672122 -200.570043623289 1946.37032769259 22 25 16
15.7297508173437 -209.238659364628 1916.91497525208 17 20 11
-7.19448742084738 -212.169866140811 1906.10412526731 16 19 10
-10.6486661897676 -210.525633830876 1916.37604346024 18 21 12
-5.28569729527195 -204.419938278381 1949.82461840664 17 20 13
-72.6127503641818 -217.509269350781 1892.50192378614 13 16 9
-67.2668122883149 -213.822170901156 1912.1544336376 9 12 5
-45.4253910939388 -206.396395165237 1948.88263639536 15 18 11
-63.2281009389097 -208.032498481038 1944.13056750592 24 27 20
-108.625247191087 -215.886136973803 1911.01870406072 20 23 16
-202.152651767796 -231.975529861479 1843.31440862931 13 16 9
176.526821484889 -223.856901103587 1845.83922634339 17 19 14
150.750595540806 -227.967469492907 1829.53261985178 6 8 3
135.72808761337 -229.267197287648 1826.22111899932 13 15 10
151.443574719343 -222.677469104529 1859.23699141998 4 6 1
187.883323073047 -210.857150069995 1916.24442576218 13 16 9
167.793267629928 -213.477995567678 1906.82438489871 16 19 12
159.919122670051 -212.981952601324 1911.7360558339 20 23 16
152.036628844423 -212.484604805974 1916.65616230503 19 22 15
124.609711998264 -216.876162231957 1899.19608986034 18 21 14
180.745615202053 -197.983670157875 1990.86320468199 19 22 13
136.190922881672 -206.587979361534 1954.19190219656 19 22 13
121.064079864738 -207.87244592488 1950.981752027 19 22 13
101.259358559152 -210.282730551992 1942.66415865996 19 22 13
99.9371333663159 -208.159883959139 1954.99934224893 19 22 13
98.6456140340746 -206.040672452604 1967.30457172858 21 24 15
79.3814192405979 -208.273332153248 1959.84122181772 27 30 21
67.3986746165136 -208.727649210646 1960.47112416189 19 22 13
10.4472934255346 -219.935206380695 1912.40519044107 8 11 2
-20.5635660809707 -224.853412029914 1892.91422714503 3 6 0
-1.14498354787562 -215.29739250177 1941.65219847344 15 18 11
-38.4489722418655 -221.627669106102 1915.86591157516 22 25 18
-75.2486859546595 -227.776314314928 1890.96859860079 22 25 18
-43.2965013310223 -217.835110775162 1938.54021365363 17 20 13
-14.5439456428154 -208.715849077463 1982.32536791128 14 17 10
-161.74503547467 -235.265669932461 1871.69204446193 21 24 17
165.800652879873 -235.947718770547 1834.18834028977 5 7 2
143.179868196961 -239.298677363039 1821.72128625617 6 8 3
