ply
format ascii 1.0
comment KinectMotionCapture
element vertex 792
property float x
property float y
property float z
property uchar red
property uchar green
property uchar blue
end_header
51.8075541686231 306.582272546072 2470.84676546192 32 35 28
71.9870458958352 307.669659742235 2498.82581173876 34 37 30
68.5056205729992 308.4192802104 2506.42319076659 37 40 33
41.1821997943762 308.853725885522 2493.81537700102 38 41 34
-3.9930227084688 309.07435912718 2466.37465058653 34 37 30
-19.2037042170563 309.694729944156 2464.38312846333 24 27 20
-20.5040987874354 310.489415909643 2474.05911684673 34 37 30
302.413672364301 277.791856072427 2365.11364483216 185 187 186
281.93428960294 278.06831356849 2355.65165379187 192 194 193
271.979191236456 278.664020418101 2356.94703683067 181 182 184
265.545958048724 279.364201920841 2361.81493664871 178 179 183
261.95279506357 280.145068625285 2369.51865464693 170 171 175
257.658568041595 280.904237683116 2376.50483718231 169 170 174
251.227464479818 281.603146538319 2381.37047250505 172 173 177
244.075990969124 282.28285223701 2385.53771257852 164 165 167
236.916726422648 282.963214086714 2389.71225444485 177 181 184
226.866943021746 283.568601931783 2391.10023027563 183 189 189
214.626068403643 284.120582346547 2390.42115771709 176 180 179
189.306548725302 284.345270930926 2377.27101401796 0 2 0
177.687373086389 284.927951748826 2377.38695699423 16 21 15
171.137032234046 285.639638505792 2382.36944598285 6 9 2
158.739071567775 286.210078867823 2381.84329597815 17 18 10
158.025450900988 287.06342614334 2392.34484840289 17 18 10
180.105809864955 288.445829241145 2424.06101514709 24 24 14
163.308391674046 288.911304805039 2419.41697366132 23 23 13
142.023231746419 289.28353659107 2410.74131370247 21 21 13
128.799224579533 289.846649564516 2409.61961375121 26 23 14
119.989697790842 290.511549190431 2412.60101925192 35 29 13
114.885994405432 291.257911223074 2418.97600733747 37 30 14
113.516928763658 292.081965364253 2428.71550866438 39 33 19
107.683600541189 292.809919002329 2434.40049859194 41 35 21
99.6010233530864 293.491752691758 2438.07511454748 41 35 21
89.2512497713991 294.129696098 2439.75617336473 37 33 21
78.8786684290184 294.770219940745 2441.45949923811 28 26 13
72.262583028651 295.485801665054 2446.50669786033 25 23 11
61.8541768166545 296.13013417593 2448.24503543934 31 29 17
42.3061011436112 296.608732943859 2442.07943209655 29 29 17
21.1652597604779 297.068116743808 2434.66448997771 32 34 23
29.7289549750817 298.064921346866 2452.93659083854 34 37 28
25.352491210656 298.826084079411 2460.00414101062 37 40 33
40.1726566067913 299.912281701567 2483.38621247011 38 41 34
-6.24038533675808 300.799769726276 2465.57822980317 28 31 24
-4.44260117230444 301.660042242232 2477.83596235274 22 25 18
-14.2347878889826 302.333747954242 2480.37529067692 31 34 27
-6.94594493985878 303.270152178398 2497.08810935535 35 38 31
-17.5119533446484 303.931050695588 2498.98049979309 35 38 31
-14.0396349326157 304.799067026098 2512.40840702568 38 41 34
363.41643613057 268.428230742991 2383.85635630654 169 173 159
275.660198725088 269.933342284436 2350.33106659931 185 189 188
269.929791244128 270.655014089507 2355.91478316128 175 179 180
265.617522670968 271.422531360661 2362.91764736141 171 175 178
261.313153023079 272.188758002643 2369.91285856641 164 168 171
256.303678738991 272.931037882831 2376.19454125974 161 165 168
248.438846974492 273.583178782079 2379.65698353021 166 170 173
240.562466927079 274.236436455132 2383.13072835765 161 165 166
232.674551344854 274.890868263713 2386.61575460496 159 163 164
223.333815361002 275.503194548988 2388.71585753024 166 170 171
208.192372514859 275.946762983659 2385.26480238887 173 177 176
185.754308711098 276.185180791167 2374.91961419222 6 11 7
170.492415779906 276.643240989221 2371.58602588959 11 16 10
165.379297200404 277.396051220147 2377.96907251917 17 20 13
159.539979425551 278.127664151176 2383.65946931888 17 18 10
153.700999165828 278.858939688927 2389.34958082766 17 18 10
148.596695029506 279.609754186837 2395.72416955333 16 17 9
153.069051952019 280.615169896297 2410.97287267094 18 18 10
141.354227402052 281.186466966412 2411.18514110079 19 19 11
131.829458422408 281.81880921834 2413.46503316027 20 20 10
119.316823345773 282.377553437354 2413.0544852251 19 17 4
109.746017201167 283.015004817418 2415.37899990104 19 15 3
107.617088010114 283.838854436434 2424.45651571779 23 19 8
105.508154934113 284.659917867702 2433.51458689403 22 20 8
101.919073816012 285.44227322375 2441.21369367388 22 20 8
89.3194600574896 286.010451002459 2440.88846042159 32 32 20
77.4390122344424 286.600047631632 2441.26249054313 30 30 20
67.7956221571865 287.244823040394 2443.65833749093 27 29 18
56.6177018773946 287.857762555858 2444.74854446807 29 31 20
40.8548703856262 288.373313011717 2441.90389852632 33 34 26
29.6120007163321 288.993762288227 2443.05749126796 35 36 28
22.1605293582625 289.698415831673 2447.51860851609 32 35 28
-9.03034629903221 289.907652033753 2431.69929820571 35 38 31
-26.5339900515169 290.416148124285 2427.75019072747 37 40 33
10.7977635427177 292.889916726593 2481.00253879846 29 32 25
3.3577198877226 293.591832312305 2485.45271283747 15 18 11
4.43899828480721 294.45709127985 2497.00429989285 30 33 26
-24.7563189072268 294.750106602971 2483.44205380434 55 58 51
-51.7300516081414 295.100205424375 2471.91637035413 51 54 47
-42.0948126187337 296.124249196655 2490.53729578665 47 50 43
267.976522621662 261.696195120626 2343.59150128822 182 186 185
266.466614078104 262.576807939597 2353.46284019276 174 178 179
264.271099047228 263.428391832516 2362.60203977721 171 175 178
259.251677973721 264.175037973452 2368.89329229004 166 170 173
253.523268770032 264.895588073732 2374.47519032061 163 167 170
246.36527084476 265.565706576378 2378.64998837559 164 168 171
237.049412914017 266.162070868003 2380.72774620206 160 164 165
226.995372183424 266.736019570967 2382.12459631562 158 162 163
215.476668736349 267.263958310658 2382.1485219334 167 171 172
203.204545143888 267.771450006418 2381.50705548158 180 184 183
181.477674856131 267.973280365738 2371.87795853675 5 7 4
166.204170691375 268.397747376935 2368.56086541903 17 19 14
155.979661476033 268.991579440512 2370.12405450593 12 15 8
159.610549717761 270.026711461912 2384.78670924512 18 19 11
155.236217846109 270.80382186278 2391.84978535774 19 20 12
148.666823450195 271.511849870444 2396.85139771634 19 20 12
147.248143036422 272.376495045494 2406.6345057502 20 21 13
141.423758071954 273.105208246244 2412.31050262732 22 21 16
133.37920747124 273.767946435397 2415.94984208407 21 21 13
122.354826274908 274.345342966887 2416.89283571911 23 23 11
108.327263013025 274.840223726885 2415.16225422256 25 23 11
101.717788510346 275.551537108355 2420.20351898485 24 21 12
101.088815874317 276.430110427714 2430.61728626546 23 23 13
102.737550060037 277.366874058507 2443.01172229391 21 23 12
92.3954450757858 277.97188961224 2444.69003280276 27 29 18
79.0151658695639 278.498859680628 2443.72885520227 29 30 22
65.596507668054 279.030299476023 2442.80512788775 30 33 24
53.6548339152154 279.605633976416 2443.24206419906 31 34 25
48.5201141124674 280.359414766471 2449.64675555643 33 36 29
43.389758000024 281.112304668977 2456.04690753562 32 35 28
28.3372969186666 281.618069578375 2453.91520889234 34 37 30
42.3293026455585 282.840146645817 2476.68266290545 30 33 26
0.600806286238154 283.58715809061 2462.74575119053 31 34 27
18.5785477930733 284.882386695895 2488.62972116139 30 33 26
29.7178326687941 286.002581925464 2508.57705212896 34 37 30
21.5615822653157 286.674374557135 2512.32597289842 30 33 26
-30.9072488610411 286.363628277198 2479.45324794221 42 45 38
-72.7003572095795 286.319754382763 2455.77834848744 36 39 32
-69.3670709143137 287.270591153841 2469.3320758423 40 43 36
265.933740325251 253.630452078808 2342.56106181039 190 194 193
265.12456410476 254.556834158973 2353.1467078003 163 167 168
261.507001421504 255.365528997973 2360.87054207329 166 170 173
258.61209993586 256.200643632648 2369.28976757762 161 165 168
252.168716933466 256.893539458754 2374.16882313149 162 166 169
246.436334664515 257.614339809527 2379.75462948768 156 160 163
237.837095150061 258.224794605948 2382.53560138047 152 156 157
227.784934409987 258.782363589987 2383.93300555096 157 159 158
215.547545606419 259.261503881433 2383.26089942348 153 155 154
204.720556033931 259.798256643436 2384.01388738944 194 196 195
175.027717043577 259.648354292156 2366.76008504508 18 20 15
151.018629616159 259.724573584646 2355.16510076497 13 15 10
158.236298059218 260.932448068357 2373.32538291198 16 19 12
159.68124541364 261.924814204506 2385.91396425042 15 18 9
156.771284866942 262.758628214269 2394.34833585679 24 25 17
152.408772130263 263.539555819759 2401.39911121248 25 26 18
148.790648841185 264.344237740798 2409.12409528287 23 24 18
142.231803127013 265.047841760422 2414.11622435005 21 22 16
139.3702528735 265.874476702438 2422.50358488272 22 23 17
124.6507086638 266.309510105216 2420.05174895026 25 26 18
103.188302766374 266.533268613955 2411.57404114514 30 30 20
98.0569211014508 267.291506544791 2417.97442107684 27 27 17
92.9299639131043 268.048891855919 2424.37053345473 27 29 18
96.056750114327 269.062380886247 2438.12005847904 26 27 19
89.4564792479811 269.769187522215 2443.15284998942 28 29 21
82.8527163545654 270.476167319665 2448.18874569911 32 33 25
69.4438368381349 270.97963199362 2447.25944271648 35 38 29
58.2697437057433 271.554776511388 2448.35143536383 34 37 30
62.262420469585 272.575788694333 2462.6569156583 31 34 27
55.6437836797561 273.283583848183 2467.70779869968 27 30 23
55.1304285488898 274.164741672435 2478.00637409983 25 28 21
5.65208466089429 273.67172372827 2446.44239441791 25 28 21
1.43825592328195 275.362696814038 2464.54697026577 32 35 28
49.4998998276781 277.548654873327 2515.68871066271 33 36 29
56.0764905741693 278.596390317647 2531.67544228394 37 40 33
-20.7362549890822 278.352119909868 2488.95857060866 37 40 33
-75.748657871225 277.845883574042 2454.38981539857 34 37 30
-61.7059419800619 280.876427679672 2498.09495180623 49 51 46
263.891123757155 245.547631411243 2341.53298182752 183 187 186
260.247837856265 246.367972128325 2349.28063838019 183 187 188
255.907451800966 247.155368419806 2356.30848554522 180 184 187
253.707457575507 248.034318318009 2365.44808835248 164 168 171
250.101531332654 248.849108950797 2373.15946651248 157 161 164
243.648348747633 249.540262244265 2378.04851074232 170 174 177
235.757876343585 250.171207717172 2381.53954722165 176 180 181
224.981159770842 250.683386659164 2382.24624535556 182 184 183
214.177330440914 251.198703493076 2382.97940307911 211 213 212
197.565558270788 251.481294235041 2378.17804264716 191 193 190
170.751925455719 251.361575213598 2363.72866003815 9 11 6
149.637450232222 251.487691962747 2354.91988333988 2 4 0
161.949872620213 252.946187800349 2377.90333652863 12 15 8
153.178420161473 253.565525350693 2380.85366771173 21 24 15
149.518310395376 254.384316173856 2388.61825968489 26 27 19
149.541865674986 255.341361815354 2399.78970608391 25 26 18
145.1793075967 256.127541658134 2406.83941234412 22 23 17
146.730664820384 257.132675298437 2419.32044007782 22 23 17
134.998804394246 257.641506624113 2419.55919563628 24 25 19
118.041326537811 257.964627424104 2415.09513573644 24 25 17
104.746175430316 258.428693073788 2414.0587219211 23 26 17
90.6665604566928 258.870783655266 2412.3876309091 25 28 19
93.7474785452164 259.922944952984 2426.17698790316 25 28 19
84.8771041569707 260.551893196262 2429.22412956837 25 28 21
83.5103331220952 261.440702385686 2438.95211939085 25 28 21
70.1067447115711 261.91697880196 2438.02158067445 26 29 22
74.8027135795293 263.00583095688 2453.03556411246 28 31 24
68.9461113885659 263.736261640088 2458.74329932859 27 32 25
70.686819551085 264.714828466374 2471.04056318641 28 33 26
61.0429414457156 265.319107884125 2473.44254220113 28 33 26
7.25165905227376 265.448656133697 2448.90317783596 28 31 24
4.37077125828722 266.285026272227 2457.30830197439 30 33 26
-23.883439805632 266.339221301339 2444.26406828342 30 33 26
32.943882068468 269.891715160898 2513.42269157005 27 30 23
-36.2124078492654 269.662169187192 2477.27077669381 42 45 38
10.0235527667651 271.905835747637 2525.96619034023 35 38 31
-63.502133337964 271.621712431228 2487.07633254605 46 49 42
-100.101797480629 271.518622176724 2468.17205928181 40 42 37
261.143727579139 237.4133157539 2339.79546003514 179 183 182
257.492356067643 238.242828230935 2347.54979013655 139 143 144
253.143914092659 239.036650488925 2354.58468719387 143 147 150
250.935785243588 239.930218200192 2363.73020729625 134 138 141
246.609017248547 240.720777389186 2370.74406405125 126 130 133
240.860613042039 241.443700755212 2376.34546664756 133 137 140
235.112362456923 242.166368879515 2381.94675442017 136 140 141
226.489676934057 242.758005178661 2384.75378991159 138 140 139
215.689535357416 243.254000126112 2385.48580356599 170 172 169
192.578845626874 243.205888567858 2374.43398245528 4 6 3
183.865112111991 243.808147865107 2377.32985987423 16 18 13
186.033025123893 244.887544852961 2390.60457182324 22 24 19
173.675728994903 245.332149616129 2390.05663977846 15 18 11
150.328096754098 245.312714307419 2379.23586774594 25 28 19
126.154885430314 245.273700879829 2367.82089226682 25 28 19
129.05250935588 246.383302214133 2381.78343561996 21 24 17
129.78881713806 247.395319366419 2393.65589279993 18 21 14
134.251467659735 248.553757519203 2408.89128002478 20 22 17
129.88772294645 249.345204206174 2415.94172403581 23 26 19
114.400982441292 249.689126586623 2412.84828221757 22 25 18
98.8640104763485 250.039101338798 2409.80382644356 22 25 18
93.7204901327058 250.804692714577 2416.21517342673 19 22 15
102.792091614492 252.120748143346 2435.35264004111 18 21 14
95.445006667263 252.793757098269 2439.71511493852 21 24 17
79.820449101637 253.153638257178 2436.75616879816 21 24 17
69.422226037684 253.717506628683 2438.49628692529 22 25 18
74.1157318012373 254.844763158957 2453.50704011247 26 29 22
75.8337635366426 255.85369596245 2465.82199607747 28 31 24
76.0722635163944 256.802352269366 2476.78123915177 31 34 27
64.1572101532852 257.309804208276 2477.2017740355 31 34 27
64.4282400640677 258.253887849894 2488.12939024533 30 33 26
27.9882827410529 257.906170135357 2467.68543442033 32 35 28
15.9507851966083 258.428204765196 2468.22574071283 33 36 29
-26.1224291840376 257.926518024295 2443.47974590973 33 36 29
-41.3820556522286 258.360688076947 2441.5643472466 31 34 27
-42.7688605476053 259.265733104969 2451.30983133886 26 29 22
-51.8836147465267 259.911441687806 2454.5975064398 30 33 26
-18.2697638979845 261.954125097574 2493.18399076085 41 44 37
-28.0859415057009 262.564574281635 2495.75649168168 35 38 31
-69.1628307680241 262.181662189899 2472.83739510185 40 43 36
-116.517014371501 262.578235315639 2456.03653702352 36 38 33
254.871583483693 229.070956301771 2334.50359153955 193 195 194
250.495497498745 229.873998244837 2341.56457684199 170 171 173
247.544950552849 230.748988252503 2350.03316554822 156 157 161
246.031844989427 231.694486518383 2359.89808910003 154 155 159
242.403902341437 232.528401776007 2367.62850326459 156 157 161
237.358273704333 233.288787574745 2373.94341171807 147 148 152
231.60007104393 234.01275454289 2379.55439008001 145 146 148
222.967523751469 234.594916490578 2382.37261875943 164 164 164
212.878318452671 235.108432536977 2383.8133197293 198 198 196
189.037704513769 234.961548034056 2372.08401342812 3 3 1
182.487455061537 235.658258224569 2377.06828734307 11 12 7
199.906520286956 237.490697191412 2404.84454098102 18 19 13
178.117113250016 237.462309922513 2395.31157001751 16 19 10
143.095940357369 236.833864943523 2373.50056948874 14 17 8
129.155798437688 237.201246679763 2371.70202160709 15 18 9
114.438722619291 237.540262497218 2369.26192588275 17 20 13
114.399477811897 238.548537690585 2380.48816199112 17 19 14
118.08254057829 239.717275926882 2395.07925971582 20 22 17
129.957831363876 241.239017291389 2417.07019622678 21 23 18
113.729201544166 241.515557571744 2413.30651119228 18 21 14
98.1903910340951 241.830810329849 2410.26901301633 16 19 12
99.7583841536467 242.887272507936 2422.72593472404 20 23 16
111.088668793811 244.350910244446 2443.8497487672 23 26 19
97.0139689361527 244.732820978417 2442.18233368558 23 26 19
91.918831189076 245.49457022104 2448.54654174272 25 28 21
68.7379238849428 245.511756463868 2438.97170605183 26 29 22
77.2074359129129 246.831168880953 2457.28931307326 26 29 22
75.1446864645651 247.713988407275 2466.29239570064 26 29 20
79.1788026218128 248.836156259207 2480.54177530117 24 27 18
76.4102358760743 249.681497067084 2488.83403711727 24 27 18
50.752953533721 249.631365848927 2477.47716214307 27 30 23
28.0568080032602 249.711655851689 2468.82853345439 25 28 21
0.671429369929921 249.626613052477 2456.35902492408 25 28 21
-9.12754390064219 250.222862011577 2458.91620262886 29 32 25
-44.397657598108 249.870724403767 2440.14572236794 30 33 26
-62.0306864273887 250.193592792791 2436.35253187684 34 37 30
-45.6130454657875 251.769412094423 2460.91007709183 28 31 24
-35.2986649026827 253.1062469695 2480.22762167344 49 52 45
-25.6808783762983 254.40476471612 2498.8253105262 40 43 36
-26.9189311437699 255.306991795904 2508.42316020602 24 27 20
-89.2041251864062 254.072672120637 2468.43114498605 23 26 19
-127.271041421049 254.689743890162 2459.37956669678 22 24 19
252.829645059304 220.918009919764 2333.48520269992 175 175 175
250.568193811736 221.845943108329 2342.67893137171 162 162 164
247.617358841296 222.731849174551 2351.14619270188 170 171 175
245.393159191121 223.654584972336 2360.30369815886 152 153 157
241.76300839939 224.496916299619 2368.03506115138 153 154 158
236.715217830798 225.260360921224 2374.35166434211 151 152 156
230.954875352938 225.984671358392 2379.96471680984 160 161 163
223.757420376217 226.632535193693 2384.1819855303 186 186 186
215.831846897146 227.243227260958 2387.71087134054 198 198 196
196.334608164197 227.253429806986 2380.14744344603 0 1 0
190.528300645287 227.982517655676 2385.80543377968 9 10 4
183.995721391169 228.674199217691 2390.77290415578 17 18 12
178.916537636507 229.439819346514 2397.12069754732 19 22 13
153.392177824161 229.179115785594 2384.24570387646 12 15 6
130.692022994315 229.076874135782 2374.21112526215 13 16 7
122.587070660702 229.70832223984 2377.91506919348 18 21 14
116.679352740884 230.448631807008 2383.67210298925 19 21 16
111.510310064058 231.224297508793 2390.10764288757 21 23 18
122.627282842874 232.7780411768 2411.42996114505 21 23 18
114.54158890158 233.406103211073 2415.11528166775 15 18 11
100.492893386978 233.755960601383 2413.42711920124 13 16 9
108.033696481019 235.116428125556 2431.24397067828 21 24 17
97.6960792309254 235.641491146443 2432.92964175021 25 28 21
91.8346353223547 236.374286527674 2438.64183536216 22 25 18
83.7183934851344 237.004961264259 2442.35710424083 26 29 22
70.3149431473302 237.400919474813 2441.43829941191 26 29 22
72.742522485453 238.503957298732 2454.45200259716 27 30 23
75.21343127407 239.60132466175 2467.4231792472 27 30 21
83.044883390663 240.923794975398 2484.95702791938 27 30 21
68.8629488141532 241.288223193344 2483.39902024902 26 29 20
61.5100126040642 241.950012159058 2487.76862600447 26 29 22
9.75545579581594 240.742675832081 2454.31946955084 23 26 19
-15.3740621129952 240.683977433043 2443.85703007765 22 25 18
-29.060518726912 241.113445977112 2443.21430185185 24 27 20
-43.556531520216 241.515860139964 2441.96222634564 24 27 20
-44.9498044481689 242.454905273367 2451.70910808914 28 31 24
-44.768657883087 243.452731763047 2462.71769877851 21 24 17
-29.0132107118191 245.062012955643 2486.51095724573 38 41 34
-42.7521653756551 245.496935078741 2485.91955432297 30 33 26
-19.041174295177 247.390653407808 2515.94056926043 24 27 20
-123.441945694688 245.338089287434 2452.70832270715 27 29 24
-106.743784472825 246.956514379494 2476.98067219764 19 21 16
252.902672588238 212.875613087801 2334.60134802364 194 192 193
249.934089703475 213.774859146508 2343.08459949203 169 167 168
245.563294040954 214.587817360429 2350.1385279636 149 147 148
244.043669101488 215.566688289465 2360.00499288715 152 148 149
240.409356361109 216.417755705593 2367.73919756609 157 153 154
236.07227137776 217.225758231143 2374.76072112547 166 161 165
228.159856527274 217.827272918817 2378.2778966357 158 153 157
218.080132792745 218.307558848399 2379.71409366884 164 160 159
207.97718076749 218.79055194001 2381.17295662069 188 184 181
189.181200452125 218.792412495189 2374.33131101134 3 0 0
170.315040222569 218.802823795235 2367.55775345589 2 3 0
182.614255073655 220.534255996741 2390.51398204864 10 11 5
168.790516249216 220.828272844405 2388.61034962915 11 14 5
162.957593196832 221.560111573521 2394.29436300206 16 19 10
146.873512208751 221.744393815216 2390.40077453876 15 18 11
130.001032355701 221.896376278174 2385.87794237851 15 18 11
133.682514640129 223.136236811089 2400.4597598588 16 18 13
112.319730368082 223.065329565144 2391.92667777685 17 19 14
117.517543939467 224.376457576606 2407.82671689091 17 19 14
113.870179797732 225.225529004218 2415.57417681056 18 21 14
100.563519360227 225.583722323632 2414.56483981424 19 22 15
87.2181734558857 225.946510754604 2413.59290106089 20 23 16
100.7574857316 227.650792779081 2436.73861668101 20 23 16
80.657420782734 227.681929006414 2429.77071014136 21 24 17
64.9942361362399 227.941951086795 2426.8648803915 23 26 19
62.8476561941858 228.863258813902 2435.94518155712 23 26 17
69.7891247334033 230.21576953017 2452.94144780191 25 28 19
73.7670968772073 231.416028436378 2467.23503741403 26 27 21
67.9221466689159 232.145904218838 2472.93128405321 26 27 21
49.8937348493933 232.30858684737 2468.13748078398 26 27 19
27.2230907962614 232.267622839603 2459.48178788312 22 25 18
9.05969266646123 232.446703464712 2454.81960439873 23 26 19
-10.7001349230567 232.563878852623 2448.91769205699 25 28 21
-29.7598639320067 232.7239271736 2443.73148203431 25 28 21
-35.7739441424512 233.473606032914 2449.59275037972 23 26 19
-24.0037591138891 235.004368783785 2470.26981578647 17 20 13
-10.5928600477116 236.59112966861 2492.14350787734 28 31 24
-18.5333808904762 238.231297818193 2506.87103075105 21 24 17
-72.8608022173987 236.920394211225 2473.15825536171 23 26 19
-71.0580994745231 237.998010187096 2485.37898042174 27 30 23
-114.738288633729 237.184390842193 2460.85759167213 26 28 23
-114.31462143597 239.213866629899 2482.80916654016 22 24 19
241.697415743793 204.108747651719 2324.35217214562 117 113 112
246.47250788396 205.517671433843 2340.65718787567 196 188 185
242.800653593954 206.382081007478 2348.42669990329 191 184 178
239.851313992246 207.28926321155 2356.88933170633 171 162 155
235.492386866744 208.105724520138 2363.93129463132 166 157 152
231.856019334763 208.964982282558 2371.66632921909 168 158 157
224.648368134522 209.603664547145 2375.89507997238 171 160 164
214.558847847785 210.069072255958 2377.34320412122 194 183 181
200.12313421772 210.277517628303 2374.64334768132 182 171 167
182.028362507974 210.276497088672 2368.52272670311 12 3 0
167.489515008594 210.497411700239 2365.92310292994 15 15 7
155.80958389394 210.894066896349 2366.12653365541 6 7 0
163.03542136481 212.39389986297 2384.23589034277 17 20 11
157.916952634328 213.169895914946 2390.62082289714 17 20 11
154.999449649088 214.07052894811 2399.05280843399 15 16 10
133.009361564573 213.88850151429 2389.7421625086 14 15 9
111.669714086773 213.758272120977 2381.19453519342 16 17 11
121.248289823938 215.362783167369 2401.20318242316 18 21 14
115.36840018931 216.099496083776 2406.93311390378 16 21 14
109.488958869579 216.835946092074 2412.66263905878 17 19 14
87.9872454238235 216.725115734679 2404.27307847652 19 21 16
102.952757755186 218.588567544012 2428.813187611 23 25 20
109.053883808178 219.959951459792 2445.22422759879 20 22 17
89.7251109818158 219.976819345387 2438.90909691011 25 27 22
60.5542931996141 219.490571098998 2424.020788043 25 27 22
53.8737807034515 220.192485901052 2429.13398368889 24 27 20
62.3024536365384 221.672002068738 2447.46848127083 23 26 19
67.0181835897417 222.948834038701 2462.43539616649 23 25 20
51.2816125090847 223.182225114258 2459.60637628149 25 27 22
33.9719283509257 223.345420131154 2455.51569940672 26 29 22
12.78747463041 223.326138409383 2448.21481153868 23 26 17
18.3141277767409 224.634081735764 2463.78877878874 25 28 19
10.0879372108293 225.261088772942 2467.61377046471 27 30 21
-21.9967866953028 224.737101378221 2451.37318764662 27 30 21
-31.847568010841 225.300123537627 2453.98706025439 23 26 17
-18.5221092503753 226.965674367626 2475.93361287039 19 25 15
-10.5240984778119 228.363725216046 2493.29123340697 20 26 16
-17.2194376073844 229.065047202321 2498.41923973693 28 33 26
15.8116322555433 231.600101365374 2536.09475269175 29 34 27
-6.40992753146863 231.575257344445 2528.40730142466 22 27 20
-84.298358398486 229.042104643231 2475.76094673521 21 26 19
-156.959473688206 227.851815763787 2438.98064469293 26 29 22
189.609791329066 192.473742085973 2272.93654205037 35 30 26
235.943067452667 196.755725560742 2331.15309851745 130 120 111
237.2031477921 197.964151473106 2343.89332199404 119 105 94
236.370147625167 199.025833502475 2354.48262824155 84 68 55
230.575803966985 199.755093727978 2360.12871280741 87 71 58
229.069471234872 200.764412231297 2369.97747823439 101 83 79
224.003678072885 201.538190352871 2376.3104309797 120 102 102
216.067841807044 202.126338059372 2379.85283993558 169 151 149
197.312970746447 202.026054942551 2372.98513117666 100 85 80
170.541375285792 201.431262992778 2358.56455826662 29 18 14
160.317851716058 201.896669375851 2360.14574985235 8 8 0
160.240079195364 202.998164681843 2371.39612881565 10 13 4
158.73733217466 204.005468475364 2381.24163135142 33 39 29
157.988521551826 205.05432574399 2391.74923163112 26 27 19
154.338603863971 205.921453961229 2399.49655847419 23 22 17
142.625099963042 206.299964575146 2399.73634707605 23 22 17
136.033316897436 206.990234909924 2404.76281629091 23 24 18
123.533830171846 207.330553868525 2404.37183284888 23 26 19
122.839684909258 208.371473003225 2414.82632287048 21 26 19
107.334089789789 208.542988705708 2411.77708559469 19 21 16
125.254362602093 210.657416518167 2439.01395486142 21 23 18
125.399175467531 211.728802232781 2450.04775343033 22 24 19
109.123904602191 211.859878864871 2446.35188310731 20 22 17
86.7963891685308 211.659045483867 2437.3787491965 23 25 20
65.8871267977279 211.55279565518 2429.81744609834 23 25 20
65.2493299579033 212.585166439603 2440.2172447456 23 25 20
73.7068436119719 214.112764141269 2458.51633447752 22 24 19
63.2999355034798 214.597515054417 2460.27677050806 22 24 19
76.4152362806438 216.358643322004 2482.41822464665 24 26 21
40.8951362244325 215.493207923612 2462.55460256501 24 27 20
39.5771224237289 216.473567092219 2472.22064468626 20 23 12
39.8138217316211 217.531452573886 2483.16519398801 24 27 18
29.3401929119925 218.023523769533 2484.99080273646 26 29 20
1.15110330958679 217.601177079478 2471.95199728753 23 26 17
-37.1756049324685 216.677447298801 2450.63326655481 20 23 14
-33.1421438340627 217.940102507158 2464.86253266853 18 24 14
-23.6315783966132 219.470174411623 2483.53247004422 19 25 15
-0.832668396675285 221.651537926127 2512.99977182718 27 32 25
-26.1861790108493 221.417854344142 2502.78528531326 28 33 26
-63.350085559251 220.619774965618 2483.12712287025 24 29 22
-119.457856438455 218.924624332727 2448.40489596992 21 26 19
-138.142281098853 219.080935391068 2444.26346486462 23 26 19
216.469614090856 186.110207900692 2301.05147673751 21 14 8
230.361843910883 188.264640021948 2326.61402666676 138 125 116
233.023485017243 189.602525741076 2340.77750195745 128 112 99
230.756951390573 190.584877509735 2349.96789662245 117 98 84
227.797614831994 191.514874799441 2358.43742133374 125 106 92
227.71229768031 192.640363294997 2369.6917460442 138 118 111
226.94185452863 193.712527808053 2380.21738294429 149 128 125
223.324894175858 194.585260570316 2387.93115431711 161 142 138
207.471846688021 194.628612473327 2383.82897561527 126 111 106
180.727952073314 193.951942374878 2369.39265906834 8 0 0
166.185454230764 194.108628367554 2366.80615310172 23 23 15
162.491396961824 194.990210630929 2374.5951748996 10 13 4
163.179058608739 196.15631318716 2386.49316465561 10 16 6
160.250920497885 197.080459225649 2394.93223581749 21 22 14
160.267621421949 198.191260392432 2406.0877636934 20 19 14
158.847412991638 199.20391659973 2415.85017526235 20 19 14
151.562576814439 199.839578952651 2420.15635602239 22 25 18
130.985605254434 199.639280660357 2412.2789835588 24 27 20
122.1706802188 200.188308935535 2415.28287533356 22 27 20
125.211811516604 201.474933694245 2429.07708760181 23 25 20
129.044072625534 202.801165157771 2443.49675173661 24 26 21
118.010796830952 203.210678338007 2444.4733909252 24 26 21
103.959590882698 203.442339609349 2442.80519069119 23 25 20
89.1161778295273 203.634056530965 2440.51232042107 25 27 22
78.7366844874646 204.100019482318 2442.24831003583 25 27 22
80.3926715127878 205.281061157942 2454.59943969899 24 26 21
78.3103912505925 206.235542771556 2463.61132508804 24 26 21
80.7932979786115 207.451561329834 2476.55305101204 24 26 21
74.9654419487307 208.1801961363 2482.23250629507 26 28 23
64.569578027641 208.647220389207 2483.9845952769 26 29 22
43.4636995438629 208.510562324076 2476.62302920951 29 32 21
36.8219640698011 209.201618072672 2481.69932366259 30 33 24
40.9189131768168 210.4924322416 2495.86138336316 22 25 16
8.14417027056358 209.732801662842 2478.92391825451 17 20 11
-39.4183945946223 208.185526738919 2449.86442619886 16 19 10
-48.5343001893668 208.768903001838 2453.16245734253 17 23 13
-21.236612871991 211.320925399805 2486.60975511433 17 23 13
-17.8583849438017 212.561911977703 2500.07563290661 25 30 23
-39.3593577055036 212.473130595026 2493.09932514501 26 31 24
-71.8700555788918 211.818066873846 2477.30145163925 23 28 21
-92.7694472665404 211.792419270934 2471.13534315076 22 27 20
-109.033045128093 212.019512398871 2468.83059948398 24 27 20
-120.625773319088 212.495012843368 2470.3530302836 29 32 25
-110.95013450965 214.057759352003 2488.85421806844 18 21 14
228.526070147645 178.831317472316 2314.24420208361 48 35 29
233.969377445106 180.420137787742 2331.27632881508 156 138 126
233.096583439239 181.525004035747 2341.89876832425 134 112 98
233.672658068742 182.731444520764 2353.90160370985 142 116 99
229.295370537741 183.566612079665 2360.9586961713 142 115 98
229.213777090556 184.713377602163 2372.20651629484 152 124 112
227.013770766037 185.70030094693 2381.3301726884 155 126 118
221.241083276697 186.426359317636 2386.95522559121 150 131 125
210.425487526445 186.792405690894 2387.72212965297 122 107 102
176.465947415124 185.524833750333 2366.36828408205 17 6 2
163.360652685619 185.752397109623 2365.17829501201 15 15 7
171.279447393433 187.453831648922 2383.98664761262 17 20 11
174.903144306938 188.843196717574 2398.60408795735 12 18 8
171.275846529734 189.724264709 2406.32689260223 18 19 11
161.803241392355 190.204169783165 2408.57717750152 18 17 12
153.779774070034 190.785674128791 2412.20758727775 19 18 13
158.994185274016 192.258245042976 2428.06728350677 20 23 16
145.079063328939 192.444237631532 2426.27036181529 20 23 16
132.601586352414 192.733280051763 2425.86510101704 18 23 16
125.282664932856 193.367385030751 2430.2050212638 17 20 13
115.724991154482 193.856836686566 2432.53870744255 21 24 17
107.639842480814 194.444908085663 2436.22939710484 19 22 15
123.472088171221 196.569180589325 2461.28718733413 20 23 16
101.182357802182 196.245085943734 2452.29475025666 21 24 17
90.0824534249534 196.643671682617 2453.33916768383 24 27 20
73.6803805615747 196.71476542635 2449.77774122205 23 26 19
82.9138605461925 198.390189186732 2468.70168344964 22 25 18
87.6806310861538 199.775072952048 2483.60160643797 22 25 18
84.1486132574252 200.641328372775 2491.23198597699 24 27 20
63.8777474027532 200.488134890658 2484.46059327028 25 28 21
38.1900321591804 200.021790530031 2473.19545473756 30 32 21
26.1773852090395 200.391781318528 2473.73355603591 30 31 23
33.3156313005931 201.903659484963 2490.51086482278 18 21 12
5.13736409232024 201.32378426544 2477.48459522435 15 18 9
-30.8646578922356 200.307330985442 2458.12184911862 16 19 10
-39.9591459529063 200.877584487801 2461.40055187262 18 21 12
-38.2177830036645 202.073308220274 2473.66473197966 18 21 12
-20.8967630334036 204.150211243992 2498.66805784708 23 28 21
-74.3419276777097 202.201710823101 2465.58999653613 25 30 23
-56.9625959966285 204.271043300334 2490.53687477816 22 27 20
-52.7739527755156 205.584573599613 2504.6045234338 23 28 21
-86.2033440320964 204.810984105019 2488.31919693617 27 30 23
-109.540613367817 204.614437275661 2480.34813002655 18 21 14
-110.87963645924 205.628344664263 2490.03007627179 22 25 18
228.600057385714 170.690763979744 2315.37390191354 102 87 80
236.869821471704 172.546248524569 2335.22787752751 149 127 114
235.295862350667 173.613581996375 2345.13522237138 134 108 93
233.745427729973 174.677743440232 2355.01967586301 142 114 93
229.367946756986 175.518404744225 2362.07614844208 147 119 98
230.000532845665 176.741780343087 2374.02036411089 154 125 111
224.936172843811 177.523721881 2380.35068715763 157 127 116
217.720644922092 178.141919440737 2384.59062508422 159 138 133
198.970549884442 177.895160095829 2377.73982278645 136 121 116
154.867357367118 175.771900114953 2346.74716250806 8 0 0
172.125403782722 178.231751614287 2374.59057890615 15 15 7
181.519481186039 180.088569567179 2394.74480701621 17 20 11
185.898230271444 181.563028608107 2410.0168018583 20 26 16
154.553118818539 180.439262945456 2391.71384843101 19 20 12
146.499949942002 181.016727758835 2395.37434933074 20 19 14
154.585388546882 182.748014799885 2414.01280989139 21 20 15
159.065101077045 184.209038168441 2429.18653232684 24 27 20
145.888200076716 184.41733834144 2428.07049643279 24 27 20
134.152460754311 184.73363724805 2428.34122215805 22 27 20
122.3861507626 185.053600128883 2428.64210131805 19 22 15
105.382077801808 185.019037424685 2424.27717651134 20 23 16
100.998615117305 185.857270206127 2431.34028579495 17 20 13
113.073659817905 187.809186693769 2453.06928402006 20 23 16
116.246694050666 189.143916020945 2466.72540488981 21 24 17
93.9110889328041 188.766105070443 2457.78646136248 19 22 15
81.2870257568128 189.048047577492 2457.52747434932 18 21 14
69.384141792888 189.383871494586 2457.96162922843 17 20 13
83.9627623956507 191.454325702051 2481.43808554498 18 21 14
75.864102330621 192.034960258612 2485.14329138071 19 22 15
45.6742315191989 191.196733473821 2469.90203019253 20 23 14
20.7035215410789 190.714872725234 2459.34409746501 19 21 10
10.1765853450031 191.166105804144 2461.22867708213 20 21 13
1.16150296629502 191.716501164565 2464.43146384482 20 21 13
3.66929523317383 192.988484011594 2477.34020656342 19 20 12
-15.3709388416488 192.917850585676 2472.16873244442 18 21 12
-30.6110667533495 193.092725516024 2470.27263297429 19 22 13
-20.3214697514134 194.832933958221 2489.55483171945 18 21 12
-46.4669717887309 194.352639030498 2478.74634412798 24 27 20
-81.2808753603602 193.370148815879 2461.03291562579 24 29 22
-101.401683991496 193.289540963987 2455.51869507113 24 29 22
-58.183786591004 196.967165619996 2501.33083877061 26 31 24
-92.4108472310534 196.054974356564 2484.44118572567 27 30 23
-114.189806792164 195.892882408323 2477.75175823486 16 19 12
-108.442884574126 197.335029942419 2493.08715971725 23 26 19
229.378795404823 162.608357846474 2317.21208896317 149 132 125
239.063412590157 164.634939091406 2338.469962994 143 117 104
237.495027384214 165.717845278757 2348.36947121723 144 115 99
235.949998001543 166.797584256081 2358.24591703295 144 112 91
230.865822571376 167.585209864514 2364.59541483179 145 113 92
230.072806338859 168.71744931918 2375.1345880847 143 110 93
222.142345266822 169.272973035349 2378.6764812052 146 112 100
212.045000843725 169.658579808592 2380.14416938053 148 128 121
197.602009738401 169.706042004929 2377.47499498227 80 65 60
155.663139850812 167.609462178523 2348.58025281795 19 8 4
182.338182299943 170.888161602665 2385.37260007861 11 11 3
178.686421326617 171.789178653039 2393.11674857667 12 15 6
168.492757457514 172.185999263887 2394.67842598544 14 20 10
144.402926025525 171.529344476551 2383.27160232243 22 23 15
143.643637715796 172.655756278823 2393.7784824159 20 19 14
142.911883733774 173.778488846396 2404.25822646221 20 19 14
137.791721576306 174.568452860529 2410.6427761559 18 21 14
126.772249218953 174.920795201282 2411.61415815238 17 20 13
123.864906937644 175.874369152218 2420.0282293155 13 18 11
115.780589987498 176.446915351225 2423.72038768184 20 23 16
97.2716592470011 176.266417618895 2418.03755939425 21 24 17
73.4765490655942 175.718600162522 2407.73923422236 18 21 14
92.9559167183691 178.278704488684 2436.1958471062 22 25 18
107.320830908317 180.449928755893 2459.869623279 23 26 19
109.014088084411 181.708489223135 2472.17228588795 22 25 18
76.8364481500843 180.59249637786 2454.69489673072 20 23 16
74.7435139190236 181.589715505427 2463.71070724046 20 23 16
69.6408221509781 182.375604839139 2470.07851081518 20 23 16
48.5950129264188 182.070403935337 2462.68220564336 22 25 18
40.4150804224037 182.653234929384 2466.46779157993 23 26 17
25.3544888956614 182.774370389724 2464.40135249569 21 23 12
10.2476219169207 182.901131510885 2462.37969630717 22 23 15
-0.301935337253756 183.33913258618 2464.28869465373 24 25 17
-5.48985653189105 184.134736193187 2470.74003438563 23 24 16
-26.8665120432905 183.869975891003 2463.66628736418 20 23 14
-14.3058636571336 185.824183744276 2484.91273528816 19 22 13
-31.8760913122191 185.817519067798 2481.10588714587 18 21 12
-38.6264899594755 186.5141210957 2486.2892659986 24 27 20
-73.42020219289 185.429457609734 2468.57088836397 24 29 22
-79.4659489449461 186.184499564995 2474.46280939008 24 29 22
-124.650263231971 184.489319914651 2448.73151472016 27 32 25
-115.096825251489 186.231139757364 2467.32758277405 24 27 20
-114.904939351175 187.380842878806 2478.30306184492 23 26 19
-106.794491389679 189.009086049944 2495.515008266 20 23 16
234.386064634232 154.899809231842 2323.29815762411 157 140 133
238.429919915747 156.494340551155 2338.88496033381 137 111 98
236.150699643046 157.532780573095 2348.08000104851 134 105 89
233.891094142061 158.568629903741 2357.25594690798 142 110 89
228.800739510724 159.359745360386 2363.61072710489 140 108 87
228.00156784271 160.511792994249 2374.15308515601 143 110 93
222.214619915918 161.240076643676 2379.7919699888 149 115 103
214.272581608133 161.788833703072 2383.34635958445 156 136 129
203.437566921472 162.10079177943 2384.14054116379 67 52 47
178.851205034575 161.289626217513 2371.83270688986 17 6 2
179.513425557984 162.557281291967 2383.74095063975 18 18 10
160.602690471881 162.232958636707 2377.06113010819 17 20 11
156.913945518501 163.146716834647 2384.84012110912 13 19 9
154.697574456119 164.175390939165 2393.97419502722 22 23 15
145.912070438778 164.678901329532 2396.95559881939 20 19 14
128.303164704474 164.490450672511 2391.79745499435 19 18 13
110.632028956056 164.309637002373 2386.69963990793 16 17 11
103.967903155819 164.99620156857 2391.79849423868 14 17 10
108.398940105587 166.539182140402 2407.00877684817 12 17 10
101.015397270053 167.165792194442 2411.41397486291 19 22 15
89.9056563884337 167.510231510728 2412.47616290196 18 21 14
78.7691100566099 167.857873173453 2413.56449584392 17 20 13
70.5965302305405 168.433099026017 2417.34390449919 21 24 17
79.6546777738336 170.294115593666 2436.41418605505 18 21 14
75.2627403937867 171.144237524798 2443.48395362548 18 21 14
82.1823084409177 172.823542847588 2460.45366728253 18 21 14
56.6824956523022 172.124230031687 2449.03637147027 18 21 14
50.7755034858981 172.86412377756 2454.79274604039 19 22 15
50.1848988293938 173.986192673974 2465.1324248102 21 24 17
41.2475329396789 174.506372679924 2468.26250376665 21 24 15
23.8989427096539 174.432685494593 2464.24547228242 47 49 38
13.3798648226851 174.851143711304 2466.12709259274 34 35 27
0.536712466320033 175.111350687256 2466.08921471843 25 26 18
-11.5718794503272 175.42908542709 2466.72997636602 22 23 15
-19.8553156145276 176.016340511236 2470.61768908864 21 22 14
-26.6035273084033 176.710632414402 2475.79923769976 19 22 13
-22.5051485796426 178.142688344901 2489.93900229413 18 21 12
-47.101587141301 177.628047428577 2480.4315045715 26 29 22
-59.3287728512486 177.959877752451 2481.18794828782 28 31 24
-104.38058722319 176.113501231478 2455.34742607496 28 31 24
-131.622499768432 175.480432001979 2444.23336098314 30 33 26
-133.073056791405 176.558538259569 2454.01657350639 24 27 20
-121.126209005432 178.504239484545 2474.45688245821 16 19 12
-93.3168769232742 181.458071667811 2507.33672210429 26 29 22
231.641029055182 146.522413953768 2321.59421878385 164 147 140
234.263344874355 148.028018582388 2335.77195588448 140 112 101
231.971993495743 149.08155641988 2344.97647367414 141 112 98
230.410969520867 150.195930606139 2354.86402112961 141 109 88
227.44834061429 151.180739986754 2363.32837614604 144 112 91
225.216096243873 152.226378513686 2372.47570515945 141 110 92
220.854000440805 153.081184019973 2379.51480953044 147 115 102
213.626527571634 153.68491424926 2383.76874723154 155 135 128
206.391278466287 154.28942407259 2388.02995378447 43 28 23
168.811869162606 152.291094384445 2363.29381307843 9 0 0
156.409734266916 152.475291812637 2362.8288946822 19 19 11
151.961157941819 153.340205187984 2369.95271939334 22 25 16
146.064298164347 154.08143832691 2375.69883438976 17 23 13
142.358116290619 155.005495568258 2383.49361831623 20 21 13
144.520437008599 156.41397283498 2396.72524557428 19 18 13
121.035672870712 155.698700419998 2386.14349196317 18 17 12
97.457460902115 154.994956267092 2375.65249171527 16 17 11
95.1858259458938 156.043644116395 2384.83848547417 15 18 11
81.0960527775721 156.133082698889 2383.22926566912 13 18 11
82.5421421691157 157.478049012016 2395.76459879565 18 21 12
95.9280804721105 159.766617104863 2418.97625981222 17 20 11
82.5700336882189 159.916435570452 2418.04874792988 17 20 11
67.678246835686 159.953333926041 2415.82713351606 20 23 14
64.7340073543488 160.932832359466 2424.27401251706 18 21 12
78.3405927371654 163.193112631352 2447.27074864919 17 20 11
69.4435598032044 163.698301264516 2450.3629921027 17 20 11
54.4876446692801 163.742596792026 2448.20362687952 17 20 11
53.8766250149028 164.886603211698 2458.56033568765 18 21 12
44.9405229223458 165.396267495785 2461.69071389395 20 23 14
38.2734892654106 166.078925107899 2466.79337105749 21 24 15
18.6275646453833 165.795362723356 2460.83758025101 41 41 31
-1.85299579282816 165.463746872211 2454.30078811383 28 28 20
-6.88551431101514 167.465250613894 2471.7555294032 18 19 11
-28.2653336127008 167.093396358175 2464.70075251185 19 20 12
-25.7590441908215 168.455643545145 2477.59764654773 20 21 13
-34.0584570744324 169.036863503818 2481.50211637781 20 21 13
-50.1377375718368 169.067853384493 2479.04332681803 26 29 22
-69.3821789846778 168.885337668351 2474.09116975805 28 31 24
-57.4600775290506 170.897159381461 2494.54627960245 27 30 23
-111.980781704633 168.272345040742 2461.21929452973 29 32 25
-116.52163233959 169.144394686006 2468.43369425705 23 26 19
-95.8816419430191 171.740913724833 2495.73240952051 27 30 23
-75.108257166522 174.320684326748 2522.90147544643 27 30 23
230.305517843542 138.256703579753 2321.30791306554 111 93 89
232.216911468486 139.728703290836 2334.77966388882 129 102 91
231.336757500496 140.929415076335 2345.39524602059 130 101 87
231.194547357579 142.192699159186 2356.68570018475 131 100 82
226.808732203029 143.05633448473 2363.74739102096 138 107 89
221.001867611597 143.787423790331 2369.4056387214 123 95 81
216.628071694919 144.649234313624 2376.4556639817 126 99 88
210.825464168769 145.379492104372 2382.10980725092 132 113 107
200.701076405086 145.719888322963 2383.61103196346 22 7 2
158.773126412311 143.216180413203 2354.76528169309 25 14 10
148.516653968711 143.572927493499 2356.39558963713 10 10 2
158.569910106269 145.730316642484 2377.26772854583 19 22 13
147.593583741073 146.021744821853 2378.20526902073 17 23 13
143.161094681498 146.889885738425 2385.31264181021 15 16 8
136.540624709782 147.566444753948 2390.36996191591 16 15 10
129.182532816327 148.180050116042 2394.75180885672 17 16 11
115.193682919017 148.227585222912 2393.04890190903 18 21 14
112.968460235985 149.284145357785 2402.18730623219 19 22 15
78.9500957879214 147.650804496538 2382.36318174369 18 23 16
83.3571205950561 149.272813922419 2397.58529049366 17 20 11
88.5629599669695 150.949780890541 2413.42295118913 16 19 10
89.3538029025023 152.248646744918 2425.19885804275 18 21 12
71.4890327954283 152.005014125841 2420.30260935014 18 21 12
57.3104814530638 152.075358448596 2418.78470754954 17 20 11
49.853390055111 152.700095359363 2423.26321722377 15 18 9
61.980284615633 154.905898132543 2444.90354133136 16 19 10
60.6030259973158 156.010091955432 2454.60977388248 16 19 10
34.255861557285 155.121513579122 2442.6449748357 17 20 11
45.0121337086524 157.188228926678 2462.83274784044 18 21 12
23.8803638714811 156.732245912777 2455.5440883577 19 22 13
15.6464478262848 157.298316972671 2459.38575785963 22 22 12
-3.31108611199271 157.035213742042 2454.16060823559 15 15 7
-19.2656082473937 157.016458207082 2451.58528412878 22 22 14
-16.8119133132993 158.415682597257 2464.52894005403 18 18 10
-21.2538036264345 159.282060249895 2471.64590903691 20 21 13
-38.8279696622882 159.155448240805 2467.86069992833 21 22 14
-45.6105764973205 159.849284980879 2473.07647069598 21 22 14
-53.9500960662509 160.427673943963 2477.02118547738 27 28 22
-61.5216471984659 161.064901722753 2481.61150921492 27 30 23
-61.2922133188603 162.276515174117 2492.54089010957 26 29 22
-94.6878611254909 161.027768846532 2476.29228383972 27 30 23
-99.9708794843865 161.843452729263 2482.83475076354 22 25 18
-105.248882664217 162.658424991145 2489.37268055966 31 34 27
225.446806266955 129.631559950574 2317.48843703965 48 33 28
227.344154043965 131.135146476857 2330.96946708007 115 88 79
229.284362851127 132.63312896517 2344.40842591631 114 84 73
229.846650138625 133.987800870902 2356.40304379709 130 98 83
224.744163239848 134.78876776827 2362.76841547627 123 94 78
217.502382794185 135.383877250535 2367.03749711299 118 92 79
213.118672681888 136.252436458786 2374.09636986341 125 101 91
206.587901602783 136.916124829737 2379.0665199184 107 88 82
193.570666616868 136.971226036575 2377.81457605203 12 0 0
163.902776551983 135.480581214657 2360.7341602075 26 15 11
155.832475490704 136.020969429222 2364.41715352505 13 13 5
155.738427048328 137.29879894042 2375.65763260066 18 21 12
149.851109679436 138.039123951254 2381.39440606523 14 20 10
143.234121687273 138.71281891494 2386.44869181936 17 18 10
136.613579275105 139.386844032092 2391.50645836857 18 17 12
121.915774482281 139.33582096301 2389.10487380806 18 17 12
110.851205414677 139.618987535431 2390.13126165282 18 21 14
114.517115819205 141.214367825797 2404.67633441714 18 21 14
114.535007514108 142.477164116122 2415.80787718513 17 22 15
101.974504424013 142.63154193983 2415.50462807158 17 20 11
94.5855750159037 143.243147053385 2419.91773059815 16 19 10
92.4088925901345 144.306796934689 2429.00688586687 18 21 12
101.466643620349 146.331170282947 2448.05341710525 17 20 11
47.6388902304539 142.971281821849 2411.31314665717 17 20 11
43.1626350534309 143.849016373071 2418.46256191325 16 19 10
62.0524319335933 146.69374518938 2446.04565059669 16 19 10
52.5052362542326 148.365114157143 2459.52985738942 16 19 10
23.8228335759394 147.222531693498 2445.67046033242 18 21 12
11.0109473862821 147.407201545887 2445.61269904624 18 21 12
22.5876789685193 149.588601114738 2466.38570274741 20 20 10
21.2467121542752 150.704141362219 2476.05422000399 16 16 8
-6.91898922579615 149.654272222641 2463.08527509052 24 24 16
-15.9705577395086 150.156709569222 2466.33104345614 17 17 9
