ply
format ascii 1.0
comment KinectMotionCapture
element vertex 792
property float x
property float y
property float z
property uchar red
property uchar green
property uchar blue
end_header
190.624152752085 -36.160549143238 2856.93890450468 17 20 13
158.738145277722 -40.1286598744561 2842.427280417 18 21 14
162.412359684109 -37.9175892947616 2854.0392897934 19 22 15
149.869684343057 -38.5083261047833 2853.82846507897 16 19 12
183.745631327428 -31.1392975403029 2887.11638677975 17 20 13
179.414747332134 -30.3420698149866 2892.71643585938 17 20 13
170.175364317585 -30.3797984939968 2894.81163378571 14 17 10
180.616308142481 -27.0833279685587 2910.87970940666 11 14 7
160.691443161062 -28.9235725127068 2905.43132528789 12 15 8
135.749382844013 -31.5849378835293 2896.58398217246 11 14 7
146.259117943521 -28.2969774270316 2912.58500482528 10 13 6
170.928504155375 -22.6753573367857 2938.26951834191 10 13 6
173.315622900465 -20.7863657606137 2948.37307939538 11 14 7
163.252339450182 -20.9619397692755 2949.88988679568 13 16 7
144.823238426994 -22.5054842096123 2945.7461534446 17 18 10
172.328768020658 -16.5149138573563 2972.81086976474 18 19 11
121.193369486528 -23.3834382277067 2946.66848554312 19 20 12
82.4484426610037 -28.1795617211843 2929.17120878123 18 19 11
55.3388048196113 -31.0506051524855 2919.67347388049 17 18 10
93.1197620223019 -23.4484042244984 2953.30060357147 15 17 6
81.1869989405123 -23.8720635374792 2953.87634230405 15 16 8
77.7033422203957 -22.93828007413 2960.03180861438 16 19 12
63.1803342566637 -23.7619480310221 2958.98775411331 16 19 12
61.3924667847532 -22.5573277827283 2966.2534035507 16 21 14
85.2318690879619 -17.3164890767167 2989.98422620289 14 19 12
57.9830633765153 -78.9066222283254 2693.14801142248 23 26 19
45.2187793411012 -79.4940117418479 2693.15675268856 20 23 16
2.91463631295308 -85.423607835481 2670.85922539576 17 20 13
0.402483846423163 -84.1175095369296 2678.8287642862 15 17 12
8.32420615936424 -80.9412330853582 2694.58207226366 16 17 12
162.062421092124 -50.0733248262286 2827.84318298486 22 25 18
170.517292106821 -46.964790959336 2843.07707874452 17 20 13
181.466454275613 -43.4356604454818 2860.02300831018 16 19 12
146.264304733693 -48.0542122799581 2843.2325221153 16 19 12
153.19484273844 -45.2434224333463 2857.18995304636 17 20 13
190.3371860638 -37.175988861728 2892.79938389414 17 20 13
181.937373501836 -37.087708497629 2895.45949902809 17 20 13
176.798196125117 -36.430369034476 2900.46562364859 16 19 12
197.10312365505 -31.3857213611053 2923.48416315358 12 15 8
177.21758084121 -33.2791301049281 2918.0045891866 11 14 7
156.438291640558 -35.3046912963563 2912.01480350806 11 14 7
143.025485327171 -36.0538044077549 2911.27453034251 11 14 7
163.543572878978 -31.036058426528 2934.08537485305 10 13 6
171.726125781809 -28.1380309532965 2948.20388995872 10 13 6
151.670656564459 -30.009295405813 2942.88978250582 10 13 4
148.232616849338 -29.0758982318551 2948.99966970726 15 16 8
131.423283659887 -30.3761872829121 2946.04568638984 15 16 8
127.971718884745 -29.440862222838 2952.16905707709 20 21 13
90.9235172615008 -34.068476346048 2935.79582013123 23 24 16
87.4119584931146 -33.1253374723475 2941.9776108624 23 24 16
54.3688784717813 -37.0325401606457 2928.60597473639 18 20 9
71.9551582397315 -32.625277712857 2948.75040180314 17 18 10
73.5372897321067 -30.854522105594 2958.25355516332 19 22 15
69.2028999314123 -30.0524002714028 2963.85636221238 14 17 10
25.6930553194126 -35.5786313064305 2944.1134065541 16 21 14
67.585405043431 -81.4489458896719 2720.83050568005 16 17 12
-1.11702119635337 -92.3496018249071 2678.7201984237 15 16 11
-26.8545530158115 -95.2883768537111 2669.28719981997 15 16 11
162.136006541902 -57.4095518426344 2828.85440269458 23 26 19
169.783172202613 -54.4006162063812 2843.48783522611 17 20 13
167.784778236807 -53.1481974864573 2850.95547599086 16 19 12
209.597773098448 -44.0422812083044 2890.27518727601 13 16 9
202.046116899022 -43.8238571546235 2893.49074474114 17 20 13
188.77941568535 -44.6187654130493 2892.61215555447 17 20 13
178.742128014625 -44.8298283242453 2894.10839400567 17 20 13
178.507983823568 -43.3041484058723 2902.61753941334 16 19 12
217.692887111331 -34.8583684522846 2938.97691507128 12 15 8
197.856151183799 -36.8062272528205 2933.45658499731 10 13 6
174.652344994426 -39.3200451601589 2925.69581670574 12 15 8
143.924984521625 -43.1144086235072 2912.84177788268 11 14 7
147.87464763032 -40.8774002534935 2924.17609118974 10 13 6
170.137272904802 -35.5000804610062 2948.0359334198 10 13 6
150.910577570802 -37.2763078590228 2943.30136628978 10 13 4
117.43620237354 -41.4664974447631 2928.98292867132 15 16 8
133.168633392431 -37.2473571080823 2948.16224068123 14 15 7
136.426146666695 -35.1706854648867 2958.79065738622 16 17 9
133.002507183084 -34.2330151375868 2964.8856133747 20 21 13
123.69342964237 -34.2868703390645 2967.05274033075 23 25 14
92.4223645010267 -38.0108778984172 2954.7282097091 23 25 14
77.9506107124561 -38.8994584034356 2953.64319094268 21 22 14
87.1767208578436 -35.8415071417059 2968.11871093151 20 23 14
70.1265198425767 -37.147785257612 2965.40479810697 13 16 7
38.5437958832764 -40.8316187385091 2953.38381158747 17 22 15
111.840626279818 -27.2786603926501 3008.96097095871 11 16 10
-22.0060873838599 -109.700791804058 2634.01147120794 24 27 20
42.1932375363294 -95.7449511317792 2692.89506705828 18 19 13
30.9824712642386 -96.0748824302449 2694.15690864386 12 13 8
39.7292066906028 -92.659546544914 2710.47288068356 11 12 7
-31.581833800074 -104.195126962158 2666.79574170677 12 13 8
-47.7877409144907 -105.397104044838 2664.64492622829 12 15 8
177.120776391452 -60.354602007081 2849.83467968344 19 22 15
201.83840523387 -54.1951521026405 2876.80870586083 18 21 14
207.236754506937 -51.6103221572767 2889.48720099164 16 19 12
206.183019275654 -50.2153796310968 2897.41262602978 18 21 14
149.737933530172 -58.8651904956606 2865.47016284082 17 20 13
166.562705925179 -54.2148449482092 2886.33485041008 18 21 14
182.674478949917 -49.7250971847957 2906.51438385871 18 21 14
198.888060377421 -45.2483019258728 2926.59473443289 12 15 8
190.524361403686 -45.1850069517668 2929.2226810696 9 12 5
164.005299400509 -48.3413891170399 2919.18066857147 12 15 8
125.814952626902 -53.5315500970231 2901.19058634625 13 16 9
136.349438066999 -50.0913269564472 2917.14452718678 13 16 9
148.619340540458 -46.369164253276 2934.16765919221 12 15 8
147.654100485264 -44.9846278019319 2942.00640738362 12 15 6
119.178583609233 -48.3940063126053 2931.11075760987 14 15 7
115.681378115225 -47.441164938131 2937.27652346003 14 15 7
133.984630043456 -42.7271483638566 2958.08089560661 14 15 7
143.996320399855 -39.4716356640188 2973.16403265634 14 15 7
108.610206517057 -44.0119948462834 2957.96157824931 20 22 11
96.7161566904164 -44.5038211689273 2958.50928704349 23 25 14
72.9495419811461 -47.0036242259372 2951.30498670127 21 22 14
90.6417968546474 -42.4631840902743 2971.3244953175 16 19 10
82.9469739911475 -42.2324463221375 2974.68039943482 16 19 10
68.4279924101068 -43.1439677384718 2973.64566922115 19 24 17
-16.1234932506344 -118.516176853737 2629.47287833342 22 27 20
-30.6533819225665 -119.458756112522 2628.45356935779 17 20 13
31.931381881368 -105.567399822219 2686.11582255024 14 15 9
53.3879867306628 -99.6550955532134 2712.11355598142 11 12 7
5.43729144243876 -107.016108605589 2685.7156604476 12 13 8
-18.7910978243195 -107.990179427102 2687.24653809946 13 16 9
178.808604316563 -67.319047401383 2852.02214006833 19 22 15
180.876372450454 -65.2912761438517 2862.4219715813 18 21 14
167.571637371417 -66.1346827061466 2861.58831861332 17 20 13
171.300255866586 -63.8097909228961 2873.12948120115 18 21 14
162.849663592104 -63.7461413141131 2875.84366175517 17 20 13
140.498863047678 -66.2328279324497 2868.64840773148 18 21 14
171.285183866801 -58.9663891589658 2899.35189934285 18 21 14
185.008875627762 -54.8642927313872 2917.70906169173 12 15 8
171.676709849034 -55.7034598811794 2916.90202123073 9 12 5
151.710088296532 -57.7308573311607 2911.52242528007 13 16 9
143.245607978362 -57.6647787722944 2914.25003786901 13 16 9
131.45267606619 -58.1913496913288 2914.7021324735 13 16 9
132.915707074078 -56.3395917544387 2924.31192010846 13 16 9
150.224230781357 -51.6770946593488 2944.69443948003 13 16 7
133.434627900532 -53.0918675730031 2941.73778433937 13 14 6
107.393663859703 -56.123862851899 2932.61953848727 15 16 8
103.885983611041 -55.1636254747391 2938.79495063968 14 15 7
113.827496315225 -51.8500415388581 2953.93919223215 13 14 6
92.6863609727886 -53.980872759373 2948.3242839858 17 18 10
89.195005830446 -53.0225312569871 2954.48376527576 20 21 13
95.0166221940134 -50.4547802833258 2966.74447419323 25 26 18
94.1072634310114 -49.0627805211686 2974.52696620333 15 18 11
78.7726422329911 -50.1538493847727 2972.91146806127 16 19 12
106.82712428506 -43.8102811570002 2999.37889354337 12 17 10
-27.1234399771516 -128.774687825697 2622.07410966747 20 22 17
-5.97467529304341 -122.731038581536 2648.35812020343 16 19 12
9.73943589687476 -117.793269217509 2670.28322965336 15 18 11
31.1407749471959 -111.78159366531 2696.32115580764 13 16 9
-8.86989198314447 -117.727813916023 2675.99969568421 12 15 8
-49.847872866541 -123.807421742699 2655.24159792345 11 14 7
-63.6880225617071 -124.609365522134 2654.93349140297 10 13 6
169.197682183395 -76.4293518568357 2845.90816366137 18 21 14
163.152194219157 -75.9121321697451 2850.418068417 15 18 11
156.292587694353 -75.5479977736844 2854.3417837176 17 20 13
166.496769995359 -71.9627623213048 2870.60228770167 14 17 10
166.182917982079 -70.3771168538198 2879.18172127313 14 17 10
169.16025945466 -68.1830994656411 2890.07100906902 16 19 12
154.984479656261 -69.1984938356415 2888.71048894693 17 20 13
168.459561370925 -63.4560569893135 2915.57421473969 12 15 8
148.485977997172 -65.5306199381854 2910.20884086258 11 14 7
140.84026186099 -65.3223040227897 2913.51929521379 11 14 7
134.012257954962 -64.9611806533338 2917.4120736752 13 16 9
128.83812958023 -64.296899401994 2922.45187916013 14 17 10
135.316927712062 -61.5207058164357 2935.44643629949 13 16 9
136.845406524367 -59.6551607206151 2944.9888577191 11 14 7
121.682811253226 -60.8006733687917 2943.21058205622 11 14 7
75.465690742345 -67.4939954654625 2920.66051182277 12 15 8
84.5011965168578 -64.272626226315 2935.30148950583 11 14 7
102.864670114229 -59.4141816199488 2956.02437640265 14 17 10
89.2697637947437 -60.2451994478176 2955.47703671641 16 19 12
89.1702955115514 -58.6855927280839 2963.84743259026 22 25 18
92.4860248216333 -56.533556362079 2974.40690103798 21 23 18
72.0496683446665 -58.5477024612923 2969.49180026741 17 19 14
94.9780683019639 -52.9864482520104 2992.66333296901 19 21 16
25.3709083630147 -128.248752160304 2653.47244359625 12 14 11
5.40926991922985 -130.375491625846 2648.10258205149 18 20 15
-65.4009265042062 -142.639114398832 2604.03570185432 14 17 10
-41.5585756120542 -132.165266225129 2652.49655477104 10 13 6
-22.5247909503605 -126.538198224608 2676.69127646513 9 12 5
14.2996656975454 -117.466212751505 2713.88481046824 9 12 5
151.092112118786 -85.5557217110212 2842.56389757035 15 18 11
160.422010699905 -82.0670114606653 2858.28993527753 16 19 12
163.319722778002 -79.8355939865658 2869.25276852293 13 16 9
159.738690992204 -78.8554820559657 2875.49774454373 13 16 9
164.333893503124 -76.3209062082628 2887.56429449802 15 18 11
157.514932325681 -75.9664364037041 2891.44907679025 16 19 12
153.151197805357 -75.1457845414753 2897.07828484965 14 17 10
143.034229151106 -75.4092356436554 2898.66139064715 12 15 8
147.735828955653 -72.8878664745049 2910.62423845734 10 13 6
147.526118478495 -71.2983094158329 2919.09934197048 10 13 6
125.80320332953 -73.716965218692 2912.68778070215 11 14 7
99.8521760044562 -76.8946867008967 2903.50210247299 13 16 9
142.881283921277 -67.3153158821355 2941.54421914256 12 15 8
106.05488018057 -72.4817658765797 2925.03071116901 10 13 6
132.626936122168 -65.9973390072373 2951.53214168766 10 13 6
125.825140000189 -65.6440142141075 2955.40038590025 10 13 6
118.176405048864 -65.4422907928274 2958.71481234728 9 12 5
99.5718720808423 -67.219113236506 2954.77976389779 12 15 8
103.690584226728 -64.8824563783907 2965.93148100889 13 16 9
90.0910720684918 -65.7392968591578 2965.39253156544 15 17 12
58.6514786150087 -69.7739630825092 2953.28160510592 25 27 22
60.2297095081883 -67.8921786775019 2962.77222181094 24 26 21
87.3879974640381 -61.4825384964995 2988.70290655521 18 20 15
9.7092899046447 -73.641868698361 2947.19007925968 19 21 16
10.4505273923317 -139.272523189193 2642.99460691906 13 15 12
-72.4581696573163 -152.310754101803 2599.71991536944 6 9 2
-74.7391075696351 -148.863881273366 2618.4797373167 10 13 6
48.9141941707234 -118.437176953368 2740.58741053243 14 17 10
124.154799604425 -99.9467239845197 2814.75960414228 23 26 19
195.659417854884 -84.1328488456279 2876.03335994887 16 19 12
162.929590185198 -88.876415057942 2861.05736445283 12 15 8
155.266163587601 -88.6819354626931 2864.38745055611 15 18 11
147.592084961979 -88.4859508457851 2867.72789183914 15 18 11
132.556785996027 -89.7126865113535 2865.83521378992 16 19 12
178.874418143232 -79.0836683144567 2907.54186213389 17 20 13
170.45814195172 -79.055126520615 2910.22715522995 16 19 12
150.511990731628 -81.2295322752173 2904.84929754182 13 16 9
156.055231916144 -78.5202489552398 2917.36551870825 10 13 6
145.948077945885 -78.8004903822703 2918.94135998214 9 12 5
113.453406276063 -83.3100100439566 2905.11416844173 10 13 6
96.60687772578 -84.8295900782474 2902.22919393703 11 14 7
120.485944728058 -78.6857944189043 2927.20441947304 9 12 5
121.145101196467 -76.9276015923653 2936.20904813188 8 11 4
99.2578921076404 -79.3782489222484 2929.96536150826 9 12 5
126.737741411098 -72.6441759981457 2956.94568938078 9 12 5
115.731218886954 -73.0713534641504 2958.01942468846 8 11 4
117.326938072311 -71.1699994970716 2967.4897828881 10 13 6
102.078011759525 -72.3677679123622 2965.80529644733 11 14 7
84.2460365226327 -74.0231965939662 2962.50205412303 11 13 8
47.7075968479714 -79.0648778338933 2947.1010621253 20 22 17
50.959812230805 -76.8496986754046 2957.71426836452 21 23 18
63.6188745024864 -72.948211187632 2974.32411697063 22 24 19
39.5679764373407 -74.0660744090514 2975.69999568939 16 18 15
-27.6685153988518 -153.269053336353 2624.81838698451 12 14 9
-8.90404272244449 -147.439794514649 2649.25099358808 9 12 5
-17.059106567523 -147.191400219582 2653.06131417675 10 13 6
49.7175933475593 -131.577982603137 2713.39127736127 13 16 9
-82.1530776340968 -156.644630855178 2624.15775410208 13 16 9
35.3214802899706 -130.794304784654 2721.90302808891 12 15 8
14.460566793657 -133.166691149823 2716.04555715181 13 16 9
174.701678086487 -95.5296801585878 2861.68680704541 19 22 15
163.815537880957 -95.9924369426123 2862.64625953879 15 18 11
159.405409205115 -95.1601296347963 2868.31947716869 15 18 11
141.964446270242 -96.9073959340084 2864.64186525003 15 18 11
156.316457828449 -92.3702442136554 2883.72770508742 16 19 12
142.929522586082 -93.3087833698294 2882.98973865259 17 20 13
166.429891746044 -87.0220711442617 2908.31989373813 17 20 13
145.412265728968 -87.7769800220314 2910.88110977482 12 15 8
158.418544379834 -83.5980783691921 2928.52207500888 11 14 7
155.773255804604 -82.4597369422354 2935.23170509801 10 13 6
173.896844213433 -77.3428251912516 2956.15493804411 9 12 5
140.533938773443 -82.0950515776513 2941.80854026054 8 11 4
123.722908314716 -83.6562258823969 2938.89480108316 8 11 4
108.530530961769 -84.8935577514623 2937.15967030852 9 12 5
92.4548624476214 -86.2831087936753 2934.90758716599 9 12 5
111.606681380821 -81.0320728727838 2956.20651998333 8 11 4
136.765008666667 -74.6915654443657 2981.29925655097 9 12 5
95.4028998911305 -80.8082105674021 2962.34498687951 9 12 5
91.0880344940725 -79.9862598781097 2967.92547521101 10 12 7
63.0426706198448 -83.5598172397088 2958.04351418584 7 9 4
51.8861382515921 -83.9856857760097 2959.26601802703 12 14 9
50.0703213500437 -82.6870855824877 2966.54519362436 23 26 19
17.5459317700053 -87.0141247609624 2954.1377890321 28 30 25
-39.0530987494833 -95.692343863536 2926.60312195778 31 33 28
-5.96550783009908 -158.784988715521 2632.42244588579 8 10 7
-77.4441021781227 -171.894683593954 2587.72743447844 9 11 6
-67.5297970989734 -167.798590904932 2605.61719567023 9 12 5
25.8203337101741 -142.463781727375 2706.13924660264 14 17 10
-8.74719291465809 -145.812450309247 2699.86717034721 16 19 12
139.994637219391 -109.865472103295 2837.33874287167 19 22 15
165.512685432037 -102.938022565054 2864.82167793127 15 18 11
153.791541077668 -103.580435991163 2865.21960790161 15 18 11
149.372708745936 -102.743729194943 2870.90081814801 14 17 10
148.225389981883 -101.252825719883 2878.90499003127 15 18 11
186.390600456258 -91.9211602017943 2914.72875506747 17 20 13
141.068226964374 -99.2574680960409 2891.38522083745 17 20 13
140.792687391754 -97.6096344491657 2899.91741820321 16 19 12
142.189898458984 -95.6395152525908 2909.57473442775 13 16 9
162.625261484035 -89.938047507483 2932.36700968013 12 15 8
174.070489273846 -86.0357775150719 2948.76518889895 13 16 9
160.687403990592 -87.0006451079705 2948.02729072926 12 15 8
133.95193486778 -90.547009133422 2938.25781284863 11 14 7
127.134907757212 -90.2066997917734 2942.14276749409 9 12 5
136.195912472247 -86.8033977262979 2956.73153475999 10 13 6
116.83229557112 -88.8794983339962 2952.17725389963 10 13 6
122.601183522334 -86.1273975475388 2964.46307608822 9 12 5
113.268276007193 -86.2691343059105 2966.66685541688 9 12 5
91.2601407627793 -88.8108135399689 2960.55670472906 10 13 6
73.4038945786581 -90.5430262740798 2957.28891246357 9 12 5
63.1194836582969 -90.8308630676984 2959.04189510112 6 9 2
32.4228223608958 -94.9415729060476 2947.62137455885 9 12 5
20.3444181542665 -95.5358652256732 2948.36729440722 13 16 9
2.26167487743822 -97.2386251277539 2945.32006398733 17 20 13
17.4819721895942 -92.7460819519602 2963.55061420081 23 26 19
22.507905396381 -90.1665932062437 2975.18246625803 28 30 27
-100.309208264596 -185.094031326645 2571.29026986938 5 7 2
-35.7125640426119 -169.251140522339 2630.9173259119 7 10 3
-85.2868100447659 -177.802795284388 2603.47379792678 15 18 11
-93.6193121574638 -177.54677428293 2607.45919011435 15 18 11
-32.756192421521 -158.782424224006 2683.11509814661 14 17 10
95.3365761934131 -128.308917309643 2796.55599408836 15 18 11
129.556086046713 -119.41253657069 2830.69425795685 24 27 20
140.453427941908 -115.386576980186 2847.61821469968 20 23 16
117.294117034135 -118.378405198004 2839.88357380886 15 18 11
121.749639897718 -115.694675801664 2852.06678288845 15 18 11
139.318622561985 -110.355221119118 2873.50785578937 14 17 10
186.465224581032 -99.0500068593023 2915.7082926311 15 18 11
168.220923702691 -101.045109396565 2911.44779009386 16 19 12
145.80334057513 -103.860175757313 2904.36772438696 17 20 13
138.968314609938 -103.523037248291 2908.27102080882 16 19 12
142.868768307004 -101.038464138955 2919.61794767071 15 18 11
152.610357452462 -97.4054959287371 2934.91351145615 13 16 9
146.649081493389 -96.9089466878861 2939.3428475287 12 15 8
122.377878862215 -100.027774148384 2931.31419267088 12 15 8
121.372309415927 -98.5401768312878 2939.17775619287 13 16 9
128.747224081797 -95.4164970409063 2952.6480073753 13 16 9
122.773872605463 -94.9180733805704 2957.08871973462 14 17 10
101.68003260726 -97.3595571528458 2951.47309866576 14 17 10
95.6659467354024 -96.8556739461656 2955.95345396344 14 17 10
88.8053126261514 -96.514185011689 2959.88187450191 15 18 11
73.4808992608418 -97.7978356079048 2958.28470332705 18 21 14
59.8062457292619 -98.7508017506347 2957.83457770898 10 13 6
33.3506053858006 -102.130489596162 2949.17983820694 10 13 6
15.3138493353091 -103.879160463043 2946.09372741202 8 11 4
9.16795016072047 -103.357832827259 2950.70273483086 10 13 6
-4.67911716251734 -104.288326361677 2950.42049721495 14 17 10
26.8722508018033 -96.6749763704186 2978.89576521547 8 10 5
-84.812900669772 -188.035932597174 2594.59661122955 8 11 4
-25.5589759928765 -173.183494260114 2649.75607645234 15 18 11
-103.100007342415 -187.879010376374 2601.39649738516 15 18 11
-48.5485644870938 -172.147810091372 2662.51296309981 13 16 9
-41.5061704839159 -168.668660944247 2677.67778331787 15 18 11
-31.1809771165317 -164.515230697095 2695.15105189935 13 16 9
94.8536393478499 -134.130937225655 2806.39818110641 24 27 20
120.261087093324 -126.983227559509 2833.95838971419 20 23 16
135.251430276503 -122.058735389408 2853.7700173801 16 19 12
138.934628181627 -119.516981440162 2865.32389330987 15 18 11
150.011041110912 -115.459107698863 2882.06565081313 14 17 10
167.713880451344 -110.060813508338 2903.36476776029 14 17 10
178.142121379681 -106.193471272311 2919.3610829558 16 19 12
157.393219194782 -108.731277709613 2913.41683214504 16 19 12
132.449877704741 -112.099825679767 2904.67562037467 17 20 13
139.639535790646 -108.911912919214 2918.32000263266 16 19 12
140.262464270118 -107.071962785167 2927.34852252572 14 17 10
137.592875119228 -105.90472953853 2934.07801324738 13 16 9
149.913727109828 -101.731922457498 2950.98394658687 13 16 9
143.133759807275 -101.406265567388 2954.83426592107 13 16 9
111.267659500541 -106.076317313211 2941.82352961478 13 16 9
102.740183943124 -106.073796905593 2944.62309127453 14 17 10
108.475513503545 -103.246275434986 2956.93109029708 15 18 11
115.945718042029 -100.093684081564 2970.30244411096 16 19 12
85.5073804037359 -104.398755439394 2958.65413090417 16 19 12
87.0886867420566 -102.407175490834 2968.12546591332 13 16 9
63.2741995644861 -105.371382018008 2961.03734226987 12 15 8
48.7203578572926 -106.511730470266 2960.07104921278 12 15 8
15.3926618423958 -111.26698075695 2947.10738204045 10 13 6
9.24686762690108 -110.747848199507 2951.71660966498 10 13 6
9.08517457577673 -109.079915883039 2960.13244733536 12 15 8
15.8059232813348 -106.104496205973 2972.857298449 15 17 12
37.1876229772399 -100.355655551147 2994.70250786043 11 13 10
-87.5015443364151 -194.857297731224 2603.94264403664 16 19 12
-32.2696489812047 -178.71231228897 2665.73916241215 14 17 10
-31.6425422283979 -176.578856026261 2676.13740030009 14 17 10
-25.3627891377173 -173.234839167075 2690.6622595516 16 19 12
-32.707293696848 -172.843554751038 2695.0638108493 13 16 9
0.284252725615275 -163.80087551868 2728.9825905441 9 12 5
25.3754040417702 -156.509624464922 2756.83567082751 16 19 12
140.607433226092 -130.088964227229 2849.63829159016 20 23 16
155.64594270502 -125.102698844876 2869.39329720057 17 20 13
165.079812211198 -121.332975721672 2884.97421882032 16 19 12
161.519481621979 -120.32032638095 2891.19416707389 13 16 9
161.241788343577 -118.622613699963 2899.72113100188 13 16 9
169.192556976038 -115.215317366677 2913.99420375734 13 16 9
158.291628053623 -115.749168978518 2914.9788494497 14 17 10
131.70227321602 -119.523911537964 2905.09803217148 18 21 14
143.021238414712 -115.442187137379 2921.59540656862 18 21 14
143.651856341064 -113.583908831826 2930.61358183151 17 20 13
178.345964949545 -104.75876883032 2962.87384431042 16 19 12
170.791318959884 -104.615300541903 2966.10344911082 15 18 11
169.064169837797 -103.283738459938 2973.29004238167 15 18 11
117.196446223326 -112.109710619485 2946.74726840125 15 18 11
107.006817328653 -112.457290427328 2948.41496107756 15 18 11
109.392029713836 -110.270562498902 2958.47607202978 15 18 11
120.230874803231 -106.403194069752 2974.06464735218 15 18 11
115.113876008583 -105.742311420426 2979.04822463146 15 18 11
119.299812294055 -103.233329106967 2990.10805539315 13 16 9
80.3032556961427 -109.285655770653 2973.04597915297 13 16 9
68.3369547655692 -109.957678368833 2973.69206729225 15 18 11
43.5690217742017 -113.134667973547 2966.16526936464 12 15 6
22.1265212248851 -115.632166150754 2960.90381443979 10 13 6
18.5727408228482 -114.618293398484 2967.11707744096 11 14 7
34.7435365103168 -109.775789600558 2985.76861616542 21 23 18
23.5189212493947 -110.266152324662 2987.06825953828 14 16 13
-40.7517603055845 -190.685775974092 2650.42564012061 17 20 13
-36.1809446301193 -187.640347362394 2663.85781206531 15 18 11
-34.7627350260482 -185.307195374461 2674.85786750404 14 17 10
-22.8703618114574 -180.687731657571 2693.5398424222 15 18 11
-30.2088262171969 -180.302162080266 2697.93624040896 12 15 8
-50.4636857838747 -182.726982494031 2692.9016080078 8 11 4
-14.9817762363411 -173.035884893861 2728.50298799064 14 17 10
73.3954743576457 -151.981587104829 2802.00456100173 20 23 16
162.223948213054 -130.985264100832 2875.06663129184 17 20 13
180.633622294222 -125.246667110719 2897.03080144705 15 18 11
157.513232885242 -128.419998894999 2889.28433708042 13 16 9
164.592108830429 -125.136520467413 2903.02494091994 12 15 8
168.448269425499 -122.556364041663 2914.40138647248 12 15 8
135.342177553971 -127.798606474779 2899.87273101872 12 15 8
137.549676416514 -125.565045392406 2910.1037300483 17 20 13
144.750301202832 -122.296740138572 2923.72534023526 18 21 14
171.886175526484 -114.884887583036 2950.94706481409 18 21 14
162.649163613279 -115.091772411673 2953.06490940677 17 20 13
173.362899143999 -111.157107922606 2968.76777404213 16 19 12
136.499608624518 -115.353405899285 2960.64963873095 17 20 13
106.246127049933 -119.843519754313 2948.8447720785 15 18 11
118.707029665837 -115.574204631848 2965.59736923036 15 18 11
106.839825334757 -116.280525358862 2966.1497843879 14 17 10
108.441305528753 -114.247481454302 2975.59529594754 13 16 9
95.6993961808719 -115.12053562892 2975.6240399303 15 18 11
103.264432506442 -111.898124308954 2988.89090501717 15 18 9
84.5547128882806 -113.959744237481 2985.1024014101 17 20 11
56.4187229136794 -117.882896932762 2975.36244132193 16 19 10
40.9791051186827 -119.247008217346 2973.89156190338 15 18 9
45.1650644129682 -116.70767630538 2984.94654631758 27 30 23
32.2506513648828 -117.557994215476 2985.14356645674 23 25 20
31.3298551105308 -116.038523155702 2992.91823802072 24 26 23
-14.7529604055885 -197.032385796617 2651.05253057601 19 22 15
-41.2106342781611 -200.96631545646 2641.06447993683 18 21 14
-20.7399193092841 -194.286932260902 2666.51093334533 17 20 13
-24.1111412033925 -193.006362213722 2673.92040462343 17 20 13
-30.6736263543121 -192.443839311027 2678.93699943257 16 19 12
-30.8158346052427 -190.449450435954 2688.70248543124 9 12 5
-49.4417148576982 -192.567709044369 2684.83909926681 11 14 7
-43.1177745349793 -189.14704369727 2699.30908917265 9 12 5
157.787208466196 -141.052384518308 2863.95637011012 19 22 15
130.608333224918 -145.173948835663 2853.2949682521 18 21 14
124.504607629391 -144.669200895488 2857.86454715526 17 20 13
130.645402663277 -141.506492157048 2871.13728175469 13 16 9
166.305502528894 -131.981948160673 2905.16908550772 11 14 7
152.937282952709 -133.082033071033 2904.43641053163 9 12 5
132.130372010092 -135.764767646173 2898.57152143229 9 12 5
131.032778326749 -134.210153257105 2906.51656128808 13 16 9
162.177650150426 -125.797450395848 2936.69458911999 15 18 11
182.727887865159 -119.690431183934 2959.31251393568 18 21 14
183.477372919505 -117.808705035927 2968.20918680242 18 21 14
165.11842315705 -119.959140253296 2964.08549040421 17 20 13
173.384997143711 -116.504483830805 2978.03830181598 18 21 14
165.832402283963 -116.376370139484 2981.26813921679 17 20 13
125.593826740845 -123.048662016117 2962.6972181019 16 19 12
99.4696417512211 -126.739254057455 2953.75929003805 16 19 12
98.5002950053331 -125.200143833316 2961.57927029791 14 17 10
87.4277257301874 -125.747429160991 2962.73634289519 14 17 10
89.8580179784529 -123.516730809403 2972.74652790961 17 20 13
94.8665925150696 -120.771103943374 2984.37140008328 16 19 10
92.2772297589103 -119.587715600637 2991.01849925087 18 21 12
73.5246543925054 -121.686285536471 2987.27835107227 18 21 12
67.5103063324052 -121.19090501443 2991.76022341982 19 22 13
59.7826555592271 -121.039322234068 2995.16042520937 25 28 21
49.4729340006166 -121.401982272703 2996.94993836978 25 28 21
3.0581933464604 -128.97130434795 2976.14248959196 27 29 26
6.39904547175396 -126.575149338142 2986.64093008384 63 64 66
-30.7890953872376 -206.706175095337 2649.98525900573 19 22 15
11.2270429176053 -195.016587046757 2691.55587460885 18 21 14
-28.0218572288726 -201.932760261921 2672.03823675034 17 20 13
-31.3901401041741 -200.643833338442 2679.44355439664 16 19 12
-63.6499970218272 -205.894472991006 2665.49272554712 7 10 3
-54.9905918629485 -201.878883443528 2681.8063627623 10 13 6
-36.57893595852 -195.698817705697 2705.12022536732 10 13 6
119.763504946361 -156.833276517015 2837.44707318184 18 21 14
131.499422464846 -152.358077526869 2854.88916170696 18 21 14
111.550418636157 -154.917840463137 2849.57075448249 17 20 13
129.907143619256 -149.014929982497 2871.56321841268 13 16 9
131.190329968279 -146.898434440338 2881.31212850804 11 14 7
159.577502168255 -138.866855965246 2910.03385705526 9 12 5
120.695928259677 -145.542986016811 2891.5328898554 8 11 4
141.001512368353 -139.320517102378 2914.37703374493 11 14 7
171.342140690052 -130.970241524124 2943.94566682866 14 17 10
177.835055998725 -127.813932474822 2956.8696866612 17 20 13
177.742768863011 -126.089484423801 2965.20858807268 18 21 14
164.362773114752 -127.213809911108 2964.49118975622 18 21 14
157.616257097093 -126.912257323708 2968.31185407543 18 21 14
151.698832394523 -126.432307627679 2972.70009860751 19 22 15
131.53587897467 -128.962694134486 2967.59014250837 19 22 15
130.61781093831 -127.416411865344 2975.35814222652 19 22 15
107.83680652799 -130.464364615027 2968.67337973234 20 23 16
98.4728533260593 -130.680160806394 2970.91859599678 20 23 16
96.7002825428214 -129.308539707398 2978.1440351014 18 21 12
100.876634492948 -126.707920440772 2989.19983934811 20 23 14
96.6020885890373 -125.868941058608 2994.73743515153 24 27 18
83.8188587404023 -126.784020157562 2994.81342226783 22 25 16
67.5886328106703 -128.395079337641 2992.7472178878 22 25 16
66.7029124926328 -126.852298362023 3000.4839511751 22 25 18
26.408604651758 -133.343873767504 2983.35857255797 25 28 21
32.3467196911733 -130.399904952282 2995.44799173547 9 11 8
-48.9914079465055 -219.046418688291 2637.29302786903 17 20 11
-54.8439120688062 -218.292695968063 2642.9932510895 16 19 10
-25.5402364048596 -209.406787028403 2674.92967427417 20 23 14
-40.1156680571688 -210.694078310934 2674.00620059588 17 20 11
-25.8295659345693 -205.340317656821 2694.45404219308 6 11 5
-24.3223667105004 -202.944024534283 2705.35639739152 7 13 9
-7.45126370647231 -197.059702268438 2727.40960607877 9 14 10
80.9324456249465 -173.050622599052 2810.38742874662 11 16 10
86.8865498462306 -169.78777801169 2823.83075004803 18 21 14
155.613357641101 -152.455167828118 2881.9704692114 16 19 12
133.251415297189 -155.615289095836 2874.88581250639 12 13 7
149.273362282567 -150.196087446789 2895.01717166159 11 12 4
113.716365018179 -156.259811457407 2878.79265031723 10 11 3
115.018692981824 -154.123424061302 2888.51961249898 9 10 2
104.814106598007 -154.532907768019 2890.21130755234 11 14 7
130.111560154622 -147.142884203917 2916.42801880965 13 16 9
158.728523985205 -137.300384707152 2953.1557012829 14 17 10
157.783589071328 -135.737182095526 2960.94787938835 22 25 18
146.852373256184 -136.340101032829 2961.97280853346 17 20 13
140.909883492044 -135.859188076308 2966.38580067273 19 22 15
132.451036550357 -135.917182479055 2969.12615716509 20 23 16
141.611318729272 -132.202526082415 2983.5699845656 21 24 17
118.014366232275 -135.489324773507 2976.31352474954 23 26 19
98.5510474660534 -137.869826857155 2971.90357756228 24 27 20
94.2419490920168 -137.023366239312 2977.47437875595 21 24 17
107.734040957771 -132.427779760748 2994.5716762927 22 25 18
106.872643608121 -130.874443282855 3002.28269641422 23 26 19
89.0050040547283 -132.88470245484 2999.06731307494 21 24 17
86.4387812731238 -131.687054898566 3005.68966424218 18 23 16
47.9673985201972 -137.94814565273 2989.55418501155 20 25 18
43.6305318671475 -137.097683167073 2995.15196904245 15 20 13
31.5671639149491 -137.841234142861 2995.90501803209 21 26 22
-60.831501572598 -230.005869355773 2629.41522675718 16 19 10
-38.2385904753804 -220.426631759943 2666.49581752764 18 21 12
-20.0079263925295 -214.061201556967 2689.96201090004 15 18 9
-28.9560596054343 -214.069277931671 2693.18085802996 9 14 8
-29.871104579148 -212.207599146439 2702.31648749458 10 15 11
-8.98058043410099 -205.312860891958 2727.31423480156 10 15 11
4.76108682662169 -200.110979054784 2746.90790872793 9 14 8
55.8844973458257 -186.364215925942 2793.3005876747 13 15 10
83.71691030881 -178.039725359136 2822.52990806587 17 20 13
100.306476208305 -172.332948346763 2843.47201905301 15 18 11
117.001655795866 -166.639603555556 2864.31123936306 11 14 7
93.7027786143547 -170.025469120199 2856.77342839301 11 12 4
86.725675141154 -169.704914542969 2860.82059882048 10 11 3
87.9639395910243 -167.538249159855 2870.60670194518 9 10 2
95.0034978605769 -164.085703870429 2884.36136080949 9 12 5
83.9274463824293 -164.688880182582 2885.53015194892 11 14 7
108.431591548089 -157.386839664836 2911.13038686181 11 14 7
133.906007184486 -149.919366174801 2937.1595872507 12 15 8
153.701214827808 -143.75320597171 2959.10161775831 18 21 14
147.763785156005 -143.275319157702 2963.51003241362 19 22 15
133.465131711195 -144.624510453641 2962.3208626787 19 22 15
150.12124374359 -139.215465779099 2981.82398776392 18 21 14
159.321708826369 -135.45977619587 2996.22184825982 18 21 14
148.390338915928 -136.080720167916 2997.2495945161 18 21 14
92.7248293892893 -146.331088825521 2969.02062815554 18 21 14
85.8657454862213 -146.024249560334 2972.95229268036 21 23 18
103.574990394937 -140.460113136612 2992.80396591815 20 23 16
97.6075175347835 -139.977629784278 2997.24119669526 19 22 15
102.703928487634 -137.144863513675 3008.76596684321 21 24 17
83.957414010535 -139.372191063083 3005.038492589 22 27 20
83.1081328979533 -137.806288479862 3012.73562384311 25 30 23
47.138552844066 -143.622918402917 2998.30119222731 18 23 16
47.9682401396735 -141.692407906335 3007.11101277745 16 21 17
-60.7450067197202 -238.184692984207 2630.53816265007 17 20 11
-13.3864784336022 -222.591654389229 2686.06452171475 16 19 10
-25.5290165776829 -223.371426779914 2686.90154138459 13 16 7
-45.8809268314595 -223.971261647271 2691.61292843365 10 15 11
-41.9706006645497 -220.955551665178 2704.28812146494 10 15 11
-4.85871965148865 -210.19807303133 2740.94712367147 9 14 8
-21.0379692280145 -211.922454330914 2738.84704797891 13 15 10
84.0976501218194 -183.542838238445 2832.88422639144 14 17 10
104.835452781009 -176.831329073026 2856.64380025314 10 13 6
54.503292379362 -186.467006564849 2830.11277271481 11 12 4
75.3223875681428 -179.765716130057 2853.79313221683 9 10 2
82.2888279826994 -176.263045254139 2867.61265181024 8 9 1
88.4902142536328 -172.954803477101 2880.80370869604 8 11 4
91.4424396292217 -170.400386654999 2891.66467026859 9 12 5
111.822996814448 -163.935307039348 2914.39850702911 10 13 6
154.733337102448 -152.458133270931 2952.27806726265 11 14 7
155.442634794397 -150.493854125051 2961.20278331929 15 18 11
144.505977010823 -151.133076916471 2962.23814427129 17 20 13
148.58722513947 -148.430452388387 2973.37331168553 18 21 14
135.11996106778 -149.62272083334 2972.75261404377 18 21 14
145.124726070501 -145.631259176139 2987.73385513758 19 22 15
145.942805544681 -143.680592211231 2996.55222330878 20 23 16
94.4910287522394 -153.169417328763 2971.11162452269 20 23 16
89.3268937560903 -152.499614486536 2976.14069034624 20 22 17
96.8742503566471 -149.070649076854 2989.39424521516 18 21 14
99.3847642771088 -146.751394352807 2999.31168033002 19 22 15
102.78210335562 -144.253268092004 3009.73895713596 21 24 17
107.072092173055 -141.576975090998 3020.67039590669 24 29 22
88.3172929990672 -143.845833715444 3016.95728675371 24 29 22
63.5020895003997 -147.385610935804 3009.53104898979 18 23 16
40.3168630177362 -150.548956129945 3003.26473994185 12 17 13
-7.75501050794292 -237.795206367464 2651.5454371171 19 21 16
-7.19241598562936 -235.500521201591 2661.98356920012 18 21 14
-28.062964822515 -238.432147348059 2656.21832169409 17 20 11
-18.7223116887729 -234.01344138344 2673.21313632884 18 21 12
-41.4603600859587 -235.223263890561 2676.13308393953 12 15 6
-38.4188252345776 -232.359155515553 2688.27649692383 7 12 6
-35.3337113771492 -229.500423029047 2700.37742986489 6 11 5
-54.7913583358248 -232.020850791272 2695.98253144308 6 11 5
-54.098912695153 -229.740897332885 2706.29423462794 6 11 5
-44.4585626034946 -225.359265305882 2722.99692526493 10 12 7
-56.6807871784798 -226.148645021508 2723.91415685508 11 13 8
83.6059880927897 -185.33738785324 2860.56099179233 10 11 5
70.0370804516046 -186.544086109042 2860.04336043739 9 10 4
85.2743144763157 -181.107630302771 2879.53415384611 8 11 4
88.2186153687372 -178.524823453751 2890.39878851402 9 12 5
123.4944645304 -168.569792117161 2923.33162373774 11 14 7
129.913278212487 -165.25113201789 2936.30523216662 11 14 7
127.236751133757 -164.014679265319 2943.03138174044 12 15 8
144.584090344452 -158.258014493244 2963.21363923851 16 19 12
138.636114020075 -157.783191283672 2967.63297967514 16 19 12
137.711242911913 -156.180427329359 2975.39972481774 16 19 12
137.645920876297 -154.392598165971 2983.70214394348 16 19 12
118.249281982624 -156.917945429323 2979.24739071138 15 18 11
92.039883373332 -160.932000763991 2970.44188876503 15 18 11
86.8700045225572 -160.261031551425 2975.47648593211 15 17 12
50.2046645713548 -164.697539154626 2968.61385713401 19 22 15
73.9191022400711 -157.689909890815 2992.20797848471 21 24 17
94.353060642109 -151.44302411418 3013.50378884193 19 24 17
84.1206785081621 -151.894380236914 3015.22927421086 20 25 18
57.5823970838107 -155.86531050196 3006.74364605321 17 22 15
24.9358335909955 -161.119652861997 2994.59461696766 11 16 12
25.407155161258 -235.464258306222 2687.70368963134 18 21 14
-27.1820126468576 -246.302088125186 2657.92394413041 17 20 11
-57.6860550277996 -251.625744313693 2645.07417593779 19 22 13
-77.1253563926448 -254.194981749199 2640.6682741185 14 17 8
-48.5813826269803 -245.033120620151 2671.90105974584 11 14 7
-28.6996627265652 -238.039111409598 2696.46898305894 10 15 9
-10.3022422899817 -231.450719975096 2719.73663133433 9 14 8
-36.1522058482064 -235.581427051271 2710.59110830331 8 13 7
-56.4381148878197 -238.338851831837 2705.63680510992 10 12 7
-65.4458588734919 -238.369487422963 2708.91818086074 11 13 8
-53.3445120531288 -233.357542059457 2727.3346332832 11 13 8
-48.486261030253 -230.099058526513 2740.44988825453 9 12 5
-59.9032863354685 -230.714297069433 2741.9590542372 9 12 5
-13.2490586851475 -217.614844441391 2784.38357630045 11 14 7
29.5531785747372 -205.511799172291 2823.6952280642 12 15 8
75.0514167270557 -192.86057831557 2864.49941892826 10 13 6
76.2903710242679 -190.627820428861 2874.27540642318 9 12 5
70.126728360095 -190.12806631227 2878.90488410419 10 13 6
63.9603387344927 -189.627743060148 2883.53734328252 11 14 7
125.01296592094 -173.606764568998 2933.90414196373 12 15 8
122.984504043441 -170.350902405656 2949.60766413358 15 18 11
135.371780446504 -165.67310302042 2966.37266156555 15 18 11
141.977790766087 -162.340095591898 2979.15826043712 15 18 11
153.676382744816 -157.871984445052 2995.22121419542 15 18 11
111.59610863013 -165.580221268959 2975.79842056275 15 18 11
86.2154220926121 -169.469465537333 2967.56845757515 15 18 11
86.9497683967775 -167.469146343923 2976.46263544429 16 18 13
89.4065175258585 -165.093743767961 2986.4248233218 17 20 13
54.5318923258122 -171.042926492228 2972.33992375557 18 21 14
61.2309272170091 -167.721321960512 2985.03483319554 21 24 17
83.3414316132433 -161.012148907719 3007.43163921652 20 25 18
80.7796593608248 -159.780963687452 3014.0446140904 19 24 17
53.3774917084311 -164.005923602719 3005.03747388142 16 21 14
37.0416536871079 -165.775990353728 3003.09964511911 9 14 10
3.28722640866408 -248.941840251819 2671.98492296886 19 22 13
-48.5597445033283 -259.732923313178 2642.87782730376 17 20 11
-60.7864154118216 -260.565893702347 2643.80625469331 16 19 10
-68.2504023209414 -260.204821658424 2648.33058126423 15 18 9
-52.49841277822 -254.098360853577 2670.04568270731 13 16 9
-24.6001520894272 -245.038106639582 2700.51744126334 12 15 8
-14.2403190340188 -240.345350695357 2717.87660002004 12 15 8
-23.160312666842 -240.398134752133 2721.07411190684 10 13 6
-68.4794833801736 -249.317024248599 2697.96130214003 9 12 5
-96.1571912803887 -253.881122890637 2687.86099270836 7 10 3
-45.9459827156876 -239.561098569422 2733.65786460917 7 10 3
-72.8307595270072 -243.92573196464 2724.1575913259 6 8 3
-80.2240186517409 -243.571584379566 2728.61304543536 17 19 14
-36.0749388610415 -230.880142623307 2769.33411654763 16 21 15
19.7943426198628 -215.481443597732 2817.85514234104 8 13 7
64.4455629259388 -202.854719883956 2858.08714579695 9 14 8
64.426516169048 -198.927153632853 2875.94673942975 12 15 8
124.481487508374 -182.862826298358 2925.88090885738 17 20 13
148.329065465139 -175.387598949378 2950.69061845882 17 20 13
134.881643878487 -176.662419036801 2950.0624180328 15 18 11
103.053847650428 -182.195870991717 2937.14125538398 13 16 9
134.615077971653 -173.003282264554 2966.79056628253 14 17 10
140.381268377492 -169.825086482451 2979.01609051928 15 18 11
128.567821167425 -170.70748364956 2979.54114808192 15 18 11
114.200031118024 -172.164229257271 2978.43686633968 16 19 12
81.2350216709028 -177.851473926264 2965.25079440675 19 22 15
97.1739645470491 -172.369089714862 2984.03799235461 17 19 14
89.486432226896 -172.276491494776 2987.40707381949 17 20 13
76.6928121102115 -173.3331110132 2987.51463607974 18 21 14
68.9720712000845 -173.236031478553 2990.91603182904 21 24 17
85.1270911004831 -167.781417928819 3009.49276658928 20 25 18
93.6845699951028 -164.058757508047 3023.11709425317 17 22 15
65.4553020941351 -168.547986569267 3013.55342636446 15 20 13
8.77892778344691 -179.311291630027 2986.40407545416 16 21 17
-20.6549611291198 -267.504487321105 2634.73777116937 24 27 20
-14.0731095384212 -261.359055697224 2659.88488233346 18 21 12
-27.8046163293033 -262.627576228379 2659.53785164313 16 19 10
-44.761548448732 -264.696020171965 2656.84396920273 15 18 9
-32.2161922807878 -259.319336593846 2676.18285279027 14 17 8
-43.6030579150666 -259.977267183568 2677.66837963972 12 15 8
-25.3166258826729 -253.212218389338 2701.02013116056 11 14 7
-23.8100345320209 -250.667807395818 2711.90119822965 11 14 7
-27.1070955748574 -249.327946788285 2719.22826356721 10 13 6
-85.3705895028138 -261.573735135122 2686.78883400847 9 12 5
-84.7223049798376 -259.221979436111 2697.13343965423 8 11 4
-81.6045858259953 -256.276263566292 2709.18947678988 8 11 4
-62.1567488772588 -249.3557542997 2732.78186838787 7 9 4
4.29543271384158 -226.902735159537 2808.01054681002 18 23 17
39.8651837482742 -216.284339994117 2841.97039756294 7 12 6
73.9817070464515 -206.086490413768 2874.60166275899 10 13 6
83.5059980915704 -201.837943765548 2890.02202454601 12 15 8
137.807949406238 -186.946654931167 2935.92336157341 16 19 12
140.109677739589 -184.502748948241 2946.02970046107 16 19 12
117.493712503383 -187.965891019687 2939.2424164277 13 16 9
119.808643517799 -185.523488984517 2949.33552929872 12 15 8
120.488006595063 -183.478055966562 2958.27763852141 12 15 8
109.469212221536 -184.180088002881 2959.40418334239 14 17 10
100.103285661939 -184.487109108939 2961.66518002471 15 18 11
94.926083898248 -183.814125803553 2966.70675127053 16 19 12
104.087360649035 -179.822072748877 2981.10859194156 16 19 12
113.315305913142 -175.838601226103 2995.44549813998 17 19 14
120.068069702297 -172.447877196012 3008.07683815834 20 23 16
98.8524881860911 -175.482291702903 3002.66974312017 20 23 16
86.0752454038356 -176.564874665785 3002.76454198898 20 23 16
90.3254025380513 -173.76326384219 3013.71701229052 18 23 16
97.1839506223979 -170.38605250983 3026.2453041108 17 22 15
59.5370783969189 -177.076962838882 3010.77184804307 15 20 13
33.7681732446908 -181.043577208654 3002.938827146 16 21 17
19.9584461612954 -182.296487368486 3002.66716315638 15 21 19
-32.224810317492 -274.098559515686 2647.20140343782 18 21 12
-34.0770306329161 -272.32451920081 2655.86370548068 15 18 9
-43.0805832731664 -272.388646751627 2659.14586926055 13 16 9
-39.3184953841028 -269.191052751918 2671.94138271473 13 16 9
-21.8965030514116 -262.540207715252 2694.75150558392 11 14 7
-31.6513869512565 -262.813349556701 2697.39373531444 10 11 5
-21.3098721059044 -258.00960476383 2714.75468022116 10 11 5
-51.2169423454227 -263.351761725404 2702.73209143313 9 12 5
-61.0275503332662 -263.617010574247 2705.42815158393 10 13 6
-69.2357253009095 -263.475199893949 2709.30696531416 10 13 6
-65.2690365590742 -260.302262228499 2721.90328913441 10 13 6
-73.469456184883 -260.160986966067 2725.77448083008 5 7 2
43.2369203618523 -223.050989171113 2845.29029616833 12 17 11
88.8958552992563 -209.917831724708 2885.86402057377 15 18 11
100.932623909338 -205.024259015678 2902.94552406459 14 17 10
134.576241566188 -194.942430370119 2934.64629223709 15 18 11
136.040112095215 -192.672617281725 2944.19312000433 15 18 11
97.6119116172711 -199.980332783614 2926.7525414992 13 16 9
116.554059870695 -193.523191463967 2948.08175639185 11 14 7
92.1569542370015 -197.42588207521 2940.29397970807 12 15 8
85.2604717847791 -197.144356299251 2944.2668607097 14 17 10
88.4309205647309 -194.480553874022 2954.89495607141 15 18 11
108.469597122015 -187.857945320542 2976.52775548148 16 19 12
108.384237040971 -186.001043722453 2984.83986380686 16 19 12
100.715593154639 -185.92626007561 2988.19315960588 18 20 15
109.133332256606 -182.098784785739 3001.94042151574 19 22 15
120.161468614989 -177.687807769331 3017.26068269801 18 21 14
94.6665473156401 -181.754506007815 3009.17038413689 18 21 14
86.9932696256743 -181.678918767593 3012.52782475867 16 21 14
65.6297200988769 -184.744701566993 3007.27196252032 17 22 15
75.8990898115028 -180.542361696499 3021.95961735978 16 21 14
56.1794299535423 -183.206576595757 3017.84615329628 16 21 17
-46.9233667470443 -292.979726000279 2606.49057928721 25 27 22
-105.697661672863 -306.131463953425 2571.85812514911 24 26 21
-84.8425137237734 -298.298907826437 2598.16963962936 24 27 20
-34.5165110828756 -282.817638958018 2646.51470651404 18 21 12
-30.810504599581 -279.580525704946 2659.36040654679 15 18 9
-37.4155264229863 -279.036109971744 2664.42191713227 13 16 9
-38.4323497408827 -277.046050993548 2673.63963946077 13 16 9
-35.4215862730216 -274.027958248904 2685.79085006121 12 15 8
-36.38027088284 -272.044845281276 2694.95186641047 10 11 3
-22.0280526184888 -266.156952344669 2715.25477134144 10 11 3
-45.4837903515219 -269.936073842961 2707.93118611512 10 11 3
-61.7480472900658 -271.857544758368 2705.94465374883 10 13 6
-61.8539288994118 -269.674052323098 2715.64611743179 10 13 6
-67.618063295678 -268.926575598375 2721.25951136337 10 13 6
-52.2100853458976 -262.864285444397 2741.90550264686 6 8 3
91.9289621988417 -214.589302271735 2897.71264859482 16 19 12
131.345083868903 -202.95894373699 2933.37174165757 15 18 11
126.162865081015 -202.285327955986 2938.41820140296 13 16 9
105.178738656097 -205.452486760608 2932.80054974484 9 12 5
90.5672022537196 -205.10372898195 2940.17359071264 12 15 8
78.6415762924553 -206.035139848184 2940.81728763685 13 16 9
92.709387403223 -200.72708209025 2958.65449382639 13 16 9
112.756889602843 -194.024474528396 2980.26670542465 12 15 8
119.427876080689 -190.547106022947 2992.96644550642 12 15 8
88.1169117606429 -196.094115573451 2980.95131209918 12 14 9
96.5054230161422 -192.219302271023 2994.72093899706 12 15 8
111.749630892472 -186.753516699265 3012.78356302378 12 15 8
79.4274094232663 -192.479118467118 3000.38177160681 13 16 9
34.1873113108848 -201.179224094781 2979.99226189551 11 16 9
87.9391243438694 -186.757227591653 3022.25818977561 8 13 6
138.531147081265 -173.165453696449 3062.11656755553 10 15 11
-60.6342137578615 -302.528482104531 2607.34684833142 17 20 13
-32.5506759017395 -292.726995661896 2638.94231728142 19 22 13
-39.9793516634843 -292.391397535811 2643.43534439494 18 21 12
-34.6973284615339 -288.700552471588 2657.48313164215 15 18 9
-27.7668323487905 -284.59789992663 2672.66657674767 12 15 8
-30.3576590337995 -283.012541673511 2680.67330364275 12 15 8
