ply
format ascii 1.0
comment KinectMotionCapture
element vertex 762
property float x
property float y
property float z
property uchar red
property uchar green
property uchar blue
end_header
105.076713588762 820.339911432143 2979.67202536208 246 247 249
90.4694692018664 823.015149003101 2978.19448216548 245 246 248
76.7012637124984 825.506861546899 2977.32813301893 244 245 247
65.5438870869847 827.436270145652 2978.2033662881 247 247 249
56.1298959793262 828.990526589494 2980.23699576815 248 248 250
46.6963892563004 830.547551168786 2982.28925757155 250 250 252
32.7988804848633 833.056507947057 2981.54875980524 254 254 255
17.9719367410702 835.760608451451 2980.28545323082 254 254 255
8.45908331515455 837.328697382285 2982.41487217683 253 253 255
6.08499661137074 837.375302570024 2989.01655293789 249 249 251
12.6891958841915 835.513165712663 3001.15488094458 251 251 251
260.661164360641 793.472135319619 2850.4004024943 227 228 230
261.508932347597 792.812873320628 2859.5750358945 223 224 226
265.684819636442 791.432506720666 2871.21968952924 230 231 235
261.632912379369 791.84328599173 2876.59948965456 224 225 229
260.072275980339 791.713791825605 2883.83633896331 236 235 240
256.034697542741 792.122705752473 2889.20218605613 243 241 246
255.333061563409 791.809528845203 2897.03043063839 251 250 255
251.311747014311 792.216274512849 2902.38044791728 252 251 255
248.131575141636 792.441647660465 2908.33925202306 250 249 254
244.120677295319 792.847080137211 2913.67911945113 248 247 252
238.432931389993 793.614546120917 2917.79679476051 244 243 248
238.639467216119 793.111736551241 2926.16814825712 247 246 251
233.802687900789 793.696604592424 2930.88469837691 248 247 252
228.966226925607 794.281491470599 2935.60092959614 244 243 248
220.736555577982 795.595393869311 2937.91060774564 245 244 249
217.593712151178 795.816238079679 2943.83301352781 245 244 249
211.902223120758 796.584352850258 2947.95430992532 244 243 248
206.206995570228 797.352892989782 2952.07891801724 243 242 247
199.652336449538 798.305262085651 2955.61321304786 241 240 245
193.090112803368 799.258479910409 2959.15455648035 241 240 245
187.380423199901 800.029242965375 2963.29353490068 241 240 245
179.943379224701 801.16824278196 2966.25922003715 241 240 245
173.358702751555 802.124703924104 2969.82238009786 240 241 246
165.901118924396 803.266456983964 2972.80839252479 243 244 249
159.299475414183 804.225351934858 2976.38804138825 245 246 251
150.95134236189 805.55488290173 2978.81338170812 249 250 254
142.587691383742 806.886560094116 2981.25347650458 249 250 254
131.588490518871 808.77609666158 2981.97753197397 249 250 252
122.313324995166 810.298109728097 2983.87807115402 249 250 252
106.00017304433 813.308675272709 2981.21113942286 248 249 251
93.1540154374164 815.581703287454 2980.87841389428 247 248 250
78.5108159305787 818.231681277301 2979.44064586035 246 247 249
70.890208706925 819.395650191675 2982.58492159434 249 249 251
57.947658787838 821.681478646072 2982.3460231573 250 250 252
47.6314688296582 823.411006005436 2983.83239730839 251 251 253
36.4032135153622 825.331010684091 2984.77940405858 253 253 255
23.3661420388871 827.629403739774 2984.63250988272 254 254 255
12.079930458329 829.557304414943 2985.63590103722 252 252 254
2.55614343963284 831.113254799701 2987.77830911629 255 255 255
0.186150179912747 831.167363704175 2994.37481598083 255 255 255
5.01625024457741 829.713971238955 3005.38028200714 216 216 216
262.34803139754 786.322044514924 2852.61625536596 230 231 233
263.199392522712 785.68090472411 2861.78464227234 232 233 235
266.553664206355 784.506102856148 2872.79754281143 236 237 241
262.503605625251 784.919066794118 2878.17518428137 241 242 246
262.602790126976 784.445594210122 2886.64880323638 233 232 237
260.232888081926 784.501342742679 2893.24497718709 231 230 235
259.540551477474 784.200215556486 2901.06186856712 246 245 250
255.529075839876 784.608184525806 2906.40227269998 253 252 255
252.358276579132 784.837578401403 2912.35083755973 252 251 255
248.357237825876 785.24434957327 2917.68105474609 250 249 254
242.679023880854 786.007678498508 2921.78953829142 246 245 250
241.210146411148 785.877218012209 2928.9357502906 247 246 251
235.534632305417 786.640206579806 2933.04160316031 247 246 251
230.702020748215 787.224431271201 2937.75410972149 242 241 246
223.324791458295 788.347340016451 2940.66277624457 242 241 246
219.337592577242 788.752307483693 2945.97951682 243 242 247
211.093225422387 790.057094320688 2948.30513539936 243 242 247
205.396321660122 790.822884294101 2952.43215230965 242 241 246
199.695887358535 791.589296254574 2956.56258316826 240 239 244
193.991881077486 792.356217488641 2960.69648578487 239 238 243
188.284049626496 793.12375192172 2964.83375837923 239 238 243
180.849122942793 794.25411124671 2967.79861807482 239 238 243
175.13048752965 795.023230528283 2971.94672276539 240 239 244
166.811028859959 796.337883587754 2974.34578794767 242 241 246
160.21152092555 797.290789339217 2977.92420135385 244 243 248
151.865528859094 798.60908219908 2980.34907663044 247 246 251
147.861694220498 799.01769309529 2985.68146041983 246 247 251
136.874444545334 800.886676094443 2986.39668598959 250 251 255
126.735626022682 802.576329224578 2987.71282107683 249 250 254
108.678099841919 805.916516657362 2983.89554213602 246 247 251
96.7172891723012 807.981088918861 2984.13137299788 245 246 250
82.9633977236548 810.416686661197 2983.25910354045 247 248 252
75.3527309478725 811.571028850809 2986.39493108848 246 247 251
60.6503186576477 814.199046108441 2985.01920801041 246 247 251
50.3403163790175 815.911341109892 2986.50198463921 246 247 251
37.3405861004525 818.180246769219 2986.32270616812 248 249 253
27.8691875881276 819.715099456926 2988.41587207433 249 250 254
14.8074218474497 821.99242839813 2988.2966129348 255 254 255
5.28992636542602 823.533727960499 2990.43493881009 253 252 255
-3.35044265454876 824.89249293592 2993.14615299222 249 249 251
-8.41205916837673 825.5110714417 2998.08098738188 255 255 255
261.568514435785 780.148417005614 2844.38374577408 226 228 227
266.498168944311 778.661405358701 2856.71223098404 230 231 233
269.828536964659 777.516211868054 2867.7444921089 237 238 240
272.372973792403 776.540169349161 2878.11528476875 236 237 241
268.336347657759 776.954093511013 2883.47944570012 242 243 247
267.619992797455 776.669249155653 2891.31811880998 234 233 238
264.43054381605 776.906301319254 2897.28407122641 229 228 233
262.915184276731 776.792197087513 2904.47402316057 236 235 240
258.076452403353 777.376957466704 2909.19252811176 243 242 247
254.074798782076 777.78623691225 2914.52264730741 247 246 251
250.077376156149 778.194924004778 2919.84865261164 248 247 252
244.403202402601 778.955017995757 2923.95394015098 245 244 249
242.095516905446 779.010707028967 2930.48834094388 245 244 249
233.888747053578 780.299831857715 2932.77927752556 245 244 249
230.744983831384 780.531006667798 2938.70073197803 241 240 245
223.367874065222 781.645467802992 2941.61052836532 240 239 244
221.931317378688 781.521724063665 2948.72365261675 241 240 245
212.840810225945 782.992107040794 2950.44811636736 240 239 244
207.147843890237 783.754570135355 2954.57171506611 239 238 243
198.883209268507 785.050871800125 2956.91905148644 238 237 242
196.609045074813 785.102996635403 2963.42035407437 237 236 241
190.907360568461 785.866794669206 2967.55241274201 238 237 242
184.340345161039 786.809635331973 2971.10038604627 238 237 242
176.037996504926 788.111117269723 2973.48406957618 240 239 244
167.720679898086 789.414414148757 2975.88268609689 241 240 245
161.991099830513 790.182200611906 2980.04185598108 243 242 247
154.518658527001 791.309564334537 2983.04441099743 245 244 249
149.64938802824 791.899412938052 2987.79248921775 245 246 250
137.79269068539 793.928805719315 2987.93013351886 248 249 253
127.65631480475 795.601803512768 2989.24664251996 248 249 253
110.478180838942 798.720854025146 2986.00536952588 245 246 250
102.038703293433 800.040553701606 2988.52286933827 243 244 248
88.2968368100507 802.447509845821 2987.64289212826 244 245 249
78.0487218370123 804.135314791159 2989.06783336734 243 244 248
62.4676483338122 806.913922105048 2987.12546740048 243 244 248
50.3878548667109 808.972383198848 2987.48035316705 244 245 249
38.2774013879352 811.034991280511 2987.86540969745 245 246 250
27.9175863116858 812.737703362271 2989.399067522 246 247 251
18.4272209153882 814.26144326581 2991.51271028903 244 243 248
8.02326412002596 815.970414700655 2993.08961420553 255 254 255
1.18227705898022 816.951757792876 2996.90361692763 248 248 250
-5.66653746650214 817.934559411973 3000.72517686799 254 254 255
-5.31918153745847 817.453211500395 3008.953521897 255 255 255
264.070593803574 772.824599344028 2847.23266682141 225 227 226
272.290520036918 770.685189630421 2862.05826283168 226 227 229
274.811013658483 769.73610687666 2872.4488468077 231 230 235
274.066603325121 769.468126314247 2880.31288695581 243 242 247
270.033737522862 769.884171054818 2885.67300040092 229 228 233
268.492051495977 769.783895184169 2892.88671325868 238 237 242
268.628105734821 769.337558781446 2901.31970930396 241 240 245
265.456550229875 769.577413469192 2907.2678168639 231 230 235
261.45829608368 769.988800016427 2912.59424890183 226 225 230
255.791078474638 770.745186571192 2916.69317684429 240 239 244
252.63606513214 770.9829099256 2922.62483496054 246 245 250
246.127160211052 771.912586924405 2926.11704927662 246 245 250
241.295785420875 772.496242919879 2930.82841176287 244 243 248
234.775915140478 773.427138407888 2934.33099690868 242 241 246
233.326851657018 773.315303931581 2941.45444256848 239 238 243
228.500451912391 773.898273774687 2946.16096617397 238 237 242
224.524856419928 774.306849769505 2951.4656510742 235 234 239
215.440255456931 775.762925347481 2953.18636451843 234 233 238
209.753183952397 776.521637894758 2957.30466389193 234 233 238
202.350425083496 777.631253777672 2960.24064634358 234 233 238
197.510375178338 778.216180315711 2964.96043556161 234 233 238
190.950641834824 779.152454989183 2968.50181027712 235 234 239
184.383763158451 780.089617407486 2972.05048704748 236 235 240
176.081600237588 781.380048759804 2974.43561941124 237 236 241
168.630155996073 782.496156020474 2977.4189877348 238 237 242
166.373045680953 782.554668385313 2983.90274933711 239 238 243
160.649655372095 783.318961965007 2988.05628894605 241 240 245
154.051012908896 784.260790408347 2991.63548014782 242 243 247
143.077843612017 786.089963459008 2992.3426075868 245 246 250
132.077845452325 787.922577682947 2993.07586787925 245 246 250
117.54192689284 790.469457557332 2991.54680613513 244 245 249
105.601114050004 792.48798978107 2991.76958355685 241 242 246
92.7486483899052 794.688737612231 2991.45414283989 240 241 245
79.8613630929554 796.893947018615 2991.17228127619 239 240 244
66.0544352817203 799.282274360938 2990.35966425531 238 239 243
53.9828337489565 801.31794323428 2990.70978399022 238 239 243
40.9916706697397 803.53688370485 2990.52938299661 238 239 243
31.5288155626035 805.043002980964 2992.61831196086 239 240 244
22.0468215155667 806.551934768434 2994.7261683294 244 243 248
14.3348041506655 807.70395779062 2997.96298128259 240 239 244
4.8178144745763 809.218021997017 3000.10449241684 245 244 249
-0.225681653943877 809.83343160791 3005.02180135731 248 248 250
-5.26926712483355 810.44932423244 3009.93912762686 247 247 249
-1.28907760764063 809.258299338683 3020.3328802606 255 255 255
260.043852566766 767.270417682316 2836.46483215684 204 206 205
267.391662685334 765.348279179752 2850.7077682955 219 221 220
273.976657545596 763.58714233048 2864.26714812838 233 234 236
276.500822852638 762.661538045974 2874.65061595894 227 226 231
274.93486835369 762.574994959432 2881.88639806872 240 239 244
272.557904566711 762.655339205011 2888.48594919791 231 230 235
271.850748637122 762.395884188095 2896.31139725846 234 233 238
272.825386039013 761.795033904588 2905.3517520701 237 236 241
270.495980678475 761.869336723924 2911.90463205696 242 241 246
265.674511308214 762.451861921481 2916.60632544624 236 235 240
259.180345606615 763.374255675437 2920.0849799599 235 234 239
255.194484390631 763.786497618789 2925.39897920775 248 247 252
249.531885559629 764.539353461868 2929.49384247299 250 249 254
245.550679972031 764.951008489287 2934.80330535895 244 243 248
239.885019905927 765.704250249692 2938.90115143749 240 239 244
235.908448688138 766.11532104116 2944.20609867554 237 236 241
230.239727925437 766.868889682176 2948.30693575823 235 234 239
226.267769280372 767.279437954388 2953.6073798715 233 232 237
218.039387376249 768.549468859926 2955.92259961407 232 231 236
212.358208548858 769.304667006774 2960.03556689891 232 231 236
204.105212740417 770.577695986307 2962.3744476563 232 231 236
197.553309820419 771.507250496396 2965.90937772471 233 232 237
191.853594887731 772.264916389405 2970.04004906233 234 233 238
186.150474516231 773.023175460657 2974.17435222154 234 233 238
178.71628367311 774.128734082954 2977.14214674958 235 234 239
173.002149743147 774.888558494728 2981.28715517851 236 235 240
167.284485812369 775.648945856846 2985.43558574661 238 237 242
161.56295311748 776.410069851369 2989.58741133872 239 238 243
153.223596055798 777.694680627105 2992.01067615482 241 242 246
144.869016775894 778.981328342972 2994.44875579977 243 244 248
132.997707219285 780.969162169669 2994.60705264049 244 245 249
119.341285975615 783.311036294561 2993.65184613838 243 244 248
102.129698650914 786.358693060921 2990.45468263068 239 240 244
91.031996709181 788.184931281041 2991.28590659361 238 239 243
76.3752165697236 790.717504295926 2989.87897673265 236 237 241
66.1009973157043 792.375872401965 2991.33419066063 235 236 240
54.9167681185891 794.213549476926 2992.24964680951 235 236 240
46.3721242351918 795.525573107901 2994.87271286623 234 235 239
35.1395942322954 797.369765086593 2995.83483168734 235 236 240
24.7731011480612 799.040755207242 2997.38014720653 237 236 241
17.067155169999 800.183639261287 3000.61228191834 237 236 241
9.3497263292539 801.328324725586 3003.85555303489 235 234 239
3.41748720928026 802.119726649047 3008.21213815726 245 245 247
-8.82141198328323 804.156777424702 3008.72852053889 249 249 251
-12.9701699046842 804.595687844049 3014.20033703417 255 255 255
266.626701429489 759.115322086613 2842.46957355905 216 218 217
272.351050460303 757.56200371417 2855.43596262542 221 223 222
276.483786925776 756.33356856402 2867.10067242173 222 222 224
279.013473414506 755.431209590386 2877.47522199046 230 229 234
275.802982931741 755.686718015067 2883.45934110147 226 225 230
275.908772321211 755.275981174969 2891.91712898976 235 234 239
273.551464333751 755.361749317449 2898.49635996987 238 237 242
275.360388542462 754.612377984982 2908.14677847122 246 245 250
271.371439407576 755.027649768859 2913.46373410108 246 245 250
269.056052795657 755.108192024676 2920.00210891933 237 236 241
262.569422645368 756.024164739701 2923.47389170389 244 243 248
258.591190822802 756.438039505152 2928.7800735209 236 235 240
251.255226759758 757.522900476527 2931.65338650804 240 239 244
247.278055953603 757.936569477264 2936.958882974 237 236 241
243.30492672805 758.349742010458 2942.26010162637 234 233 238
239.336070476495 758.762375867385 2947.55715676851 235 234 239
233.675113684231 759.512135232893 2951.65084712304 233 232 237
228.010627968168 760.262339475317 2955.74797599846 231 230 235
220.638334073869 761.351662461527 2958.65670556125 230 229 234
214.962963966328 762.103238854443 2962.76443999506 230 229 234
206.715934610587 763.364665403738 2965.09911081085 231 230 235
199.311838423448 764.457938605451 2968.03883668042 233 232 237
192.756499178022 765.382442218098 2971.57792559121 233 232 237
188.778859364569 765.796596164352 2976.88347827162 233 232 237
183.078145263567 766.551780352129 2981.01584643509 234 233 238
177.373606531131 767.307518702205 2985.15159276717 234 233 238
169.930729017356 768.4060216814 2988.12939395055 235 234 239
163.345710402676 769.334810607475 2991.6969837043 237 236 241
155.881785578967 770.43639275421 2994.69489223598 237 238 242
147.533258863087 771.711309246485 2997.1286954651 239 240 244
135.668014844598 773.676677887579 2997.28428948143 240 241 245
118.508812623077 776.680049599198 2994.04165210364 240 241 245
103.053974448715 779.345044636521 2991.99038659201 236 237 241
91.0775440054969 781.324593961702 2992.25463231481 233 234 238
76.4211628253899 783.827396392876 2990.85170636059 230 231 235
66.147178310823 785.469341572516 2992.30911449017 229 230 234
55.8501909388145 787.114304565489 2993.78891876575 228 229 233
48.196669200308 788.24120366774 2996.9713580016 228 229 233
38.7502185669044 789.717821357061 2999.04869524457 230 231 235
25.7134539754666 791.894110254194 2998.91954326864 228 227 232
16.2205296968976 793.377130442272 3001.04174539975 234 233 238
7.60501515242362 794.688181683315 3003.73533078939 232 231 236
2.56798809343595 795.302068139287 3008.64644096981 236 236 238
-9.67249811025805 797.31755948594 3009.16758575115 242 242 244
-19.2369922220514 798.811076409356 3011.35930637175 250 250 250
-14.3520697933304 797.497533085255 3022.29000118014 250 250 248
273.227653626486 751.381480912645 2839.89160743086 206 208 207
275.660839769857 750.515405590902 2850.35662056116 220 220 222
278.129294969658 749.64476610654 2860.78728557829 224 223 228
278.990690182628 749.095473136537 2869.93213356715 226 225 230
280.702693464233 748.379607973301 2879.67384378469 229 228 233
278.321162496133 748.476449567779 2886.27549189129 231 230 236
279.259407465334 747.91746846491 2895.34545883797 231 230 236
276.909722384244 748.010236410494 2901.91608559152 239 238 243
274.572133972034 748.101420409931 2908.47493428061 244 243 248
271.41382866612 748.355231438569 2914.40782145595 252 251 255
269.933013309904 748.27906605016 2921.55752531916 244 243 248
265.95820168249 748.695104274032 2926.85999107362 230 229 234
260.310618970987 749.440582995789 2930.94103344553 232 231 236
253.819022954734 750.351579698608 2934.41848286083 234 233 238
249.847590067142 750.767061003077 2939.71801363113 238 237 242
244.191444754049 751.513396339423 2943.80709434374 234 233 238
238.532023707638 752.260072627266 2947.89971535747 232 231 236
232.869137513158 753.007185752082 2951.99571275014 234 233 238
228.052860620787 753.588466667031 2956.69243383655 228 227 232
221.532737748092 754.502823758071 2960.19771417809 228 227 232
215.859349278015 755.251319830427 2964.30393608664 230 229 234
207.614585470113 756.50153850061 2966.63835154157 232 231 236
201.928231718956 757.251682090566 2970.75686682152 232 231 236
193.659020008876 758.505041776106 2973.11509516401 233 232 237
188.821695509649 759.089152982811 2977.83229851928 233 232 237
182.257267069731 760.009390338718 2981.38070584346 233 232 237
178.282448683303 760.425888127374 2986.68344822823 234 233 238
169.1062105534 761.8530044425 2988.49943890025 235 234 239
161.649973845404 762.945125869077 2991.49111130967 236 235 240
155.05399091805 763.869799882208 2995.07053481232 234 235 239
147.57700368477 764.964773117515 2998.08239130402 235 236 240
134.836861503185 767.077898669578 2997.66802440504 237 238 242
119.430533960937 769.704345316357 2995.57428455389 235 236 240
103.098898941158 772.506427390825 2992.95652054926 232 233 237
91.1227511645794 774.464299522067 2993.22368945971 229 230 234
77.349815985595 776.766846634778 2992.38999553297 227 228 232
66.1931903143409 778.56271410949 2993.28422041327 225 226 230
55.8965652332475 780.191238096175 2994.76609460656 223 224 228
46.4658040431201 781.651843301174 2996.83021863861 223 224 228
37.0156553275955 783.115141525019 2998.91285890098 223 224 228
25.7609775596306 784.924195588075 2999.90250199079 227 226 232
15.3738226870752 786.565311669963 3001.47241249911 227 226 232
9.44640335028391 787.349488436695 3005.82561722253 227 226 231
2.61654944632372 788.306842957024 3009.63211005551 228 227 232
-9.62339737228257 790.300447839819 3010.15595402928 232 232 234
-24.601550082811 792.816348249912 3009.07027824387 240 240 240
-34.1963672252263 794.300347880456 3011.29385457586 237 237 237
277.34854203078 743.775170259618 2844.00893599274 212 212 212
279.790885946459 742.932012774278 2854.46113023156 218 218 220
284.726368186044 741.604294806424 2866.76062272422 222 221 226
284.781949488279 741.231966535102 2875.26259121566 226 225 230
284.038012507881 741.017129218421 2883.11796892677 229 226 233
280.01412796675 741.442289266218 2888.46815445038 232 229 236
280.956093087123 740.901473328351 2897.5317424285 232 229 236
279.438913128472 740.840565633482 2904.71530179905 232 231 236
277.106991833539 740.938995994314 2911.26745194785 243 242 247
273.954399136326 741.197394052239 2917.19398845739 250 249 254
272.479269720202 741.131067280675 2924.33659195476 254 253 255
266.000328505866 742.035161450253 2927.80249515609 227 226 231
261.191258809641 742.615474814783 2932.49220239371 237 236 241
253.86111995332 743.683267061356 2935.36225361453 230 229 234
250.732041396414 743.938464912965 2941.26591322423 234 233 238
245.078002282788 744.681750156648 2945.35369109399 234 233 238
239.420331480444 745.425388332655 2949.44468527909 220 219 224
232.911246922376 746.332856729972 2952.94036039895 219 218 223
228.09501470119 746.913896138102 2957.63707282082 225 224 229
222.426969174712 747.65890118176 2961.73816723791 227 226 231
219.317680737568 747.9117810808 2967.62251755852 229 228 233
211.080711619996 749.150166842343 2969.95094166945 229 228 233
205.402374491248 749.896456268084 2974.06240381062 230 229 234
196.281025005277 751.302795323275 2975.82696011774 232 231 236
190.587932808495 752.05112176627 2979.95277318933 232 231 236
184.891101553096 752.799932614925 2984.08188976446 233 232 237
179.190864320376 753.549395678535 2988.21462997033 233 232 237
171.75192352793 754.630963106776 2991.19068715628 235 234 239
165.171298472831 755.548040008741 2994.75598291446 235 234 239
158.583021703912 756.466212506376 2998.32837716703 234 235 239
148.493865895464 758.05153970384 2999.6106157722 235 236 240
135.755987479474 760.139966778117 2999.19765134475 235 236 240
121.22927640501 762.566686810877 2997.67720600401 233 234 238
105.781025507876 765.16598570811 2995.62910908953 229 230 234
92.9300904508796 767.268770268124 2995.32662738976 226 227 231
81.8103751543759 769.040760766184 2996.18772872902 226 227 231
68.8938364253588 771.152064624673 2995.94879545477 224 225 229
56.8294917989127 773.099839630606 2996.30469964964 222 223 227
43.8458983742196 775.219878605163 2996.13139947511 222 223 227
34.390219272467 776.670252223149 2998.22144174386 222 223 227
25.8082465793774 777.95425404502 3000.88571747157 224 223 229
18.1052511034698 779.071645421306 3004.11869009777 224 223 229
11.28722991752 780.021434450388 3007.91455104315 225 224 229
3.56318306520276 781.142069375428 3011.16794860223 226 225 230
-7.77402847687414 782.943778515348 3012.24063452624 229 228 233
-21.8452934779725 785.259226904107 3011.70127972002 238 238 240
-35.0507624151222 787.409536596698 3011.74383121038 241 241 241
-45.5728203735588 789.053270962422 3013.447315496 208 208 206
279.838462270019 736.508669959237 2846.86145975351 213 213 213
283.920904775978 735.374615619756 2858.5621627525 216 216 218
287.227298991746 734.392426834346 2869.59413819547 221 220 225
287.288452377123 734.03543563421 2878.08830671355 225 224 229
285.727104302717 733.990946296206 2885.31329905 230 227 234
284.181786272462 733.944318178777 2892.5226894263 230 227 234
282.652602128292 733.895525153087 2899.7167164297 230 227 234
281.139129446539 733.844882423478 2906.89507726211 229 228 233
278.810963612466 733.950623233892 2913.44241770151 238 237 242
276.494807797441 734.054967928227 2919.9780383598 232 231 236
273.355924461888 734.316839997922 2925.89010997113 252 251 255
267.715620286325 735.055858074884 2929.96487952973 235 234 239
262.071916353949 735.795127838732 2934.04298789789 233 232 237
256.424558397263 736.534871288314 2938.12431691367 229 228 233
250.773946504343 737.274893972699 2942.20917370744 230 229 234
245.119976294748 738.015281057435 2946.29731150111 223 222 227
238.616067047425 738.916684930475 2949.78840595294 215 214 219
232.104887366732 739.819005357163 2953.28658458636 224 223 228
227.286744027638 740.400049816766 2957.98519402995 223 222 227
222.468982265916 740.981164110131 2962.68341424017 224 223 228
218.505815708816 741.400615662545 2967.97414962118 226 225 230
211.978777129604 742.30493535538 2971.4877808846 227 226 231
205.444636273194 743.210078396369 2975.00868096577 227 226 231
198.043145065899 744.278492167165 2977.94949426488 231 230 235
192.35373818221 745.023477583299 2982.0718037264 231 230 235
186.661054488186 745.768922024359 2986.19763710734 232 231 236
180.964883310502 746.514924055802 2990.32685119949 232 231 236
174.397365169438 747.42470065356 2993.87987273806 231 230 235
168.692092628214 748.172144900624 2998.01791145991 231 230 235
159.497478621302 749.5745700645 2999.85579899081 231 232 236
147.664034255564 751.470815231745 2999.99036974311 230 231 235
133.173949206788 753.863210721367 2998.43828952793 230 231 235
121.273411694696 755.768031983429 2998.63821722331 227 228 232
106.704795011145 758.170314595521 2997.16299661197 224 225 229
95.6180343785271 759.919103703616 2997.99480263813 222 223 227
83.6214089333551 761.836228320807 2998.287990799 220 221 225
71.59416653217 763.757435529183 2998.61131648658 219 220 224
58.6491920293799 765.848146949924 2998.40366390936 217 218 222
43.8921769889657 768.274710887863 2997.11193688207 216 217 221
33.5462300296472 769.877078795254 2998.64665428665 217 218 222
25.8551765389052 770.98423730824 3001.86928075776 218 217 223
20.8363220755188 771.593886848511 3006.7629714964 218 217 223
14.0244325393608 772.537241878367 3010.55369456518 220 219 225
4.5097668444507 773.982478295729 3012.70340851091 222 221 226
-8.6258276773763 776.098930494666 3012.6812399547 225 224 229
-19.0893098216796 777.718061550954 3014.33019394937 233 233 235
-36.8098288377103 780.681039925562 3011.65092256388 238 238 238
-39.1797191032324 780.798350427968 3018.23798598509 240 240 238
284.773980893556 728.795058801441 2851.60227890871 209 209 209
287.233315507721 727.997805924258 2862.03115429372 213 213 215
291.366464915274 726.886771580636 2873.6784400865 220 218 223
289.794772736807 726.854259638903 2880.91193401726 223 221 226
288.239067008323 726.819732351136 2888.12985103412 226 223 230
285.874452357745 726.938323749726 2894.7114863758 226 223 230
283.52191311747 727.05533388215 2901.28136436699 225 222 229
282.010258391791 727.014899452579 2908.45641115985 218 217 222
279.68386827837 727.128495134418 2915.00082733583 226 225 230
277.369532316673 727.240512230073 2921.5335068753 206 205 210
273.397902707045 727.663874226312 2926.8317303887 220 219 224
267.757538807036 728.400128297644 2930.90696777338 254 253 255
261.275148649775 729.293571121901 2934.3778700902 236 235 240
255.626006572945 730.030754915421 2938.4616869217 226 225 230
251.658121165426 730.45335005136 2943.75630572868 222 221 226
246.006046481972 731.190785608889 2947.84299747129 214 213 218
240.350529524549 731.928478213269 2951.93306945144 213 212 217
233.843248266037 732.824764112209 2955.42826879456 225 224 229
229.028974526484 733.405261778477 2960.12311648442 221 220 225
224.215083441317 733.98571120508 2964.81759132262 223 222 227
218.547725456448 734.724896559116 2968.91920099031 224 223 228
211.164889636623 735.782702886192 2971.84305698944 224 223 228
204.628718510334 736.68257184318 2975.36641482393 226 225 230
198.945075378388 737.423928136417 2979.48387501954 229 228 233
194.1195754946 738.006017943022 2984.18963511893 229 228 233
188.43087120578 738.748189181982 2988.31200066951 230 229 234
181.007344853855 739.811302103655 2991.27547865617 231 230 235
175.307501906062 740.555067491953 2995.4083316032 230 229 234
167.865309446424 741.620651510748 2998.38998008368 229 228 233
159.540525297943 742.848702068247 3000.80713335709 228 229 233
148.580556842577 744.562224201497 3001.51824532039 226 227 231
135.843293302575 746.601865510212 3001.11188082684 226 227 231
120.440231192215 749.130765802293 2999.02965350417 224 225 229
106.74907577278 751.341744233997 2998.12828487834 222 223 227
94.7814756675069 753.233450248928 2998.39640730592 220 221 225
84.5491615444822 754.804568878552 2999.82290425386 217 218 222
70.75434661055 757.028910083273 2999.02249604628 215 216 220
60.4685843582109 758.606930567422 3000.50138552765 213 214 218
46.6045913218442 760.840287615282 2999.76833966075 213 214 218
36.2647459307515 762.425551958112 3001.29952601725 213 214 218
28.5798488611571 763.523560783031 3004.51739139106 216 215 221
23.5669914705445 764.132218421683 3009.40527355041 217 216 222
14.0718016965868 765.560978046957 3011.53774503942 219 218 224
3.65898609871929 767.15662082033 3013.13985796244 221 220 225
-6.77683750008118 768.755563861678 3014.76466823434 224 223 228
-18.1382771583221 770.522351416356 3015.86657443091 231 231 233
-34.9520513112327 773.28219624957 3013.73382435861 233 233 233
-47.2854544965546 775.22308393409 3014.35792562296 231 231 229
279.954156490564 723.244034914544 2840.20494935862 192 192 190
287.263548410243 721.567227548687 2854.44943765984 207 207 207
291.362925046423 720.489935212765 2866.12527325985 212 212 214
293.047723080502 719.86300450165 2875.88085421716 219 217 222
291.479696200287 719.840703848426 2883.10919922859 222 220 225
291.573827926159 719.511457339592 2891.56651911379 224 221 228
290.041708398195 719.484453087593 2898.75990278347 223 220 227
286.04502752847 719.913967565457 2904.08243107636 222 219 226
282.881258145102 720.189768212148 2910.01715626346 198 197 202
278.064344033925 720.771070489825 2914.71450696016 215 214 219
274.913372017052 721.045008911912 2920.63713725112 223 222 227
270.935850807297 721.471767235153 2925.94070923489 182 181 186
266.96289935619 721.897759523317 2931.24019444242 197 196 201
262.155576094333 722.477498909086 2935.9282522787 221 220 225
255.667836878212 723.366072997515 2939.40518588708 213 212 217
250.015256040192 724.100800829026 2943.49278044938 206 205 210
244.359128547765 724.835870872936 2947.58350847111 205 204 209
239.545940611166 725.41605475001 2952.27732432049 208 207 212
234.733092273293 725.996254784095 2956.97080055532 207 206 211
230.771026829186 726.420697811625 2962.25970477701 213 212 217
225.108884236453 727.156408216851 2966.35631123714 216 215 220
218.589554477834 728.0487158819 2969.8644007422 216 215 220
212.062659655226 728.941931312551 2973.37953045829 216 215 220
206.386483412144 729.679456813306 2977.49014211234 219 218 223
200.706777706756 730.417486227692 2981.60418409641 221 220 225
193.300079043175 731.470163147334 2984.55249437632 222 221 226
186.745759579088 732.366953827457 2988.0943287465 225 224 229
180.183997997491 733.264859611221 2991.64338843755 226 225 230
175.349993605847 733.848139483826 2996.35741774773 225 224 229
167.908004088751 734.905442282782 2999.34008866393 224 223 228
159.583361542843 736.122624724954 3001.75870762659 222 223 227
149.496863049309 737.658731768498 3003.04558219603 218 219 223
135.886694880755 739.832433779039 3002.06930147164 216 217 221
119.6066807429 742.487780351748 2999.42196461123 215 216 220
107.67218463487 744.353599515772 2999.66137818744 213 214 218
95.7070756373035 746.223336889767 2999.93061170577 212 213 217
84.593920426101 747.937549536368 3000.79340048257 211 212 216
68.1449821066122 750.61429658601 2998.31098269254 210 211 215
57.8535460832277 752.176769980954 2999.79746632343 208 209 213
49.3164391525736 753.421693473877 3002.42262760377 208 209 213
39.8736329830824 754.829329944243 3004.50654123423 208 209 213
30.41139677104 756.239664793419 3006.60901252298 213 212 218
22.7193425713264 757.330543090001 3009.83537676376 214 213 219
14.1189179049186 758.58451022847 3012.52207684485 215 214 220
6.40169007728186 759.679223755844 3015.77253418287 216 215 220
-4.02790332481473 761.260929079316 3017.39370550452 218 217 222
-16.2854649368853 763.169965512045 3017.94720256659 223 223 225
-38.5199803718441 766.867346043004 3012.55662976366 230 230 230
-58.1096127920993 770.086818677132 3008.86134940217 228 228 226
-64.1401318698716 770.874203979205 3013.31645947235 230 230 228
278.371520163783 716.734832739737 2839.90443138808 195 195 193
285.676801399187 715.098688323872 2854.1473295353 205 205 205
291.406219080015 713.753244737993 2867.07796155461 211 211 213
293.909824048995 712.998483510649 2877.45625773357 218 216 221
293.164760049359 712.83708305388 2885.30519448888 221 219 224
292.4395946164 712.673115097779 2893.13475114861 223 220 227
290.084126479378 712.806547022889 2899.70477260179 221 218 225
286.914140653496 713.088484476234 2905.64510163284 206 205 210
284.581141997044 713.218893821904 2912.19359513757 197 196 201
279.768012451099 713.799660026173 2916.88726693646 202 201 206
274.955351670867 714.380249197423 2921.58049940948 232 231 236
270.143138397769 714.960664015635 2926.27331327059 206 205 210
265.331478924691 715.540891080902 2930.96560494991 180 179 184
260.520287678817 716.121000149863 2935.65744911249 198 197 202
253.18825698382 717.156421131719 2938.53416341587 212 211 216
249.214478078919 717.584948493376 2943.8337577725 205 204 209
243.556588263432 718.317397164528 2947.92696108681 198 197 202
238.741423817671 718.897771243161 2952.6227115273 205 204 209
234.774831388846 719.325274697668 2957.91532093998 206 205 210
229.962473075262 719.905295018753 2962.60833713495 208 207 212
225.150582988883 720.485197343532 2967.30090581318 211 210 215
217.777207592465 721.525476668982 2970.2179579552 211 210 215
212.10445857009 722.25973961044 2974.32564853326 211 210 215
208.143902500147 722.686600023648 2979.61235879355 214 213 218
203.327801599978 723.267210094892 2984.30900426751 218 217 222
194.203798282232 724.619678318301 2986.08449579622 220 219 224
187.651484149948 725.51079106245 2989.62517803873 223 222 227
180.226279265536 726.557722256052 2992.5927144853 224 223 228
175.39236206223 727.140755261875 2997.30669370298 223 222 227
167.081170065178 728.345273846919 2999.71382778434 222 221 226
160.497558702414 729.240554941658 3003.28531040097 221 222 226
151.286480011265 730.604308281498 3005.14526328541 216 217 221
138.555569547547 732.594617339808 3004.73988137826 213 214 218
117.896122106134 735.995458373551 2999.24631834186 211 212 216
106.837137321845 737.683546132938 3000.05951417286 209 210 214
95.7512375634195 739.375203858957 3000.89890933155 208 209 213
84.638426897333 741.070267170392 3001.76418623332 210 211 215
69.0747299426717 743.554788203157 2999.84803092081 209 210 214
60.5592785362066 744.78582352705 3002.45407845281 207 208 212
51.1395611687604 746.176645681912 3004.51721186803 206 207 211
39.9195138652249 747.8858634946 3005.48722214893 207 208 212
29.565083110894 749.44059266848 3007.03740507137 211 210 215
20.9767486859933 750.681759556134 3009.71432907739 212 211 217
13.2694220201204 751.766497498426 3012.95642880253 213 212 218
6.44892580937118 752.694308327301 3016.75799585252 213 212 217
0.521253598551041 753.46430548564 3021.11354742351 218 218 220
-11.7260351895792 755.350274330802 3021.66059064091 220 220 222
-32.1420268414943 758.676134452013 3017.35292602845 229 229 231
-58.9661544671785 763.128699716791 3009.32340557341 228 228 228
-67.722366541676 764.393212096222 3012.16358411367 228 228 226
-60.1148172858146 762.776014777789 3024.6862781158 162 162 160
267.112663048985 712.239089827878 2823.40889837223 188 188 188
278.415590675588 709.922328404347 2840.86755388399 198 198 198
284.905080717229 708.472439280533 2854.4757691357 206 206 208
289.815075485198 707.308388590309 2866.77638111229 212 211 216
291.495632847777 706.724731844507 2876.53011508791 215 214 219
293.207528880975 706.13701946158 2886.25299087974 216 215 220
293.305024133912 705.83942796832 2894.70229213537 217 215 220
291.776387938502 705.833272333265 2901.88913538785 217 215 218
287.783126202104 706.267676007338 2907.20720796775 211 211 213
285.45194739898 706.405757754327 2913.75276035365 190 190 192
280.640667887752 706.986231763498 2918.44463822703 186 186 188
275.829835883658 707.566531419631 2923.13609748852 240 240 242
271.019536959515 708.146586966087 2927.82706347303 235 235 237
267.046431288335 708.577846921698 2933.12592326442 187 187 189
260.561978867183 709.455274330977 2936.60124051111 180 180 182
252.389638534277 710.631674068726 2938.87464879072 198 198 200
245.886842653623 711.511119118408 2942.3678831575 198 198 200
241.909618500484 711.942557499061 2947.67046844922 185 185 187
239.629208949039 712.073826193401 2954.1666131839 194 194 196
233.968326263973 712.803821659648 2958.26315104457 194 194 196
230.004091639953 713.233563534933 2963.55308828461 200 199 204
222.636147180522 714.265079475255 2966.46604265041 202 201 206
216.964997679731 714.996251299104 2970.57260174572 199 198 203
211.290403750941 715.727916316658 2974.68250831514 201 200 205
208.185598071441 716.006426289737 2980.55828123539 204 203 208
204.229437101736 716.435373190007 2985.8406565563 206 205 210
195.969111287751 717.622452113893 2988.19985734024 206 205 210
190.284314077381 718.355593361603 2992.31933989093 218 217 222
183.730772060735 719.241363761313 2995.86236887893 215 214 219
178.037044632458 719.975807711365 2999.99052672919 212 211 216
170.601071110772 721.016076702401 3002.96974126239 211 210 215
161.411372402549 722.363558887678 3004.81120621927 210 211 215
150.456090288239 724.019585315621 3005.52616241675 209 210 214
135.973083635726 726.292443182044 3003.98472085794 203 204 208
117.062570357748 729.338366499336 2999.64105350418 196 197 201
107.759862966085 730.700167231531 3001.59228363731 203 204 208
95.7953187632889 732.526609254361 3001.86735534008 206 207 211
82.0342397431593 734.665379499388 3001.04609422186 210 211 215
68.2347230615949 736.809231297694 3000.26225121829 207 208 212
57.9439249702101 738.339014510129 3001.75293296798 200 201 205
51.1848881510621 739.252001146966 3005.49566094268 202 203 207
39.9652273712894 740.942123301238 3006.46810972975 205 206 210
30.5036656598601 742.325070552234 3008.57395910446 211 211 213
19.2340429158318 744.021962956576 3009.59502022061 209 209 211
11.523177682931 745.09889135576 3012.84178804218 208 207 212
5.59770454191533 745.865250063299 3017.19569366578 209 208 213
-2.13234238962556 746.945304246299 3020.46104720818 215 214 219
-10.7760297913324 748.183660431006 3023.1933529591 217 217 219
-30.2852381294487 751.306546032073 3019.43248581646 227 227 229
-55.2926389513182 755.37973869566 3012.48881852929 224 224 224
-76.752807938818 758.834525248524 3007.78241070082 222 222 222
-74.6241878644485 758.202121032656 3017.09807879285 184 184 182
263.100559225507 706.086983466684 2821.21737098158 190 190 190
276.019753497902 703.538598882662 2839.93910225867 198 198 198
283.318393016887 701.983430395871 2854.17662752153 206 206 208
289.858369286969 700.564739823237 2867.73009806982 210 209 214
291.538668472532 700.00240337111 2877.48093728894 212 211 216
294.071213911283 699.292053331288 2887.82393119948 213 212 217
293.347547737652 699.154609248123 2895.6480788557 214 212 217
291.81872849953 699.159209014929 2902.83351422859 213 211 214
288.652302217521 699.451312119976 2908.76880610108 211 211 213
286.322877876472 699.597251418372 2915.31145493754 195 195 197
284.005404383723 699.741579222705 2921.8421367411 183 183 185
281.700216436096 699.884286232131 2928.36119621152 224 224 226
273.56506548207 701.045796050776 2930.59987561168 238 238 240
267.924526998516 701.770927022933 2934.67693034961 190 190 192
259.765250790524 702.935124400216 2936.93916926361 184 184 186
251.590758046309 704.101017226275 2939.21592999444 189 189 191
245.086267131104 704.975119854397 2942.71197500514 195 195 197
239.418690968522 705.703305542648 2946.81542707233 179 179 181
237.132132293451 705.843205323558 2953.31606446486 189 189 191
231.465513843853 706.571152339217 2957.4186007846 187 187 189
228.345651384809 706.85655977094 2963.30864371013 193 192 197
220.973870738272 707.880303687894 2966.2265561681 195 194 199
215.298876947802 708.609247579522 2970.3372619873 193 192 197
210.476274154086 709.190323504799 2975.04029508464 195 194 199
206.511802711447 709.622748832026 2980.33007087604 198 197 202
202.551581368705 710.05481527311 2985.61567929863 196 195 200
196.010887635201 710.93342287289 2989.14700841024 202 201 206
190.326200769002 711.66377867512 2993.26679307517 208 207 212
183.77279440639 712.543988903795 2996.81050914756 206 205 210
178.079091749468 713.275717165006 3000.93904377712 205 204 209
168.904739116241 714.607583965947 3002.76757780165 203 202 207
161.453831891691 715.641538920635 3005.76255493437 205 206 210
148.752149271728 717.579573031809 3005.33587556066 199 200 204
136.016070812518 719.521884316221 3004.94271959946 194 195 199
117.105993162325 722.524705472378 3000.60499014145 191 192 196
107.803494661745 723.872917040443 3002.55802131517 199 200 204
94.9581896333753 725.828998069435 3002.27129378957 203 204 208
84.727066340041 727.334747053968 3003.70626983102 209 210 214
70.0489181882014 729.602649187075 3002.35967696297 206 207 211
59.7622658759489 731.115575393242 3003.84873335086 199 200 204
48.5639956326249 732.783895030734 3004.80316342148 202 203 207
38.2294657736879 734.303210775362 3006.33881854999 205 206 210
26.9794069440006 735.978354031183 3007.34366692463 209 209 211
17.4915198914607 737.351162079372 3009.47749416397 208 208 210
9.77707411288575 738.420227258697 3012.72897970079 205 204 209
3.84780326582179 739.184188292838 3017.08667303573 207 206 211
-3.88548598660421 740.256264610635 3020.35676321768 211 210 215
-10.728504392004 741.176300331242 3024.1818442975 211 210 215
-23.9080997500469 743.176764783351 3024.22051216043 215 215 217
-47.0890533033437 746.880137684049 3018.35197141259 221 221 221
-74.8871799812076 751.366523937538 3009.86773836964 210 210 210
-80.0338539343275 751.993702407294 3014.88576498298 206 206 204
265.579252443138 698.784925056564 2824.08629881387 192 192 192
276.87726930297 696.575870102102 2841.53391182055 197 197 197
288.253347119419 694.357033292547 2858.90545489726 204 204 206
293.987445703034 693.115315458539 2871.81610809008 206 205 210
294.857932864854 692.714598154352 2880.9299682208 206 205 210
296.576984197816 692.168854069047 2890.63953579813 206 205 210
295.858893081597 692.044093084921 2898.45627278342 207 205 210
293.510856947249 692.200516393646 2905.01585387361 206 204 207
288.694473761992 692.781810708502 2909.71267852993 198 198 200
284.707266925559 693.220522385303 2915.02410178373 198 198 200
282.385933718084 693.373343490498 2921.55769887691 186 186 188
280.076761493728 693.524513572887 2928.07946395452 194 194 196
273.606734284933 694.389508066174 2931.54229433165 223 223 225
267.129754147488 695.255248111033 2935.01225671952 220 220 222
258.12992511093 696.552448179765 2936.67227211851 195 195 197
250.792143697961 697.564181036833 2939.55819806435 171 171 173
244.285639166472 698.433230318899 2943.05698950813 183 183 185
238.61590166977 699.158871011896 2947.16262611924 170 170 172
235.48147113687 699.45142217519 2953.06607951707 181 181 183
229.810966957456 700.177028545163 2957.17282037037 178 178 180
224.987047747481 700.758093519147 2961.87716230711 183 182 187
218.459501829643 701.6295725649 2965.39615119858 182 181 186
213.632606418874 702.211012736284 2970.1033930927 183 182 187
209.661861798735 702.64676455675 2975.39890658784 184 183 188
205.695748558945 703.081978449051 2980.69023840138 185 184 189
204.312710899551 703.078578644945 2987.73209284464 182 181 186
196.914176242773 704.097557631939 2990.67727668484 194 193 198
189.504501553085 705.117999965916 2993.63330646035 186 185 190
182.083560356039 706.139803653336 2996.60032283678 187 186 191
177.253727492076 706.722026919155 3001.31036592433 187 186 191
169.816202989366 707.746098102231 3004.29351463355 192 191 196
159.753512836037 709.214161110585 3005.5668040479 198 199 203
146.175026444922 711.276074114871 3004.57558521647 188 189 193
134.308752534281 713.046785518461 3004.76131002761 186 187 191
119.780326576829 715.266046570515 3003.27289209579 189 190 194
108.725983462412 716.896880131414 3004.08994082552 199 200 204
96.7640459548038 718.679651451434 3004.36887855224 204 205 209
85.6541743599752 720.317603197253 3005.24001581926 207 208 212
70.9781713602688 722.555468680386 3003.89539434519 204 205 209
59.8071165035203 724.201251486186 3004.82613006851 198 199 203
47.7205149302216 726.000151474301 3005.22647724523 201 202 206
39.1656917366308 727.203658414162 3007.875690227 205 206 210
28.8103473947681 728.709558634288 3009.43399725341 208 208 210
19.3264137323412 730.068259533829 3011.56564590634 207 207 209
9.82351281415417 731.429574394731 3013.71608082428 203 202 207
2.09795772256438 732.492079287907 3016.97956768057 205 204 209
-5.63907915469297 733.55626751791 3020.25420732332 209 208 213
-11.583212993389 734.319848414994 3024.62705385475 207 206 211
-23.8602211645236 736.14465222056 3025.21231118295 209 209 211
-46.134534250331 739.642369081053 3019.89076823893 220 220 220
-75.7459137175252 744.364998458835 3010.33804891256 205 205 205
-83.6239095006888 745.448548956987 3013.74980109785 201 201 199
272.925525301343 690.672691344363 2830.74318541115 196 196 196
284.240441635225 688.515167574773 2848.16640070366 199 199 199
294.003178708089 686.623881162889 2864.25778454714 205 205 207
298.116158459672 685.692073166931 2875.89827168856 205 204 209
298.996020015666 685.308867189399 2885.00023474085 205 204 209
297.440768148622 685.33836876166 2892.20857547104 204 203 208
295.90129313525 685.365835479915 2899.40121246085 205 203 208
292.728095564071 685.669596546709 2905.34116743993 204 202 205
290.390085093814 685.832657783922 2911.88981181454 193 193 195
286.406805130414 686.273573944091 2917.19734764569 183 183 185
282.427780948912 686.71378972676 2922.500423096 174 174 176
278.453158369885 687.153332679845 2927.7992271339 179 179 181
272.813922608075 687.872992228844 2931.87579692383 186 186 188
265.498278142649 688.874209455664 2934.74129475908 208 208 210
254.817950994509 690.440083775547 2935.19654105278 199 199 201
248.312688398492 691.303623366614 2938.69457572421 164 164 166
242.642611287874 692.02664023824 2942.8012752186 172 172 174
237.813334377962 692.608439604258 2947.51082888776 165 165 167
232.984526233762 693.190061937257 2952.21994323104 174 174 176
227.308179458421 693.913692293263 2956.33277792247 173 173 175
222.478435936828 694.495432545445 2961.04280368092 178 177 182
216.797075665259 695.219590032569 2965.16020109647 175 174 179
211.966269753319 695.801405247108 2969.87127074484 177 176 181
207.991970064088 696.240186830977 2975.17020452043 177 176 181
203.164011724464 696.821761001432 2979.87848211361 177 176 181
200.055745925376 697.116451854234 2985.75529945681 178 177 182
194.370980753503 697.841143482886 2989.8763368848 188 187 192
186.955598583414 698.854108668575 2992.83913939198 179 178 183
179.528991346107 699.868547921172 2995.8128706904 183 182 187
175.560770291327 700.306989016277 3001.10548077422 178 177 182
168.119494097311 701.323336492774 3004.09349652883 185 184 189
158.924511639392 702.63085525721 3005.94611490341 173 174 178
143.597926310305 704.956120034635 3003.81770440455 172 173 177
129.975723818271 706.996536425533 3002.87307349764 176 177 181
118.946512749873 708.605095792921 3003.66845785023 186 187 191
107.890429224492 710.217219766976 3004.49000010254 193 194 198
97.6885573694308 711.686730350711 3005.90128505318 198 199 203
86.5809430531503 713.305350599749 3006.77303799602 203 204 208
73.676895722449 715.220482591614 3006.5506946948 200 201 205
63.3987860049108 716.69982700668 3008.03656937591 194 195 199
47.765481386862 719.063817592873 3006.2070120075 198 199 203
38.3201539138294 720.403616988111 3008.30311777774 202 203 207
26.1783899455446 722.188124357423 3008.76036925091 205 205 207
