ply
format ascii 1.0
comment KinectMotionCapture
element vertex 760
property float x
property float y
property float z
property uchar red
property uchar green
property uchar blue
end_header
-210.839019036285 489.378532568111 2827.921382417 139 139 141
-212.076750944475 489.803060815012 2836.17294568196 160 160 162
-218.576734388532 490.537071108096 2841.10179176885 170 170 172
-219.786067530249 490.958314083378 2849.3256402006 165 165 167
-228.933274238551 491.849193125531 2852.60930503627 219 219 221
-236.323178416789 492.636617038551 2856.99705174023 229 229 231
316.608613576972 426.892209650672 2554.28568915734 206 208 203
317.92178783776 427.268837817227 2565.67921961101 194 194 194
318.527680571757 427.673067048261 2576.35376449134 189 189 189
315.442484910598 428.236371060506 2583.58521909858 180 180 182
313.115856454265 428.764796107998 2591.48546967124 175 175 177
310.80521767896 429.290851589172 2599.37019247512 162 162 164
307.760285634447 429.847929840659 2606.56258488055 160 160 162
302.470442102746 430.504036859151 2611.71850537499 159 159 161
294.163997823491 431.295145649152 2614.18202668956 153 153 155
286.598624132344 432.053669654186 2617.33137928981 137 137 139
280.538526165844 432.744418902503 2621.8301444003 140 139 144
273.714822341772 433.469840307738 2625.66480972617 142 141 146
267.646058145668 434.16088599284 2630.17213671753 136 136 136
257.753758594746 435.027480665517 2631.36512250219 136 136 136
248.604792027203 435.861103851207 2633.24208797697 135 135 133
235.597267945332 436.874543702091 2631.83885900627 133 133 131
217.932222603599 438.107182120487 2626.52608845457 131 131 129
164.544059286974 442.676617399618 2630.687330247 150 150 150
175.515866382701 442.563543136502 2649.56633650058 159 159 161
187.35327630037 442.402522188066 2669.00944433089 164 164 166
192.993853388489 442.532296980917 2683.22750689966 166 166 168
195.539941022753 442.806876207801 2694.82872825409 169 169 171
194.968472273067 443.229036846214 2703.8359416027 183 183 185
193.629666247018 443.686399014999 2712.18268227954 188 188 190
189.931587113567 444.257046590172 2718.60474454174 181 181 183
188.627288066219 444.709586855387 2726.91793195386 174 174 176
186.546167966168 445.198511193763 2734.580227287 183 183 185
186.878634697907 445.566952613416 2744.11500617671 182 182 184
184.035023710897 446.090248088972 2751.11247687551 183 183 185
180.400798113356 446.651591119493 2757.47216899827 182 182 184
176.775394259139 447.211602600295 2763.82363564396 178 178 180
173.158264596398 447.770348150393 2770.16673515721 173 173 175
169.549935687657 448.327735312396 2776.5016340028 169 169 171
165.139384446779 448.924692335939 2782.21005591526 171 171 173
162.358774740151 449.438718700457 2789.14633538187 176 176 178
157.961493159448 450.033531121877 2794.84189729687 182 182 184
151.936035824996 450.710625777937 2799.30828189042 184 184 186
145.08911496443 451.429673431445 2803.16728195645 180 180 182
139.055373813175 452.107324197122 2807.64147246779 180 180 182
133.841034616895 452.742944492695 2812.7254439697 179 179 181
127.803382936801 453.420691907386 2817.2038412513 178 178 180
122.588749889996 454.055936465701 2822.28816008492 177 177 179
114.890615370208 454.819668677091 2825.56857637996 180 181 183
106.351693546973 455.627760470692 2828.26044125183 178 179 181
86.1501201855552 457.045235726107 2822.60500523924 190 191 193
57.5406046841898 458.907461998986 2811.06327719652 195 196 198
34.6743080190874 460.475445235162 2803.78064000736 185 186 188
23.4568913730118 461.435338862135 2804.85878779392 149 149 151
10.5338351415059 462.487014910862 2804.78327686551 155 155 157
0.943238008305869 463.364325528295 2807.09199319515 132 132 134
-9.50936141127601 464.288552275976 2808.83284703663 134 134 136
-19.9844507899103 465.215437333866 2810.59564084282 135 135 137
-32.1766591163573 466.235522485126 2811.21596557934 137 137 139
-44.3989243782901 467.259101946556 2811.8656208396 132 132 132
-54.9487957768444 468.194795293617 2813.70137243576 152 152 150
-38.2162225327725 467.661022856758 2834.00691618121 130 130 128
-183.046019247445 477.757957134101 2792.12099783685 103 104 99
-192.161071897846 478.634256710822 2795.37488805632 135 135 133
-199.55334974191 479.416525245686 2799.76575380817 158 158 158
-200.857828271995 479.862853888448 2808.08037536638 162 162 164
-203.887502096746 480.403472783164 2815.26004881978 163 163 165
-205.155882458226 480.845411138172 2823.53913540356 188 188 190
-211.662776570554 481.577861871003 2828.47541223051 193 193 195
-213.78100200485 482.065478590452 2836.17474697458 182 182 184
-218.524137735977 482.699055979157 2842.20801772838 161 161 163
-220.615667002414 483.18353005986 2849.88164510575 206 206 208
-226.228078415084 483.865264834388 2855.35409250327 232 232 234
-236.270311044585 484.796857685131 2858.10326666677 220 220 222
318.147813909421 419.419039715358 2556.69592820385 202 204 201
316.501701037837 419.93763940223 2565.3387782427 187 187 189
316.360686796729 420.393911789955 2575.33041151707 181 181 183
313.269282914249 420.966224598435 2582.56669948372 171 171 173
310.190011088816 421.536565702156 2589.79123155547 167 167 169
309.368115637563 422.013648260704 2599.03900488491 159 159 161
307.069263744725 422.54880272241 2606.91067831492 159 159 161
301.777208513242 423.205277014042 2612.06874077712 146 146 148
293.468585959118 423.986104990261 2614.53594465063 150 150 152
282.876233934312 424.862688174629 2615.00570727515 157 157 159
275.289741640634 425.615530426127 2618.17687072059 136 136 138
269.972456119295 426.273622722786 2623.35974809316 132 132 134
264.655726552008 426.931291119645 2628.54213604734 138 138 136
254.755495215885 427.782846199074 2629.74522105728 133 133 131
241.002843140815 428.799956890891 2627.66446333243 126 127 122
221.832516682133 430.052075276902 2621.00942357388 129 130 125
168.498968971572 434.95763712511 2634.98613065201 161 161 161
176.353627413238 435.038514377041 2651.26353269491 161 161 163
184.275103178265 435.110791337201 2667.47585526735 166 166 168
189.121848692201 435.314695374422 2681.05400089461 167 167 169
190.87050293284 435.652935641439 2692.0207670055 169 169 171
192.654893918607 435.986552786247 2702.95272929563 182 182 184
192.101283094106 436.422678576721 2711.94014541716 188 188 190
191.571550256677 436.855571330124 2720.90399034403 182 182 184
188.680726881802 437.393811423382 2727.94613483393 175 175 177
186.599314215106 437.89385878381 2735.60707671227 183 183 185
182.93630955489 438.46497907692 2741.99423963655 183 183 185
180.082758658516 438.997842240523 2749.00016671216 183 183 185
177.241624925202 439.528904148116 2755.99402958615 181 181 183
174.41297159217 440.058215796469 2762.97575792571 176 176 178
170.789816572523 440.623381945886 2769.32389174567 172 172 174
167.175440779044 441.187221905547 2775.66384151652 169 169 171
161.948268121062 441.826052221197 2780.76008239604 174 174 176
159.159695283488 442.349426553847 2787.70288774378 179 179 181
153.9399671663 442.986876100643 2792.79194016128 184 184 186
150.354085674502 443.546268852837 2799.10425196466 184 184 186
144.321320814749 444.221644179291 2803.57780931304 180 180 182
139.10602013593 444.857916404453 2808.66263922641 179 179 181
133.891529706326 445.493821125109 2813.74671886733 179 179 181
127.853751025754 446.169196312755 2818.22559287641 179 179 181
121.812869669942 446.844844704263 2822.70750750845 178 178 180
112.456472688751 447.681603500696 2824.78965316647 180 181 185
102.251554333333 448.560925347005 2826.29119297465 178 179 183
82.8726233530621 449.890732535198 2821.24906537845 189 190 194
58.4251795392436 451.474036567689 2812.70044763917 194 195 199
34.7253493654875 453.026761463222 2804.83086740436 187 188 192
22.67018631255 454.009579448019 2805.32061222931 149 148 153
8.06578089224974 455.120887650087 2804.07173581662 154 153 158
-1.5306490938265 455.985842511826 2806.3880704307 136 135 140
-11.1453195052338 456.852877440205 2808.72254846582 135 134 139
-22.4698687515241 457.806771190046 2809.90762944533 135 134 139
-33.8203968144639 458.763750038124 2811.11838963964 136 136 138
-47.745337400058 459.852392201485 2810.6150539501 137 137 137
-54.8974490361545 460.600891771079 2814.77275998744 152 152 150
-198.175512697829 471.067279992785 2792.54667162674 128 130 127
-205.58126414676 471.846116801726 2796.95142407499 151 153 150
-204.287349746322 472.171646176396 2806.95472291611 186 186 188
-204.707269891631 472.584709959217 2815.81245292956 204 204 206
-204.228312264713 472.948865876657 2825.20239759018 201 201 203
-210.733481968866 473.678782989701 2830.13699868023 181 181 183
-212.849810605618 474.177276211472 2837.832842334 178 178 180
-219.351412396785 474.906848432136 2842.76428925065 218 218 220
-224.974029811242 475.590076226249 2848.24665069118 231 231 233
-230.595967220486 476.273247779314 2853.72834518887 216 216 218
-237.103225408686 477.003709985179 2858.66527745197 203 203 205
313.038839958619 412.194434721815 2552.91762957442 199 201 198
312.860146236764 412.674815428379 2562.94345377317 185 185 187
312.708956974153 413.151299532539 2572.94220371144 178 178 180
308.862814869201 413.760350908262 2579.50528078618 165 165 167
308.010855933027 414.25794110908 2588.77987657999 160 160 162
306.434368440091 414.779897951017 2597.35342924454 155 155 157
303.377051571549 415.355019293361 2604.55545320236 156 156 158
296.57028684453 416.069430447876 2608.37492506469 138 138 138
288.247858112369 416.841384523441 2610.85715023572 137 137 137
279.910162120826 417.614775082522 2613.35398586738 147 147 147
272.315852604124 418.360687958534 2616.53427393151 138 138 138
267.7505527074 418.990775307918 2622.39146689915 132 132 132
260.141562965471 419.737785302745 2625.58583264827 135 135 133
250.993443815753 420.545132536906 2627.46550235678 130 130 128
233.401492884229 421.683657579844 2622.094395733 126 127 122
168.556043368971 427.422540570767 2636.04313891168 165 165 165
175.628660078 427.581384411096 2651.66868721036 161 161 163
182.76424603868 427.732142554649 2667.23290117375 173 173 175
186.035758700902 428.036552415165 2679.52626511477 171 171 173
189.350768835162 428.335213368465 2691.77728510901 172 172 174
191.130875952001 428.693842626009 2702.70980456498 178 178 180
192.155553554734 429.080910987819 2712.97136409084 184 184 186
190.039256846893 429.596854957082 2720.66459682587 180 180 182
187.939331397452 430.110499193789 2728.34191255877 181 181 183
185.855713699934 430.621822219528 2736.00337752691 182 182 184
182.989435058804 431.164928850673 2743.02042946118 183 183 185
179.334756735257 431.740424608782 2749.39867751825 179 179 181
174.885600688687 432.349147734185 2755.14369554873 177 177 179
171.246147814409 432.922252331879 2761.50717792207 174 174 176
168.421884468505 433.459148250655 2768.48342598766 173 173 175
166.418763591072 433.959026058997 2776.06664802162 177 177 179
161.189440855011 434.598451754699 2781.16493596355 181 181 183
159.21123826099 435.094834404523 2788.72393035663 185 185 187
153.176872530671 435.768511505792 2793.19966623207 186 186 188
149.588666856081 436.333900787821 2799.51306185684 183 183 185
142.735737676467 437.043533762846 2803.37941975787 180 180 182
137.516373916883 437.680613048031 2808.46816508738 179 179 181
134.764658837258 438.206829915609 2815.3739500112 181 181 183
129.552845372845 438.842574068746 2820.45539511793 181 181 183
121.863395466789 439.590026973764 2823.72959353752 180 180 182
107.538429104094 440.638994820246 2822.2121060451 183 184 188
95.6620190374209 441.579464625159 2822.53060555473 180 181 185
78.7636274802694 442.751673160486 2819.29962444948 189 190 194
59.3099691091439 444.04500673016 2814.33675519997 195 196 200
33.940804527409 445.615589863023 2805.28839063446 196 197 201
19.3705074383992 446.693614989758 2804.01056336859 154 153 158
7.27731993158942 447.65977494622 2804.54019124566 152 151 156
-4.00412492579694 448.59020668854 2805.68627444625 142 141 146
-15.3118437689606 449.523773777764 2806.85798470021 136 135 140
-28.3368776436439 450.539728453662 2806.88868084029 135 134 139
-42.2432095671641 451.599606665225 2806.37111777374 136 136 138
-54.4885998975819 452.583732307154 2807.04956782615 131 131 131
-53.9945554844188 452.965635952596 2816.42157013657 147 148 143
-201.589072268932 463.334845759598 2791.41126203242 132 134 131
-209.002559122435 464.109704357771 2795.82428382957 136 138 135
-207.716707461681 464.458111157011 2805.83186997503 157 157 159
-208.144220803581 464.888571447591 2814.69490679069 179 179 181
-207.673344200654 465.272953497437 2824.08954877206 209 209 211
-209.803721885135 465.78426144196 2831.79778716948 213 213 215
-212.796686784219 466.33733710649 2838.9388291699 220 220 222
-221.058697181171 467.152387237036 2842.77193562253 225 225 227
-228.44960957982 467.924635841787 2847.16292640819 212 212 214
-231.426763510284 468.476029573133 2854.28885431403 197 197 199
-236.163876908685 469.115157415541 2860.31532444777 194 194 196
301.520838922104 404.63824442161 2532.88069729597 204 206 203
308.669222156296 404.906977600966 2549.83201387852 192 194 191
311.440521915146 405.311538637865 2562.60729432696 174 174 176
312.027473984587 405.783257225056 2573.29067266982 169 169 171
308.923664288755 406.373586286018 2580.53661699826 161 161 163
304.339231748402 407.011615640916 2586.4119729809 157 157 159
302.752407564839 407.548510423776 2594.9932444689 147 147 147
298.184279175389 408.183730824556 2600.85248750887 150 150 152
292.116044455503 408.869107722252 2605.36012656683 144 144 144
282.273219107265 409.683469700913 2606.51170370622 135 135 135
276.188484372113 410.370130608551 2611.03553774715 132 132 132
269.342098669763 411.083167983297 2614.89455686774 143 143 143
264.768882733849 411.717159194203 2620.75937143227 138 138 138
255.627833072032 412.510701034085 2622.63406146604 129 129 127
244.940067918733 413.360245711808 2623.20256701709 126 126 124
221.205233003681 414.675674589298 2612.56900062025 127 128 123
165.495225997188 420.001956712521 2634.51135974972 166 166 166
172.559495925957 420.205224369004 2650.13863070397 161 161 163
178.119845252891 420.459230863068 2664.4176613924 172 172 174
183.735340675101 420.706137893521 2678.64298049063 170 170 172
188.618752552152 420.975769363058 2692.1750013915 169 169 171
190.396530781394 421.359252730117 2703.10616004074 177 177 179
190.627553452952 421.798757023908 2712.73083347808 184 184 186
189.300171405081 422.295691837541 2721.06038115608 183 183 185
187.198207465467 422.820695644207 2728.73838004237 182 182 184
185.112341412212 423.343388250289 2736.40039724198 178 178 180
181.444792766853 423.926416437522 2742.78997458713 180 180 182
178.586836680361 424.476641060882 2749.79771006549 176 176 178
175.741298026181 425.025034909875 2756.79338543764 174 174 176
171.298832198415 425.635643639417 2762.53181913247 176 176 178
167.667494987479 426.213222267567 2768.8862434304 176 176 178
165.662125215801 426.724528692967 2776.47000950498 180 180 182
162.862576672259 427.266269709778 2783.4209993031 185 185 187
159.26298118181 427.839273547943 2789.74491759731 187 187 189
151.599419144276 428.577035273707 2792.99484133282 185 185 187
146.374458455329 429.215468797861 2798.08894434 182 182 184
141.968530507419 429.820039648745 2803.79164993385 180 180 182
137.567576500375 430.423764026547 2809.48987928123 180 180 182
134.815656862684 430.958439224107 2816.39461719675 182 182 184
127.131144369026 431.697692195637 2819.66512463943 181 181 183
117.783488300579 432.507343808653 2821.74259687175 180 180 182
104.277073931327 433.49339543396 2820.83882129915 182 183 187
92.39290675034 434.413643853268 2821.16801244992 179 180 184
76.3188199917351 435.514086274785 2818.54600081225 185 186 190
54.3581425844248 436.869364460138 2811.81275518592 192 193 197
29.8134863821078 438.341207060884 2803.37714473642 199 200 204
16.9089416699086 439.319180711921 2803.29380693589 162 161 166
4.8099953550329 440.264867364524 2803.83217933986 154 153 158
-8.16032072985484 441.250559300392 2803.81335056756 143 142 147
-21.1648579803883 442.240283551718 2803.82757010216 135 134 139
-33.3577204085147 443.197059674421 2804.45790141808 134 133 138
-45.5808926933541 444.157404514357 2805.11746557295 134 134 136
-56.1352639293564 445.046342654177 2806.96459597343 133 133 133
-24.9990071914699 444.091253330534 2837.118487147 147 148 143
-217.635443856704 456.589690025156 2791.33821411925 137 142 138
-216.369051445406 456.962338953369 2801.361540611 120 120 122
-214.198386696407 457.29089708428 2811.91067506411 129 129 131
-211.117664556527 457.57461867351 2822.97964521395 147 147 149
-213.256091737343 458.098040562236 2830.69374860257 150 150 152
-214.499855188053 458.578553486908 2838.94302676749 158 158 160
-222.765788932784 459.386356855007 2842.78076238879 193 193 195
-228.396065897091 460.071257883002 2848.2704825723 183 183 185
-231.373211261342 460.631024107801 2855.39516452089 194 194 196
-234.338070514296 461.189388895119 2862.50785331118 197 197 199
-239.954701895388 461.872835040249 2867.98423825989 210 210 212
307.477245750471 396.977026461208 2539.43451 203 205 204
306.515674851912 397.52248948884 2548.81087650993 196 198 197
308.540089701996 397.979002447376 2560.90323692471 171 171 173
308.37630762299 398.495167938041 2570.90862682422 167 167 169
306.006812355122 399.07310571046 2578.84412681529 164 164 166
303.65334955469 399.648639038241 2586.76406170506 160 160 162
299.819280218312 400.266592894034 2593.31417240146 147 147 149
295.993317158826 400.883066112119 2599.85611444069 144 144 144
288.414596446844 401.61236001822 2603.02337886778 140 140 140
280.070181510966 402.365781611247 2605.52983791495 136 136 136
273.223263802969 403.074008087664 2609.39043421568 138 138 138
267.126907936139 403.759287073427 2613.92567461761 132 132 132
261.027396219958 404.444567568863 2618.46438644346 129 129 129
250.352574678144 405.274170678071 2619.02298615209 122 123 118
235.831294731897 406.228197144434 2616.29756392699 124 125 120
157.774471261617 412.22489488913 2619.23848206579 144 144 142
166.332227096802 412.427548909011 2636.21660876784 169 169 169
171.834914885373 412.726977386923 2650.54618486688 162 162 164
177.392979624109 413.019323229213 2664.82215548824 175 175 177
182.220564164158 413.331445924264 2678.40299573346 172 172 174
189.461461153839 413.55549417656 2693.8518020422 167 167 169
189.662226308266 414.018154686244 2703.50309916274 173 173 175
190.682275227701 414.449414014313 2713.76272363403 181 181 183
187.768494606331 415.015934313068 2720.82348520705 180 180 182
186.457145220285 415.52441078502 2729.13540636279 184 184 186
185.963145068731 416.001729953668 2738.05753984158 177 177 179
182.297496987757 416.590284451645 2744.44475095388 179 179 181
181.042871409008 417.090961329292 2752.70149730708 179 179 181
177.400165371537 417.676181351954 2759.06641946504 179 179 181
173.7660502225 418.260052996906 2765.42301003342 180 180 182
170.140315288573 418.842674829604 2771.77112580403 180 180 180
168.140541576108 419.364361922201 2779.34780065101 185 185 187
165.346613055373 419.913856472439 2786.29206371455 188 188 190
160.127490397513 420.552438552409 2791.38034751407 188 188 190
152.465784894221 421.28221183185 2794.62960837252 181 181 183
147.242563639042 421.920838854524 2799.72195549726 179 179 181
142.838646599687 422.528150570673 2805.42259697248 181 181 183
137.619000016508 423.165973136184 2810.5115132935 182 182 184
133.2223381032 423.771999968954 2816.20480238452 183 183 185
124.709790859638 424.535665555654 2818.87704308288 181 181 183
116.182491779091 425.301013939325 2821.56368385677 179 179 181
103.500323204357 426.228751781654 2821.266948095 182 183 187
90.7841226094739 427.160455572323 2821.00342046689 177 178 182
73.0423453067299 428.292036410773 2817.19869147069 180 181 185
50.2403823049327 429.627578912628 2809.88686248385 189 190 194
26.5220976727547 431.005930197325 2802.06138014259 202 203 207
12.7722342670484 431.994278951973 2801.39901354731 187 186 191
0.663912465793004 432.919964686988 2801.94998991674 161 160 165
-12.3162590995576 433.882970757124 2801.94396290127 147 146 151
-24.4867366722032 434.816020464125 2802.55557247868 136 135 140
-34.9964096493363 435.683962298891 2804.36142009205 136 135 140
-47.2231756260917 436.623636303004 2805.02794581861 133 133 135
-56.9321211250746 437.46252930887 2807.4598619312 139 137 138
-15.5834033970592 436.204020330033 2844.5217368468 147 148 143
-221.924548603899 448.829468657444 2789.65909359436 139 144 140
-222.408994205493 449.299892831498 2798.57275834098 132 132 134
-220.251946648531 449.654728142062 2809.1315311114 138 138 140
-215.43597389979 449.891777004365 2821.31842644102 138 138 140
-214.95494720531 450.313386117584 2830.69748708773 158 158 160
-215.324347041949 450.769926117641 2839.49896176391 185 185 187
-220.951395664329 451.454744490386 2844.98548837258 176 176 178
-227.460074611795 452.17829309985 2849.92451545517 182 182 184
-230.435298945654 452.746279174844 2857.0460749019 191 191 193
-234.284248941885 453.352103877966 2863.61275499698 193 193 195
-237.236984124454 453.917520197821 2870.71236219272 208 208 210
309.995377589205 388.90233689482 2532.45942833797 212 214 213
308.276758143005 389.485242524677 2541.16477408698 194 195 197
305.839455080776 390.083758187599 2549.164566817 191 192 194
305.639760703129 390.623792769216 2559.20209031873 165 166 170
304.725304916928 391.178942927324 2568.53023907194 164 165 169
303.09027377059 391.749912118487 2577.15468244594 157 158 162
301.474976804311 392.317993758816 2585.75961842417 153 154 158
297.634766535122 392.942235362041 2592.3148978313 146 147 149
292.302161503964 393.604883039108 2597.51231442035 141 142 144
286.217858825043 394.287243723686 2602.03635499414 138 139 141
275.60504528055 395.091928779886 2602.53706272213 134 136 135
267.233690135538 395.837719443785 2605.07140164321 134 136 135
259.60547980289 396.56418414156 2608.28789030898 125 127 124
255.006382460547 397.207158091153 2614.17707784784 123 125 122
243.55376822581 398.041437635822 2614.0900988636 119 120 115
159.387792524924 404.582883195029 2621.59973482846 155 157 154
164.830904695432 404.928063410187 2635.98170831015 170 172 171
171.892128531673 405.218517187613 2651.5991180087 167 168 170
178.233009236603 405.524937628439 2666.51256990168 178 178 180
183.062223740911 405.872252582988 2680.08692800971 175 175 177
187.942694020886 406.212958510527 2693.6113651861 171 171 173
190.506885969288 406.621149061573 2705.1748609936 175 175 177
190.737239732175 407.099067419143 2714.79452108529 180 180 182
188.616196532623 407.648838692827 2722.48746749594 181 181 183
186.511503332893 408.196312913936 2730.16451761843 180 180 182
185.22026553527 408.715833277202 2738.45517322925 181 181 183
182.351290956401 409.284459463042 2745.47113049052 178 178 180
180.29560470048 409.825106923105 2753.10052498565 178 178 180
177.453483743302 410.389905517046 2760.09038192002 181 181 183
174.62384345566 410.95292433339 2767.0681084154 181 181 181
172.613273285432 411.487294505721 2774.65362975089 180 180 178
168.193186279976 412.100726589965 2780.36908581177 192 192 192
165.399010684021 412.658684830146 2787.31234329498 193 193 193
157.742199537464 413.380322572776 2790.55794641362 188 188 188
152.517953024015 414.019609564984 2795.65121409177 180 180 180
147.29457972775 414.658609567812 2800.74365706925 180 180 182
145.345453818284 415.184188722392 2808.26980049607 179 179 181
139.31107604912 415.850155462989 2812.74635007221 183 183 185
134.918401015022 416.458791996179 2818.43563226265 181 180 185
126.40943767567 417.211610814845 2821.10557939673 181 180 185
120.364284742039 417.878333209958 2825.59305502706 188 189 191
109.347910407752 418.722099750733 2826.48872835869 180 184 185
94.9855016751657 419.687704822616 2825.02108051675 180 184 185
76.4217703012413 420.807933711549 2820.61733255941 176 177 179
52.7939425728494 422.116502328007 2812.71233902337 192 193 195
27.4102973584314 423.496082912116 2803.70658403347 204 205 207
12.8246052533529 424.488286764936 2802.45639075095 193 193 195
-1.80262640830753 425.485478425685 2801.24704750835 182 182 184
-13.9468067395239 426.394220045331 2801.83613626096 154 154 156
-25.2777832159241 427.275213016552 2803.03837427823 142 140 143
-34.0984161461009 428.064449713372 2806.01276921882 134 132 135
-48.8653069661948 429.078186191257 2804.93966426834 139 139 141
-61.9753548501807 430.032798327885 2805.06384697691 135 135 135
-20.6393018398461 428.924280989784 2842.11612944538 149 151 148
-224.095439036852 441.425692339796 2798.57740774717 134 134 136
-221.942609929897 441.805633007151 2809.13632109805 139 137 140
-217.130719810408 442.075894764024 2821.32236168755 137 135 138
-216.653652696167 442.51722688268 2830.70243920438 134 134 136
-218.783696044763 443.062000010203 2838.4050616199 142 142 144
-225.298605924541 443.783962336722 2843.3508484043 169 169 171
-230.934544132451 444.470284680344 2848.84598021657 163 163 165
-233.917498560671 445.047677798745 2855.97382540437 164 164 164
-237.774111632008 445.660218014827 2862.54712249643 176 176 176
-241.622644262346 446.271782085252 2869.11220202303 211 213 212
302.712064261885 381.569243886892 2526.60558738006 207 209 208
310.549628461056 381.966740000191 2544.27007744674 188 189 191
308.856501715824 382.55971630249 2552.94895796784 183 184 188
307.183066364242 383.149839932274 2561.6083684257 163 164 168
302.559669791608 383.802052466221 2567.51998215872 162 163 167
300.918402409072 384.387429632965 2576.14848871495 151 152 156
300.043365861063 384.953266593183 2585.43591407723 148 149 153
296.198760313337 385.583588914292 2591.99432149149 144 145 147
291.61238512742 386.229735508866 2597.87040682541 140 141 143
284.021386086649 386.944727716992 2601.05163975722 146 148 147
273.402620509641 387.731499487883 2601.56090551723 149 151 150
263.513149797205 388.503298964912 2602.76509291198 133 135 134
253.600829883936 389.277566164979 2603.99160517253 114 116 113
245.185783281873 390.01750029426 2606.5705337916 116 118 115
230.659995648772 390.90817281827 2603.85895145119 121 122 117
156.33627422913 397.074000599373 2620.07177206141 164 166 163
167.227308772494 397.312492574312 2638.97868747508 172 174 173
176.638037014053 397.582605417145 2656.5170767435 175 176 178
181.423283477923 397.970962475356 2670.12902976065 173 173 175
184.689111116831 398.395795741147 2682.41024048715 175 175 177
188.785822678292 398.793190573183 2695.28767374407 166 166 168
192.929984460863 399.184485613242 2708.11888977657 169 169 171
192.37472928861 399.703109697232 2717.09574554797 184 184 186
191.050328063507 400.241064846981 2725.41627043714 182 182 184
186.566125972313 400.867149740581 2731.19352364625 179 179 181
186.071484388459 401.377542830378 2740.11140576569 180 180 182
182.405370710432 401.977566492186 2746.49738408535 179 179 181
181.951187968362 402.482446320327 2755.37590483447 179 179 181
179.11268926625 403.055191329235 2762.36099033935 180 180 182
175.481851942175 403.650132226928 2768.71235210637 184 184 184
173.472986973042 404.195432539772 2776.29456468198 186 186 186
168.24607371357 404.836087672152 2781.39027826783 189 189 189
163.830720330063 405.451740473896 2787.10104339305 185 185 185
156.169898350466 406.166129445078 2790.35170069344 183 183 183
152.570363345027 406.756062749257 2796.67271891547 177 177 177
148.979628016572 407.344755738769 2802.98552008812 178 178 180
146.215760652042 407.906588576657 2809.89810838564 180 180 182
139.362998719218 408.595839775926 2813.76697478369 182 182 184
134.970168669764 409.207503261415 2819.45596352444 183 182 187
129.757832075316 409.844728615241 2824.53770918622 184 183 188
123.720079320693 410.508231353884 2829.01797435123 188 189 191
111.055605373849 411.386078657505 2828.71137920421 181 185 186
94.2071744531559 412.402958189746 2825.45340616523 182 186 187
78.9693177621094 413.371738951682 2823.43771240422 177 178 180
61.1842697292819 414.428341273883 2819.68703367461 187 188 190
35.8203433999034 415.741248411588 2810.67155184662 201 202 204
16.228148404692 416.869584136944 2805.8709759641 200 200 202
-0.0704867572918211 417.8929276753 2803.48333939168 198 198 200
-11.3694512170537 418.751634171378 2804.65708293449 161 161 163
-26.0683074400836 419.728075988782 2803.52193075792 147 145 148
-39.1181501011744 420.651717160742 2803.59090628521 144 142 145
-58.1332129615517 421.783306582952 2799.63399592595 132 132 134
-71.2644283399726 422.71664587504 2799.78234238655 137 137 137
-51.2316086084366 422.499461480661 2822.43187612178 143 145 142
-227.522874020926 433.603795586229 2797.46866132249 126 124 127
-227.122598130496 434.073724414199 2806.9211049206 137 135 138
-221.44833998586 434.345715737811 2819.6671171595 150 148 151
-217.475433778407 434.676797908647 2831.26038262778 146 146 148
-221.364066033703 435.298724368337 2837.86375011813 148 148 150
-227.004599863821 435.986038844946 2843.36329881437 166 166 168
-233.526419307188 436.706601931924 2848.31615370455 160 160 162
-234.747009787182 437.225972948995 2856.53667755791 159 159 159
-241.263768584515 437.946058521106 2861.48423988626 168 168 168
-246.007587679391 438.598402138755 2867.51575343192 210 212 211
305.714338592141 374.00517997222 2530.41022504442 204 206 205
308.402867842322 374.540088655553 2543.24843250632 185 186 188
306.703504860891 375.147472933432 2551.93137620965 177 178 182
306.504876033383 375.725496531842 2561.96222684425 161 162 166
300.394287843392 376.407881706377 2566.5120278575 160 161 165
298.002445031318 377.021469340271 2574.46478809836 150 151 155
294.133710024998 377.660759930098 2581.0458309155 147 148 152
291.770020031102 378.270090828013 2588.97126413546 142 143 145
285.670956554052 378.949578393112 2593.51004920381 138 139 141
278.064181404083 379.658657607726 2596.70782198312 140 142 141
265.167303419048 380.473605817539 2595.22405678048 148 150 149
256.768502997118 381.201673548064 2597.78860655106 146 148 147
247.596679240111 381.946688111387 2599.70136586855 114 116 113
237.645850040269 382.709446169566 2600.96781946609 108 110 107
147.065021068292 389.685488120857 2613.36601924144 165 167 164
164.947111733042 389.820784795154 2638.0991621856 172 174 173
176.695568656382 390.088169194499 2657.56762137293 176 177 179
185.397054533134 390.418992379453 2674.38441651436 172 172 174
189.45741458849 390.853769601867 2687.29208441125 176 176 178
190.416507278888 391.358758516819 2697.60134211832 166 166 168
193.774794230997 391.801567652371 2709.78808255431 168 168 170
193.221130941398 392.336561294499 2718.76093814917 185 185 187
192.691577301521 392.868250172474 2727.71034094814 183 183 185
187.416091950443 393.516945075641 2732.85309906437 179 179 181
186.922917956496 394.043647977322 2741.76677542027 180 180 182
182.459693194188 394.669669935755 2747.52354497548 181 181 183
182.00516807351 395.191133681987 2756.39995461577 180 180 182
178.363562575804 395.793328961713 2762.7609371439 180 180 182
174.730757293589 396.394224890058 2769.11371081351 182 182 182
171.106332495736 396.993841487793 2775.45801378078 185 185 185
165.064904402891 397.657263803869 2779.94227833939 188 188 188
161.452066848162 398.254993825799 2786.27569168002 183 183 183
157.035180439009 398.873712915779 2791.98718808431 178 178 178
154.25195157665 399.446743448842 2798.91734762093 178 178 180
149.032142989992 400.086031173714 2804.00620826389 179 179 181
145.449839214076 400.679204301745 2810.30997461771 186 185 190
140.235582347088 401.317438331181 2815.39347805669 184 183 188
137.488544226751 401.88524134257 2822.28813443491 186 185 190
131.457823468644 402.545751155069 2826.7621969186 187 186 191
123.771915071706 403.254133015245 2830.03865325064 189 190 194
110.279353521825 404.132205931654 2829.13708082964 182 186 189
95.0892348842629 405.063331778015 2827.0795478559 186 190 193
80.6850614648904 405.975364101363 2825.66095315218 187 188 192
62.9042451503734 406.991439045968 2821.91240003443 178 179 183
39.2159312136391 408.189518350634 2814.08380046946 188 189 193
18.7939109094439 409.296745648145 2808.69312604254 206 205 210
2.50137092574665 410.284781506615 2806.30499316964 203 202 207
-12.1578472849939 411.227256182442 2805.13516234759 193 192 197
-31.0759667427059 412.304533644181 2801.08967519845 168 167 172
-50.0551803892217 413.38918867062 2797.10376508109 141 140 145
-68.2478587485473 414.454679195067 2793.75689346116 144 144 146
-79.7035362507423 415.313669109563 2795.08655132462 130 132 131
-61.393205749563 415.23398230309 2816.5920637678 155 157 154
-229.208506299309 425.701040200537 2797.47672425243 140 138 141
-233.174824959406 426.338244366801 2804.15497745281 129 127 130
-231.011607160036 426.766219244262 2814.69681308527 132 130 133
-225.307616289225 427.069977965351 2827.40894292207 147 147 149
-224.822313163133 427.548866900779 2836.77529107627 155 155 157
-228.710066612014 428.176595902109 2843.37726612774 143 143 145
-233.471638757612 428.834021115467 2849.42531981558 145 145 147
-237.344342480172 429.46000028173 2856.0126088912 165 165 165
-244.752715303225 430.209624174464 2860.42428205896 160 160 160
-253.94384878323 431.022953807646 2863.76302859707 181 183 182
-266.709255593478 431.96464742179 2864.96379629439 205 207 206
308.262032235935 365.863136306814 2523.41574297939 169 171 170
308.716542982394 366.461587057386 2534.21190655541 182 183 185
308.466075950947 367.065841273122 2544.29035641904 181 182 184
306.766333202055 367.686924710054 2552.97165250735 169 170 174
305.826695319898 368.294560448332 2562.31671226629 159 158 163
300.456444836512 368.963899904088 2567.55052230393 158 157 162
296.575440206667 369.610650604068 2574.14298427958 149 148 153
291.209969543695 370.278591408355 2579.37225460497 146 146 148
288.089750027385 370.911530256135 2586.62819641985 140 140 142
280.480354865654 371.613362270659 2589.82964204259 136 136 138
270.603255332644 372.352319201503 2591.02639878727 125 125 125
257.68684099337 373.142928947552 2589.5656306875 107 107 107
249.268409543276 373.862857092336 2592.15087738646 98 98 98
241.59289321863 374.571462056165 2595.41698126248 119 119 117
229.346451928818 375.35920701861 2594.70825275205 115 115 113
150.234346407193 381.988222510751 2617.02479777916 171 173 170
166.564443001183 382.234717189673 2640.44850228432 178 180 179
179.878745788952 382.53007639449 2661.19173735223 183 184 186
183.887506228754 383.004220651183 2674.14516384166 175 175 177
187.158313704618 383.488367941518 2686.41266292952 177 177 179
189.685489725505 383.983221091607 2698.00010740595 171 171 173
193.830691751967 384.439722452135 2710.8206529952 168 168 170
194.067747847541 384.97434944882 2720.42527605936 184 184 186
193.53980761815 385.522375686595 2729.37066206322 184 184 186
186.676035664596 386.205820677089 2733.25131972974 180 180 182
185.383973404437 386.766841093146 2741.53666035437 179 179 181
180.916450655191 387.396425329185 2747.29683352907 182 182 184
182.05945495337 387.89877989977 2757.42385364586 181 181 183
178.417626882545 388.506752698957 2763.78420327753 181 181 183
175.589243944745 389.094881148521 2770.7569700131 181 181 183
168.740235378426 389.775095658555 2774.62378272345 186 186 188
164.30988258435 390.398903107849 2780.34789938976 187 187 189
161.505357155138 390.983434251111 2787.29750694692 181 181 183
158.713311856955 391.56624465349 2794.23497587423 177 177 179
154.304860513119 392.186730873129 2799.93783495298 178 178 180
147.452165636983 392.866302731295 2803.80806536514 180 179 184
142.229145658913 393.506142725148 2808.90003334213 186 185 190
137.827393431736 394.125211172927 2814.59678748706 185 184 189
135.074513971686 394.702258535519 2821.49621593289 185 184 189
126.565431859204 395.423868333803 2824.17089369003 187 186 191
117.215841312691 396.168295383214 2826.26026489167 190 191 195
104.535777848673 397.000267828403 2825.97559280772 185 186 190
94.3114612304523 397.7714390999 2827.51237998534 187 188 192
78.24191101122 398.698118175173 2824.9115456437 192 193 197
63.7905132720098 399.586547454423 2823.54367174928 180 181 185
43.447244680098 400.636200035491 2818.08330522584 197 198 202
23.0353113949806 401.694171525719 2812.69023206866 209 208 213
2.55463244882526 402.760308263819 2807.36421754907 207 206 211
-16.3119522238366 403.788749329636 2803.27477359454 207 206 211
-39.4568691881707 404.940834012288 2796.33028010586 189 188 193
-57.6096441783922 405.961608062799 2792.95039292584 159 158 163
-73.2777592840179 406.918066967231 2791.36343545406 134 134 136
-82.1972105220099 407.68809502209 2794.43879746401 138 140 139
-52.8277512269515 407.370188837644 2823.41881274925 161 163 160
-230.893945814174 417.786745146272 2797.48596348133 149 147 150
-237.481281743935 418.510643730363 2802.50338422599 140 138 141
-240.574242176067 419.126730729429 2809.7347480632 127 125 128
-236.644354470791 419.523072978374 2821.36074828703 124 124 126
-230.036662785682 419.831711146829 2834.59167799361 125 125 127
-228.654911191457 420.3001643379 2844.48662912518 134 134 136
-232.53433962227 420.932694790155 2851.0792898163 157 157 159
-239.057351136523 421.648926525797 2856.03396862232 170 170 172
-247.355333730507 422.422528876608 2859.90858412012 163 163 165
-255.664327998177 423.197489939442 2863.79393355563 174 175 177
-270.21289089422 424.176403172207 2863.92608192721 192 193 195
306.860871385023 358.36072422501 2523.08181316912 172 174 173
307.311033223463 358.981423752683 2533.87900691555 178 179 181
304.846741055844 359.627437465476 2541.89891787717 179 180 182
302.398239332976 360.271090282346 2549.90315979111 166 167 171
299.965716931103 360.912345354532 2557.89188838871 160 159 164
295.321961592293 361.575674914283 2563.82207558594 158 157 162
292.171303513214 362.221355319347 2571.10636014701 145 144 149
286.793873285098 362.89098072333 2576.34725751429 141 141 143
283.661631057376 363.533690860624 2583.61369386701 139 139 141
276.0403610046 364.229088586686 2586.82788241712 137 137 139
263.142895464633 364.990891501236 2585.35255551664 128 128 128
246.436616486405 365.805016589049 2580.56681904001 115 115 113
237.232626384742 366.527828656931 2582.51446369039 99 99 97
232.557689841622 367.192199630437 2588.47546036395 105 105 103
145.628971379228 374.436244927995 2614.21205066022 173 175 172
164.284819786357 374.722003137403 2639.57151189649 176 178 177
174.467230544787 375.134966792161 2657.73940504819 182 183 185
180.028386205593 375.617169446748 2671.9839077423 177 177 179
185.644940613648 376.092227749018 2686.17479243559 176 176 178
188.954953051545 376.601241372733 2698.39968518338 174 174 176
191.519402478217 377.118550762367 2709.94679759447 171 171 173
191.750309629365 377.673147284218 2719.55457516424 176 176 178
188.837186991527 378.281599922561 2726.6084857684 184 184 186
184.346503676944 378.917524107803 2732.39072068514 181 181 183
183.84513873562 379.478269113469 2741.30783720676 175 175 177
180.9713076026 380.081149260635 2748.32355437757 181 181 183
181.313044332313 380.620830451875 2757.82348101681 180 180 182
177.669269023417 381.234814638446 2764.18521364623 180 180 182
174.838704479881 381.831650656265 2771.15885977376 186 185 190
167.987470546936 382.507028459127 2775.02825932728 187 186 191
162.746453157705 383.150523080046 2780.13755884732 176 175 180
159.937854378648 383.743970791553 2787.0898934362 172 171 176
158.766640066337 384.302169341564 2795.25564733272 181 180 185
153.543719380552 384.94276341279 2800.34740525869 184 183 188
145.872738887669 385.634816010979 2803.61145141912 192 191 196
139.009143771511 386.31051379204 2807.49307851766 177 176 181
135.41957246163 386.915925122888 2813.80225283912 174 173 178
131.838444604081 387.520137638253 2820.10288203 163 162 167
123.321737954515 388.232317079215 2822.78686270986 171 170 175
113.964401821694 388.964570534547 2824.8857246451 187 188 192
102.104524484386 389.754957409673 2825.20965125955 193 194 198
91.8743997846438 390.511057236635 2826.75443350091 188 189 193
74.1356591957687 391.442131498479 2822.97666162939 191 192 196
60.508387176335 392.28308291174 2822.214345238 190 191 195
40.9934950147584 393.265927148067 2817.35851007747 186 187 191
24.7640441585535 394.177147068152 2814.91874428849 190 191 195
5.96646855206773 395.154578311669 2810.76831254057 204 205 209
-12.0506985427831 396.119026116135 2807.26175186837 217 216 221
-31.8117515645295 397.131428619559 2802.64598938195 224 223 228
-55.0192088368782 398.234980781323 2795.77111027103 227 226 231
-73.2233141656415 399.221933681623 2792.44685578523 181 181 183
-81.2935159150947 399.960363551192 2796.10048001455 148 150 149
-47.6669676932802 399.645532740103 2827.93791079792 150 152 149
-234.807902109434 410.462352021075 2805.28927852405 153 151 152
-243.141270772979 411.232395587814 2809.19955889876 131 129 130
-243.59875340889 411.782448759305 2818.07467989083 129 129 129
-237.006672719618 412.131089834913 2831.31519913484 126 126 126
-233.880341586113 412.573319351962 2842.31545147728 133 133 135
-237.771220108216 413.213088661656 2848.91875022034 159 159 161
-245.189875839838 413.954013662316 2853.34192016077 153 153 155
-252.615377102541 414.695831135352 2857.77175590774 152 152 154
-258.272122354089 415.38654560223 2863.28690026803 165 166 168
-269.266902201469 416.234695113766 2865.57772931348 173 174 176
303.994747586196 350.854828772651 2521.36930942747 166 168 167
305.171177120136 351.493871718812 2532.85950678454 173 174 176
302.700684116961 352.151576378354 2540.8838473507 176 177 179
300.984410958395 352.802000371826 2549.57688401674 157 158 162
296.326508124766 353.470314211227 2555.5207210531 157 156 161
292.415066024359 354.132296059423 2562.14081888792 150 149 154
287.023281410128 354.804261781296 2567.39562447485 140 140 142
282.378177754717 355.469913679945 2573.32680732972 144 144 146
277.73760268707 356.134657311694 2579.25396531344 133 133 133
271.60078913034 356.811355864372 2583.83064898378 138 138 138
257.939533255402 357.554444881858 2581.69963376491 111 111 109
238.957463201546 358.350605505172 2574.92538081362 104 104 102
225.95386167258 359.098132167946 2573.55755854297 103 103 101
218.975496461119 359.791246984466 2577.55057981253 106 107 102
155.017863424462 366.674853767284 2623.03979762858 176 178 175
164.34369268394 367.162001399653 2640.63041519413 174 176 175
175.306755448805 367.619091711832 2659.43349678031 183 184 186
179.302950912405 368.160127958751 2672.38951386991 177 177 179
183.346554079961 368.695069773657 2685.29935516307 174 174 176
185.863197663566 369.245826353727 2696.88899600288 176 176 178
188.419468850415 369.791410338271 2708.44005055422 171 171 173
190.224440723001 370.343300674862 2719.31931503708 172 172 174
188.100084117004 370.94903829062 2727.00727990839 183 183 185
185.197218295067 371.564394561225 2734.04998498891 181 181 183
183.900484680213 372.15361432447 2742.33545864461 174 174 176
183.42288620224 372.727727039145 2751.22699897524 179 179 181
182.16871223108 373.311303085428 2759.47138225649 179 179 181
178.526503328256 373.930763846876 2765.83041214417 179 179 181
174.088477469014 374.562100594197 2771.56137329265 186 185 190
168.848454655591 375.205971068057 2776.6696296333 185 184 189
164.417705988734 375.835931696946 2782.39322996987 170 169 174
162.423169602002 376.423622799753 2789.95494871109 168 167 172
157.19535432766 377.065394115491 2795.05139303963 185 184 189
151.154123523027 377.721155097224 2799.53659403 190 189 194
141.028359407184 378.449887127183 2800.98178961726 192 191 196
134.971401294301 379.10718851982 2805.48238038515 164 163 168
132.192069614899 379.704583111409 2812.40506896427 158 157 162
128.603023579319 380.31554329951 2818.71256371991 140 139 144
120.902507972149 381.002768788309 2822.0066521301 149 148 153
111.539317727874 381.722669167929 2824.11315306375 185 186 190
100.501721370649 382.476647961978 2825.04317076763 196 197 201
90.2677443784783 383.217429786115 2826.59404238644 189 190 194
71.6933999296789 384.125382047845 2822.23220776213 188 189 193
61.3952903877015 384.873747563884 2823.8456430846 193 194 198
46.0607770455761 385.726292366335 2821.94277258902 187 188 192
29.0055547663775 386.618651298767 2818.90888835823 201 202 206
11.8971045104104 387.517337166056 2815.92692517703 214 215 219
-4.42330918677314 388.404820008177 2813.58099516358 232 231 236
-21.6364312913218 389.316111736882 2810.70110953454 233 232 237
-48.201841678265 390.433070634262 2801.49043304155 235 234 239
-73.1684791230229 391.524955160711 2793.53001384126 231 231 233
-233.879179387179 402.472326850589 2806.96487468033 167 165 166
-239.587582981089 403.169553672339 2812.53035401503 142 140 141
-244.418880616959 403.844791122089 2818.64501350468 129 129 129
-244.854492572436 404.408863777934 2827.49634451411 119 119 119
-244.386085749765 404.947613242005 2836.87062358738 129 129 131
-244.77191254095 405.505675046556 2845.6734055939 124 124 126
-249.553893239731 406.175019641318 2851.73996359738 128 128 130
-253.445123501939 406.820759660503 2858.34272915531 140 140 142
-258.216093873303 407.488893135027 2864.39853274395 152 153 155
-266.541530626871 408.250683592823 2868.30215642069 167 168 170
301.861464306911 343.324698200724 2520.34957547434 112 114 113
300.828073245878 343.994233997061 2529.77892256628 167 168 170
296.87226849643 344.668354001802 2536.44127915316 178 179 181
293.663223507126 345.338879261681 2543.77987072051 160 161 165
291.206606408973 346.00507877222 2551.7888389306 158 157 162
286.539093070492 346.677110343587 2557.74166986119 150 149 154
283.364400197876 347.342331987688 2565.04693314095 136 136 138
276.470502326327 348.021702490492 2568.95810849689 138 138 140
272.562193659387 348.68790533458 2575.57480876659 122 122 122
264.911359603684 349.371167458641 2578.82014844532 125 125 125
250.480327682288 350.090914563393 2576.03973498477 116 116 114
230.724764392592 350.845243407044 2568.62250781005 111 111 109
216.187816429678 351.577533794699 2565.9457544947 98 98 96
148.0809981308 359.125807608686 2618.29109359287 173 175 172
158.947344828058 359.652142857561 2637.1799812925 174 176 175
170.677551734153 360.160386349086 2656.63096414811 176 177 179
178.577743577413 360.696718584155 2672.79583480252 176 176 178
184.974366758583 361.240550623812 2687.61850641995 176 176 178
184.345990786531 361.851243947663 2696.65436443304 174 174 176
185.319953518331 362.441691089639 2706.93622528055 169 169 171
186.325574337914 363.027983358053 2717.18692542541 171 171 173
187.363294773494 363.61003901544 2727.40671418831 179 179 181
189.227571516999 364.178731740742 2738.22426682995 175 175 177
189.534068314355 364.761686457633 2747.75279143477 174 174 176
187.47230413915 365.370105169381 2755.3785426742 180 180 182
183.825129577228 365.99620675136 2761.74152202439 177 177 179
178.581315467227 366.641351257553 2766.85335487717 180 180 182
174.143134323375 367.27574447553 2772.58401848053 188 187 192
169.709421547191 367.909410516193 2778.31001456324 177 176 181
166.088934307896 368.531292689128 2784.64711663437 167 166 171
162.477225487008 369.151937227376 2790.9760223701 180 179 184
156.436991693945 369.805479126619 2795.46056129266 187 186 191
148.764938397156 370.482453011554 2798.72790139047 183 182 187
141.082151672961 371.160544140255 2802.00573481221 160 159 164
136.661375151064 371.791370499574 2807.71930470685 134 134 136
132.245593020849 372.421436260901 2813.42836535475 153 153 155
128.656388187882 373.038165928518 2819.73516507199 203 203 205
120.955750990266 373.717770282695 2823.03050062366 211 211 213
113.244401623821 374.398489200656 2826.33630878529 155 155 157
101.382867391444 375.146761782822 2826.66844303714 143 143 145
89.4910655502539 375.898627240616 2827.02976460454 150 150 152
71.7468484810855 376.750341717871 2823.26916030041 191 191 193
59.7812632345915 377.510948542422 2823.70245790981 194 194 196
45.2788410764193 378.317769802492 2822.3973136473 236 237 239
31.5722110756416 379.11515237139 2821.72024036067 231 232 234
16.9883311658303 379.931682471514 2820.49454988739 233 234 236
