ply
format ascii 1.0
comment KinectMotionCapture
element vertex 760
property float x
property float y
property float z
property uchar red
property uchar green
property uchar blue
end_header
-38.7019105255604 428.24250459671 2670.00007629395 163 165 162
-31.3568040728569 427.282631397247 2664.00003433228 183 185 182
-24.0623764693737 426.643013954163 2660.00008583069 185 187 184
-16.7580526322126 425.2008497715 2651.00002288818 185 187 184
-9.51709784567356 424.399793148041 2645.99990844727 183 185 182
-2.30422895401716 423.758655786514 2641.99995994568 179 181 178
4.88314591348171 422.796159982681 2635.99991798401 177 179 176
12.042386457324 421.993672847748 2631.00004196167 172 174 171
19.1743355244398 421.190589666367 2625.99992752075 169 171 168
26.3090543448925 420.868277549744 2624.00007247925 167 169 166
33.4710292518139 421.026527881622 2625 162 164 161
40.6383387744427 421.184360980988 2625.99992752075 158 160 157
47.8291511535645 421.502113342285 2628.00002098084 156 158 155
54.9260713160038 421.017378568649 2625 155 157 154
62.1010474860668 421.173691749573 2625.99992752075 155 157 154
69.2812576889992 421.32955789566 2627.00009346008 155 157 154
76.4957591891289 421.645283699036 2628.99994850159 157 159 156
83.5299640893936 420.998215675354 2625 156 158 155
90.6457304954529 420.831829309464 2624.00007247925 156 158 155
97.7557227015495 420.664966106415 2622.99990653992 156 158 155
104.939930140972 420.818418264389 2624.00007247925 158 160 157
112.12919652462 420.97133398056 2625 162 164 161
119.459845125675 421.604841947556 2628.99994850159 159 161 158
126.811861991882 422.23784327507 2632.99989700317 158 160 157
134.185254573822 422.870427370071 2637.00008392334 158 160 157
141.579940915108 423.502445220947 2641.00003242493 158 160 157
148.995935916901 424.133956432343 2644.99998092651 156 158 155
156.551316380501 425.085753202438 2651.00002288818 155 157 154
164.385929703712 426.678329706192 2661.00001335144 152 154 151
172.338932752609 428.430765867233 2671.99993133545 152 154 151
180.216804146767 429.861932992935 2680.99999427795 152 154 151
187.863290309906 430.651247501373 2686.00010871887 149 151 148
196.045011281967 432.562321424484 2697.99995422363 149 151 148
204.140603542328 434.152185916901 2707.99994468689 152 154 151
212.52429485321 436.222493648529 2720.99995613098 158 160 157
220.49306333065 437.330275774002 2727.9999256134 161 163 160
229.000434279442 439.399421215057 2740.9999370575 166 168 165
238.871827721596 443.872481584549 2769.00005340576 150 152 149
267.23301410675 428.883194923401 2676.00011825562 209 211 208
270.198941230774 422.134637832642 2634.0000629425 149 151 148
274.409890174866 417.629808187485 2605.99994659424 163 165 162
279.11588549614 414.086490869522 2584.00011062622 166 168 165
284.808844327927 412.145584821701 2572.00002670288 168 170 167
291.11635684967 411.165833473206 2565.99998474121 173 175 172
297.855079174042 410.826742649078 2563.99989128113 183 185 182
305.176496505737 411.288470029831 2566.99991226196 193 195 192
312.14851140976 411.269187927246 2566.99991226196 168 170 167
319.243878126144 411.409735679626 2568.00007820129 169 171 168
326.851904392242 412.190675735474 2572.99995422363 191 193 190
336.821556091309 415.854692459106 2595.99995613098 186 188 185
-276.206344366074 452.530652284622 2871.99997901917 208 213 209
-268.022894859314 451.917946338654 2868.00003051758 180 185 181
-259.678810834885 450.989574193954 2861.99998855591 172 177 173
-252.070635557175 451.321303844452 2864.00008201599 147 152 148
-244.194909930229 451.179891824722 2862.99991607666 140 142 139
-236.736729741096 451.826065778732 2867.00010299683 137 139 136
-228.856652975082 451.683670282364 2865.9999370575 136 138 135
-221.366956830025 452.328830957413 2869.99988555908 128 130 127
-213.929191231728 453.131288290024 2875 128 130 127
-206.82193338871 454.721361398697 2884.99999046326 127 129 126
-199.590593576431 456.153392791748 2894.00005340576 112 114 111
-192.640781402588 458.373159170151 2907.99999237061 123 128 124
-185.804709792137 461.065411567688 2924.99995231628 118 123 119
-100.236132740974 435.464859008789 2762.00008392334 208 213 209
-91.6717574000359 430.58380484581 2730.99994659424 194 196 193
-83.9545205235481 429.17075753212 2721.99988365173 188 190 187
-76.2579068541527 427.59957909584 2711.99989318848 196 198 195
-68.5901045799255 425.870150327683 2700.99997520447 199 201 198
-60.9820038080215 424.140214920044 2690.00005722046 187 189 186
-53.5134002566338 423.040419816971 2683.00008773804 164 166 163
-46.0655279457569 421.782374382019 2674.99995231628 162 162 160
-38.7190766632557 421.154588460922 2671.0000038147 170 172 169
-31.3589684665203 420.053213834763 2664.00003433228 184 186 183
-24.0459442138672 419.109135866165 2657.99999237061 188 190 187
-16.7402438819408 417.533725500107 2648.00000190735 184 186 183
-9.51056182384491 416.903883218765 2644.00005340576 178 180 177
-2.30089947581291 415.958255529404 2638.00001144409 176 178 175
4.8816311173141 415.485084056854 2634.99999046326 174 176 173
12.0432171970606 414.853781461716 2631.00004196167 169 171 168
19.1902667284012 414.379686117172 2628.00002098084 167 169 166
26.3309217989445 414.062738418579 2625.99992752075 165 167 164
33.4860906004906 414.060682058334 2625.99992752075 160 162 159
40.7030507922173 414.688915014267 2630.00011444092 159 161 158
47.941654920578 415.316551923752 2634.0000629425 158 160 157
55.0554096698761 414.840012788773 2631.00004196167 156 158 155
62.1999241411686 414.678335189819 2630.00011444092 154 156 153
69.2860186100006 414.200812578201 2627.00009346008 153 155 152
76.5010192990303 414.511144161224 2628.99994850159 153 155 152
83.6311653256416 414.348006248474 2628.00002098084 153 155 152
90.7555818557739 414.184391498566 2627.00009346008 153 155 152
97.91149944067 414.177983999252 2627.00009346008 155 157 154
104.987092316151 413.855761289597 2625 157 159 156
112.179562449455 414.006024599075 2625.99992752075 160 162 159
119.422547519207 414.313495159149 2628.00002098084 162 164 161
126.724168658257 414.778172969818 2631.00004196167 160 162 159
134.092584252357 415.399968624115 2634.99999046326 159 161 158
141.589537262917 416.336506605148 2641.00003242493 159 161 158
149.118691682816 417.272597551346 2647.0000743866 157 159 156
156.798109412193 418.52343082428 2654.99997138977 155 157 154
164.644107222557 420.088976621628 2664.99996185303 152 154 151
172.479510307312 421.496391296387 2674.00002479553 151 153 150
180.161654949188 422.430425882339 2680.0000667572 151 153 150
187.875866889954 423.363924026489 2686.00010871887 149 151 148
195.985406637192 425.084948539734 2697.00002670288 149 151 148
204.078763723373 426.647841930389 2707.00001716614 157 159 156
212.382137775421 428.525388240814 2719.00010108948 168 170 167
220.669254660606 430.244833230972 2730.00001907349 156 158 155
229.099050164223 432.121247053146 2742.00010299683 169 171 168
239.146277308464 436.833620071411 2772.0000743866 156 158 155
266.551077365875 420.521825551987 2668.99991035461 207 209 206
270.934373140335 416.09314084053 2641.00003242493 143 145 142
274.953931570053 411.349385976791 2611.00006103516 155 157 154
279.565721750259 407.708346843719 2588.00005912781 170 172 169
285.159081220627 405.642628669739 2575.00004768372 171 173 170
291.134715080261 404.2067527771 2565.99998474121 178 180 177
297.641426324844 403.558254241943 2562.00003623962 178 180 177
304.719984531403 403.69701385498 2562.99996376038 195 197 194
311.803042888641 403.835415840149 2563.99989128113 167 169 166
319.139301776886 404.288530349731 2566.99991226196 169 171 168
327.380180358887 405.843585729599 2576.99990272522 187 189 186
337.750405073166 409.917831420898 2602.9999256134 186 188 185
-276.512563228607 445.203632116318 2875 206 211 207
-268.227010965347 444.446712732315 2869.99988555908 173 178 174
-259.967774152756 443.689316511154 2865.00000953674 172 177 173
-252.439022064209 444.170325994492 2868.00003051758 148 150 147
-244.722574949265 444.341242313385 2868.99995803833 139 141 138
-236.999839544296 444.511651992798 2869.99988555908 139 141 138
-229.270905256271 444.68167424202 2871.00005149841 132 134 131
-221.458598971367 444.696336984634 2871.00005149841 116 118 115
-214.09210562706 445.639938116074 2877.00009346008 117 119 116
-207.122325897217 447.512447834015 2888.99993896484 129 131 128
-200.293496251106 449.849456548691 2904.00004386902 123 125 122
-193.581029772758 452.6506960392 2921.99993133545 94 99 95
-100.134037435055 427.503824234009 2759.0000629425 205 210 206
-91.9129624962807 424.256324768066 2737.99991607666 190 192 189
-84.0527564287186 422.247886657715 2724.99990463257 188 190 187
-76.2630850076675 420.238882303238 2711.99989318848 196 198 195
-68.4423893690109 417.609542608261 2694.9999332428 199 201 198
-60.8954653143883 416.21932387352 2686.00010871887 172 174 171
-53.4771457314491 415.44833779335 2680.99999427795 158 160 157
-46.1203306913376 414.986789226532 2677.99997329712 168 168 166
-38.7507155537605 414.214909076691 2673.00009727478 178 180 177
-31.3611105084419 412.822604179382 2664.00003433228 187 189 186
-24.0294877439737 411.584764719009 2655.99989891052 190 192 189
-16.735065728426 410.191506147385 2647.0000743866 179 181 178
-9.51121188700199 409.727513790131 2644.00005340576 176 178 175
-2.30280100367963 409.10804271698 2640.00010490417 179 181 178
4.88381693139672 408.488035202026 2635.99991798401 176 178 175
12.0486179366708 407.867640256882 2631.99996948242 170 172 169
19.1988795995712 407.40168094635 2628.99994850159 167 169 166
26.3527762144804 407.245188951492 2628.00002098084 164 166 163
33.5011295974255 407.088220119476 2627.00009346008 159 161 158
40.7213009893894 407.705515623093 2631.00004196167 159 161 158
47.963123768568 408.322364091873 2634.99999046326 158 160 157
55.184718221426 408.628791570663 2637.00008392334 156 158 155
62.2987635433674 408.159911632538 2634.0000629425 153 155 152
69.422610104084 407.845586538315 2631.99996948242 151 153 150
76.5935182571411 407.840609550476 2631.99996948242 151 153 150
83.795964717865 407.990127801895 2632.99989700317 152 154 151
90.9344777464867 407.829314470291 2631.99996948242 153 155 152
98.0299562215805 407.513082027435 2630.00011444092 155 157 154
105.154171586037 407.351315021515 2628.99994850159 157 159 156
112.229853868484 407.03409910202 2627.00009346008 158 160 157
119.430594146252 407.181292772293 2628.00002098084 161 163 160
126.68451666832 407.482951879501 2630.00011444092 159 161 158
134.203374385834 408.558815717697 2637.00008392334 159 161 158
141.706258058548 409.479171037674 2642.99988746643 160 162 159
149.241298437119 410.399049520493 2648.9999294281 158 160 157
156.808570027351 411.318480968475 2654.99997138977 156 158 155
164.716824889183 413.011878728867 2665.99988937378 152 154 151
172.555446624756 414.395034313202 2674.99995231628 151 153 150
180.240780115128 415.312856435776 2680.99999427795 151 153 150
187.95819580555 416.230231523514 2687.00003623962 149 151 148
196.070969104767 417.921602725983 2697.99995422363 150 152 149
204.242944717407 419.612377882004 2709.00011062622 160 162 159
212.396055459976 421.147763729095 2719.00010108948 173 175 172
220.44113278389 422.372758388519 2726.99999809265 156 158 155
228.779703378677 424.061924219131 2737.99991607666 171 173 170
238.902986049652 428.848087787628 2769.00005340576 160 162 159
266.468197107315 413.126409053802 2667.99998283386 207 209 206
271.259367465973 409.39325094223 2644.00005340576 145 147 144
275.708466768265 405.350297689438 2618.00003051758 150 152 149
279.907405376434 401.152521371841 2591.00008010864 173 175 172
285.176903009415 398.657739162445 2575.00004768372 174 176 173
291.039377450943 397.091686725616 2565.00005722046 180 182 179
297.543704509735 396.454304456711 2561.00010871887 177 179 176
304.50102686882 396.435797214508 2561.00010871887 196 198 195
311.457395553589 396.416902542114 2561.00010871887 168 170 167
319.158792495728 397.32638001442 2566.99991226196 169 171 168
327.654212713242 399.164140224457 2578.9999961853 185 187 184
339.198261499405 404.561012983322 2614.00008201599 185 187 184
-277.299523353577 438.619673252106 2882.99989700317 206 208 203
-268.8048183918 437.571883201599 2875.99992752075 172 174 169
-260.438054800034 436.675667762756 2869.99988555908 168 170 165
-252.71925330162 436.844110488892 2871.00005149841 149 151 146
-244.823545217514 436.70779466629 2869.99988555908 138 140 135
-237.262859940529 437.179684638977 2872.99990653992 137 139 134
-229.525297880173 437.34684586525 2874.00007247925 130 135 129
-221.9358086586 437.81790137291 2877.00009346008 125 130 124
-214.552521705627 438.744992017746 2882.99989700317 106 108 105
-207.49431848526 440.432697534561 2894.00005340576 118 120 117
-200.996324419975 443.489789962769 2914.00003433228 123 125 122
-194.720029830933 447.307497262955 2938.99989128113 107 109 106
-99.8866707086563 418.948769569397 2752.00009346008 208 213 209
-91.8855518102646 416.671603918076 2736.99998855591 190 192 189
-83.9966982603073 414.546102285385 2723.00004959106 189 191 188
-76.2400776147842 412.724584341049 2710.99996566772 194 196 193
-68.4977918863297 410.598069429398 2697.00002670288 198 200 197
-60.8995594084263 408.92767906189 2686.00010871887 157 159 156
-53.4209050238132 407.713532447815 2677.99997329712 181 183 180
-46.0545532405376 407.107919454575 2674.00002479553 184 184 182
-38.6953316628933 406.34948015213 2668.99991035461 188 190 187
-31.3514545559883 405.438363552094 2663.00010681152 195 197 194
-24.0220669656992 404.222249984741 2654.99997138977 188 190 187
-16.7425163090229 403.157860040665 2648.00000190735 177 179 176
-9.50465723872185 402.245193719864 2641.99995994568 181 183 180
-2.3012119345367 401.636630296707 2638.00001144409 180 182 179
4.88229421898723 401.179790496826 2634.99999046326 177 179 176
12.0494300499558 400.722444057465 2631.99996948242 170 172 169
19.2074794322252 400.416940450668 2630.00011444092 169 171 168
26.3645816594362 400.263130664825 2628.99994850159 168 170 167
33.5288979113102 400.261133909225 2628.99994850159 159 161 158
40.7085716724396 400.410920381546 2630.00011444092 158 160 157
47.9481481015682 401.016920804977 2634.0000629425 157 159 156
55.1884360611439 401.470184326172 2637.00008392334 156 158 155
62.3739175498486 401.466310024261 2637.00008392334 152 154 151
69.5064067840576 401.157379150391 2634.99999046326 150 152 149
76.6859650611877 401.152491569519 2634.99999046326 150 152 149
83.8334187865257 400.994926691055 2634.0000629425 149 151 148
90.9751206636429 400.836825370789 2632.99989700317 150 152 149
98.073773086071 400.526106357574 2631.00004196167 155 157 154
105.201199650764 400.367110967636 2630.00011444092 158 160 157
112.280055880547 400.055468082428 2628.00002098084 159 161 158
119.483985006809 400.199979543686 2628.99994850159 157 159 156
126.692935824394 400.344103574753 2630.00011444092 158 160 157
134.11046564579 401.096552610397 2634.99999046326 159 161 158
141.447529196739 401.544153690338 2638.00001144409 158 160 157
149.138510227203 402.904570102692 2647.0000743866 155 157 154
156.877964735031 404.264390468597 2655.99989891052 154 156 153
164.913028478622 406.232506036758 2668.99991035461 153 155 152
172.631308436394 407.28697180748 2676.00011825562 151 153 150
180.252596735954 408.036440610886 2680.99999427795 149 151 148
188.040390610695 409.089803695679 2687.99996376038 151 153 150
196.011066436768 410.447120666504 2697.00002670288 154 156 153
204.25620675087 412.260413169861 2709.00011062622 170 175 171
212.331652641296 413.616567850113 2717.99993515015 165 170 166
220.617055892944 415.276616811752 2729.00009155273 159 164 160
228.878006339073 416.783928871155 2739.00008201599 165 170 166
239.522248506546 422.39898443222 2776.00002288818 172 177 173
265.885651111603 404.974430799484 2661.99994087219 201 206 202
270.865947008133 401.610881090164 2640.00010490417 154 159 155
275.515019893646 397.942930459976 2615.9999370575 153 155 154
279.924809932709 394.122868776321 2591.00008010864 173 174 176
284.973055124283 391.367495059967 2572.99995422363 187 189 188
290.830343961716 389.828771352768 2562.99996376038 177 179 178
297.32957482338 389.202475547791 2559.00001525879 181 183 182
304.162859916687 389.032036066055 2558.00008773804 197 199 196
311.111450195313 389.01349902153 2558.00008773804 168 170 167
318.929433822632 390.059024095535 2565.00005722046 169 171 168
328.182101249695 392.776787281036 2582.99994468689 184 186 183
-277.316838502884 430.795520544052 2882.99989700317 203 205 202
-268.915146589279 429.915934801102 2877.00009346008 167 167 165
-260.545194149017 429.035902023315 2871.00005149841 163 163 161
-252.73522734642 429.051965475082 2871.00005149841 152 152 150
-245.009690523148 429.217040538788 2871.99997901917 140 142 139
-237.360537052155 429.531186819077 2874.00007247925 135 137 134
-229.779541492462 429.994374513626 2877.00009346008 127 132 126
-222.258597612381 430.606544017792 2881.00004196167 122 129 122
-214.715152978897 431.218326091766 2884.99999046326 112 114 111
-207.866176962852 433.32439661026 2898.9999294281 121 123 120
-201.630145311356 436.924993991852 2923.00009727478 116 118 115
-100.074753165245 412.224560976028 2756.99996948242 206 211 207
-92.0259207487106 409.838557243347 2740.9999370575 183 185 182
-84.0331092476845 407.302439212799 2723.99997711182 180 182 179
-76.2451365590096 405.363976955414 2710.99996566772 177 179 176
-68.5277357697487 403.424888849258 2697.99995422363 182 184 181
-60.97162514925 402.083367109299 2688.99989128113 172 174 171
-53.4643568098545 400.741398334503 2680.0000667572 181 183 180
-46.0920669138432 400.146573781967 2676.00011825562 193 193 191
-38.7269072234631 399.401694536209 2671.0000038147 185 187 184
-31.377088278532 398.506850004196 2664.99996185303 192 194 191
-24.0417644381523 397.31240272522 2657.00006484985 181 183 180
-16.7626030743122 396.416574716568 2651.00002288818 180 182 179
-9.51248779892921 395.370662212372 2644.00005340576 177 179 176
-2.30398238636553 394.922465085983 2641.00003242493 170 172 169
4.88817924633622 394.473791122437 2638.00001144409 170 172 169
12.068547308445 394.174128770828 2635.99991798401 166 168 165
19.2233640700579 393.574953079224 2631.99996948242 165 167 164
26.3763666152954 393.274396657944 2630.00011444092 165 167 164
33.531129360199 393.122881650925 2628.99994850159 162 164 161
40.6803153455257 392.970860004425 2628.00002098084 159 161 158
47.8421151638031 392.967969179153 2628.00002098084 158 160 157
55.0874546170235 393.5626745224 2631.99996948242 157 159 156
62.3544007539749 394.156873226166 2635.99991798401 152 154 151
69.5373937487602 394.152522087097 2635.99991798401 150 152 149
76.6910389065742 393.998175859451 2634.99999046326 151 153 150
83.7753117084503 393.544346094131 2631.99996948242 151 153 150
91.0157039761543 393.837690353394 2634.0000629425 151 153 150
98.0802550911903 393.382877111435 2631.00004196167 155 157 154
105.288147926331 393.525719642639 2631.99996948242 157 159 156
112.330175936222 393.070042133331 2628.99994850159 157 159 156
119.673639535904 393.660485744476 2632.99989700317 157 159 156
126.89396739006 393.801987171173 2634.0000629425 158 160 157
134.322851896286 394.540995359421 2638.99993896484 158 160 157
141.617655754089 394.831031560898 2641.00003242493 158 160 157
149.148225784302 395.718574523926 2647.0000743866 155 157 154
156.829103827477 396.904647350311 2654.99997138977 154 156 153
164.86194729805 398.837596178055 2667.99998283386 153 155 152
172.642469406128 400.022655725479 2676.00011825562 152 154 151
180.264219641685 400.75871348381 2680.99999427795 149 151 148
188.052505254745 401.793211698532 2687.99996376038 151 153 150
196.169018745422 403.425186872482 2698.99988174438 155 157 154
204.495504498482 405.355483293533 2711.99989318848 168 173 169
212.501466274261 406.53795003891 2720.00002861023 163 168 164
220.550253987312 407.719939947128 2727.9999256134 155 160 156
228.976100683212 409.499138593674 2740.00000953674 159 164 160
266.201853752136 398.19860458374 2664.99996185303 208 213 209
269.754022359848 392.803162336349 2628.99994850159 168 173 169
274.79475736618 389.798283576965 2608.99996757507 156 157 159
279.401779174805 386.345058679581 2585.99996566772 173 174 176
284.325897693634 383.489340543747 2566.99991226196 186 187 189
290.280640125275 382.127463817596 2558.00008773804 181 183 182
296.766608953476 381.512194871902 2553.99990081787 183 185 184
303.824484348297 381.643563508987 2555.0000667572 192 194 193
311.008483171463 381.923913955688 2556.99992179871 172 174 173
319.072782993317 383.249372243881 2565.99998474121 174 176 175
328.455746173859 386.06795668602 2585.00003814697 189 191 188
-284.679800271988 422.21936583519 2878.00002098084 204 209 205
-277.237772941589 422.823339700699 2881.99996948242 202 204 201
-269.118785858154 422.400057315826 2878.99994850159 165 165 163
-260.742902755737 421.536028385162 2872.99990653992 160 160 158
-252.838999032974 421.40519618988 2871.99997901917 152 152 150
-245.025038719177 421.420693397522 2871.99997901917 141 143 140
-237.623244524002 422.169417142868 2877.00009346008 135 137 134
-230.113506317139 422.770977020264 2881.00004196167 123 128 124
-222.812712192535 423.812419176102 2888.00001144409 120 126 122
-215.324178338051 424.559950828552 2892.99988746643 108 110 107
-208.166256546974 426.040887832642 2903.00011634827 113 115 112
-201.573967933655 428.84224653244 2921.99993133545 120 122 119
-100.117586553097 404.884725809097 2757.99989700317 205 210 206
-91.8640717864037 401.661306619644 2736.00006103516 180 182 179
-83.94605666399 399.464845657349 2720.99995613098 175 177 174
-76.0813727974892 397.121101617813 2704.99992370605 178 180 177
-68.5068294405937 395.951330661774 2697.00002670288 172 174 171
-60.9076097607613 394.340664148331 2686.00010871887 187 189 186
-53.4479171037674 393.316626548767 2678.99990081787 192 194 191
-46.0434183478355 392.439037561417 2673.00009727478 180 180 178
-38.7004539370537 391.854524612427 2668.99991035461 183 185 182
-31.3909277319908 391.41634106636 2665.99988937378 180 182 179
-24.0704920142889 390.537261962891 2660.00008583069 163 165 162
-16.7700313031673 389.364033937454 2651.99995040894 174 176 173
-9.51311364769936 388.19032907486 2644.00005340576 169 171 168
-2.30500684119761 387.897074222565 2641.99995994568 176 178 175
4.89035341888666 387.45653629303 2638.99993896484 173 175 172
12.0739210397005 387.162357568741 2637.00008392334 170 172 169
19.2246325314045 386.427253484726 2631.99996948242 167 169 166
26.3881329447031 386.27889752388 2631.00004196167 162 164 161
33.5205793380737 385.836511850357 2628.00002098084 159 161 158
40.6675152480602 385.687291622162 2627.00009346008 161 163 160
47.8088445961475 385.537564754486 2625.99992752075 159 161 158
55.0073496997356 385.827869176865 2628.00002098084 157 159 156
62.2638687491417 386.411279439926 2631.99996948242 153 155 152
69.462813436985 386.553764343262 2632.99989700317 152 154 151
76.6378566622734 386.549025774002 2632.99989700317 149 151 148
83.7489515542984 386.250197887421 2631.00004196167 149 151 148
91.0216495394707 386.684983968735 2634.0000629425 149 151 148
98.1985107064247 386.678844690323 2634.0000629425 153 155 152
105.37501424551 386.672228574753 2634.0000629425 154 156 153
112.465672194958 386.371582746506 2631.99996948242 154 156 153
119.817778468132 386.951267719269 2635.99991798401 156 158 155
127.094879746437 387.236893177032 2638.00001144409 157 159 156
134.382456541061 387.522101402283 2640.00010490417 156 158 155
141.734048724175 387.953579425812 2642.99988746643 156 158 155
149.383246898651 389.118522405624 2651.00002288818 155 157 154
157.1936160326 390.576511621475 2661.00001335144 154 156 153
164.996147155762 391.887247562408 2670.00007629395 153 155 152
172.524467110634 392.463535070419 2674.00002479553 153 155 152
180.342987179756 393.626511096954 2681.99992179871 149 151 148
188.064515590668 394.495397806168 2687.99996376038 151 153 150
196.108803153038 395.950883626938 2697.99995422363 156 158 155
204.357638955116 397.699296474457 2710.00003814697 167 172 168
212.593004107475 399.300456047058 2720.99995613098 165 170 166
220.887556672096 400.901108980179 2732.00011253357 155 160 156
229.324758052826 402.647942304611 2743.99995803833 157 162 158
265.818655490875 390.378415584564 2661.00001335144 213 218 214
268.641769886017 384.053945541382 2618.00003051758 153 158 154
273.96884560585 381.543755531311 2601.0000705719 158 159 161
278.878480195999 378.593266010284 2581.00008964539 169 170 172
284.121572971344 376.229465007782 2565.00005722046 181 182 184
290.071129798889 374.892145395279 2555.99999427795 182 184 183
296.435803174973 374.141395092011 2551.00011825562 183 185 184
303.485810756683 374.270170927048 2552.00004577637 189 191 190
310.783684253693 374.692022800446 2555.0000667572 175 177 176
318.967312574387 376.139998435974 2565.00005722046 175 177 176
328.602075576782 379.200458526611 2585.99996566772 188 190 187
-285.785228013992 415.990352630615 2888.99993896484 204 208 207
-277.735710144043 415.719389915466 2887.00008392334 202 204 203
-269.509166479111 415.159970521927 2882.99989700317 164 164 164
-261.031210422516 414.168059825897 2875.99992752075 158 158 158
-253.030687570572 413.895726203918 2874.00007247925 151 151 151
-245.296120643616 414.055019617081 2875 143 145 144
-237.885773181915 414.790034294128 2880.00011444092 136 138 137
-230.447322130203 415.524542331696 2884.99999046326 123 127 126
-223.135218024254 416.546821594238 2891.99995994568 122 126 125
-215.784266591072 417.56871342659 2898.9999294281 108 110 107
-208.968132734299 419.742554426193 2914.00003433228 119 121 118
-99.7973158955574 396.097272634506 2749.00007247925 211 216 212
-91.7692556977272 393.797993659973 2733.00004005432 113 115 112
-83.9206278324127 391.930431127548 2720.00002861023 176 178 175
-76.1144310235977 389.918267726898 2706.00008964539 153 155 152
-68.5366690158844 388.770163059235 2697.99995422363 165 167 164
-60.9569028019905 387.333333492279 2687.99996376038 183 185 182
-53.4912832081318 386.328339576721 2680.99999427795 179 181 178
-46.0464060306549 385.178774595261 2673.00009727478 179 179 177
-38.7174673378468 384.749174118042 2670.00007629395 186 188 185
-31.4047411084175 384.31915640831 2667.00005531311 176 178 175
-24.1082571446896 383.888632059097 2664.00003433228 165 167 164
-16.7900919914246 382.593005895615 2654.99997138977 175 177 174
-9.53892059624195 382.017463445663 2651.00002288818 176 178 175
-2.30951909907162 381.441414356232 2647.0000743866 171 173 170
4.89993812516332 381.009012460709 2644.00005340576 168 170 167
12.0792845264077 380.143851041794 2638.00001144409 168 170 167
19.2477945238352 379.710555076599 2634.99999046326 167 169 166
26.4099072664976 379.420846700668 2632.99989700317 162 164 161
33.5482656955719 378.986656665802 2630.00011444092 156 158 155
40.6701527535915 378.551959991455 2627.00009346008 160 162 159
47.8301532566547 378.549098968506 2627.00009346008 158 160 157
55.0318397581577 378.833949565887 2628.99994850159 156 158 155
62.2442439198494 379.118382930756 2631.00004196167 153 155 152
69.4409236311913 379.258245229721 2631.99996948242 152 154 151
76.6428038477898 379.397660493851 2632.99989700317 152 154 151
83.8816910982132 379.680663347244 2634.99999046326 151 153 150
91.0966247320175 379.819184541702 2635.99991798401 151 153 150
98.2793867588043 379.813134670258 2635.99991798401 154 156 153
105.421796441078 379.662543535233 2634.99999046326 154 156 153
112.558364868164 379.511505365372 2634.0000629425 152 154 151
119.87092345953 379.936337471008 2637.00008392334 155 157 154
127.295732498169 380.648851394653 2641.99995994568 155 157 154
134.696453809738 381.216824054718 2645.99990844727 154 156 153
142.172113060951 381.928384304047 2651.00002288818 154 156 153
149.674475193024 382.639497518539 2655.99989891052 152 154 151
157.38083422184 383.782356977463 2664.00003433228 152 154 151
165.068373084068 384.780645370483 2671.0000038147 150 152 149
172.535374760628 385.202169418335 2674.00002479553 150 152 149
180.354341864586 386.343538761139 2681.99992179871 148 150 147
188.076332211494 387.19630241394 2687.99996376038 150 152 149
196.26647233963 388.912916183472 2700.00004768372 156 158 155
204.144164919853 389.908701181412 2707.00001716614 158 163 159
212.215587496758 391.192138195038 2716.00008010864 162 167 163
220.416128635406 392.619073390961 2726.0000705719 158 163 159
229.422509670258 395.341634750366 2744.99988555908 154 159 155
265.13546705246 382.146716117859 2654.00004386902 202 207 203
268.144905567169 376.227229833603 2612.99991607666 147 152 148
273.142635822296 373.33145737648 2592.99993515015 167 168 170
278.571009635925 371.155381202698 2578.00006866455 167 168 170
283.91695022583 368.979185819626 2562.99996376038 173 174 176
289.974898099899 367.81057715416 2555.0000667572 187 189 188
296.453297138214 367.217481136322 2551.00011825562 191 193 192
303.74151468277 367.631703615189 2553.99990081787 194 196 195
310.801863670349 367.757767438889 2555.0000667572 181 183 182
318.737149238586 368.890941143036 2562.99996376038 175 177 176
327.985793352127 371.462970972061 2581.00008964539 185 187 184
-287.187337875366 410.124123096466 2903.00011634827 207 209 208
-278.137236833572 408.445626497269 2891.00003242493 203 203 203
-269.431918859482 407.190412282944 2881.99996948242 162 162 162
-261.137813329697 406.499952077866 2877.00009346008 157 157 157
-253.22213768959 406.374096870422 2875.99992752075 148 148 148
-245.652392506599 406.813085079193 2878.99994850159 146 146 146
-238.230735063553 407.534331083298 2884.0000629425 137 139 138
-230.621248483658 407.972484827042 2887.00008392334 123 125 124
-223.380416631699 409.116894006729 2894.99998092651 121 125 124
-216.467544436455 410.967528820038 2907.99999237061 102 104 101
-209.841638803482 413.524448871613 2926.00011825562 113 115 112
-108.699657022953 393.71246099472 2785.00008583069 70 75 69
-99.7310429811478 388.346940279007 2746.99997901917 38 43 37
-91.472864151001 385.101407766342 2723.99997711182 41 43 38
-83.864264190197 384.25874710083 2717.99993515015 24 26 21
-76.0630220174789 382.284551858902 2703.9999961853 138 140 135
-68.5664340853691 381.582170724869 2698.99988174438 163 165 160
-61.0061585903168 380.31393289566 2690.00005722046 149 151 146
-53.4947067499161 379.045099020004 2680.99999427795 136 138 133
-46.0321232676506 377.775818109512 2671.99993133545 177 178 173
-38.7199521064758 377.495795488358 2670.00007629395 181 183 180
-31.4538590610027 377.639383077621 2671.0000038147 163 165 162
-24.1550523787737 377.35840678215 2668.99991035461 154 156 153
-16.8101415038109 375.804424285889 2657.99999237061 175 177 174
-9.55032650381327 375.239729881287 2654.00004386902 163 165 162
-2.31315731070936 374.815940856934 2651.00002288818 143 145 142
4.9076653085649 374.391704797745 2648.00000190735 147 149 146
12.0846386998892 373.118668794632 2638.99993896484 164 166 163
19.2563310265541 372.693479061127 2635.99991798401 161 163 160
26.4416933059692 372.692078351974 2635.99991798401 158 160 157
33.6269587278366 372.690141201019 2635.99991798401 156 158 155
40.781132876873 372.405052185059 2634.0000629425 159 161 158
47.9424633085728 372.260808944702 2632.99989700317 157 159 156
55.0981648266315 372.116178274155 2631.99996948242 155 157 154
62.2718743979931 372.112452983856 2631.99996948242 154 156 153
69.4717392325401 372.249633073807 2632.99989700317 153 155 152
76.6768082976341 372.386395931244 2634.0000629425 156 158 155
83.9507058262825 372.80547618866 2637.00008392334 155 157 154
91.2060961127281 373.082607984543 2638.99993896484 154 156 153
98.3602106571198 372.935324907303 2638.00001144409 154 156 153
105.388477444649 372.363418340683 2634.0000629425 153 155 152
112.650953233242 372.639238834381 2635.99991798401 148 150 147
119.969412684441 373.056024312973 2638.99993896484 153 155 152
127.544701099396 374.17921423912 2647.0000743866 152 154 151
134.959489107132 374.736398458481 2651.00002288818 151 153 150
142.395585775375 375.293135643005 2654.99997138977 151 153 150
149.796605110168 375.708103179932 2657.99999237061 150 152 149
157.390683889389 376.546591520309 2664.00003433228 150 152 149
165.202304720879 377.808719873428 2673.00009727478 148 150 147
172.804236412048 378.504931926727 2677.99997329712 147 149 146
180.567309260368 379.483371973038 2684.99994277954 149 151 148
188.227936625481 380.17863035202 2690.00005722046 152 154 151
196.205899119377 381.438761949539 2698.99988174438 156 158 155
204.156756401062 382.557094097137 2707.00001716614 155 160 156
212.384909391403 384.098887443542 2717.99993515015 161 166 162
220.753103494644 385.781496763229 2730.00001907349 158 163 159
230.105206370354 389.017879962921 2753.00002098084 154 159 155
264.152258634567 373.528033494949 2644.00005340576 198 203 199
267.955631017685 368.850290775299 2611.00006103516 149 154 150
272.737473249435 365.72653055191 2588.99998664856 167 168 170
277.939081192017 363.308906555176 2572.00002670288 170 171 173
283.6012840271 361.597448587418 2559.99994277954 172 173 175
289.764881134033 360.592037439346 2552.99997329712 186 188 187
296.354383230209 360.151290893555 2549.99995231628 191 193 192
303.640246391296 360.557645559311 2552.99997329712 193 195 194
310.576528310776 360.540002584457 2552.99997329712 184 186 185
318.382382392883 361.51048541069 2559.99994277954 176 178 177
327.241986989975 363.61026763916 2575.00004768372 183 185 182
-286.610722541809 401.409387588501 2897.0000743866 206 208 207
-277.865082025528 400.178909301758 2888.00001144409 203 203 203
-269.261002540588 399.086534976959 2880.00011444092 162 162 162
-261.516481637955 399.24082159996 2881.00004196167 156 156 156
-253.853648900986 399.533241987228 2882.99989700317 148 148 148
-246.264487504959 399.963915348053 2885.99991798401 147 147 147
-238.492920994759 400.116980075836 2887.00008392334 138 138 138
-230.874866247177 400.546878576279 2890.00010490417 122 124 123
-223.625481128693 401.669353246689 2898.00000190735 119 123 122
-216.778457164764 403.623074293137 2911.99994087219 108 110 107
-210.428223013878 406.685382127762 2934.00001525879 111 113 110
-108.745492994785 386.284589767456 2786.00001335144 200 205 199
-99.955141544342 381.715506315231 2753.00002098084 79 84 78
-92.0159295201302 379.918962717056 2740.00000953674 30 32 27
-83.9620977640152 377.289921045303 2720.99995613098 28 30 25
-76.2928500771523 376.046985387802 2711.99989318848 37 39 34
-68.6723813414574 374.803572893143 2703.00006866455 87 89 84
-61.1007176339626 373.559683561325 2694.00000572205 128 130 125
-53.5579398274422 372.176587581635 2684.00001525879 138 140 135
-46.121172606945 371.20908498764 2677.00004577637 161 162 157
-38.8094112277031 371.073126792908 2676.00011825562 143 145 142
-31.5382815897465 371.35261297226 2677.99997329712 134 136 133
-24.1927839815617 370.661050081253 2673.00009727478 127 129 126
-16.8618019670248 369.691610336304 2665.99988937378 169 171 168
-9.57972090691328 369.137793779373 2661.99994087219 150 152 149
-2.31941184028983 368.583470582962 2657.99999237061 144 146 143
4.91168256849051 367.474049329758 2650.00009536743 152 154 151
12.0899816974998 366.086840629578 2640.00010490417 169 171 168
19.2721616476774 365.808516740799 2638.00001144409 162 164 161
26.4734588563442 365.945756435394 2638.99993896484 150 152 149
33.6801111698151 366.082519292831 2640.00010490417 159 161 158
40.8766120672226 366.080194711685 2640.00010490417 156 158 155
48.0365343391895 365.800052881241 2638.00001144409 155 157 154
55.1644377410412 365.380793809891 2634.99999046326 154 156 153
62.2757971286774 364.96114730835 2631.99996948242 154 156 153
69.4497227668762 364.95703458786 2631.99996948242 154 156 153
76.7398476600647 365.507125854492 2635.99991798401 145 147 144
83.9878171682358 365.779459476471 2638.00001144409 145 147 144
91.2463888525963 366.051286458969 2640.00010490417 146 148 145
98.4036475419998 365.906745195389 2638.99993896484 150 152 149
105.515100061893 365.623086690903 2637.00008392334 150 152 149
112.871691584587 366.170912981033 2641.00003242493 147 149 146
120.204210281372 366.579651832581 2644.00005340576 149 151 148
127.841770648956 367.8198158741 2653.00011634827 148 150 147
135.222420096397 368.227541446686 2655.99989891052 147 149 146
142.618954181671 368.634909391403 2658.99991989136 146 148 145
149.918600916862 368.764579296112 2660.00008583069 146 148 145
157.518565654755 369.586884975433 2665.99988937378 146 148 145
165.459707379341 371.101945638657 2677.00004577637 147 149 146
173.26657474041 372.200578451157 2684.99994277954 145 147 144
181.049138307571 373.160094022751 2691.99991226196 151 153 150
188.589319586754 373.564720153809 2694.9999332428 157 159 156
196.508675813675 374.661982059479 2703.00006866455 159 161 158
204.395428299904 375.620067119598 2710.00003814697 153 158 154
212.397798895836 376.716375350952 2717.99993515015 157 162 158
220.847308635712 378.505140542984 2730.99994659424 152 157 153
230.871394276619 382.788002490997 2762.00008392334 149 154 150
262.869000434875 364.546805620193 2631.00004196167 213 218 214
267.047703266144 360.513210296631 2601.99999809265 174 179 175
271.594554185867 357.17236995697 2578.00006866455 172 176 177
277.306854724884 355.493903160095 2565.99998474121 188 192 193
283.285409212112 354.230910539627 2556.99992179871 187 191 192
289.554625749588 353.383243083954 2551.00011825562 189 193 192
296.139001846313 352.950930595398 2548.00009727478 193 197 196
303.419768810272 353.349417448044 2551.00011825562 192 196 195
310.715854167938 353.747457265854 2553.99990081787 186 190 189
318.400412797928 354.560732841492 2559.99994277954 174 178 177
328.277200460434 357.728004455566 2582.99994468689 179 184 180
-298.166304826736 398.414582014084 2933.00008773804 203 207 206
-286.033779382706 392.726063728333 2891.00003242493 198 200 199
-277.303993701935 391.519725322723 2881.99996948242 204 204 204
-269.089788198471 390.992194414139 2878.00002098084 155 153 154
-261.531859636307 391.415268182755 2881.00004196167 153 151 152
-254.220932722092 392.245531082153 2887.00008392334 148 146 147
-246.791079640388 392.93959736824 2891.99995994568 142 142 142
-239.085406064987 393.22566986084 2894.00005340576 144 144 144
-231.527775526047 393.783122301102 2898.00000190735 116 118 117
-224.33340549469 395.019561052322 2907.00006484985 108 112 111
-217.46152639389 396.935135126114 2921.0000038147 111 113 110
-99.5255932211876 372.603327035904 2740.9999370575 32 37 31
-93.6000868678093 378.862351179123 2786.99994087219 44 46 41
-84.7079157829285 373.158395290375 2744.99988555908 48 50 45
-76.3257145881653 368.813186883926 2713.00005912781 24 26 21
-68.6258301138878 367.186337709427 2700.99997520447 28 30 25
-61.1045137047768 366.238713264465 2694.00000572205 121 123 118
-53.5812303423882 365.018725395203 2684.99994277954 162 164 159
-46.2101846933365 364.613920450211 2681.99992179871 108 109 104
-38.8843417167664 364.48061466217 2680.99999427795 105 107 104
-31.5873548388481 364.618718624115 2681.99992179871 116 118 115
-24.2214426398277 363.804817199707 2676.00011825562 154 156 153
-16.888152807951 362.990319728851 2670.00007629395 151 153 150
-9.58751514554024 362.175434827805 2664.00003433228 136 138 135
-2.32042907737195 361.496061086655 2658.99991989136 146 148 145
4.91013517603278 360.136479139328 2648.9999294281 167 169 166
12.1136354282498 359.592169523239 2644.99998092651 153 155 152
19.3098913878202 359.319269657135 2642.99988746643 149 151 148
26.5252701938152 359.453827142715 2644.00005340576 158 160 157
33.7332412600517 359.451919794083 2644.00005340576 159 161 158
40.9410893917084 359.449595212936 2644.00005340576 154 156 153
48.1123588979244 359.174966812134 2641.99995994568 158 160 157
55.2306808531284 358.62797498703 2638.00001144409 156 158 155
62.4216347932816 358.624339103699 2638.00001144409 157 159 156
69.6123614907265 358.620285987854 2638.00001144409 150 152 149
76.9192948937416 359.159588813782 2641.99995994568 138 140 137
84.1522142291069 359.290540218353 2642.99988746643 142 144 141
91.3902893662453 359.421104192734 2644.00005340576 148 150 147
98.5215976834297 359.143435955048 2641.99995994568 151 153 150
105.721674859524 359.137147665024 2641.99995994568 147 149 146
113.092340528965 359.674215316772 2645.99990844727 145 147 144
120.529867708683 360.346764326096 2651.00002288818 144 146 143
128.042370080948 361.154705286026 2657.00006484985 146 148 145
135.383456945419 361.418575048447 2658.99991989136 142 144 141
142.734959721565 361.681967973709 2661.00001335144 139 141 138
150.209546089172 362.216711044312 2664.99996185303 143 145 142
157.764509320259 362.887054681778 2670.00007629395 144 146 143
165.655195713043 364.236384630203 2680.0000667572 143 145 142
173.406139016151 365.177541971207 2687.00003623962 141 143 140
181.261867284775 366.254091262817 2694.9999332428 151 153 150
188.880607485771 366.786569356918 2698.99988174438 155 157 154
196.738585829735 367.726355791092 2706.00008964539 164 166 163
204.78481054306 368.937402963638 2714.99991416931 153 158 154
212.879374623299 370.147973299026 2723.99997711182 159 164 160
221.264809370041 371.765702962875 2736.00006103516 159 164 160
231.05226457119 375.556886196136 2763.99993896484 148 153 149
261.985003948212 356.178492307663 2621.99997901917 156 161 157
265.728861093521 351.680606603622 2588.99998664856 184 189 185
270.451277494431 348.676830530167 2566.99991226196 190 194 195
276.242047548294 347.167164087296 2555.99999427795 191 195 196
282.526046037674 346.336334943771 2549.99995231628 192 196 197
288.890033960342 345.641046762466 2545.00007629395 189 193 192
295.690834522247 345.488727092743 2543.99991035461 193 197 196
302.842110395432 345.743507146835 2546.0000038147 192 196 195
310.12499332428 346.133768558502 2549.00002479553 192 196 195
318.293869495392 347.474187612534 2559.00001525879 183 187 186
329.693555831909 352.208584547043 2594.00010108948 189 194 190
-297.77666926384 389.914929866791 2928.99990081787 199 201 198
-285.951256752014 384.739696979523 2890.00010490417 209 211 208
-277.223765850067 383.55752825737 2881.00004196167 214 214 212
-269.29235458374 383.440047502518 2880.00011444092 166 165 163
-261.637836694717 383.721590042114 2881.99996948242 167 166 164
-254.587948322296 384.934782981873 2891.00003242493 149 148 146
-246.976181864738 385.34876704216 2894.00005340576 142 142 140
-239.429891109467 385.895520448685 2898.00000190735 131 131 129
-231.940880417824 386.575073003769 2903.00011634827 135 137 134
-224.732488393784 387.786835432053 2911.99994087219 119 121 118
-217.995509505272 389.930546283722 2927.99997329712 108 110 107
-84.5587849617004 365.031599998474 2740.00000953674 52 54 49
-75.2893909811974 356.510102748871 2676.00011825562 67 69 64
-68.5791969299316 359.578639268875 2698.99988174438 20 22 17
-61.0855706036091 358.783215284348 2693.00007820129 19 21 16
-53.5645559430122 357.58763551712 2684.00001525879 18 20 15
-46.2130159139633 357.324212789536 2681.99992179871 160 161 156
-38.8577170670033 356.927096843719 2678.99990081787 154 156 153
-31.5775126218796 357.1957051754 2680.99999427795 156 158 155
-24.2229290306568 356.531232595444 2676.00011825562 141 143 140
-16.9144924730062 356.266021728516 2674.00002479553 129 131 128
-9.59170237183571 355.067759752274 2664.99996185303 135 137 134
-2.32057156972587 354.268699884415 2658.99991989136 174 176 173
4.9159973859787 353.336006402969 2651.99995040894 178 180 177
12.1464384719729 353.335440158844 2651.99995040894 123 125 122
19.347608089447 352.801561355591 2648.00000190735 145 147 144
26.5569947659969 352.666974067688 2647.0000743866 147 149 146
33.7480679154396 352.398633956909 2644.99998092651 157 159 156
40.9590825438499 352.396339178085 2644.99998092651 157 159 156
48.13352227211 352.127194404602 2642.99988746643 149 151 148
55.3387515246868 352.124035358429 2642.99988746643 156 158 155
62.5674352049828 352.253705263138 2644.00005340576 148 150 147
69.801352918148 352.382957935333 2644.99998092651 138 140 137
77.0404487848282 352.511703968048 2645.99990844727 139 141 138
84.2528641223907 352.506816387177 2645.99990844727 141 143 140
91.5341228246689 352.767944335938 2648.00000190735 143 145 142
98.7886339426041 352.895438671112 2648.9999294281 146 148 145
106.088273227215 353.155672550201 2651.00002288818 144 146 143
113.441154360771 353.548735380173 2654.00004386902 137 139 136
120.76448649168 353.808104991913 2655.99989891052 136 138 135
128.098294138908 354.067027568817 2657.99999237061 137 139 136
135.595306754112 354.725211858749 2663.00010681152 136 138 135
143.065392971039 355.249673128128 2667.00005531311 136 138 135
150.669515132904 356.040120124817 2673.00009727478 137 139 136
158.010318875313 356.16409778595 2674.00002479553 134 136 133
165.912359952927 357.486426830292 2684.00001525879 152 154 151
173.610091209412 358.275473117828 2690.00005722046 146 148 145
181.407183408737 359.197288751602 2697.00002670288 150 152 149
189.101785421371 359.852284193039 2701.99990272522 152 154 151
197.113782167435 361.039519309998 2710.99996566772 155 157 154
205.17410337925 362.226277589798 2720.00002861023 142 147 143
213.048234581947 363.013088703156 2726.0000705719 150 155 151
221.358671784401 364.465177059174 2736.99998855591 151 156 152
230.898588895798 367.781043052673 2762.00008392334 144 149 145
257.20077753067 352.265894412994 2645.99990844727 170 175 171
260.70100069046 347.325384616852 2608.99996757507 155 160 156
265.025556087494 343.716144561768 2582.00001716614 188 193 189
269.729107618332 340.772420167923 2559.99994277954 189 193 194
275.609195232391 339.425981044769 2549.99995231628 192 196 197
281.877189874649 338.61169219017 2543.99991035461 192 196 197
288.4521484375 338.196486234665 2540.99988937378 189 193 192
295.358657836914 338.180273771286 2540.99988937378 192 196 195
302.50209569931 338.429868221283 2542.99998283386 195 199 198
310.020536184311 339.078456163406 2548.00009727478 194 198 197
318.062603473663 340.258866548538 2556.99992179871 186 190 189
-298.403471708298 382.739871740341 2934.99994277954 207 209 204
-286.462157964706 377.539932727814 2894.99998092651 189 190 185
-277.431905269623 375.990748405457 2882.99989700317 167 166 162
-269.494712352753 375.875771045685 2881.99996948242 172 171 167
-261.652767658234 375.890791416168 2881.99996948242 158 157 153
-254.426389932632 376.818418502808 2888.99993896484 149 148 144
-246.90505862236 377.354502677917 2892.99988746643 150 149 145
-239.526331424713 378.150969743729 2898.9999294281 132 133 128
-232.193976640701 379.077613353729 2905.99989891052 170 171 166
-225.362971425056 380.917072296143 2920.00007629395 162 164 159
-92.6037505269051 359.796553850174 2756.99996948242 51 53 48
-82.8664153814316 350.405514240265 2684.99994277954 50 52 47
-75.9973227977753 352.498322725296 2700.99997520447 28 30 25
-61.111930757761 351.59295797348 2694.00000572205 23 25 20
-53.5079054534435 349.899739027023 2680.99999427795 29 31 26
-46.1468771100044 349.511206150055 2677.99997329712 40 41 36
-38.8455539941788 349.513709545136 2677.99997329712 90 92 89
-31.5558649599552 349.646389484406 2678.99990081787 148 150 147
-24.2334436625242 349.387019872665 2677.00004577637 141 143 140
-16.915513202548 348.996698856354 2674.00002479553 124 126 123
-9.60308127105236 348.214387893677 2667.99998283386 129 131 128
-2.32594832777977 347.823202610016 2664.99996185303 177 179 176
4.93297865614295 347.301065921783 2661.00001335144 127 129 126
12.179234996438 347.039520740509 2658.99991989136 123 125 122
19.3853136152029 346.255511045456 2653.00011634827 135 137 134
26.6087651252747 346.12363576889 2651.99995040894 139 141 138
33.8139086961746 345.860809087753 2650.00009536743 142 144 141
41.0235002636909 345.728009939194 2648.9999294281 146 148 145
48.1910593807697 345.333784818649 2645.99990844727 156 158 155
55.4467812180519 345.591753721237 2648.00000190735 158 160 157
