ply
format ascii 1.0
comment KinectMotionCapture
element vertex 787
property float x
property float y
property float z
property uchar red
property uchar green
property uchar blue
end_header
77.0379677414894 -207.975119352341 2915.99988937378 10 13 6
84.5581367611885 -206.902474164963 2901.00002288818 10 13 6
108.529321849346 -207.320213317871 2907.00006484985 10 13 6
119.745686650276 -213.164210319519 2989.00008201599 10 13 6
144.69014108181 -213.863477110863 2999.00007247925 14 16 11
-111.249029636383 -197.024926543236 2661.00001335144 20 23 16
-100.073739886284 -203.844577074051 2753.00002098084 26 29 22
-81.4668834209442 -195.261865854263 2637.00008392334 17 20 13
-75.0317648053169 -197.263985872269 2664.00003433228 12 15 8
-68.6016082763672 -199.710220098495 2697.00002670288 11 14 7
-61.6958700120449 -201.193585991859 2717.00000762939 11 14 7
-54.8205748200417 -203.195065259933 2743.99995803833 12 15 8
-47.2284629940987 -202.752605080605 2737.99991607666 12 15 8
-39.814118295908 -203.050449490547 2742.00010299683 13 15 10
-32.3306135833263 -203.051775693893 2742.00010299683 12 14 9
-24.8650945723057 -203.200906515121 2743.99995803833 15 17 12
-17.5278726965189 -204.978957772255 2767.99988746643 16 18 13
-9.81817301362753 -201.795145869255 2724.99990463257 12 14 9
-2.38945963792503 -202.535912394524 2734.99989509583 12 14 9
52.9798604547977 -215.192586183548 2905.99989891052 9 12 5
61.3716244697571 -216.819599270821 2927.99997329712 9 12 5
69.575272500515 -217.483669519424 2937.00003623962 10 13 6
76.4011666178703 -214.148759841919 2891.99995994568 10 13 6
85.2837711572647 -216.663464903831 2926.00011825562 10 13 6
103.604570031166 -221.691757440567 2993.99995803833 12 15 8
109.906740486622 -217.985659837723 2944.00000572205 11 14 7
-110.534243285656 -202.973991632462 2644.00005340576 19 22 15
-104.532696306705 -205.357849597931 2674.99995231628 24 27 20
-101.414948701859 -214.190244674683 2789.99996185303 24 27 20
-83.0084979534149 -206.289678812027 2687.00003623962 16 19 12
-75.9584009647369 -207.060426473618 2697.00002670288 12 15 8
-61.3756887614727 -207.52626657486 2703.00006866455 12 15 8
-55.3179793059826 -212.595731019974 2769.00005340576 12 15 8
-46.7954948544502 -208.298116922379 2713.00005912781 12 15 8
-39.4641645252705 -208.683609962463 2717.99993515015 11 13 8
-32.1053862571716 -209.06887948513 2723.00004959106 11 13 8
-24.8913504183292 -210.912644863129 2746.99997901917 15 17 12
-17.330925911665 -210.14566719532 2736.99998855591 16 18 13
-9.95111465454102 -212.065681815147 2762.00008392334 16 18 13
-2.40859040059149 -211.682006716728 2756.99996948242 13 15 10
61.767578125 -226.261213421822 2947.00002670288 9 12 5
70.6623494625092 -229.022666811943 2983.00004005432 10 13 6
76.821006834507 -223.261713981628 2907.99999237061 10 13 6
84.960013628006 -223.796084523201 2914.99996185303 10 13 6
93.9337387681007 -226.249471306801 2947.00002670288 14 17 10
104.638829827309 -232.157185673714 3023.9999294281 14 17 10
117.093093693256 -224.39506649971 2923.00009727478 11 14 7
-104.21609133482 -212.013468146324 2667.00005531311 23 26 19
-100.175254046917 -219.092592597008 2756.00004196167 22 25 18
-91.4122834801674 -216.154888272285 2719.00010108948 17 20 13
-84.0865224599838 -216.396793723106 2721.99988365173 14 17 10
-76.2934386730194 -215.366423130035 2709.00011062622 12 15 8
-69.3085789680481 -216.641262173653 2724.99990463257 12 15 8
-62.9173070192337 -220.300927758217 2770.99990844727 13 16 9
-54.5167773962021 -216.96412563324 2729.00009155273 13 16 9
-46.3452488183975 -213.626950979233 2687.00003623962 12 15 8
-39.5062081515789 -216.331750154495 2720.99995613098 10 12 7
-32.1395210921764 -216.730684041977 2726.0000705719 10 12 7
-24.9356999993324 -218.798950314522 2752.00009346008 13 15 10
-17.5455417484045 -220.310360193253 2770.99990844727 15 17 12
-9.90029145032167 -218.482255935669 2747.99990653992 16 18 13
37.8559231758118 -235.65237224102 2963.99998664856 11 13 8
46.5491749346256 -238.751381635666 3003.00002098084 10 13 6
54.397776722908 -237.238854169846 2983.99996757507 10 13 6
62.0795823633671 -235.487505793571 2961.99989318848 10 13 6
84.5487341284752 -230.629339814186 2901.00002288818 10 13 6
93.8026309013367 -233.964830636978 2943.00007820129 14 17 10
103.769794106483 -238.412901759148 2999.00007247925 14 17 10
110.645078122616 -235.626325011253 2963.99998664856 11 14 7
-123.749196529388 -228.481903672218 2779.00004386902 22 25 18
-107.806861400604 -226.846754550934 2759.0000629425 23 26 19
-98.6447408795357 -223.150923848152 2713.99998664856 20 23 16
-83.3418369293213 -221.842631697655 2697.99995422363 14 17 10
-77.1352797746658 -225.21710395813 2739.00008201599 14 17 10
-62.188271433115 -225.2227216959 2739.00008201599 18 21 14
-55.4734617471695 -228.349730372429 2776.99995040894 17 20 13
-46.8780696392059 -223.500281572342 2717.99993515015 15 18 11
-39.7078916430473 -224.899917840958 2734.99989509583 14 16 11
-32.4919298291206 -226.628229022026 2756.00004196167 12 14 9
-25.2427663654089 -229.096338152885 2786.00001335144 11 13 8
-17.3992160707712 -225.972399115562 2747.99990653992 11 13 8
-9.92151349782944 -226.466342806816 2753.99994850159 13 15 10
-2.4031603243202 -226.219892501831 2750.99992752075 15 17 12
45.5553121864796 -241.674274206161 2938.99989128113 11 14 7
53.3565618097782 -240.685567259789 2927.00004577637 11 14 7
62.286701053381 -244.383499026299 2971.99988365173 10 13 6
74.1470977663994 -230.810448527336 2806.99992179871 10 13 6
83.8750898838043 -236.645340919495 2878.00002098084 10 13 6
93.480221927166 -241.164162755013 2933.00008773804 14 17 10
104.734495282173 -248.889207839966 3026.99995040894 14 17 10
118.08542907238 -242.384791374207 2947.99995422363 11 14 7
136.579990386963 -246.73219025135 3000.99992752075 10 12 7
-106.552146375179 -231.647327542305 2726.99999809265 23 26 19
-99.5857119560242 -232.755914330482 2740.00000953674 20 23 16
-90.9679383039474 -229.871585965157 2706.00008964539 16 19 12
-83.15309882164 -228.685900568962 2691.99991226196 16 19 12
-77.1039724349976 -232.596948742867 2737.99991607666 16 19 12
-59.9834583699703 -224.447190761566 2641.99995994568 19 22 15
-53.8931488990784 -229.206949472427 2697.99995422363 18 21 14
-46.7209406197071 -230.143561959267 2709.00011062622 17 20 13
-39.5175367593765 -231.249764561653 2721.99988365173 16 18 13
-32.2548225522041 -232.440650463104 2736.00006103516 15 17 12
-24.9065067619085 -233.546271920204 2749.00007247925 11 13 8
-17.5631176680326 -235.671058297157 2773.9999294281 10 12 7
-9.80943255126476 -231.33884370327 2723.00004959106 12 14 9
-2.40218848921359 -233.632922172546 2750 12 14 9
54.0470518171787 -251.891285181046 2964.99991416931 11 14 7
63.2900893688202 -256.56133890152 3019.99998092651 11 14 7
93.6038866639137 -249.497324228287 2937.00003623962 14 17 10
104.903228580952 -257.563382387161 3032.00006484985 14 17 10
112.875826656818 -256.879299879074 3023.9999294281 11 14 7
122.086085379124 -258.913189172745 3048.00009727478 11 14 7
130.613923072815 -259.332686662674 3052.99997329712 12 15 8
-110.641978681087 -232.059895992279 2647.0000743866 20 23 16
-104.867614805698 -235.308229923248 2684.00001525879 20 23 16
-99.3271321058273 -239.608466625214 2733.00004005432 18 21 14
-90.6279757618904 -236.368626356125 2696.00009918213 18 21 14
-83.3967253565788 -236.723005771637 2700.00004768372 18 21 14
-76.6220167279243 -238.56757581234 2720.99995613098 16 19 12
-68.8423439860344 -237.343236804008 2707.00001716614 17 20 13
-60.9571561217308 -235.417068004608 2684.99994277954 18 21 14
-53.2916560769081 -233.928963541985 2667.99998283386 18 21 14
-47.0983721315861 -239.454925060272 2730.99994659424 17 20 13
-39.7626645863056 -240.158259868622 2739.00008201599 16 18 13
-32.0766307413578 -238.581508398056 2720.99995613098 17 19 14
-24.4524646550417 -236.653730273247 2698.99988174438 13 15 10
-17.1445272862911 -237.443745136261 2707.99994468689 11 13 8
-9.81982424855232 -239.022597670555 2726.0000705719 12 14 9
5.28208073228598 -249.632403254509 2846.99988365173 17 19 14
30.4964240640402 -266.28977060318 3036.99994087219 12 14 9
53.5890907049179 -257.779330015183 2940.00005722046 12 15 8
63.0359575152397 -263.739049434662 3007.99989700317 11 14 7
77.4425640702248 -257.069498300552 2931.99992179871 10 13 6
83.8390067219734 -252.243876457214 2877.00009346008 9 12 5
92.4526751041412 -254.344314336777 2901.00002288818 14 17 10
113.841563463211 -267.39889383316 3049.99995231628 11 14 7
-120.127245783806 -243.876650929451 2697.99995422363 21 24 17
-113.019675016403 -244.424074888229 2703.9999961853 23 26 19
-108.066849410534 -250.033378601074 2766.00003242493 16 19 12
-99.2865264415741 -246.964395046234 2732.00011253357 17 20 13
-92.6745310425758 -249.22850728035 2756.99996948242 17 20 13
-83.609327673912 -244.712427258492 2707.00001716614 17 20 13
-76.1963427066803 -244.625523686409 2706.00008964539 17 20 13
-68.4324875473976 -243.272662162781 2690.99998474121 17 20 13
-60.7275031507015 -241.829037666321 2674.99995231628 17 20 13
-53.7886917591095 -243.458837270737 2693.00007820129 18 21 14
-46.941127628088 -246.082723140717 2721.99988365173 18 21 14
-39.3399596214294 -244.999781250954 2710.00003814697 19 22 15
-31.8512655794621 -244.278088212013 2701.99990272522 18 21 14
-24.224916473031 -241.747945547104 2674.00002479553 15 18 11
-17.2134228050709 -245.817184448242 2719.00010108948 13 16 9
-2.41857836954296 -250.338405370712 2769.00005340576 11 14 7
5.18908957019448 -252.869755029678 2796.99993133545 17 20 13
38.4370423853397 -272.1226811409 3009.99999046326 17 20 13
53.3133633434772 -264.434158802032 2924.99995231628 12 14 9
60.4138262569904 -260.63472032547 2882.99989700317 12 15 8
69.0848156809807 -263.70558142662 2917.00005531311 11 14 7
76.8845826387405 -263.159990310669 2911.00001335144 11 14 5
85.2632448077202 -264.512449502945 2926.00011825562 11 14 5
93.9146131277084 -266.406923532486 2947.00002670288 18 21 14
104.064010083675 -271.916896104813 3007.99989700317 13 15 10
-122.080951929092 -255.323380231857 2742.00010299683 19 22 15
-112.513147294521 -250.672787427902 2691.99991226196 21 24 17
-99.1004258394241 -253.94144654274 2726.99999809265 15 18 11
-91.6956514120102 -254.03881072998 2727.9999256134 13 16 9
-84.3777507543564 -254.415303468704 2732.00011253357 15 18 11
-77.0658254623413 -254.884511232376 2736.99998855591 16 19 12
-68.7345936894417 -251.721501350403 2703.00006866455 16 19 12
-61.2923316657543 -251.445055007935 2700.00004768372 16 19 12
-54.0259629487991 -251.913279294968 2704.99992370605 16 19 12
-46.8528233468533 -253.033131361008 2717.00000762939 16 19 12
-31.8144857883453 -251.360327005386 2698.99988174438 17 20 13
-24.7130244970322 -254.062384366989 2727.9999256134 16 19 12
-17.3266045749187 -254.901528358459 2736.99998855591 15 18 11
-9.86938830465078 -255.181550979614 2740.00000953674 13 16 9
-2.42545758374035 -258.627682924271 2776.99995040894 13 16 9
38.1160974502563 -277.995139360428 2984.99989509583 12 15 8
46.4928820729256 -279.390215873718 3000 12 14 9
53.4385740756989 -273.055136203766 2931.99992179871 12 14 9
61.4798069000244 -273.238778114319 2934.00001525879 11 14 7
68.8922852277756 -270.907670259476 2908.99991989136 11 14 7
76.6170620918274 -270.159393548965 2901.00002288818 11 14 5
83.6277008056641 -267.268896102905 2869.99988555908 11 14 5
93.8467159867287 -274.249225854874 2944.9999332428 14 17 10
102.191336452961 -275.082945823669 2953.9999961853 13 15 10
-111.713990569115 -256.184279918671 2673.00009727478 19 22 15
-105.635054409504 -259.160369634628 2703.9999961853 17 20 13
-99.6046736836433 -262.711316347122 2740.9999370575 15 18 11
-91.9940024614334 -262.33235001564 2736.99998855591 13 16 9
-84.5900997519493 -262.528121471405 2739.00008201599 15 18 11
-78.0477747321129 -265.694856643677 2772.0000743866 15 18 11
-69.3162977695465 -261.289149522781 2726.0000705719 15 18 11
-61.561930924654 -259.950250387192 2711.99989318848 16 19 12
-54.2831309139729 -260.528057813644 2717.99993515015 16 19 12
-46.9713807106018 -261.105507612228 2723.99997711182 16 19 12
-39.2783544957638 -259.382128715515 2706.00008964539 17 20 13
-32.5320363044739 -264.559954404831 2759.99999046326 17 20 13
-24.6122498065233 -260.439485311508 2717.00000762939 17 20 13
-17.2118693590164 -260.632187128067 2719.00010108948 16 19 12
-9.91936214268208 -263.98777961731 2753.99994850159 15 18 11
-2.35984404571354 -259.003520011902 2701.99990272522 16 19 12
5.03465067595243 -260.153740644455 2713.99998664856 5 8 1
38.8038605451584 -291.302889585495 3039.00003433228 11 14 7
46.5992391109467 -288.233578205109 3006.99996948242 11 13 8
54.2927235364914 -285.547345876694 2979.00009155273 11 13 8
61.7493949830532 -282.477349042892 2947.00002670288 11 14 7
76.0589838027954 -276.048958301544 2880.00011444092 10 13 4
84.4688788056374 -277.866393327713 2898.9999294281 10 13 4
91.516301035881 -275.274395942688 2871.99997901917 9 12 5
101.183511316776 -280.349880456924 2924.99995231628 14 16 11
124.427631497383 -297.783225774765 3107.00011253357 6 8 5
-121.268443763256 -268.485337495804 2723.99997711182 16 19 12
-113.673008978367 -268.096596002579 2720.00002861023 17 20 13
-107.075527310371 -270.171642303467 2740.9999370575 18 21 14
-99.0913361310959 -268.796563148499 2726.99999809265 15 18 11
-92.4266427755356 -271.068155765533 2750 15 18 11
-85.4817256331444 -272.846609354019 2767.99988746643 15 18 11
-77.8751969337463 -272.653341293335 2766.00003242493 15 18 11
-69.9995830655098 -271.375387907028 2753.00002098084 15 18 11
-62.0584189891815 -269.505590200424 2733.99996757507 15 18 11
-54.2805902659893 -267.93110370636 2717.99993515015 16 19 12
-46.8484871089458 -267.834931612015 2717.00000762939 16 19 12
-39.6248586475849 -269.11848783493 2730.00001907349 17 20 13
-32.188706099987 -269.218802452087 2730.99994659424 17 20 13
-24.7016809880733 -268.825829029083 2726.99999809265 17 20 13
-17.2870196402073 -269.221156835556 2730.99994659424 17 20 13
-9.83605906367302 -269.221782684326 2730.99994659424 16 19 12
-2.3387735709548 -263.997316360474 2677.99997329712 15 18 11
5.04554389044642 -268.137633800507 2720.00002861023 5 8 1
21.8615718185902 -294.752925634384 2990.00000953674 81 84 77
30.0090108066797 -294.65314745903 2989.00008201599 12 15 8
46.8294993042946 -297.902584075928 3022.0000743866 11 13 8
54.1443862020969 -292.872726917267 2970.99995613098 11 13 8
77.5342807173729 -289.413243532181 2936.00010871887 10 13 4
85.5138227343559 -289.310783147812 2934.99994277954 10 13 4
92.7228480577469 -286.842286586761 2910.00008583069 9 12 5
100.659936666489 -286.837756633759 2910.00008583069 16 18 13
-122.687228024006 -279.144018888474 2756.00004196167 19 22 15
-113.082550466061 -274.085313081741 2706.00008964539 18 21 14
-106.172002851963 -275.306075811386 2717.99993515015 18 21 14
-98.8322496414185 -275.513559579849 2720.00002861023 15 18 11
-91.3803800940514 -275.416880846024 2719.00010108948 16 19 12
-85.1379558444023 -279.270321130753 2756.99996948242 15 18 11
-77.7307078242302 -279.679447412491 2760.99991798401 15 18 11
-69.2334696650505 -275.83372592926 2723.00004959106 15 18 11
-61.7603808641434 -275.634288787842 2720.99995613098 16 19 12
-54.976936429739 -278.878718614578 2753.00002098084 16 19 12
-46.8807257711887 -275.436967611313 2719.00010108948 16 19 12
-39.332676678896 -274.527341127396 2710.00003814697 17 20 13
-32.3875173926353 -278.378546237946 2747.99990653992 17 20 13
-25.0084549188614 -279.696851968765 2760.99991798401 17 20 13
-17.4001213163137 -278.482288122177 2749.00007247925 17 20 13
-9.68072284013033 -272.303432226181 2687.99996376038 16 19 12
-2.34652054496109 -272.202432155609 2687.00003623962 12 15 8
5.06755989044905 -276.761025190353 2732.00011253357 18 21 14
21.8020305037498 -302.085548639297 2982.00011253357 21 24 17
29.4353235512972 -297.019153833389 2931.99992179871 13 16 9
37.6511104404926 -298.739701509476 2948.99988174438 9 12 5
46.1764447391033 -301.878035068512 2980.00001907349 11 13 8
61.6178400814533 -297.922044992447 2940.99998474121 10 13 6
70.0902566313744 -299.843519926071 2960.00003814697 10 13 6
79.8015668988228 -306.1203956604 3022.0000743866 10 13 6
92.6865637302399 -294.665575027466 2908.99991989136 15 18 11
-121.078751981258 -282.903343439102 2720.00002861023 21 24 17
-113.327771425247 -282.077014446259 2711.99989318848 19 22 15
-104.916892945766 -279.378116130829 2686.00010871887 18 21 14
-98.6457690596581 -282.399505376816 2714.99991416931 14 17 10
-90.0652706623077 -278.763622045517 2680.0000667572 15 18 11
-82.8487426042557 -279.079973697662 2683.00008773804 15 18 11
-75.8688971400261 -280.332118272781 2694.9999332428 15 18 11
-69.0775364637375 -282.624155282974 2717.00000762939 16 19 12
-61.6665631532669 -282.627373933792 2717.00000762939 16 19 12
-46.9818636775017 -283.464938402176 2724.99990463257 16 19 12
-40.2741096913815 -288.6683344841 2775.00009536743 17 20 13
-24.9619372189045 -286.695063114166 2756.00004196167 17 20 13
-17.5068639218807 -287.736415863037 2766.00003242493 17 20 13
5.09884255006909 -285.968899726868 2749.00007247925 22 25 18
29.7149680554867 -307.915866374969 2960.00003814697 9 12 5
37.5598929822445 -306.041717529297 2941.99991226196 12 15 8
46.2361536920071 -310.408651828766 2983.99996757507 11 13 8
54.2302429676056 -309.574007987976 2976.0000705719 11 13 8
62.5575855374336 -310.611307621002 2986.00006103516 10 13 6
70.9392353892326 -311.648219823837 2996.00005149841 10 13 6
80.220140516758 -316.013365983963 3038.00010681152 10 13 6
93.2555198669434 -304.458677768707 2927.00004577637 11 14 7
111.01158708334 -309.441328048706 2974.99990463257 16 18 13
-114.241413772106 -291.808038949966 2733.99996757507 20 23 16
-105.26318103075 -287.650942802429 2694.9999332428 17 20 13
-97.0422476530075 -285.094410181046 2671.0000038147 11 14 7
-90.5984565615654 -287.767589092255 2696.00009918213 15 18 11
-83.3695232868195 -288.198947906494 2700.00004768372 15 18 11
-75.6961852312088 -287.028759717941 2688.99989128113 16 19 12
-68.3876574039459 -287.13920712471 2690.00005722046 16 19 12
-62.0266012847424 -291.732490062714 2733.00004005432 17 20 13
-55.0912842154503 -294.510841369629 2759.0000629425 16 19 12
-47.3760291934013 -293.339192867279 2747.99990653992 16 19 12
-40.0543957948685 -294.622391462326 2759.99999046326 17 20 13
-32.6789170503616 -296.011954545975 2773.00000190735 17 20 13
-24.9063428491354 -293.558210134506 2750 17 20 13
-17.4110494554043 -293.666034936905 2750.99992752075 17 20 13
-10.0794835016131 -298.790693283081 2799.00002479553 16 19 12
-2.40828422829509 -294.414311647415 2757.99989700317 16 19 12
5.16164628788829 -297.082960605621 2782.99999237061 17 20 13
30.1852729171515 -320.992022752762 3006.99996948242 11 14 7
46.0788868367672 -317.465454339981 2973.99997711182 10 12 7
53.8995303213596 -315.755009651184 2957.99994468689 10 12 7
61.6955235600472 -314.364373683929 2944.9999332428 10 13 6
69.0652132034302 -311.372220516205 2917.00005531311 10 13 6
87.8900662064552 -322.038531303406 3016.99995994568 9 12 3
93.6968922615051 -313.92166018486 2940.99998474121 14 17 10
111.45381629467 -318.821281194687 2986.99998855591 11 13 8
-104.593873023987 -293.12589764595 2677.99997329712 17 20 13
-97.8365615010262 -294.773012399673 2693.00007820129 19 22 15
-90.9634530544281 -296.310275793076 2707.00001716614 15 18 11
-83.7357714772224 -296.862095594406 2711.99989318848 16 19 12
-75.917512178421 -295.22430896759 2697.00002670288 15 18 11
-68.1553557515144 -293.476581573486 2680.99999427795 15 18 11
-62.1822774410248 -299.938440322876 2740.00000953674 15 18 11
-54.4694848358631 -298.627823591232 2727.9999256134 16 19 12
-46.4426763355732 -294.908553361893 2694.00000572205 17 20 13
-39.0365161001682 -294.472903013229 2690.00005722046 17 20 13
-31.8052172660828 -295.45995593071 2698.99988174438 17 20 13
-24.4341287761927 -295.351922512054 2697.99995422363 17 20 13
-17.2835811972618 -298.965573310852 2730.99994659424 17 20 13
-9.94933117181063 -302.469372749329 2763.00001144409 16 19 12
-2.41252640262246 -302.469700574875 2763.00001144409 16 19 12
21.0823509842157 -315.714299678802 2884.0000629425 16 19 12
30.0632696598768 -327.864229679108 2994.99988555908 11 14 7
38.6028438806534 -331.037044525146 3023.9999294281 10 13 6
61.6714134812355 -322.271764278412 2944.00000572205 11 14 7
67.2623291611671 -310.99334359169 2841.00008010864 10 13 6
77.2020891308784 -320.075243711472 2924.00002479553 10 13 4
86.8660286068916 -326.419949531555 2982.00011253357 10 13 4
93.5646742582321 -321.489453315735 2937.00003623962 15 18 11
101.504653692245 -321.265488862991 2934.99994277954 8 10 5
-112.39130795002 -301.754713058472 2690.00005722046 16 19 12
-105.525746941566 -303.106546401978 2701.99990272522 15 18 11
-98.7759977579117 -305.018991231918 2719.00010108948 18 21 14
-90.7570943236351 -303.004711866379 2700.99997520447 13 16 9
-83.3609029650688 -302.897125482559 2700.00004768372 15 18 11
-75.7165178656578 -301.779478788376 2690.00005722046 14 17 10
-68.4822574257851 -302.232027053833 2694.00000572205 13 16 9
-60.9309040009975 -301.225751638412 2684.99994277954 13 16 9
-54.1871078312397 -304.482251405716 2713.99998664856 14 17 10
-46.6815792024136 -303.81178855896 2707.99994468689 15 18 11
-39.469800889492 -305.160373449326 2720.00002861023 15 18 11
-31.8506807088852 -303.254991769791 2703.00006866455 15 18 11
-24.8765889555216 -308.192998170853 2746.99997901917 16 19 12
-17.3839256167412 -308.194071054459 2746.99997901917 16 19 12
-9.76517144590616 -304.268032312393 2711.99989318848 15 18 11
-2.41676508449018 -310.551196336746 2767.99988746643 14 17 10
5.37808798253536 -325.360685586929 2900.00009536743 17 20 13
13.5814249515533 -332.540512084961 2963.99998664856 18 21 14
21.951099857688 -336.915075778961 3003.00002098084 16 19 12
30.031580477953 -335.679620504379 2992.00010299683 11 14 7
38.0008779466152 -333.994925022125 2976.99999809265 10 13 6
55.4608330130577 -341.506749391556 3043.99991035461 11 13 8
68.0400654673576 -322.428107261658 2874.00007247925 10 13 6
79.5741826295853 -338.130384683609 3013.99993896484 10 13 4
87.0653837919235 -335.321366786957 2989.00008201599 10 13 4
94.0694808959961 -331.277966499329 2953.00006866455 3 6 0
102.813504636288 -333.516418933868 2973.00004959106 13 15 10
-113.471604883671 -312.061905860901 2716.00008010864 21 24 17
-106.379300355911 -312.986940145493 2723.99997711182 16 19 12
-98.8070741295815 -312.532871961594 2720.00002861023 16 19 12
-91.0546630620956 -311.388909816742 2710.00003814697 11 14 7
-82.9242542386055 -308.635890483856 2686.00010871887 14 17 10
-76.3879790902138 -311.857551336288 2713.99998664856 13 16 9
-68.5548558831215 -309.908002614975 2697.00002670288 12 15 8
-61.4722594618797 -311.290442943573 2709.00011062622 12 15 8
-54.2041771113873 -311.983019113541 2714.99991416931 12 15 8
-47.2996346652508 -315.318197011948 2743.99995803833 12 15 8
-40.0045588612556 -316.814392805099 2756.99996948242 13 16 9
-32.4970260262489 -316.931247711182 2757.99989700317 13 16 9
-24.7303694486618 -313.83016705513 2730.99994659424 15 18 11
-17.3766668885946 -315.55500626564 2746.00005149841 15 18 11
-9.6890376880765 -309.235453605652 2690.99998474121 15 18 11
5.05327666178346 -313.14280629158 2724.99990463257 19 22 15
13.2828745990992 -333.137482404709 2898.9999294281 19 22 15
22.6954761892557 -356.808871030808 3105.00001907349 16 19 12
30.7927634567022 -352.555602788925 3068.00007820129 11 14 7
38.27965259552 -344.624727964401 2999.00007247925 11 14 7
54.7109022736549 -345.079362392426 3003.00002098084 11 13 8
63.0263760685921 -345.765620470047 3009.0000629425 11 14 7
70.3327134251595 -341.395437717438 2970.99995613098 10 13 6
76.7979249358177 -334.267139434814 2908.99991989136 10 13 4
86.5364447236061 -341.38697385788 2970.99995613098 10 13 4
93.8415005803108 -338.509529829025 2946.00009918213 7 10 3
102.289326488972 -339.883089065552 2957.99994468689 13 15 10
-113.925017416477 -320.74511051178 2726.99999809265 17 20 13
-106.256388127804 -320.045411586761 2720.99995613098 13 16 9
-99.3465781211853 -321.697741746902 2734.99989509583 13 16 9
-90.7137542963028 -317.586094141006 2700.00004768372 13 16 9
-82.8888714313507 -315.826505422592 2684.99994277954 10 13 6
-76.7496973276138 -320.771187543869 2726.99999809265 11 14 7
-68.8815489411354 -318.775534629822 2710.00003814697 12 15 8
-62.8984197974205 -326.072216033936 2772.0000743866 11 14 7
-55.2792586386204 -325.722545385361 2769.00005340576 9 12 5
-47.7279685437679 -325.72540640831 2769.00005340576 8 11 4
-39.7847406566143 -322.551727294922 2742.00010299683 9 12 5
-32.6602086424828 -326.082766056061 2772.0000743866 10 13 6
-24.9282252043486 -323.849260807037 2753.00002098084 14 17 10
-17.5275802612305 -325.85021853447 2769.99998092651 15 18 11
-9.94773209095001 -325.02755522728 2763.00001144409 16 19 12
-2.40253517404199 -323.733866214752 2752.00009346008 15 18 11
22.6430725306273 -364.434212446213 3098.00004959106 15 18 11
30.7208281010389 -360.080271959305 3061.00010871887 12 15 8
37.9584766924381 -349.84415769577 2973.99997711182 12 15 8
45.6199012696743 -346.430480480194 2944.9999332428 10 12 7
53.4508936107159 -345.133811235428 2934.00001525879 10 12 7
62.143262475729 -349.012494087219 2967.00000762939 10 13 6
68.6481893062592 -341.12760424614 2900.00009536743 10 13 6
77.5329172611237 -345.475882291794 2937.00003623962 9 12 3
85.2211117744446 -344.177514314651 2926.00011825562 9 12 3
93.358613550663 -344.760715961456 2930.99999427795 12 15 8
101.799681782722 -346.284538507462 2944.00000572205 14 16 11
-112.790837883949 -324.914246797562 2700.00004768372 23 26 19
-106.523856520653 -328.289806842804 2727.9999256134 10 13 6
-98.5420048236847 -326.490432024002 2713.00005912781 15 18 11
-91.5822386741638 -328.060209751129 2726.0000705719 14 17 10
-84.4277516007423 -329.148232936859 2734.99989509583 8 11 4
-77.1957412362099 -330.115526914597 2743.00003051758 10 13 6
-71.9022452831268 -340.469688177109 2828.9999961853 10 13 6
-64.074769616127 -339.871734380722 2823.99988174438 10 13 6
-55.6155517697334 -335.301756858826 2786.00001335144 9 12 5
-47.0014177262783 -328.203827142715 2726.99999809265 8 11 4
-39.2311997711658 -325.43808221817 2703.9999961853 10 13 6
-32.1282185614109 -328.208237886429 2726.99999809265 10 13 6
-17.450675368309 -331.942051649094 2757.99989700317 14 17 10
-9.92917735129595 -331.942826509476 2757.99989700317 16 19 12
-2.4128770455718 -332.665324211121 2763.99993896484 16 19 12
5.14728389680386 -334.109514951706 2776.00002288818 17 20 13
22.5248783826828 -370.937019586563 3082.00001716614 15 18 11
30.6187625974417 -367.204517126083 3051.00011825562 11 14 7
38.0457043647766 -358.777672052383 2980.99994659424 11 14 7
45.8652004599571 -356.368273496628 2960.99996566772 13 14 9
61.6162121295929 -354.075521230698 2941.99991226196 9 10 5
77.3174315690994 -352.503150701523 2928.99990081787 11 12 7
84.8377868533134 -350.573092699051 2913.00010681152 12 13 8
-113.369308412075 -333.980679512024 2713.99998664856 6 9 2
-99.1175919771194 -335.838675498962 2729.00009155273 9 12 5
-91.6778594255447 -335.844069719315 2729.00009155273 9 12 5
-83.8673785328865 -334.372282028198 2717.00000762939 10 13 6
-76.5441358089447 -334.746062755585 2720.00002861023 8 11 4
-70.7037001848221 -342.380523681641 2782.00006484985 8 11 4
-63.004806637764 -341.768950223923 2776.99995040894 8 11 4
-54.6742267906666 -337.095618247986 2739.00008201599 9 12 5
-46.9815246760845 -335.498571395874 2726.0000705719 9 12 5
-39.7367477416992 -337.101012468338 2739.00008201599 9 12 5
-32.4091389775276 -338.579922914505 2750.99992752075 9 12 5
-24.9435342848301 -339.073926210403 2755.00011444092 10 13 6
-17.2851886600256 -336.244374513626 2732.00011253357 12 15 8
-9.77741647511721 -334.275901317596 2716.00008010864 14 17 10
-2.40226509049535 -338.707029819489 2752.00009346008 17 20 13
5.1173260435462 -339.691549539566 2759.99999046326 18 21 14
13.9265945181251 -374.152451753616 3039.99996185303 18 21 14
21.9754911959171 -370.089888572693 3006.99996948242 16 19 12
30.3360410034657 -372.05758690834 3023.00000190735 13 16 9
39.0389822423458 -376.486361026764 3059.00001525879 13 16 9
54.8839345574379 -370.819568634033 3013.00001144409 11 12 7
62.4504312872887 -367.000967264175 2982.00011253357 9 10 5
70.5576986074448 -366.874098777771 2980.99994659424 8 9 4
79.2399644851685 -369.454324245453 3002.00009346008 10 11 6
88.2111638784409 -372.772395610809 3029.00004386902 11 12 7
110.14973372221 -363.402515649796 2953.00006866455 17 18 13
-111.483208835125 -335.701197385788 2668.99991035461 9 12 5
-109.518185257912 -352.813541889191 2805.0000667572 9 12 5
-103.106901049614 -357.096284627914 2838.99998664856 14 17 10
-90.8663868904114 -340.246856212616 2704.99992370605 9 12 5
-83.9551612734795 -342.138707637787 2720.00002861023 8 11 4
-76.0332122445107 -339.879184961319 2701.99990272522 9 12 5
-69.0986067056656 -342.02179312706 2719.00010108948 9 12 5
-62.0937086641788 -344.289809465408 2736.99998855591 12 15 8
-54.5712746679783 -343.915849924088 2733.99996757507 13 16 9
-47.3924241960049 -345.931470394135 2750 14 17 10
-32.642874866724 -348.577827215195 2770.99990844727 10 13 6
-24.8153451830149 -344.805628061295 2740.9999370575 10 13 6
-17.0817393809557 -339.649230241776 2700.00004768372 11 14 7
-9.74805373698473 -340.656340122223 2707.99994468689 12 15 8
-2.38292338326573 -343.42423081398 2730.00001907349 13 16 9
21.8938365578651 -376.884400844574 2996.00005149841 15 18 11
29.8927761614323 -374.744415283203 2979.00009155273 14 17 10
38.3476242423058 -378.013074398041 3005.00011444092 14 17 10
47.1144877374172 -382.664978504181 3042.00005531311 13 14 9
54.1339740157127 -373.856455087662 2971.99988365173 12 13 8
61.9442388415337 -372.092008590698 2957.99994468689 11 12 7
70.4826414585114 -374.603986740112 2977.9999256134 11 12 7
79.9480453133583 -381.014943122864 3029.00004386902 11 12 7
88.8176262378693 -383.651554584503 3049.99995231628 12 13 8
95.8587154746056 -378.614753484726 3009.99999046326 11 12 7
102.819666266441 -374.080747365952 2973.99997711182 12 13 8
109.770454466343 -370.175421237946 2943.00007820129 8 9 4
119.313523173332 -374.948441982269 2980.99994659424 25 26 21
-114.4839823246 -352.209985256195 2740.9999370575 10 13 6
-101.539306342602 -359.29012298584 2796.0000038147 12 15 8
-91.1969989538193 -348.887115716934 2714.99991416931 12 15 8
-83.4564417600632 -347.478717565537 2703.9999961853 7 10 3
-75.8599489927292 -346.455335617065 2696.00009918213 11 14 7
-68.8404440879822 -348.130196332932 2709.00011062622 13 16 9
-62.0673932135105 -351.603806018829 2736.00006103516 15 18 11
-54.9273416399956 -353.663474321365 2752.00009346008 15 18 11
-47.4758073687553 -354.052007198334 2755.00011444092 15 18 11
-39.9352125823498 -353.79758477211 2753.00002098084 12 15 8
-32.6056219637394 -355.727404356003 2767.99988746643 11 14 7
-25.2484250813723 -358.427941799164 2789.00003433228 11 14 7
-17.0427784323692 -346.220254898071 2694.00000572205 11 14 7
-9.85546689480543 -351.875752210617 2737.99991607666 13 16 9
-2.4124588817358 -355.217486619949 2763.99993896484 11 14 7
21.5491112321615 -378.991216421127 2948.99988174438 16 19 12
29.9211237579584 -383.230745792389 2982.00011253357 15 18 11
38.2560454308987 -385.284900665283 2997.99990653992 14 17 10
46.7555187642574 -387.981176376343 3019.00005340576 11 13 8
53.1654804944992 -375.126987695694 2918.99991035461 10 12 7
71.4488327503204 -387.970715761185 3019.00005340576 9 11 6
96.2034240365028 -388.212889432907 3020.99990844727 10 12 7
103.366822004318 -384.223461151123 2990.00000953674 10 12 7
110.77106744051 -381.647139787674 2970.00002861023 14 16 11
118.706241250038 -381.126374006271 2966.00008010864 10 12 7
-122.347600758076 -360.835492610931 2750 19 22 15
-115.187220275402 -361.892253160477 2757.99989700317 7 10 3
-107.982806861401 -362.948626279831 2766.00003242493 12 15 8
-100.334942340851 -362.561196088791 2763.00001144409 8 11 4
-90.9228846430779 -355.218499898911 2707.00001716614 10 13 6
-83.760105073452 -356.142282485962 2713.99998664856 10 13 6
-76.1930719017982 -355.359733104706 2707.99994468689 13 16 9
-68.8871741294861 -355.757772922516 2710.99996566772 15 18 11
-61.8368573486805 -357.730090618134 2726.0000705719 16 19 12
-55.3431808948517 -363.901406526566 2773.00000190735 15 18 11
-47.6452931761742 -362.854689359665 2765.00010490417 14 17 10
-40.0488711893559 -362.332373857498 2760.99991798401 13 16 9
-32.615453004837 -363.384395837784 2769.00005340576 12 15 8
-25.2016540616751 -365.354627370834 2783.99991989136 12 15 8
-17.5604782998562 -364.306062459946 2776.00002288818 13 16 9
-10.0024500861764 -364.700585603714 2779.00004386902 15 18 11
-2.42802477441728 -365.094721317291 2782.00006484985 14 17 10
5.23321237415075 -370.475232601166 2822.99995422363 16 19 12
29.6785347163677 -388.188689947128 2957.99994468689 13 16 9
38.3686050772667 -394.617050886154 3006.99996948242 10 13 6
53.4901395440102 -385.425299406052 2937.00003623962 6 8 3
62.52321600914 -391.852140426636 2986.00006103516 6 8 3
70.1430067420006 -388.961106538773 2963.99998664856 5 7 2
80.2817046642303 -399.192363023758 3042.00005531311 5 7 2
89.040108025074 -401.28692984581 3058.00008773804 5 7 2
104.708880186081 -397.469848394394 3029.00004386902 9 11 6
-123.541429638863 -371.926337480545 2776.99995040894 8 11 4
-115.597926080227 -370.728105306625 2767.99988746643 10 13 6
-106.414832174778 -365.109592676163 2726.0000705719 3 6 0
-98.8038256764412 -364.446133375168 2720.99995613098 18 21 14
-90.6823128461838 -361.63917183876 2700.00004768372 7 10 3
-83.9710682630539 -364.457219839096 2720.99995613098 14 17 10
-76.3854160904884 -363.658398389816 2714.99991416931 14 17 10
-68.9846351742744 -363.662868738174 2714.99991416931 14 17 10
-61.7423839867115 -364.604443311691 2721.99988365173 13 16 9
-55.439617484808 -372.109174728394 2778.00011634827 13 16 9
-47.8836372494698 -372.246265411377 2779.00004386902 13 16 9
-39.988424628973 -369.301974773407 2756.99996948242 15 18 11
-32.3425829410553 -367.830753326416 2746.00005149841 14 17 10
-24.946678429842 -369.172036647797 2756.00004196167 15 18 11
-17.5657384097576 -371.986299753189 2776.99995040894 15 18 11
-9.90826636552811 -368.77229809761 2753.00002098084 17 20 13
-2.41216854192317 -370.246142148972 2763.99993896484 15 18 11
21.8022409826517 -399.714082479477 2983.99996757507 14 17 10
30.7201407849789 -410.160720348358 3062.00003623962 9 12 5
53.7054277956486 -395.016491413116 2948.99988174438 6 8 3
61.9959868490696 -396.620362997055 2960.99996566772 6 8 3
70.5410465598106 -399.295300245285 2980.99994659424 6 8 3
88.9182761311531 -409.0636074543 3053.99990081787 5 7 2
97.3381921648979 -409.459739923477 3056.99992179871 11 13 8
141.268566250801 -416.12046957016 3107.00011253357 13 15 10
-130.770206451416 -378.508806228638 2769.99998092651 13 15 10
-116.217285394669 -380.300372838974 2782.99999237061 10 13 6
-107.501320540905 -376.344352960587 2753.99994850159 13 16 9
-98.2894524931908 -369.927883148193 2707.00001716614 15 18 11
-91.3820266723633 -371.846944093704 2720.99995613098 17 20 13
-83.5339203476906 -369.939088821411 2707.00001716614 17 20 13
-76.4932706952095 -371.583968400955 2719.00010108948 14 17 10
-68.7009319663048 -369.538545608521 2703.9999961853 14 17 10
-61.9880892336369 -373.505830764771 2733.00004005432 15 18 11
-55.0770089030266 -377.19938158989 2759.99999046326 14 17 10
-47.1742823719978 -374.195903539658 2737.99991607666 12 15 8
-39.4783429801464 -372.011840343475 2721.99988365173 10 13 6
-32.2699248790741 -374.474138021469 2740.00000953674 11 14 7
-24.8908326029778 -375.84263086319 2750 13 16 9
-17.3053294420242 -373.93057346344 2736.00006103516 16 19 12
-2.40416615270078 -376.528561115265 2755.00011444092 17 20 13
22.1150517463684 -413.701176643372 3026.99995040894 9 12 5
29.8655182123184 -406.866073608398 2976.99999809265 7 10 3
38.3001305162907 -410.280734300613 3002.00009346008 15 18 11
52.2999428212643 -392.508268356323 2871.99997901917 13 15 10
88.3014425635338 -414.493918418884 3032.99999237061 10 12 7
96.8546643853188 -415.718138217926 3042.00005531311 7 9 4
-136.960759758949 -382.264196872711 2743.00003051758 10 12 9
-129.062712192535 -381.018161773682 2733.99996757507 16 19 12
-114.706851541996 -382.84507393837 2746.99997901917 12 15 8
-109.641447663307 -391.493022441864 2809.00001525879 14 17 10
-102.277137339115 -392.61457324028 2816.99991226196 16 19 12
-83.5287347435951 -377.294898033142 2707.00001716614 17 20 13
-75.4757896065712 -373.954802751541 2683.00008773804 14 17 10
-68.4679970145226 -375.631839036942 2694.9999332428 15 18 11
-61.8481449782848 -380.096137523651 2726.99999809265 16 19 12
-54.3153136968613 -379.402905702591 2721.99988365173 16 19 12
-46.2410002946854 -374.109447002411 2684.00001525879 13 16 9
-39.2583385109901 -377.317994832993 2707.00001716614 14 17 10
-32.3385670781136 -382.756322622299 2746.00005149841 14 17 10
-24.8983278870583 -383.455097675323 2750.99992752075 18 21 14
-17.3232220113277 -381.783783435822 2739.00008201599 20 23 16
-9.86745208501816 -382.202804088593 2742.00010299683 22 25 18
-2.4214677978307 -386.802971363068 2775.00009536743 16 19 12
13.8437151908875 -421.370595693588 3023.00000190735 21 24 17
21.8287575989962 -416.490912437439 2987.99991607666 17 20 13
29.6830888837576 -412.447065114975 2959.00011062622 10 13 6
53.4984767436981 -409.51207280159 2937.99996376038 11 16 10
60.6484822928905 -403.793722391129 2897.0000743866 6 11 5
69.0890327095985 -406.995505094528 2920.00007629395 9 14 8
79.8975303769112 -422.043979167938 3028.00011634827 7 12 6
87.2479230165482 -417.717963457108 2996.99997901917 9 14 8
137.068748474121 -420.184701681137 3015.00010490417 6 10 9
-108.892984688282 -396.42471075058 2789.99996185303 13 16 9
-100.709602236748 -394.157916307449 2773.9999294281 14 17 10
-91.4713367819786 -387.059420347214 2723.99997711182 13 16 9
-82.3818445205688 -379.391938447952 2670.00007629395 17 20 13
-74.9928206205368 -378.828525543213 2665.99988937378 17 20 13
-68.3112516999245 -382.10129737854 2688.99989128113 16 19 12
-61.3453090190887 -384.379029273987 2704.99992370605 15 18 11
-53.2543696463108 -379.267066717148 2668.99991035461 16 19 12
-46.1863912642002 -380.9754550457 2680.99999427795 15 18 11
-39.516881108284 -387.230694293976 2724.99990463257 15 18 11
-32.2540886700153 -389.222472906113 2739.00008201599 15 18 11
-24.66144785285 -387.234807014465 2724.99990463257 14 17 10
-17.1956364065409 -386.383533477783 2719.00010108948 14 17 10
-9.83803905546665 -388.515949249268 2733.99996757507 13 16 9
5.71192195639014 -437.96893954277 3082.00001716614 16 19 12
13.9710539951921 -433.563053607941 3051.00011825562 16 19 12
21.9369493424892 -426.740854978561 3003.00002098084 15 18 11
29.179660603404 -413.381397724152 2908.99991989136 17 20 13
46.8185544013977 -429.718464612961 3023.9999294281 14 19 13
61.9634576141834 -420.616984367371 2960.00003814697 19 24 18
69.7944313287735 -419.191807508469 2950.00004768372 23 28 22
77.9400169849396 -419.75548863411 2953.9999961853 5 10 4
87.300643324852 -426.144599914551 2999.00007247925 12 17 11
93.0541604757309 -415.339678525925 2923.00009727478 10 15 9
102.091073989868 -419.738382101059 2953.9999961853 0 5 0
138.242095708847 -432.069540023804 3040.99988937378 26 30 29
-138.591051101685 -401.94433927536 2776.00002288818 8 11 4
-130.037680268288 -398.912250995636 2755.00011444092 24 27 20
-122.665666043758 -399.354696273804 2757.99989700317 23 26 19
-106.934681534767 -396.76296710968 2740.00000953674 19 22 15
-97.69007563591 -389.674097299576 2690.99998474121 18 21 14
-90.1223868131638 -388.666450977325 2684.00001525879 17 20 13
-81.7595198750496 -383.748471736908 2650.00009536743 19 22 15
-75.1005336642265 -386.64972782135 2670.00007629395 19 22 15
-68.7133148312569 -391.722857952118 2704.99992370605 17 20 13
-60.9558671712875 -389.265179634094 2687.99996376038 12 15 8
-53.909357637167 -391.296356916428 2701.99990272522 10 13 6
-46.3729090988636 -389.851361513138 2691.99991226196 10 13 6
-39.2678305506706 -392.171263694763 2707.99994468689 10 13 6
-32.1578085422516 -395.504415035248 2730.99994659424 10 13 6
-24.6870089322329 -395.071804523468 2727.9999256134 11 14 7
-17.2198247164488 -394.349068403244 2723.00004959106 11 14 7
-9.97053738683462 -401.301383972168 2770.99990844727 13 16 9
14.2036769539118 -449.237108230591 3101.99999809265 73 76 69
29.9400761723518 -432.290107011795 2984.99989509583 20 23 16
48.1314584612846 -450.242847204208 3108.99996757507 11 16 10
55.6400567293167 -442.564070224762 3055.99999427795 14 19 13
62.6293122768402 -433.29194188118 2992.00010299683 22 27 21
70.2867582440376 -430.246472358704 2970.99995613098 18 23 17
78.4890726208687 -430.820971727371 2974.99990463257 18 23 17
86.8293270468712 -431.974112987518 2983.00004005432 4 9 3
94.7353690862656 -430.954575538635 2976.0000705719 9 14 8
100.667670369148 -421.825349330902 2913.00010681152 9 14 8
110.618360340595 -429.638117551804 2967.00000762939 19 24 18
121.022969484329 -438.029378652573 3025.00009536743 18 23 17
129.008337855339 -437.152594327927 3019.00005340576 17 22 16
163.5572463274 -465.215057134628 3213.00005912781 135 141 141
173.167124390602 -467.520922422409 3229.00009155273 116 122 122
-140.079811215401 -413.908302783966 2805.99999427795 9 11 6
-129.651740193367 -405.213952064514 2746.99997901917 21 24 17
-118.254899978638 -392.240822315216 2658.99991989136 23 26 19
-111.762523651123 -394.903570413589 2677.00004577637 22 25 18
-105.288751423359 -398.008525371552 2697.99995422363 23 26 19
-98.6275523900986 -400.818020105362 2717.00000762939 23 26 19
-90.7880663871765 -398.906409740448 2703.9999961853 20 23 16
-83.4201574325562 -398.912101984024 2703.9999961853 18 21 14
-76.220691204071 -399.802446365356 2710.00003814697 20 23 16
-68.7596574425697 -399.364620447159 2707.00001716614 19 22 15
-61.3827332854271 -399.368852376938 2707.00001716614 12 15 8
-53.2873906195164 -394.06144618988 2671.0000038147 10 13 6
-46.4560203254223 -397.900551557541 2697.00002670288 10 13 6
-40.0047600269318 -407.050579786301 2759.0000629425 9 12 5
-31.8849086761475 -399.528622627258 2707.99994468689 9 12 5
-24.6673040091991 -402.186125516891 2726.0000705719 10 13 6
-17.7182536572218 -413.400381803513 2802.00004577637 12 15 8
-10.1138055324554 -414.72914814949 2811.00010871887 14 17 10
102.285265922546 -436.670303344727 2960.00003814697 12 17 11
110.350251197815 -436.663419008255 2960.00003814697 9 14 8
118.974909186363 -438.721209764481 2973.99997711182 14 19 13
128.615453839302 -444.023817777634 3009.99999046326 28 33 27
-129.690483212471 -412.822961807251 2747.99990653992 23 24 18
-118.514023721218 -400.362133979797 2664.99996185303 22 23 15
-110.795073211193 -398.717164993286 2654.00004386902 22 23 15
-105.320870876312 -405.484735965729 2698.99988174438 21 22 14
-98.5848158597946 -408.045500516891 2716.00008010864 19 20 12
-91.1849960684776 -408.051788806915 2716.00008010864 19 20 12
-83.8157087564468 -408.207803964615 2717.00000762939 15 16 8
-76.1875659227371 -407.011121511459 2709.00011062622 17 18 10
-68.8059255480766 -407.015919685364 2709.00011062622 19 20 12
-61.0385872423649 -404.46600317955 2691.99991226196 20 21 13
-53.7427067756653 -404.770344495773 2694.00000572205 20 21 13
-46.3323928415775 -404.172629117966 2690.00005722046 16 19 10
-39.5816564559937 -410.185515880585 2730.00001907349 14 17 8
-32.2831049561501 -411.990970373154 2742.00010299683 10 13 4
-24.9009300023317 -413.495361804962 2752.00009346008 15 18 11
-17.4768082797527 -415.299773216248 2763.99993896484 11 14 7
-10.1347221061587 -423.264116048813 2816.99991226196 10 13 6
102.209478616714 -444.40746307373 2957.99994468689 202 207 201
110.529407858849 -445.452064275742 2964.99991416931 209 214 208
118.687115609646 -445.745021104813 2967.00000762939 213 218 212
126.983463764191 -446.488112211227 2971.99988365173 186 191 185
-128.313407301903 -415.847808122635 2719.00010108948 23 24 18
-119.039803743362 -409.432411193848 2677.00004577637 21 22 14
-110.495537519455 -404.851675033569 2647.0000743866 20 21 13
-104.806646704674 -410.823851823807 2686.00010871887 19 20 12
-97.9975387454033 -412.971884012222 2700.00004768372 17 18 10
-91.0446494817734 -414.813697338104 2711.99989318848 17 18 10
-83.7175995111465 -415.12542963028 2713.99998664856 16 17 9
-76.3512179255486 -415.283709764481 2714.99991416931 15 16 8
-68.5473680496216 -412.841230630875 2698.99988174438 16 17 9
-61.2612366676331 -413.304448127747 2701.99990272522 17 18 10
-53.5994879901409 -411.013871431351 2687.00003623962 19 20 12
-39.5790114998817 -417.597651481628 2730.00001907349 13 16 7
-24.8359274119139 -419.896453619003 2744.99988555908 12 15 8
-17.3871237784624 -420.662760734558 2750 12 15 8
-10.03691367805 -426.78239941597 2789.99996185303 16 19 12
102.064482867718 -451.826363801956 2953.9999961853 202 207 201
110.000230371952 -451.360434293747 2950.99997520447 178 183 177
117.799259722233 -450.435072183609 2944.9999332428 185 190 184
125.99241733551 -451.038777828217 2948.99988174438 202 207 203
-119.343116879463 -417.788296937943 2684.00001525879 23 26 19
-112.408220767975 -419.197022914886 2693.00007820129 20 23 16
-104.487493634224 -416.869342327118 2677.99997329712 20 23 16
-95.9222540259361 -411.427795886993 2642.99988746643 21 24 17
-89.4272401928902 -414.703130722046 2664.00003433228 19 22 15
-84.174633026123 -424.827545881271 2729.00009155273 23 26 19
-76.1492326855659 -421.56383395195 2707.99994468689 21 24 17
-68.9490735530853 -422.65847325325 2714.99991416931 20 23 16
-61.3931305706501 -421.573162078857 2707.99994468689 21 24 17
-53.7753850221634 -419.708967208862 2696.00009918213 22 25 18
-46.584490686655 -421.11349105835 2704.99992370605 23 26 17
-39.4893549382687 -424.074351787567 2723.99997711182 20 23 14
-32.2199016809464 -426.100641489029 2736.99998855591 21 24 17
-24.7799679636955 -426.413953304291 2739.00008201599 14 17 10
-17.3669811338186 -427.66085267067 2746.99997901917 16 19 12
-10.0038582459092 -432.954967021942 2780.99989891052 5 8 1
101.539388298988 -457.509726285934 2938.99989128113 196 201 197
109.210126101971 -456.101626157761 2930.0000667572 194 199 195
117.111422121525 -455.782651901245 2927.99997329712 197 202 198
125.599518418312 -457.642436027527 2940.00005722046 207 212 208
-128.390550613403 -430.923521518707 2720.99995613098 18 23 17
-123.292118310928 -439.167320728302 2773.00000190735 20 25 18
-114.278823137283 -433.63231420517 2737.99991607666 20 25 18
-103.856176137924 -421.603113412857 2661.99994087219 20 25 18
-96.2786599993706 -420.184522867203 2653.00011634827 23 28 21
-90.8980742096901 -428.90191078186 2707.99994468689 21 26 19
-83.5829004645348 -429.224669933319 2710.00003814697 20 25 18
-76.8188834190369 -432.71467089653 2732.00011253357 20 25 18
-69.4776475429535 -433.353245258331 2736.00006103516 20 25 18
-60.1874552667141 -420.528054237366 2654.99997138977 20 25 18
-53.6121465265751 -425.758928060532 2687.99996376038 19 24 17
-46.2885610759258 -425.762355327606 2687.99996376038 19 22 15
-39.4141785800457 -430.675566196442 2719.00010108948 17 20 13
-32.0882126688957 -431.786805391312 2726.0000705719 18 21 14
-24.8777847737074 -435.590237379074 2750 19 22 15
-17.4290090799332 -436.700463294983 2756.99996948242 21 24 17
-120.749577879906 -437.509536743164 2716.00008010864 17 22 16
-114.98049646616 -443.800002336502 2755.00011444092 21 26 20
-102.912783622742 -424.959987401962 2638.00001144409 23 28 22
-97.6147055625916 -433.343708515167 2690.00005722046 27 32 26
-89.9520367383957 -431.739211082459 2680.0000667572 22 27 21
-83.0836966633797 -434.000581502914 2694.00000572205 24 29 23
-76.0544538497925 -435.778200626373 2704.99992370605 23 28 22
-68.9650177955627 -437.555372714996 2716.00008010864 23 28 22
-60.9993524849415 -433.532297611237 2690.99998474121 24 29 23
-53.0899129807949 -428.864181041718 2661.99994087219 24 29 23
-45.8893142640591 -429.350912570953 2664.99996185303 22 24 19
-39.0055924654007 -433.542728424072 2690.99998474121 29 31 26
-32.1213081479073 -439.667344093323 2729.00009155273 21 23 18
-24.8760581016541 -443.052589893341 2750 24 26 21
