ply
format ascii 1.0
comment KinectMotionCapture
element vertex 783
property float x
property float y
property float z
property uchar red
property uchar green
property uchar blue
end_header
-23.9584534739299 -5.48529028320621 2337.30594141303 18 21 14
-19.2209837978177 -7.41909421006737 2318.49830747503 20 23 16
17.3852740850009 -13.1874200731491 2261.01707251982 22 25 18
-9.35001718591133 -11.3822920968751 2279.93401844561 24 27 20
-0.413914697055873 -13.8735470807002 2255.52139407888 24 27 20
-69.9984294245695 -6.81202656122845 2327.39132294077 23 26 19
-58.4896028385429 -9.60752197176623 2299.90144466815 20 23 16
-50.2493420321646 -12.0259127400296 2276.21979551663 19 22 15
-68.3946261062567 -11.1912258435992 2285.30225141615 20 23 16
-87.7075565332046 -10.1940546408134 2296.00944630615 21 24 17
-102.583482244469 -9.73541204725303 2301.28454749291 20 23 16
-78.4028111326915 -14.1982432811075 2257.03477828761 20 23 16
-88.3693527753757 -14.3679911925721 2255.9847318477 18 21 14
-61.4376804940393 -19.249198392196 2207.55133084269 15 18 11
-54.3465857797028 -21.6302842732939 2184.27185225243 15 18 11
-12.5780689906021 -28.5177902636997 2115.705857097 16 19 12
-12.5052561641117 -30.0550180472417 2100.92923684857 16 19 12
-36.1096514016614 -28.5042419699759 2117.17410678924 11 13 8
3.05730939198723 -11.5689510621134 2358.09446614746 24 27 20
27.0421288823397 -17.2458757586642 2303.81568831172 26 29 22
2.03189902048573 -15.6108084494589 2320.27690231214 24 27 20
1.60019821693513 -16.9648392385247 2307.60584503075 19 22 15
10.1023773604165 -19.4298806745455 2284.11382977657 18 21 14
10.1888977611724 -20.8724792827192 2270.58295686291 20 23 16
13.4107846550449 -22.7161765440147 2253.14717428835 24 27 20
-57.698558091309 -15.244832501553 2326.38387187327 25 28 21
-75.232492541617 -14.4434233169389 2334.67459745158 23 26 19
-100.254563178169 -12.6752408414156 2352.36293870548 21 24 17
-67.9960358486542 -18.1951199102634 2299.14230272527 19 22 15
-59.1685125554926 -20.762811377025 2274.65028533952 20 23 16
-77.3158305443105 -22.7721819285775 2256.54428839468 19 22 15
-62.6060550474574 -26.1731134123462 2223.96097091685 17 20 13
-66.1176127140186 -28.6937404498016 2200.40550526964 15 18 11
-21.240699136112 -36.204835258677 2127.91392258255 16 19 12
-36.2250513541933 -37.2931739911417 2118.28096985671 23 24 19
-42.2051503727856 -38.0420136454954 2111.47200217762 1 3 0
25.702784286266 -22.7173742888326 2332.45999505219 25 28 21
1.91976688494533 -21.1745956747626 2347.34030083643 22 25 18
52.1389665483838 -28.8909481321436 2275.0150113077 26 29 22
32.2080213530778 -27.8383951840762 2285.27447462249 17 20 13
9.14635125590069 -26.369909558955 2299.44228752398 18 21 14
-11.239108958033 -25.2194458132046 2310.60779576863 14 17 10
7.46378984515417 -29.0651026379389 2274.74144834849 16 19 12
-20.51674995069 -26.9232311871787 2295.22776045114 20 23 16
-46.4470937585535 -25.0162798104821 2313.49370909771 21 24 17
-72.245051741082 -23.0981257550032 2331.8556837981 20 23 16
-78.9980353940609 -23.651585330539 2326.95749845039 20 23 16
-49.9818156508913 -31.8911922926351 2250.37527899009 23 26 19
-53.1823963723244 -32.9586359066062 2240.63918865678 22 25 18
-78.0865710880172 -31.0995314703878 2258.4134557174 17 20 13
-73.2409308211772 -33.2543264941991 2238.44808095642 16 19 12
-107.621374985524 -34.5811358267741 2227.10452906808 18 20 15
40.1084403468417 -34.4558681900136 2303.31938787204 19 22 15
46.129058311946 -36.7089171564328 2282.96995073799 24 27 20
26.8635537996071 -35.6842546546659 2292.47662830526 16 19 12
1.88679532581348 -33.8927744667832 2308.96319316829 15 18 11
21.3070333511025 -37.9272895128371 2272.38057254868 14 17 10
-3.57576884776334 -36.1273315335346 2288.93529126222 15 18 11
-14.3161919134112 -36.1858294314461 2288.55954731878 18 21 14
-30.7457722423012 -35.4755897182495 2295.18001324102 20 23 16
-24.961922063536 -37.7456388666173 2274.6588519765 20 23 16
-53.317834764772 -35.4058266659766 2296.1090874873 21 24 17
-60.7404967544132 -37.3852002940387 2278.36696576284 23 26 19
-81.9310649513001 -37.4736411426723 2277.82664013594 18 21 14
-95.5844109180251 -37.0820726794751 2281.51730799155 17 20 13
-112.275787843599 -36.2532614747774 2289.18362919102 14 17 10
-57.8104637330239 -47.0103737012577 2191.51314003236 16 19 12
61.3970427468411 -45.8018284798982 2279.17065811984 23 25 20
-14.3528522286769 -37.1821397199096 2355.22490905197 17 19 14
13.7616073103644 -42.4364180145543 2308.88208272256 20 22 17
6.8597497641929 -43.0046265074112 2303.87590080637 16 19 12
-16.0876290388117 -41.3895309817207 2318.12730851415 13 16 9
-9.50425350351258 -43.7900915994341 2296.95004254778 12 15 8
-24.6847940167017 -43.2167438811455 2302.00490296789 13 16 9
-30.2810002725862 -43.9563306632559 2295.47397973577 19 22 15
-28.2914919540651 -45.7528955015329 2279.61542610211 21 24 17
-49.0702153692808 -44.3779802138774 2291.73202298 21 27 17
-75.4086819608442 -42.1989899036882 2310.93882374795 21 24 17
-77.8112296675606 -43.3749411581834 2300.54536385907 24 25 19
-54.658202392647 -48.1928686748145 2258.01890833113 22 23 17
-99.5007156597836 -43.3316985728381 2300.87906570664 16 17 12
-103.796478898386 -44.2419504399111 2292.81962918285 15 16 11
-58.3042128304891 -53.9416300239285 2207.17675668242 16 18 13
-55.4933703483631 -55.9472250288762 2189.44217919767 15 20 13
-73.52016569963 -54.9030260604605 2198.61188579802 15 20 13
-48.259740508914 -60.2447497088584 2151.43499723967 16 21 15
77.8637138068796 -53.5721231899685 2287.36293694822 22 24 19
63.6600478805684 -53.1712478595367 2290.65471326183 26 28 23
-45.5124376972347 -39.7247678327964 2405.49624336381 20 22 17
-29.4619554606996 -43.4058998679391 2373.88341354264 18 20 15
2.59209825102191 -49.3417721689077 2322.98251644388 18 20 15
-29.1062372564217 -47.9501852637078 2334.59414665432 15 18 11
-40.3853724815628 -47.877932533205 2335.06416663073 14 17 10
-14.0206032247814 -53.1374415899741 2289.92329371605 15 18 11
-45.0635615269104 -50.2615943434455 2314.36878864336 18 21 14
-54.4140772356831 -50.4581277507741 2312.53014024657 20 23 16
-67.5324256137613 -50.107108112792 2315.37339725461 18 24 14
-102.609716499071 -46.5621015947538 2345.54355317752 22 25 18
-67.953580241213 -53.1376161795025 2289.11491260414 25 26 20
-84.7765578325259 -52.233076539613 2296.68621725197 23 24 18
-97.1749970600966 -51.9642032211304 2298.81589905033 16 17 12
-84.1224534310809 -55.458366513088 2268.73615095156 15 16 11
-36.9064072391383 -65.7085695619753 2180.63469057583 20 22 17
-43.978465690091 -66.2855477457778 2175.50508197128 18 23 16
-63.2693085463849 -65.0102720581741 2186.22969726667 15 22 14
-47.6079212422365 -70.709787431763 2137.03288999891 20 24 27
-34.4967578716959 -47.9365125904612 2406.02934192025 21 23 18
-10.5646348778212 -52.8131525380149 2365.3027032219 18 20 15
-1.76195636771137 -55.5852594753266 2342.02667654724 19 21 16
-22.1598997804364 -54.2067388620682 2353.18458508469 16 18 13
-20.5589390653111 -55.968813937626 2338.27957632796 17 20 13
-51.7628116814537 -53.0031834391532 2362.60887580484 18 21 14
-41.8468426884857 -55.9733540276378 2337.66882067016 18 21 14
-50.9572952336437 -57.7412024887612 2322.40965933408 17 20 13
-50.1541590866095 -59.4213987788698 2308.16203635993 17 20 13
-52.5597108315965 -60.6371139277169 2297.76619736763 22 28 18
-57.5119119919545 -61.4795437232859 2290.46656962366 27 30 23
-67.4905005700752 -61.5702212168907 2289.40789613339 24 25 19
-75.574390721393 -61.9414437925975 2286.01619906383 20 21 15
-41.3431136562681 -68.732310854434 2229.27847819194 17 18 13
-36.5418560269812 -71.1003826446532 2209.27955474393 14 15 10
-59.0051741062037 -69.3043604722996 2223.88278482989 18 19 14
-37.0412114867749 -74.3364807543998 2181.72830265791 19 21 16
-52.0835264598576 -73.6764489153312 2186.88380479409 15 20 14
-73.7902996522453 -71.9626923241208 2200.79972261637 15 22 15
-64.9481095764553 -75.015270219781 2175.08113929681 16 22 18
27.0032496093329 -66.569335770112 2322.06439819422 26 28 23
5.1859399251688 -64.9538900229222 2334.66465116164 23 25 20
-32.0503841534054 -61.0459660428939 2365.74217830764 19 21 16
-43.9452417189796 -60.8387772749475 2367.00127364912 21 24 17
-80.6967133279477 -60.0058989738799 2372.47687443267 24 27 20
-78.1951460131047 -63.5076755277722 2343.39430523053 25 30 23
-43.8919511468936 -70.3274378360005 2287.94390385355 26 31 24
-44.4695372537205 -71.856805783774 2275.16620308519 27 30 23
-35.0640376091236 -74.9381407304459 2249.85553475653 21 22 16
-65.7435560276687 -71.8222239796875 2274.56571101102 17 18 12
-62.6505872428349 -73.9384910347098 2257.03509232823 16 17 11
-79.5399350522676 -74.5791490091491 2250.96417070573 22 23 18
-33.2015047783933 -85.2963019744921 2163.45917925756 16 21 15
-64.4683725956294 -83.7043203918744 2175.38489912018 18 24 22
-9.65446410264725 -69.5183794359229 2365.87789017323 30 32 27
-9.9306185460788 -71.0541259940317 2353.31867134162 33 35 30
-13.4856971985258 -72.1037784123102 2344.56043016085 33 35 30
-70.565929884284 -65.0151223416106 2399.557581301 29 32 25
-70.1385994651678 -72.9888041585868 2334.36532099122 20 25 18
-54.791316905904 -77.0136137790055 2302.24098592225 17 22 15
-37.0831626211419 -81.4481769751805 2266.88558067413 16 19 12
-54.0271313645091 -80.4226000126667 2274.36978933166 14 15 9
-50.2864637587921 -82.6811404853035 2256.0729440746 14 15 9
-49.7337034790453 -84.4460640759962 2241.64309465346 14 15 9
-39.9309571327484 -87.716010158482 2215.38440695475 12 13 7
-78.454273718672 -83.1757179492972 2250.47260982996 16 17 11
-57.018256907279 -88.3585152936091 2209.16997637201 14 16 11
-67.6931771204785 -88.3256756360857 2208.84217948694 14 19 15
-61.834756900125 -91.0116636259912 2187.13793219554 13 19 17
-25.4845341659957 -75.3629729554403 2385.2507076046 30 32 27
-18.5626007009294 -78.0264615469746 2364.31753772468 34 36 31
-66.7264516410757 -72.1446990028874 2408.48026592969 26 28 23
-72.0539183812083 -72.8921075892046 2402.14441256576 27 30 23
-2.69628791881749 -87.0338598652013 2293.02039851929 24 27 20
-47.2534190308971 -81.6229980433841 2333.61955759385 19 22 15
-45.7654815792734 -83.5004135368852 2318.63232611643 17 20 13
-52.4354804228653 -85.7400154448607 2300.19917675542 11 16 9
-59.2049723664037 -87.9860539621232 2281.69416459729 12 13 7
-53.566986103021 -90.5968392889023 2261.0655375717 13 14 8
-41.7919264252107 -94.2407655665566 2232.52932325022 13 14 8
-39.4559638208016 -96.3531389104561 2215.68499098354 11 12 6
-42.1323246188643 -97.6466232080487 2205.09244281324 15 16 10
-66.3985511761158 -95.331500994998 2222.09644529914 15 17 14
-35.3041826123284 -102.306863120386 2168.02451347666 17 22 18
-86.4294461054009 -95.4318007187426 2219.92636376962 12 18 16
-46.5347318374507 -80.2459062845179 2410.72539059293 31 33 28
-26.5497234662573 -85.0242325372678 2374.54871097649 25 27 22
-55.9275544077067 -81.9626876156256 2396.49682849385 13 15 10
-72.2531795982089 -80.9586002997949 2403.19414211046 14 17 10
-4.32060635859877 -93.5354009737748 2309.10165454703 15 18 11
-2.23076877842865 -95.5565999269461 2293.3146939202 15 18 11
-57.8180635082322 -91.5175413445446 2320.97046254524 11 14 7
-58.2899900139657 -93.121423461306 2308.26897924765 11 16 10
-76.4300217723923 -91.7939818012568 2317.35803303994 12 15 8
-85.082871423892 -92.0344753408044 2314.78958388404 13 14 8
-79.3485016910469 -94.6923869697278 2294.23058858838 14 15 9
-56.2658323985177 -100.307111996464 2251.64909312103 15 16 8
-45.8070452692001 -103.828116732409 2224.62938061873 17 18 12
-54.6408771771198 -104.081688641996 2221.92966731828 12 13 7
-72.7034726175249 -102.745255433001 2231.07490189404 14 16 13
-96.8253903335998 -100.341193841393 2248.1839674341 18 22 21
-8.27465293331264 -117.47800497282 2119.60993083998 17 21 22
-15.7060368643143 -95.0209607075227 2362.59683695868 20 22 17
-25.0589616383461 -95.15544657895 2360.75646198505 26 28 23
-31.1696716914431 -95.8193275433932 2355.08827854139 19 22 15
-58.4990509958898 -92.9705492062538 2374.81517477424 15 18 11
-18.4215742082667 -101.305782155865 2313.66152649212 13 16 9
-13.1423119230381 -103.899456390037 2294.0082705765 12 15 8
-55.0260301157888 -98.5820764417273 2331.6045292318 13 16 9
-42.1444232203623 -102.461435432481 2302.63424546094 14 17 10
-68.5700214725564 -99.6955411062518 2321.78056093615 10 15 9
-74.7132300826492 -100.359216985024 2316.08881963376 14 17 10
-118.501506427682 -94.5595590441573 2357.24760174314 17 18 10
-127.647058866739 -94.6727347857225 2355.55766334068 18 19 11
-73.861732631584 -105.700607118484 2274.68484295085 18 19 11
-81.3342186644697 -106.153217479318 2270.50062242335 15 16 10
-72.1038084102956 -109.533087307677 2245.06151592095 21 22 16
-80.2442837922079 -109.880425990179 2241.62891998677 20 22 21
-68.112545683418 -113.817316907782 2212.11445444192 18 22 23
30.3219897154623 -107.55170816446 2335.37885302077 36 38 33
12.3700121386192 -106.276771271188 2343.36863424934 24 26 21
-14.6022940003743 -103.47441225624 2362.11910868794 24 26 21
-26.5473410410129 -103.16306347428 2363.34234819885 33 35 30
-50.3331817892236 -102.53041627396 2365.86474756058 23 26 19
-50.6399144593592 -104.177672472177 2353.28279710155 20 23 16
0.731914966826785 -114.701130002129 2278.07345058095 18 21 14
-1.11654775944703 -116.150219801976 2266.84523858937 16 19 12
-66.2170251668057 -108.377305252932 2319.73691896202 13 18 12
-101.110112283368 -105.735074355825 2336.45004351627 20 21 13
-113.442140013202 -105.289176984334 2338.62876508836 20 21 13
-122.619311099204 -105.393712223574 2336.91594941981 19 20 12
-85.2159456298911 -113.821102727428 2276.29368171392 24 25 19
-84.707014354152 -117.500108215991 2248.23607815801 19 21 20
6.14419917516162 -110.140612973866 2377.12491872213 26 28 23
20.652075045871 -116.041605675761 2334.50169460598 18 20 15
-12.8486333329305 -112.043441564663 2360.87660317253 28 30 25
-31.2747249932175 -110.595340711819 2369.75889719974 24 26 21
-38.0053551863335 -111.151380578229 2364.87690328244 26 29 22
-36.3758364727853 -113.161797314069 2349.99133892875 26 29 22
-15.5767785442864 -118.539303414805 2311.93137850961 27 30 23
-44.1491630422988 -115.287115360388 2333.22931035875 25 28 21
-25.4709976451513 -120.343811454905 2297.33889901208 24 27 20
5.71526319970017 -127.667465627004 2245.80159647871 23 26 19
-62.4606576387234 -119.100641166199 2302.64391016225 22 24 19
-87.4764967407735 -116.377755522531 2320.34160454827 21 22 14
-104.859483534843 -115.004258602172 2328.74465304113 20 21 13
-109.703265786407 -115.895109960054 2321.52337521316 18 19 11
-120.770610061526 -115.649360594657 2322.14751128673 13 14 8
46.9470405774182 -127.233757189086 2317.68807328829 34 36 31
-12.1470063181084 -118.694692879595 2373.70278739292 25 27 22
-22.7933165700625 -118.568595051043 2373.39649732736 28 30 25
-13.3345633236193 -121.982322724664 2349.35778666568 24 26 21
-60.7910152615694 -115.332758929906 2392.80217593953 22 25 18
-30.7750189911875 -122.416334815213 2344.12343852694 22 25 18
-41.3994153831558 -122.286639533248 2343.83305250796 23 26 19
-35.3875030290129 -125.144403722844 2323.47424148892 23 26 19
-35.83108789874 -126.857232834903 2310.79275181009 24 27 20
-10.3077801590143 -133.303394215106 2266.27091148526 24 27 20
-19.7828225813748 -133.412454024787 2264.34243408727 21 26 22
-97.0649908077541 -122.84501821961 2333.12000106226 19 20 12
-58.7386692483225 -131.754819087381 2271.92932379016 18 19 11
-79.9506147111129 -129.64398604374 2284.97092743509 17 18 10
-19.6349035995518 -146.62293817869 2166.80778885206 18 20 19
73.7735410259353 -136.830998460877 2313.61910123328 35 35 35
44.4820883004455 -133.45577034496 2334.39638840082 32 35 28
11.7873472430516 -131.215389486561 2346.52533337868 22 25 18
6.26134306396509 -132.014220286273 2340.04529552461 21 24 17
-40.0891744663612 -125.442255583708 2381.82063946223 22 25 18
-22.8969828173757 -130.331687199679 2348.55926562545 20 23 16
-38.6842459402357 -129.248488492457 2354.41191900268 18 21 14
-35.8148344183267 -131.568769293633 2337.95353662542 17 20 13
-37.4852428369183 -133.069969805435 2326.8538415733 16 19 12
-76.6642392014518 -133.058216370224 2321.91967333784 21 23 18
-48.8882993376878 -140.138843961039 2274.08715942301 20 22 17
-64.5248464132979 -140.911070773599 2266.45338563103 16 18 13
-5.84706944977742 -156.003500255763 2164.40411995487 19 21 18
51.8305847651215 -141.381421820446 2339.68332532552 36 36 36
58.7367486663499 -144.452206890569 2318.73666071527 27 30 23
14.4869987021989 -138.234206683184 2357.09266200045 23 26 19
-21.6821215611664 -133.427220836106 2386.47801415753 18 21 14
-10.1864798377407 -137.33037990464 2360.20800399105 18 21 14
-18.9037197357715 -137.531729989476 2357.59307524059 21 24 17
-50.4590865274666 -135.287835698096 2369.31295810615 20 23 16
-31.275365762133 -142.538377344765 2320.19134154546 16 19 12
-41.2804732918071 -142.497306920969 2319.11440570746 16 19 12
-41.1082999996277 -144.387198916621 2305.64335877352 16 19 12
-66.9183237235746 -141.319296696327 2324.00241046158 16 18 13
-60.4505493980743 -144.420886808121 2302.73749738156 17 19 14
-23.3001654401317 -153.476824548555 2243.16398536974 18 20 15
-27.7677120413591 -154.535196906237 2234.97956363788 18 20 15
29.2179658824256 -145.623460596158 2366.49898982678 34 37 30
23.0649223787656 -146.310785220303 2360.7999992146 32 35 28
-3.39182378146585 -143.218892262078 2378.69034952468 30 33 26
-10.1390690083474 -143.778369165051 2373.79629360555 25 28 21
-18.1875746570725 -144.092966126133 2370.43023985994 23 26 19
-21.0428547206245 -145.386019159499 2360.94332258643 22 25 18
-37.4898774330126 -144.105424648962 2367.5537386351 18 21 14
-34.5593491744536 -146.503678728365 2351.13926613451 17 20 13
-46.4505525502543 -146.077830285764 2352.4021180305 17 20 13
-48.0781382326907 -147.619642255599 2341.33355486568 16 19 12
-41.4593159966119 -150.767873331974 2320.17790339388 16 19 12
-62.2338442014823 -148.610382054796 2332.30179984797 14 17 10
-89.2380416460867 -145.207125034173 2352.26723589459 13 16 9
-22.8296186017054 -162.067713338622 2243.46158026951 12 14 9
40.8818106098381 -156.135302388502 2353.90402015592 31 32 26
24.1773403805969 -154.837417571966 2360.32789458423 27 30 23
14.0877893835745 -154.779947666655 2359.18982694125 27 30 23
-37.2516983747944 -148.658175768324 2393.64116968776 24 27 20
-45.873800722068 -148.835608563097 2391.09503484696 20 23 16
-18.3022051134842 -156.032324467481 2345.58416714585 17 20 13
-7.06279153944078 -160.109114938354 2319.12782672543 17 20 13
-33.1644513405458 -156.903082113093 2337.27616485609 16 19 12
-38.6713335447659 -157.714981540778 2330.80962825748 15 18 11
-55.6579461379143 -156.25741640864 2338.26511158348 14 17 10
-66.8589905315029 -155.930134305617 2338.79273856725 14 17 10
-58.2702521713581 -161.472272373245 2301.76159948317 12 15 8
-12.4228779946072 -174.658829637275 2217.59352733555 12 14 9
1.13732497341124 -179.433020998292 2186.64027210189 14 16 11
64.3702737339953 -196.541628668054 2078.00175886894 21 23 18
200.306435810379 -229.089189749112 1873.77386403558 21 23 18
33.6269005585197 -161.220268754597 2375.79189185668 15 16 10
33.4246668759342 -163.055626879779 2363.28444769348 20 23 16
47.6378942080311 -167.692299104052 2334.04061142533 21 24 17
-20.9880606103319 -158.122578666134 2388.091103526 22 25 18
-20.5381080064533 -160.083705485693 2374.82106392479 22 25 18
-0.0352689547233886 -166.013902231697 2337.77860526237 22 25 18
13.1723397569665 -170.549932350666 2309.04132099662 20 23 16
19.1579019096717 -173.685787882819 2288.66199956674 20 23 16
18.636234404608 -175.543876801374 2275.92317034964 18 21 14
-75.3120579750821 -158.622746779529 2375.8808122362 15 18 11
-88.3370222697204 -161.691264511632 2352.836908653 14 17 10
-33.8421479101263 -174.791084824599 2272.46766553906 13 16 9
-43.259181138311 -174.840312059569 2270.58124883068 13 15 10
-30.7378289017497 -179.428411721277 2241.34621885817 14 16 11
-13.3611842445727 -185.06675418178 2205.74439782696 16 18 13
0.11101293659399 -189.938228410126 2174.72685256337 16 18 13
43.1812625453145 -201.074786877161 2105.84765791454 17 19 14
22.8281523829552 -167.400786210032 2388.92943838964 29 30 22
39.8163879926239 -172.633350697603 2356.75351106087 26 27 19
-19.2337538327187 -166.651964996486 2386.84956166616 16 19 12
-14.881143428835 -169.426446718976 2368.99341898183 17 20 13
-11.2532084623729 -172.076072236854 2351.8482016121 18 21 14
-23.8561697175199 -171.460505573596 2353.83108262107 19 22 15
-19.6714544849883 -174.247413314614 2335.85346068075 22 25 18
-11.0687798240772 -177.958485533402 2312.42798538027 23 26 19
-56.3118645285892 -170.642381949708 2353.77486358805 25 28 21
-93.0018734232381 -165.014157714056 2385.25684545275 25 28 21
-44.3510056310121 -177.021477720929 2313.00823519036 24 27 20
-79.0231137972766 -171.778237571432 2342.24568197228 21 24 17
-100.883095064087 -169.160621162791 2356.05540869698 18 21 14
-47.8238024291957 -182.275863127445 2277.11577137569 17 20 13
-60.9648525860318 -181.516033472991 2279.94464208315 15 18 11
23.1173592704845 -177.623067455288 2376.73606304155 26 29 22
34.0906332195181 -181.768348049244 2351.32118756346 24 27 20
-16.8257873407165 -175.324048361205 2384.84581778824 21 24 17
-15.0808813586913 -177.612783911617 2370.0424903883 20 23 16
-35.4515315429844 -175.371363327273 2381.22426065096 16 19 12
-43.445774608696 -175.65929948444 2377.89797252904 14 17 10
-45.6327585047398 -177.149634687724 2367.6591870302 17 20 13
-33.7247824823608 -181.588399455284 2340.45033721901 19 22 15
-49.4613344565926 -180.27086978763 2346.34093912263 21 24 17
-67.687289442647 -178.410663240809 2355.3704038927 21 24 17
-59.1440060815267 -182.191050624109 2331.90122899954 19 22 13
-57.040186840698 -184.633206961177 2316.12227174476 18 21 12
-34.8052574322817 -191.394626728007 2275.39079104424 16 19 12
-59.3080826534809 -188.181265132788 2292.22812234596 14 17 10
-46.7167035693914 -192.933792839116 2263.04272899219 15 18 11
-89.2106017070109 -185.78403453419 2302.67630427661 17 20 13
133.237908699745 -240.866842531711 1978.2505334341 15 17 12
90.9449224746504 -195.773979277956 2325.76844428271 10 13 4
65.4449367502057 -192.574187012058 2341.88284392384 29 30 22
51.2874473795462 -191.661658820781 2345.2106862307 29 30 22
37.835550868111 -190.880052548965 2347.81432808479 23 26 19
27.049265980311 -190.636486561402 2347.40716241788 21 24 17
4.52918949969172 -187.947252036034 2360.73844031782 21 24 17
-25.0476920093163 -183.753635559577 2382.54829047344 22 25 18
-34.3544242858522 -183.765817722304 2380.74202091944 21 24 17
-48.8176350263618 -182.685721392175 2385.08441915277 21 24 17
-46.471831628464 -185.14897021036 2369.48048006305 19 22 15
-34.5547332659013 -189.666485112744 2342.27784434598 17 20 13
-36.2075717380845 -191.32077928256 2331.19040515043 15 18 11
-43.6367308046099 -191.74442881065 2327.03773995782 14 17 10
-38.3497018490178 -194.911104099481 2307.38721190399 14 17 10
-33.147058551374 -198.084297335095 2287.67518339412 12 15 6
-24.8729389268456 -201.951730229049 2264.01044506139 13 16 7
-48.1547163834997 -198.940348918733 2279.2615491407 14 17 10
76.7881660657563 -201.328456447809 2342.65064210139 27 30 21
39.4115030052182 -195.569497305712 2372.40047927618 30 31 23
41.183627272456 -197.929512764162 2357.61652194527 40 41 33
38.2923185069264 -199.327238599843 2348.1026620314 24 27 20
30.1282630564828 -199.620597191755 2344.65324582212 22 25 18
3.0218871975185 -195.897554239294 2363.31089922815 21 24 17
-9.6203851656631 -195.212752351806 2365.26592794304 22 25 18
-35.853406122438 -191.608982396384 2383.32105418555 21 24 17
-46.6672805995083 -193.275126518589 2370.53296545534 18 21 14
-35.1118291173922 -199.826796315604 2330.70661107809 14 17 10
-29.1453447108279 -203.182471386763 2310.31234635358 14 17 10
-67.7717625136256 -196.75060822531 2344.10005902996 14 17 8
-52.8171115426537 -204.172001440575 2299.32264285488 15 18 9
-44.5318904621284 -210.217723831083 2262.06892686354 16 19 12
-36.4453363620949 -214.164785328997 2238.26781494468 15 18 11
23.4092316579537 -198.486281075702 2404.01454397853 31 34 27
21.9780548264805 -200.171189902331 2393.08763696755 27 28 22
27.1134761472682 -203.264953498442 2374.56231676806 22 25 18
11.5660259155228 -203.972190203721 2366.99346036732 19 22 15
-2.40820872686132 -202.983090616267 2370.4548302638 18 21 14
-22.1969295190294 -200.7172391909 2380.82354067963 18 21 14
-17.2283741146821 -203.822459625561 2362.17719778507 15 18 11
-32.3965540741453 -202.540116482628 2367.24460983596 14 17 10
-41.0600897183921 -202.671726318252 2364.6689656933 14 17 10
-22.4896858506951 -210.897903227004 2316.33313194595 15 18 11
-48.4684036872325 -207.188546305663 2334.57314276621 16 19 12
-74.3148692664362 -203.467758550775 2352.90908396964 18 21 12
-54.8835542440236 -212.009030886531 2302.72537933523 17 20 11
-55.4096660507035 -214.002052786803 2289.98264488688 16 19 10
-33.4763364270079 -223.309048422663 2235.43334787009 15 18 11
151.783752955297 -275.514197686001 1942.11431714621 15 18 11
-0.741974604736573 -201.492566998034 2432.19148072019 24 26 21
19.7764209286926 -207.917248394173 2396.39283125031 25 26 21
-6.11503361141708 -204.321872422041 2413.46048713126 20 23 16
3.663170601373 -208.466376424187 2389.64965176633 20 23 16
3.49046862967572 -210.463836388196 2377.16308916984 20 23 16
-18.3012792626205 -207.715668148266 2389.78760988843 21 24 17
-15.8845422202409 -210.289899606683 2374.23482443947 20 23 16
-22.6210349722449 -210.849013261706 2369.34856505878 16 19 12
-32.593821272298 -210.685358876946 2368.29568048183 16 19 12
-32.2262405293994 -212.833714903772 2354.96468493082 17 20 13
-19.0539188270695 -217.881979432366 2326.19922579066 18 21 14
4.22878650897429 -225.261244056432 2284.9888396085 18 21 14
-22.4830490908805 -221.332523441894 2303.9338399432 18 21 14
-47.1498478462249 -217.828180639224 2320.6534827308 18 21 14
-38.0990580989398 -222.027241668548 2296.31534723096 17 20 11
-34.8439864015127 -224.923475726513 2278.89828972231 16 19 10
-22.218824560335 -230.01370642526 2249.73597015491 16 19 10
-14.1216267992719 -234.092088859044 2225.94190888664 16 19 10
-39.8812612370469 -230.279430595758 2244.3412611798 17 20 11
133.645025428179 -275.705089958459 1996.89622027052 21 24 17
135.926131541473 -278.677836338105 1978.77272677449 12 15 8
177.569658152973 -291.064172458885 1910.0879764362 16 19 12
206.579846012556 -300.535080787792 1856.96261036751 19 22 15
21.0249464385903 -212.33345376656 2420.74300790336 24 26 23
36.9375525864264 -217.846876510938 2390.25627895562 29 32 25
29.3378342244739 -220.291560588903 2373.61848502835 29 32 25
16.6195097647996 -219.541137575434 2375.5187143394 28 31 24
-1.308577313059 -217.61550719613 2383.52911019133 25 28 21
4.3786849133034 -220.961800284997 2364.16751550029 24 27 20
-24.5587841558639 -216.533498217974 2385.20674700186 22 25 18
-35.8103019736706 -216.061214334394 2385.69851918586 20 23 16
-36.0277473198054 -218.087929107442 2373.17937298099 20 23 16
-34.999978950653 -220.412546336694 2359.09132657945 19 22 15
-27.5971490090081 -224.216618732074 2337.26566043019 18 21 14
-22.85486506395 -227.437243019699 2318.45499845967 17 20 13
-16.915618711145 -230.95990847766 2298.03984797246 16 19 12
-37.1505018144189 -228.41739279259 2309.32185827262 16 19 12
15.2094379010359 -249.567700530795 2190.31042899829 21 24 17
75.1168914558766 -268.488966109453 2086.66282058069 16 19 12
135.824895748556 -287.942914243955 1979.88744597076 15 18 11
208.347177442882 -310.631119558589 1855.72257495291 14 17 10
167.955237731307 -303.32645094573 1891.94024841582 16 19 12
3.46647933583233 -218.622586287592 2428.97973976972 19 22 15
31.2784945083577 -226.90660029459 2384.87268659128 18 21 12
51.59225771206 -233.572545322125 2348.92476720767 17 20 11
29.5814193311417 -230.718097694799 2361.39100288149 16 19 12
-0.859942004396208 -225.91551598575 2383.81229432011 19 22 15
-6.94246345146832 -226.625336975974 2378.16401822621 20 23 16
-11.7263816099511 -227.634112214915 2370.98553984918 22 25 18
-34.0644947975353 -224.601057341039 2384.45076281839 23 26 19
-42.053486264773 -224.856705093134 2381.12815076241 23 26 19
-39.065735963087 -227.662496129901 2364.75309548702 22 25 18
-56.7208084421305 -225.664742950031 2372.96177076426 21 24 17
-37.7762392675225 -232.236109831426 2337.25680909506 20 23 16
-26.0334258451653 -237.16468166579 2309.92574842102 19 22 15
-8.05578198157253 -243.61151087652 2274.75550939571 19 22 15
-78.3984629974763 -229.082714028162 2347.34898166804 18 21 14
89.970688352043 -283.494757936003 2054.12512638331 15 18 11
152.121714780725 -303.772211033443 1944.68625373579 15 18 11
170.189836943697 -310.814852146736 1905.87347656826 14 17 10
196.640177074311 -320.011673549413 1855.83425154912 16 19 12
53.2838928324306 -235.933628022697 2385.95782279832 19 21 16
29.8533631614637 -232.72312255217 2399.86677071985 17 20 13
44.9892908269618 -238.280666205678 2370.05182411322 17 20 11
54.0310364164727 -242.486096423352 2346.9421366784 15 18 9
7.64140196164442 -233.956488021204 2387.46400314473 14 17 10
-1.72426948032056 -233.910325572888 2385.61530285885 15 18 11
-7.14777372445075 -234.774666218427 2379.20923757479 16 19 12
-7.36469847472665 -236.857378516056 2366.69018512247 17 20 13
22.9135347289073 -246.108226209836 2318.19027672321 17 20 13
5.66612966052116 -244.237629871627 2325.45879810281 20 23 16
-48.9420302577164 -233.497624458578 2377.32606135923 19 22 15
-53.0575786877974 -234.663617680096 2369.39597101573 19 22 15
-49.5003203723612 -237.668619473332 2352.19771858246 17 20 13
-21.7425552476975 -246.50678997275 2305.57816373927 17 20 13
12.7774329716406 -257.05320460196 2250.26574978485 17 20 13
-6.9064067077762 -254.556061591562 2260.71195677208 15 18 11
32.7248597601901 -268.799565606458 2184.38359156745 16 19 12
96.6789194598228 -291.745875801391 2061.41664047084 13 16 9
86.7477735647513 -291.737368059353 2059.15782495756 14 17 10
76.2151097246528 -291.571812641452 2057.69908283257 14 17 10
170.105322866503 -320.286125421107 1906.99927327293 14 17 10
170.855592382464 -323.102420250965 1890.23720385118 17 20 13
203.871505141792 -334.17643093337 1831.3614133838 20 22 17
29.7003518614756 -238.778820031943 2413.31175709075 25 27 22
38.2854105589727 -242.879883834415 2391.1065728474 29 32 25
52.7369019389718 -248.375528327232 2362.03081393147 22 25 16
28.709093728108 -244.936118394961 2376.74327244531 20 23 16
8.08951061222274 -242.258988972426 2387.74679286453 20 23 16
-11.7814038187958 -239.728200764588 2398.05726131449 20 23 16
-17.8231424983948 -240.440353327984 2392.43883218623 19 22 15
-14.7397960109339 -243.322201066769 2376.13239690683 19 22 15
-24.7221272503224 -243.105729726316 2375.07286052795 19 22 15
-6.83080380816437 -249.567100166649 2341.07500896198 15 18 11
-37.5214574153995 -244.376763503452 2364.55287827419 14 17 10
-56.469410800964 -241.975339540589 2374.29643452134 14 17 10
-21.4828658950696 -252.662103573528 2319.32182104543 13 16 9
14.4936131470907 -263.684408643891 2262.5924701572 13 16 9
6.8801270506551 -264.104440262459 2258.3062006923 13 16 9
8.78729877420525 -266.870387121192 2242.38304939275 13 16 9
-19.7153777814199 -262.122530836747 2263.73938434845 14 17 10
104.038406403244 -302.641172826341 2053.11021643571 12 15 8
120.044419765622 -311.752390084233 2002.91062390339 12 15 8
55.7214828457981 -297.845952742401 2069.98360830041 14 17 10
138.679029914291 -321.687741230747 1948.43719973187 14 17 10
151.793577213005 -327.698099453148 1915.91928665768 16 19 12
156.825838065381 -331.660349872587 1893.60967428851 36 37 32
38.1585731221037 -248.934546686427 2404.57024397383 24 26 23
34.7410488428355 -250.281781831437 2395.91021157855 30 33 26
-3.19320045275839 -243.47744002393 2426.49646876759 17 20 13
2.71439919586092 -247.015434756111 2407.29363036956 21 24 17
-13.8658852110016 -245.216813548823 2413.81006607931 21 24 17
5.73846110251575 -252.065681988183 2378.58198533836 20 23 16
-29.8127615632546 -245.69695106871 2407.18813856801 19 22 15
-35.1645510107994 -246.566067029606 2400.83374220554 18 21 14
-35.3252091698659 -248.698617849577 2388.35522616403 18 21 14
-52.3752095537051 -246.724385353512 2395.76737534986 13 16 9
-15.7655327696431 -257.879155962314 2339.4966665308 13 16 9
-50.8750181796427 -251.471065128196 2368.42294941301 13 16 9
15.5245322850526 -270.109021075028 2275.65851323573 13 16 9
0.902430244198449 -268.778445974863 2279.88699649887 12 15 8
14.3526669474108 -274.438486141189 2250.08457400342 12 15 8
-20.5687035949704 -268.012636306261 2279.1476097976 13 16 9
-23.6764292980287 -269.537852819295 2269.47621886173 14 17 10
179.593084329311 -328.489824448707 1974.35681266937 12 15 8
127.209422027178 -330.668913887023 1948.72299014928 15 18 11
121.961752246362 -331.941009464812 1939.97195792564 14 15 9
121.560621141936 -334.504764823715 1924.84656604268 35 36 31
59.4218004124114 -260.017794260556 2393.99073630703 9 11 8
26.582921313322 -254.380054324884 2418.38335608194 32 34 31
39.8486589429567 -259.720805153541 2390.91917126951 18 20 15
-8.72322284314997 -250.237860788201 2433.56931327315 21 24 17
-15.3568549674323 -250.791867751264 2428.75764562305 20 23 16
4.37159946345922 -257.740491181348 2393.61902822628 20 23 16
-18.2406878999952 -256.617477161923 2394.52427755068 16 19 12
-22.3245390090527 -257.816200783341 2386.61729396274 15 18 11
-40.7317092912951 -255.482358623003 2395.51779095504 14 17 10
-9.81052147315609 -265.361939748433 2346.24575278918 12 15 8
-30.1649155630774 -262.544884943702 2357.44222314238 12 15 8
-40.773135999451 -262.137205620776 2357.1649714628 12 15 8
-18.6449413321814 -269.955338203704 2317.58609511808 12 15 8
-16.5303393059257 -272.782038725086 2301.81271226544 12 15 8
-18.3000646850573 -274.643135859507 2290.63949175877 12 15 8
217.040216989971 -347.569602639773 1928.5339337493 9 12 5
172.403807225884 -338.60794641413 1969.09390198782 10 13 6
141.871708026892 -338.543257148267 1961.78247681357 14 17 10
133.573715106728 -339.008107054291 1956.99976673058 12 15 8
131.40610014374 -341.10912682221 1944.30156121153 13 16 9
106.61321196642 -337.148687832952 1960.93240378039 18 19 11
139.114411988445 -348.600256078129 1902.91690576794 30 31 23
278.176317886931 -394.945790961071 1670.00676833424 31 33 28
197.871391471407 -375.85133676417 1760.10402171221 69 71 68
174.227704696425 -372.22033682414 1775.09590849364 223 225 224
172.711030630309 -374.689965422686 1760.39734911068 206 210 211
180.035944952755 -379.642658846052 1733.56923575752 193 197 198
33.060394301927 -261.916400632117 2424.27617251392 26 28 25
83.1430627944427 -276.23590800751 2355.52386670885 22 24 21
37.6338581204179 -267.413921904195 2394.21508872787 22 24 19
20.1388125666324 -267.569947369915 2388.94257527266 21 24 17
6.79568600976088 -266.507396440538 2391.62648982815 19 22 15
-20.3010663571621 -262.022248082517 2410.29527420009 16 19 12
-15.8311988148752 -265.34761729724 2392.52163784104 16 19 12
-7.52154562375207 -269.657661567708 2370.1157477414 15 18 11
-19.0799813669451 -271.270421695912 2358.0232176893 14 17 10
-10.3359659478459 -275.760195923222 2334.69596456459 13 16 9
-29.3796185306587 -273.211150512818 2344.37118863008 12 15 8
-14.9801547162922 -279.186161660736 2314.02024910569 12 15 8
-42.9221401882916 -274.332143323667 2334.54824761915 12 15 8
-56.7022310924641 -273.083153313948 2338.1513783739 15 18 11
194.154612739069 -345.695044560371 1988.53103190483 10 13 6
224.777914294231 -356.403843902809 1935.33344511137 11 14 7
178.75315808634 -346.962091145279 1977.359770903 17 20 13
152.336864677734 -342.628909724603 1995.28573364681 9 12 5
130.047209362527 -344.672589282192 1977.88209855495 12 15 8
128.863872240855 -349.749520859492 1948.59065275172 14 17 10
174.903209947456 -365.039225795128 1873.19693156446 20 21 13
108.617405252129 -349.669830061091 1943.79484238783 20 21 13
178.424889168245 -374.48759702122 1820.12124313273 22 25 18
199.923702093235 -383.335915767599 1775.14016096451 23 25 20
192.429809993779 -384.160302137604 1768.46846634534 9 11 8
170.596765546483 -380.959902916427 1781.06534094899 164 166 165
165.527393215173 -382.450873648909 1771.20712059952 184 188 189
169.921398475053 -386.631754109018 1748.43371572604 194 198 199
58.3085875718181 -276.25437231392 2396.80661298053 26 28 25
28.1383879684571 -271.062378424966 2418.19141116594 21 23 18
12.1079802343034 -269.317080723902 2423.87115748742 20 22 17
28.6638893188953 -275.648716063736 2392.61159153 19 21 16
26.540573158405 -277.369074998904 2382.41779501585 20 23 16
10.5391080483574 -275.619819539501 2388.11854251003 18 21 14
-7.37259128858669 -273.368392910109 2396.14246840731 15 18 11
6.88240859194078 -279.228978774076 2366.92242011009 15 18 11
3.37149396610403 -280.622244237285 2358.19474838393 15 18 11
-28.7849578078818 -274.71042786802 2383.08375701872 15 18 11
-7.60810511448118 -282.415386893269 2345.28587907928 14 17 10
-2.12823228129277 -286.141573872691 2325.77201915377 13 16 9
48.9832090318822 -301.70316308854 2251.58342923206 12 15 8
-28.6394859308927 -283.939384868295 2331.26709957257 12 15 8
-44.3873352315025 -282.164087268925 2337.15183048802 12 15 8
203.500575598227 -357.516193078555 1977.95455266955 12 15 8
185.086739303278 -355.298634347821 1985.61429722226 12 15 8
194.300392099405 -360.469178748491 1958.91864165495 8 11 4
195.282264422499 -363.461655237038 1942.32357365591 14 17 10
134.483846249101 -352.43019962944 1988.46953174298 12 15 8
126.859541366379 -353.054544660912 1982.9393479921 13 16 9
157.373079009685 -364.154535699202 1928.42546738122 14 17 10
195.580132656769 -377.475483148741 1863.42058256246 14 17 10
171.773500675467 -373.719854605989 1878.29497815485 12 13 5
152.341318710928 -371.140818381052 1887.68840641227 24 26 15
184.404585986257 -385.835611827836 1813.2823599431 27 30 23
199.270924826985 -392.948197725687 1777.08862842553 30 33 26
191.782196515992 -393.774973730552 1770.42066504285 18 20 17
177.119899894965 -392.55652770913 1773.38411133493 92 94 93
169.648750859041 -393.380445745101 1766.72890602009 145 149 152
89.6022577274853 -292.296310844537 2362.59499911365 25 27 22
15.2143316693882 -278.20849333801 2421.13754018393 16 18 13
20.4802138892397 -281.785848755347 2402.70463886345 20 22 17
31.6215549577845 -286.879986901043 2377.40679267646 19 22 15
-6.16088143629989 -279.548773075191 2408.10577098829 17 20 13
-4.95552422515444 -282.124933707515 2394.14489393429 14 17 10
9.95302102574458 -288.241519656127 2364.1622813033 14 17 10
46.2601434222738 -299.933512686661 2308.90455984361 16 19 12
-4.91472245740421 -289.03305426323 2355.8506952156 16 19 12
-45.4139663557469 -280.810531294567 2390.75989959057 14 17 10
32.5790855968311 -303.521750636472 2285.38240757284 13 16 9
-5.93403263024483 -295.801513526656 2318.02374276844 12 15 8
-14.0650702912066 -296.029805252804 2314.59829695886 12 15 8
-3.63908419926728 -301.177941679291 2288.78189564799 12 15 8
-39.8633260889358 -293.934458961512 2319.37466692801 13 16 9
219.158388540631 -371.116066272553 1959.59311446995 8 11 4
187.6930325867 -370.814153315638 1952.84138977131 16 19 12
191.75367412956 -374.702630958927 1932.29787676134 12 15 8
145.533539158237 -364.719346728399 1975.42034791064 12 15 8
147.752124308416 -368.091048976877 1957.24951084406 13 16 9
161.589873769513 -374.729992042545 1924.01793639295 14 17 10
177.804798717163 -384.946949723127 1871.49411427556 17 18 10
174.783664197783 -386.96821286817 1859.4129093043 16 18 7
157.779145976376 -385.026101993221 1865.62253567175 23 26 17
183.136191660519 -395.15960635948 1816.02105032163 22 25 18
107.706562849264 -302.91130418759 2355.90366525219 17 22 18
56.5218546698274 -292.282669963951 2400.37092115245 18 20 15
34.3730147644532 -288.940033319853 2412.73958934971 26 28 23
12.99149884027 -285.758636639049 2424.42835925802 18 20 15
39.5196630164372 -294.836758657835 2381.85696051536 15 17 14
15.5245633904584 -290.969143769792 2396.59529912295 17 19 14
0.878884754565323 -289.482157526498 2400.80748346248 16 19 12
4.6941010389685 -292.77667119763 2383.79446935425 15 18 11
46.0679900291257 -308.290142988979 2309.95797239741 16 19 12
9.85461435920376 -301.149146066329 2339.32306509206 14 17 10
-27.4575762789113 -293.647634385269 2370.36350270313 14 17 10
-32.2427814172226 -294.721664514396 2363.18376083807 13 16 9
-23.2374470923691 -301.865899066671 2326.44650612486 12 15 8
-11.4942378328513 -307.429635076941 2299.11251516985 12 15 8
-24.7442264099091 -306.272193474684 2301.86442807454 13 16 9
52.9031775825177 -329.817935193835 2193.76147924119 12 15 8
179.475514652701 -377.920494046071 1964.14003135053 10 13 6
190.41323917117 -383.770783674691 1934.98563923707 11 14 7
174.564054798525 -382.146850807307 1939.5611068748 12 15 8
161.8602316255 -381.38872035996 1940.23685088849 13 16 9
217.503298087386 -402.908539513835 1837.18984496213 15 18 11
183.838657315837 -396.221214252042 1864.69486767629 19 20 12
166.199582686349 -396.985069665006 1855.60946132724 20 23 14
161.922560920386 -398.679990687563 1845.08956313456 17 19 14
71.8181333765204 -302.123562325424 2396.58805650731 22 27 23
59.6525663704583 -301.313772069076 2397.65396109349 18 20 15
33.4801287132676 -296.872961740657 2414.52220860808 25 27 22
35.4251089105233 -299.683870438954 2399.86127436661 22 24 19
26.02031011123 -299.556190884906 2397.98462272459 14 16 13
2.73023101967418 -295.787402108443 2411.99850856052 16 18 13
0.00386773407567986 -297.386753639697 2402.60319987127 16 19 12
3.8262941653513 -300.72447542506 2385.59519369476 16 19 12
42.9680105762658 -313.455422633814 2327.44662642778 16 19 12
24.320568151118 -310.896812480133 2336.17408351022 16 19 12
9.00698940881783 -309.202126916089 2341.13818147612 13 16 9
13.2130205837711 -312.734145748244 2323.17194330578 14 17 10
-20.2139144369178 -310.943023754245 2323.65161657528 12 15 8
-47.509354769131 -305.903229390877 2343.41421382152 12 15 8
160.226376360208 -376.290068302514 2019.36123597769 4 7 0
202.475177338851 -393.769483824616 1936.26814151264 9 12 5
165.427405504763 -386.110265270715 1967.50135525114 11 14 7
139.747414477 -381.615222757745 1984.72686253344 12 15 8
148.174144353598 -386.841491381471 1958.69579860004 14 17 10
184.802362467093 -400.224764953779 1896.25147087949 15 18 11
172.042211611391 -399.448027434996 1896.88618152538 15 18 11
181.318778986526 -405.057669240533 1868.99916781196 19 20 12
148.454162866954 -398.417034657156 1895.848577866 18 19 11
160.062259893758 -404.744466790566 1864.70736853402 15 18 11
171.528467036687 -411.082666302812 1833.46354013526 22 24 19
83.7108429425286 -313.471976740325 2384.15475843691 27 32 26
88.2816590826039 -317.02551452572 2366.45314615196 19 21 16
57.3312015875782 -311.285541718423 2388.51013099062 22 25 18
27.2057480331758 -305.707393610177 2409.92902801208 24 26 21
-3.4302475639183 -299.939974336268 2432.21411201327 14 16 11
-15.3675574803427 -299.087187387457 2433.44599729872 16 19 12
-16.050844659022 -301.226460392859 2421.82361890745 16 19 12
-1.64657004077684 -307.425231326788 2392.71007007923 16 19 12
22.4486030657336 -316.283940422136 2352.08145992191 17 20 13
22.162692465769 -318.619610609748 2339.51111687334 16 19 12
4.9031566119222 -316.358137316597 2346.77282425651 11 14 7
-36.944314117018 -307.359642473136 2383.17896841534 14 17 10
-12.9412537997735 -318.764471950844 2328.88410630033 12 15 8
5.28975222510386 -326.258686339131 2293.89252417737 12 15 8
-15.0554003071182 -323.095563613347 2305.09744683522 12 15 8
191.758031768575 -400.139450122223 1950.69921502614 10 13 6
165.94633534383 -395.576812817326 1967.82958863638 11 14 7
122.898294149101 -385.977134173271 2007.07386312221 12 15 8
142.5143301455 -394.503187376777 1966.90532021655 14 17 10
147.773753147398 -398.90784953368 1944.75784715775 15 18 9
162.903406008787 -409.179539621084 1893.91737864916 15 18 9
155.074639178641 -409.8179988541 1888.23890457794 20 23 14
159.990192471404 -414.247879206141 1865.84231977034 18 21 14
94.9349969615558 -324.733546926791 2372.47228669515 23 25 20
75.9836739148434 -322.106663218182 2380.97950557188 20 23 14
47.7460732634731 -316.978062442744 2400.05956051806 18 21 12
31.6501180589532 -315.047731022582 2405.69272731168 17 20 11
-6.97815520231981 -307.041100149405 2437.01699817714 18 19 11
-11.6175035023209 -308.131632816389 2429.9429074583 15 18 11
-2.40876595957884 -312.980089480567 2406.95101899843 16 19 12
11.9564666465015 -319.269667429778 2377.80870782696 17 20 13
17.0001529166659 -323.060564704166 2359.21365028905 17 20 11
19.350023981596 -326.139741449672 2343.6095401416 16 19 10
-12.8792421398989 -319.701745436496 2368.44842930558 15 18 7
-23.5181715176955 -319.183638069587 2368.14947539881 13 16 7
57.1329774178904 -346.611744076847 2246.14798082669 12 15 6
26.3080615845506 -340.522306588565 2269.53278023181 13 16 9
-9.47548480795146 -332.974165244569 2299.21152760944 14 16 11
138.916671648605 -399.842214059735 1987.73772038851 10 13 4
149.831423874716 -405.938966238007 1958.56513231165 11 14 5
145.215960963394 -407.481515989621 1949.03599380676 15 18 7
141.191906345204 -409.207980715071 1938.69931712302 15 19 5
151.816016952966 -415.326296201479 1909.31622198902 18 24 14
137.328215233954 -413.947102824487 1912.40697757652 11 17 7
57.6615157701852 -320.712322745758 2426.99062008487 27 29 26
48.2434917151053 -320.555484214433 2425.10452886865 23 25 20
60.9947597373139 -326.360172824775 2398.50008075134 20 23 14
-4.58285916017998 -313.373263665387 2447.3671710981 16 19 10
20.7109013972606 -322.62765007772 2406.37040175027 17 18 10
10.0199466961017 -322.100922780317 2406.03348276095 15 18 11
25.7643287815732 -328.836919522172 2375.41861202201 15 18 11
40.0419143334458 -335.221421268575 2346.21228282271 16 19 12
20.730526581187 -332.334885575825 2355.69512940494 17 20 11
23.725291169463 -335.635205373656 2339.32265404993 17 20 11
40.3327867642678 -342.770417650466 2306.86108287285 16 19 10
49.8662864609667 -353.093832789078 2255.66869139736 11 14 7
4.9264715889259 -342.87327937906 2296.01509136057 12 14 9
-14.7791907958168 -339.77892311842 2306.44820912882 13 15 10
242.326294017393 -436.859242674609 1873.53961927912 10 13 6
156.803903972647 -414.396360667904 1966.04716130003 10 13 4
157.769734652059 -417.617939875821 1949.4393039207 12 15 6
183.930691168896 -428.440823141234 1900.41709884947 15 18 7
163.811693329899 -425.372543428953 1910.55044884306 15 18 7
151.120101397837 -424.523985623338 1911.23551757675 12 18 8
148.214197635219 -426.645315075988 1899.23704450763 19 25 15
16.3512962376053 -320.026869785931 2461.27404864703 20 23 16
14.4417104509849 -321.866070332051 2451.23458788594 19 22 13
47.2135509649645 -335.6599938756 2389.69801408588 15 18 9
20.4901229749503 -330.708372379283 2407.40446093796 16 17 9
24.8924403616773 -336.809120799514 2377.21654846367 16 19 12
47.4210285683685 -348.100120909586 2325.55879098173 14 17 8
24.179731429387 -344.052439213415 2339.60945254376 13 16 7
24.504305362727 -346.658242651184 2326.24496337738 13 16 7
-42.295797725034 -332.592710525784 2379.1717532773 12 15 8
-27.700652710489 -339.274112296056 2348.9590892232 10 13 6
14.3847461282527 -353.957530241935 2285.523761791 10 12 7
-27.131289964657 -344.487153817318 2322.17256016389 10 12 9
175.369550059443 -420.455868076756 1989.35598374687 9 11 8
198.020186728372 -433.151899969004 1930.36907078466 9 11 6
188.973201702815 -433.416874530679 1926.27944937742 12 15 8
189.210434592481 -436.497914304171 1910.37945887741 13 16 7
174.601748730617 -435.070681877782 1913.38282629722 13 16 7
176.618592642536 -438.719927376466 1895.06433689037 12 15 6
173.670300268693 -440.867263583123 1883.03529816004 12 17 10
180.439314141879 -446.033699475284 1858.27289684133 11 16 9
57.1944259629555 -336.895062953721 2429.04041568133 25 27 22
13.4177405624838 -327.232325176181 2465.2864321039 20 23 16
16.2216002192035 -330.392707459356 2450.01131113019 19 22 13
20.9711315713346 -334.116913402769 2432.43838884856 18 21 12
26.3121996454552 -338.033447793791 2414.057978873 16 19 10
28.9132175286575 -341.209306621734 2398.63573517706 17 18 10
20.8478699915902 -341.399646233776 2395.25839625216 18 21 14
49.5081378438229 -354.510114987284 2336.92019514056 16 19 12
