ply
format ascii 1.0
comment KinectMotionCapture
element vertex 801
property float x
property float y
property float z
property uchar red
property uchar green
property uchar blue
end_header
7.09191826363709 145.092258916424 2766.93422221443 19 22 15
11.9960953770994 144.134441339873 2751.95778598337 18 21 14
0.828349042191423 143.848925236929 2752.50644749677 17 20 13
2.74561294168674 143.008127275984 2740.30547337725 16 19 12
-17.8024939653429 143.129671071876 2750.11282725142 16 19 12
-15.916214635642 142.28650779719 2737.88967425225 17 20 13
-27.0156688771013 142.007002065952 2738.48787260533 18 21 14
-44.5336836976769 142.015506744551 2745.55079133912 18 21 14
-59.1251476525907 141.902225849357 2749.79417138935 18 21 14
-44.4699476382693 140.477994706562 2724.59211208569 18 21 14
-29.2339473063332 139.01096582484 2698.57583391899 18 21 14
-41.0221439951952 138.765946458871 2699.9099594829 15 18 11
-44.3108180204552 138.13235396444 2692.5822792335 14 17 10
-12.4562727500979 135.856940421709 2648.96610388236 13 19 9
-6.0781712583462 134.749541817144 2631.35169038919 17 23 13
-43.8065934467282 135.725418158583 2659.58726597875 20 26 16
-70.1915295315476 136.184040769467 2676.28129828235 15 21 11
-40.8966132944575 133.970487264034 2634.51501644069 17 20 11
-34.7351995039573 132.030240881541 2605.62338425352 23 26 17
239.240096264723 144.85997120089 2778.36137211672 22 27 21
246.173666236138 143.839745215339 2762.38510775444 19 24 18
218.110713646472 144.142675164808 2776.62688483981 16 19 12
228.860650865715 142.969502063454 2757.24093421048 13 16 9
220.222338888398 142.53591428659 2754.68204566447 12 15 8
231.60125591166 141.32105349866 2734.51680813262 12 15 8
173.05974092907 142.852292893552 2776.07524541634 12 15 8
173.723815801599 142.063468488771 2765.43643881852 12 14 9
156.038926814945 142.006483035792 2771.14301855841 10 12 7
138.419021532447 141.95490098873 2776.89643926456 8 10 5
123.13920658746 141.815742830182 2780.64068791851 9 11 6
137.404762456968 140.464959903501 2757.62690702398 8 10 5
137.977599906636 139.668774121867 2746.9219231844 7 9 4
57.288740193755 141.524334511722 2800.8348241859 15 18 11
98.3418940129628 139.015158163129 2752.76922485428 12 15 8
124.211564377071 137.124801558533 2718.4027227016 9 12 5
85.2448975133218 138.026166320305 2744.5052542555 10 13 6
59.8062013030813 138.359383004862 2758.17919646758 14 17 10
29.3102661499312 138.930466207809 2776.83408844238 17 20 13
16.6334979031606 138.725984455808 2778.75931148111 18 21 14
14.2745473890926 138.062820386956 2770.8704212312 19 22 15
8.96436007684587 137.53053946973 2765.78322038656 19 22 15
4.37858419184867 136.964515572623 2759.98565882417 18 21 14
2.69351224887071 136.263589478752 2751.3497551534 17 20 13
7.50969408235447 135.256986928028 2736.30928216046 16 19 12
5.02651205303639 134.583957465948 2728.32998938673 17 20 13
-12.6216593982644 134.624963424757 2735.29871942661 18 21 14
-15.8238048428285 133.986417011363 2728.03374049939 20 23 16
-26.9274748681143 133.725359184498 2728.62897618308 18 21 14
-41.5733804521772 133.640053635604 2732.83273755812 18 21 14
-20.5568943085637 131.818362048414 2701.12417849382 19 22 15
-28.109285080731 131.382767111774 2698.11715613124 18 21 14
-36.3618085905304 130.983076167037 2695.8381055726 15 18 11
-43.1911111825694 130.513801129035 2692.12035251474 13 16 9
-35.9490791933803 129.334071481973 2673.89681767616 14 20 10
-30.1944025371268 128.218904979169 2657.06576197548 18 24 14
-42.6889517850695 128.031141608184 2659.1231641371 20 26 16
-33.5453215814148 126.727999442436 2638.57240342997 15 21 11
-29.3615936481029 125.6707630882 2623.07290016035 17 20 11
-37.0152039547051 125.227815012228 2619.99275882905 19 22 13
-13.604649713586 123.137137316245 2583.84257625286 22 25 16
252.154387891984 136.519950363877 2767.91891541992 12 17 11
236.48295292193 136.380421760426 2771.37897400671 14 19 13
255.790405778081 134.793003158005 2744.60816450162 14 17 10
239.349414713055 134.686323464335 2748.74585294445 13 16 9
208.3006376926 135.204381320192 2765.76467283837 11 14 7
220.487724066079 133.896272537702 2744.94978556701 11 14 7
145.086781698166 136.341203148774 2801.46366487177 10 13 6
170.19227639012 133.689158769098 2759.12852863805 10 12 7
158.616979766443 133.406323477211 2759.3817618284 10 12 7
157.691578672406 132.653819936253 2750.06126188907 9 11 6
142.362747925282 132.542997419158 2753.77012146761 7 9 4
139.152786321229 131.89104756918 2746.49940854852 7 9 4
154.724142185096 130.380802355112 2721.96105449371 6 9 2
106.433635647425 131.788569763412 2756.12842369809 11 14 7
139.877095091367 129.441340216996 2714.89875900747 12 15 8
116.435499385419 129.720989406885 2726.31476630081 11 14 7
98.2964164542968 129.763972051894 2732.9276341447 11 14 7
64.6655761178669 130.551578188007 2754.25150417511 14 17 10
50.4053726775662 130.433165445441 2757.49966494179 14 17 10
11.8845523129791 131.491768972793 2783.92590210609 15 18 11
13.2139630256298 130.637078433716 2772.53404140359 15 18 11
5.71178307431763 130.209653943251 2769.56375379854 16 19 12
4.05742993757796 129.494189427941 2760.95004520601 17 20 13
6.01437029582685 128.595184483045 2748.77783304535 18 21 14
9.37302579252597 127.619256831823 2735.15099673853 18 21 14
8.33291166034122 126.85844602841 2725.74729679183 18 21 14
-4.27808885735459 126.684200789285 2727.72064389184 18 21 14
-23.3212188172072 126.846294379461 2736.14882533011 18 21 14
-27.9505756531586 126.271243508301 2730.31962528291 20 23 16
-29.0170211217449 125.508658035875 2720.89682819946 21 24 17
-34.3896614500176 124.968853295478 2715.76431572104 18 21 14
-55.3911889463534 125.258774764331 2726.47886482886 15 18 11
-56.4784746855578 124.494814652597 2717.04095322567 11 14 7
-39.9540594333618 122.775940204015 2689.48703114793 10 13 6
-63.6736914999783 123.227276601304 2703.17272131481 17 23 13
-45.2040114312249 121.380182495193 2673.32290939414 19 25 15
-84.9172000750109 122.727641146181 2703.82697192543 15 21 11
-19.185265497121 118.230292366307 2624.23677253652 16 22 12
-26.1586779141414 117.752050810536 2620.41421129686 20 23 14
-47.6711996622334 118.097141689783 2631.99394031659 23 26 17
-60.8039990731042 117.977897132005 2634.82433948169 21 24 15
292.397295656956 126.88076092509 2734.0514539686 13 18 12
260.263637843261 127.495265223411 2751.51934577244 12 17 11
240.694647048522 127.561726305584 2758.33079844236 12 15 8
263.531006286082 124.883932172982 2718.05599142905 11 14 7
251.70435848542 124.598732456938 2718.12700281083 10 13 6
160.851633822481 127.995969403002 2788.14717291503 10 13 6
172.270409070879 126.657232608996 2768.0102020048 11 13 8
166.79808669985 126.104065183805 2762.80536020164 11 13 8
179.582969997176 124.679920129446 2741.18790982518 10 12 7
175.564367328757 124.048680940184 2734.56613727405 10 12 7
147.321996260998 124.588696349508 2749.91408758946 8 10 5
136.556051097963 124.292392140703 2749.51893207414 7 9 4
126.567561181461 123.961205405759 2748.45186266565 8 11 4
120.349676436777 123.44591203342 2743.94177525547 10 13 6
107.400770530893 123.266875851567 2745.67014326126 11 14 7
93.7448775463214 123.128644584262 2748.12124455999 11 14 7
74.9283812568176 123.258172082901 2755.47851599962 12 15 8
80.6436441590925 122.142704545381 2739.85392353195 13 16 9
56.7290802039144 122.545246483985 2752.16301963 14 17 10
41.0234718364904 122.535465938584 2756.83429349746 15 18 11
20.9668044039457 122.76116119931 2765.76309877601 15 18 11
13.4423977563136 122.336864963317 2762.77671440968 15 18 11
14.6875331327845 121.447402012588 2751.32358458833 15 18 11
12.2478405095476 120.749323197792 2743.37569133327 17 20 13
9.78491887255872 120.049432676017 2735.41124417078 17 20 13
-2.1070291154206 119.859575717118 2736.67043761226 18 21 14
5.51103540450537 118.604677255842 2718.71941051231 18 21 14
-21.4736674379428 119.250211831682 2734.97931136258 19 22 15
-31.8424569778613 118.988202562995 2734.8722361448 19 22 15
-57.9097363811782 119.610647456679 2750.56233771891 19 22 15
-68.1792962006926 119.357080172739 2750.52723900344 17 20 13
-72.0305675663107 118.741547462482 2744.02684804116 14 17 10
-62.4421606122802 117.352639048158 2723.7977865924 11 14 7
-43.0694835685281 115.384162625436 2693.36692499526 11 14 7
-83.6701145357046 116.888616387022 2724.46349348776 17 23 13
-70.7429687462036 115.280197139043 2700.47816558438 18 24 14
-37.5468183547574 110.688492792376 2633.12002202409 21 24 15
-75.6484617491835 112.102594588599 2662.32229792398 18 21 12
-77.6450291151738 111.344082615642 2653.46029288959 18 21 12
229.47460813819 120.251344536017 2768.687146087 11 14 7
218.412829312483 119.128385710205 2758.19217080293 10 13 6
195.936312246932 119.408322410071 2767.83771239639 11 14 7
193.510834152998 118.695936418492 2759.9000510883 11 14 7
188.378947793602 116.430607762875 2733.93623109956 11 13 8
179.783405691065 116.023710231008 2731.40848253988 11 13 8
150.769217747625 116.680784118199 2747.43255588419 10 12 7
125.658292775031 117.15103047641 2760.10946943752 10 12 7
96.8946203147292 117.829011285669 2776.31525269951 10 13 6
84.0137543631929 117.679698280028 2778.09309487399 12 15 8
67.4319958454852 117.73411946305 2783.36459062315 12 15 8
68.0616724494212 116.867196758265 2772.70074688006 13 16 9
76.8292320319168 115.551873909294 2754.34737611474 15 18 11
61.044762603419 115.57053538272 2758.96162598048 16 19 12
71.9239892600543 114.124148317354 2738.43297951171 16 19 12
61.3309663199795 113.858615454831 2738.16304039206 15 18 11
71.3344644740874 112.441912837347 2718.23504110663 15 18 11
24.105455034094 114.244414449676 2753.17391161714 13 16 9
20.9395651608748 113.573914753822 2745.93505327764 13 16 9
15.570810306138 113.027185420098 2740.80502791046 10 13 6
1.48563984224781 112.983169488782 2744.18074512867 11 14 7
8.43496065898863 111.722128278372 2726.97964248452 13 16 9
13.1391553801121 110.581424653385 2711.85730839553 13 16 9
-5.95975938491122 110.836739933869 2720.24552242426 14 17 10
-42.1902685027355 112.122312926623 2745.86313147569 15 18 11
-29.6256402669339 110.510493681412 2722.85002626868 15 18 11
-79.1781889837271 112.631685985083 2762.28160542486 12 15 8
-60.9695495173119 110.67124973843 2733.4773166066 11 14 7
-25.9138433796042 107.657281824854 2687.23725469003 14 17 10
-55.3651860922981 108.586540658919 2706.6512082478 16 19 12
-62.853026585838 108.171748636969 2703.69137960766 20 26 16
-104.011101734401 109.866308691172 2735.61984447167 19 25 15
-38.5561746417435 103.964445263254 2645.94084031385 16 22 12
-46.8554591062984 103.585047494788 2643.6277000531 19 22 13
-65.5346193230124 103.876678070183 2652.32068153305 21 24 15
229.191131443331 113.302692579651 2779.56266458301 8 13 7
208.1540069717 113.549120392014 2787.78082064439 12 15 8
207.333854390911 112.745847417815 2778.53636044124 12 15 8
187.948824359183 112.919635055484 2785.48171382435 11 14 7
202.518179174315 111.295446145325 2762.68677841369 12 15 8
200.843668566218 110.526222171277 2754.05818493774 12 15 8
187.657244558251 110.375291347818 2755.61451336162 14 16 11
172.218886624413 110.352246464145 2759.2444189561 13 15 10
190.326779952165 108.497270080952 2732.8377045453 12 14 9
174.136071157062 108.516776890756 2737.15746710641 11 13 8
147.405598083289 109.130358603946 2751.13142943557 11 13 8
140.413343283308 108.654484311384 2747.29551541807 11 13 8
102.574266009575 109.919917517039 2771.74664259573 12 15 8
67.9195574301352 111.030109690791 2793.56525375444 13 16 9
39.4153139223001 111.811508795539 2809.95962643461 13 16 9
69.9641278783734 109.205960506118 2771.5707040135 14 17 10
66.0883907670922 108.569417392474 2765.05247088823 16 19 12
54.0421876188466 108.40892494621 2766.20028468613 19 22 15
50.1619630704804 107.772197531562 2759.67879758843 18 21 14
98.5979749697097 104.028698802043 2703.37265119855 14 17 10
94.5328333579649 103.376811811562 2696.71703698903 12 15 8
22.8110082076163 105.9229214574 2744.78258075598 9 12 5
15.2532084342076 105.506016710575 2741.77202643948 10 13 6
1.89493491977366 105.447084288783 2744.43928010792 10 13 6
-7.07740238432808 105.122811273298 2742.87383980408 12 15 8
22.934739414612 102.368956750427 2702.8600844536 12 15 8
3.80464714009543 102.670601809814 2711.2259319098 13 16 9
-15.2474140630487 102.978892269617 2719.64867389219 17 20 13
-71.4018548178226 105.663284377194 2765.41346643058 14 17 10
-8.92215243620953 100.778750074009 2692.10953870394 11 14 7
-10.8213393589089 99.9931619351334 2683.31798968498 10 13 6
-22.6656157200871 99.8510338059599 2684.61198306203 13 16 9
-33.063409853695 99.6192949648109 2684.48403512098 16 19 12
-56.1073326500785 100.226438245814 2697.42501944456 20 26 16
-78.3446378347876 100.795739700353 2709.7155097834 18 24 14
-59.0577521236151 97.6802073781135 2668.10072753728 15 21 11
-38.7898458518867 95.378460531869 2635.84678089682 17 20 11
228.834567545821 105.536260278046 2780.49988192273 16 21 15
212.457320079898 105.575052876773 2784.68451630674 15 18 11
183.743155916627 106.312387775173 2799.69145320077 14 17 10
189.1394143215 105.144082391083 2785.07037656013 13 16 9
202.940509458123 103.489209893339 2762.95339452382 13 16 9
208.178581022017 102.307831122189 2748.21787312401 13 16 9
185.781882674367 102.708409036779 2757.92159360401 15 17 12
175.693507085177 102.408138582135 2756.7825660138 15 17 12
178.569663505872 101.353791102296 2744.04059524705 12 14 9
156.338847408218 101.768300215582 2753.86463787444 12 14 9
124.358121100621 102.773227364322 2772.6807016657 12 14 9
131.020195473848 101.495014559924 2756.50661207322 12 14 9
125.565153885446 100.933632894178 2751.3139613944 13 16 9
86.3365454212799 102.41381447295 2777.22953771333 14 17 10
80.2211429603648 101.905434264808 2772.79377691429 14 17 10
55.4547369222247 102.540583067132 2785.72127485899 14 17 10
76.9125882741659 100.337584690027 2755.56577608854 17 20 13
68.5426190658935 99.9653159476652 2753.20172553552 13 16 9
54.2696522756119 99.9644607045672 2756.44122932933 12 15 8
28.2488056500281 100.711165744074 2770.93028931086 8 11 4
32.2525824821387 98.6745627707711 2746.6498240812 11 14 7
-8.9244752691735 100.424491960298 2776.09444077154 13 16 9
-5.45970818182151 99.3125356906804 2762.54383800956 15 18 11
-31.8268712093872 100.138713873041 2778.01757949389 16 19 12
-27.6645470118073 98.9772278928891 2763.73736326077 16 19 12
-12.016312383003 97.0466053015213 2738.01727986282 17 20 13
-17.3692521921378 96.4951632678158 2732.89898976597 15 18 11
-42.8138692105788 97.2907299810517 2747.80601838108 17 20 13
-55.2676720694567 97.2267662196653 2749.89388001616 13 16 9
-7.56243809531898 92.1449124098039 2680.70024283444 9 12 5
-18.7080696790485 91.9746114814796 2681.2655193905 14 17 10
-38.2998959186056 92.3953143361587 2690.53228572196 17 20 13
-69.0752028845345 93.6104605224442 2711.45828514898 18 24 14
-69.9893378492911 91.8154637612618 2691.02445873965 15 21 11
-45.3905638907877 89.1222721714663 2654.49755351361 15 21 11
-44.6274010842263 88.1111981148667 2642.6944155063 16 19 10
-17.5717054217599 85.1917452068095 2603.00670372774 21 24 15
-16.2919289119063 84.1162739024222 2590.34270720508 16 19 10
251.160525725095 97.3421604229314 2771.94044128912 8 15 8
265.094799758408 95.6264739385638 2749.91969544237 19 24 18
222.200153806597 97.2527236970684 2776.88353270112 15 18 11
186.482988595959 98.4812734344765 2797.93254587832 14 17 10
181.832214098391 97.8725544246478 2792.08764917538 13 16 9
198.740394335519 95.9621628104307 2767.28132418839 13 16 9
193.240258626002 95.3934043878976 2762.05624093111 13 16 9
193.096315620967 94.4964289116799 2752.06617375258 14 17 10
175.350179566835 94.6776988348392 2757.72956099664 13 16 9
178.230446587984 93.5902427589259 2744.99040239032 13 16 9
179.538069086478 92.5931053826878 2733.58202542508 14 17 10
139.91507107303 94.1603765613828 2759.21214146904 13 16 9
130.682198770613 93.83408545442 2757.4578235628 12 15 8
128.240481896988 93.0779359598917 2749.50816874599 11 14 7
67.1617618715557 95.1817733815792 2785.52482790479 14 17 10
58.1003941173113 94.8700631095664 2783.89491116041 15 18 11
72.1177004185769 93.0514938561062 2760.69879942599 14 17 10
87.4987178141104 91.1253513741959 2736.02035835181 10 13 6
60.5967717887235 91.982826194839 2751.10658275183 10 13 6
40.2410332795795 91.5060762333027 2749.93414501329 9 12 5
21.6690069247485 91.8408085175549 2757.4696773285 14 17 10
-15.8284808192686 93.4753548907098 2783.40563078331 16 19 12
-30.5530312590572 93.5776319498769 2787.55362544399 16 19 12
-12.540780967363 91.4289791707341 2759.84105319718 19 22 15
-28.7090241516919 91.6324741179055 2765.41307012436 18 21 14
-26.7686588852156 90.5790030073861 2753.22805992436 18 21 14
-45.7495794940057 90.9908917236689 2761.70260351038 20 23 16
-33.7991447470483 89.2228422438039 2739.47879610505 16 19 12
-3.36172790719091 86.11881929354 2698.53622692922 12 15 8
-5.72441808142798 84.3781164328158 2679.52295467957 12 15 8
-40.9709406174752 85.9799393104761 2704.62014736524 17 20 13
-77.4508886349739 87.7003484412022 2731.29446647199 23 26 19
-68.667701894124 86.1119283287668 2711.71570976957 16 19 12
-36.8098851701224 82.7955496631292 2668.09663327142 15 18 11
-45.6712952080336 81.510924485848 2655.49052904326 19 22 13
-49.7723856623959 80.8410249889123 2648.80876351365 18 21 12
-51.8079844661101 80.0115567399178 2639.91810434956 11 14 3
325.821195922281 84.8964488563451 2708.66349486242 7 14 6
280.32847566506 86.7745614613843 2737.45061271112 12 17 11
207.857346701843 90.3732529999902 2789.91874268179 15 18 11
207.044847526184 89.5113789801503 2780.67953376951 14 17 10
190.747439798893 89.6269579585864 2784.92243462207 13 16 9
194.537998142461 88.4683725359303 2771.60776870859 13 16 9
192.124530499408 87.699919117262 2763.67853004009 13 16 9
167.471611187786 88.3667114271814 2775.4537150632 14 17 10
207.852796038876 84.814546106194 2729.36607587672 14 17 10
173.320281402556 86.1321755747696 2750.03898763712 13 16 9
181.480079579385 84.6575738686572 2732.47956198597 14 17 10
188.798157739708 83.2262344627719 2715.54491681592 12 15 8
144.690090736102 85.2202235399888 2745.33638629531 11 14 7
147.479671844369 84.0920344594582 2732.53157569173 10 13 6
126.193434731417 84.5861773392665 2741.80573051497 10 13 6
122.957722832275 83.8631671935711 2734.51599072303 11 14 7
115.971918097176 83.3947204164295 2730.68449564002 14 17 10
71.7848850831349 85.4958797027026 2761.65430044065 13 16 9
77.5278228927419 84.1606162521507 2746.04865679429 11 14 7
68.8867234686108 82.8748206447978 2733.60254898028 11 14 7
98.0038697668597 79.8591519144051 2695.40873940903 11 14 7
-9.57988066724913 85.636689103135 2778.01478801004 17 20 13
-27.2384744773666 85.9804986753641 2784.97749641958 16 19 12
-25.9391059337557 84.9560618311075 2773.56299770911 18 21 14
-25.4090801335716 83.9810149229633 2762.8260728243 18 21 14
-38.6392095734966 84.0138496125559 2765.58668568559 17 20 13
-35.9891060118158 82.8755756850883 2752.68041927313 18 21 14
-5.40421466871166 79.6432167586201 2711.84440194197 15 18 11
-7.24083720070068 78.8117355587709 2703.09797472762 12 15 8
-5.53883539260314 77.708365516439 2690.73991702178 12 15 8
-40.5608588326905 78.4227087881447 2704.87914554014 17 20 13
-83.4066235765762 80.7507336031602 2738.05774455874 23 26 19
-38.6744551582616 76.317367833192 2681.53347640847 17 20 13
-30.0745329632601 74.6557867075134 2661.82179122777 15 18 11
-93.403762945194 77.6613347187425 2706.09245702038 18 21 12
-65.3542111669632 74.4464629388861 2665.88867976606 18 21 12
-54.8569838617004 72.6036674685179 2643.84606929928 13 16 5
-52.0696929881259 71.3657478660287 2629.80371154275 21 24 13
302.581665364032 77.3588193768609 2718.95135080681 22 25 18
212.938506242339 82.3136868296894 2786.15055164922 15 18 11
216.763944288174 81.1217969796687 2772.86100208279 15 18 11
213.575933253291 80.3906575650533 2765.60580048899 14 17 10
216.534376925062 79.2426514685828 2752.92300710729 14 17 10
193.312751873877 79.8616078603697 2763.26515785134 14 17 10
182.446333623411 79.6520224535481 2762.79760649856 16 19 12
176.189223182826 79.1298323098882 2758.25904861081 15 18 11
195.071405225939 76.8701519938094 2731.17654607951 13 16 9
176.585640291214 77.187159067695 2737.53948472818 13 16 9
155.896766696154 77.6690159302843 2746.01158225361 10 13 6
135.290444145517 78.1578039009449 2754.54326342328 9 12 5
131.333280629503 77.4791615782459 2747.96578931869 9 12 5
102.414017625938 77.6234767944485 2754.17519656633 11 14 7
84.2931231575461 77.9713568091926 2760.8027939803 12 15 8
73.6839219766061 77.7839232175033 2760.52181697381 11 14 7
61.6159869038397 77.7073026436943 2761.6540071864 9 12 5
68.0780746360585 76.2715497602672 2745.33414503837 10 13 6
61.1868178272723 75.8135554429457 2741.57124270866 12 15 8
19.7332275794837 77.9338784876426 2770.81756568573 12 15 8
23.2173098577215 76.7148428359677 2757.28042253964 15 18 11
3.9810998308214 77.2027306912509 2765.57028632896 17 20 13
-6.43103551361102 77.0324565063633 2765.43225346873 15 18 11
-15.3645008292691 76.7532577777673 2763.89522060903 15 18 11
-17.7617014479186 75.9736908783538 2755.97801243872 16 19 12
-19.4596363551569 75.1363731276064 2747.33209328002 16 19 12
-29.1054428787476 74.9143738117331 2746.5142899091 11 14 7
-21.5025885770821 73.3426510269689 2728.55033734265 13 16 9
41.1172034758152 67.4136280395312 2655.34267306728 11 14 7
-15.8256531043937 70.9154100984156 2701.77510301863 13 16 9
-29.073438854847 70.9744608804272 2704.52304923328 15 18 11
-76.3098272374614 73.7755790713371 2741.93199651608 19 22 15
-85.8315801673435 73.5647243822433 2741.20388421538 21 24 17
17.4005701244591 63.126840724248 2613.42576654387 16 19 12
-74.1532182450235 68.6251087763103 2686.65347263011 17 20 11
-53.809082117463 65.9105689585336 2654.45269576118 18 21 12
-40.5692933509998 63.7655475447573 2629.45625479898 17 20 9
-13.627420925584 60.4401000724562 2589.68397368427 15 18 7
233.567771771752 73.140075028693 2768.94537215416 16 19 12
217.959322169528 73.2643350846783 2772.45272079685 15 18 11
204.721379874139 73.2295248772804 2773.97229068854 14 17 10
217.72785677567 71.3400935269557 2752.51312147799 14 17 10
216.7891935217 70.4283289164626 2743.18220082718 14 17 10
208.155159760004 70.0640470214627 2740.62676469892 16 19 12
216.344988727093 68.4865693116198 2723.08829344427 15 18 11
165.778174901058 71.1661401770514 2758.08232858716 13 16 9
162.571336146057 70.4221988620161 2750.81341353309 13 16 9
156.315499771218 69.8997086611378 2746.27577772293 10 13 6
150.814153661181 69.3212977498097 2741.04947365171 8 11 4
147.566627810147 68.5741350060094 2733.75104733624 9 12 5
96.2374768383629 71.4284177050443 2770.66340622138 8 11 4
79.6152458128026 71.7066613410708 2775.90669629072 10 13 6
88.4374144450657 70.0635569497686 2757.59125251287 11 14 7
69.6279824690436 70.5163882486794 2764.95557709861 10 13 6
96.9081322756793 67.4396743061682 2729.13518472572 9 12 5
69.2299938140843 68.5801799169747 2744.89520089992 11 14 7
55.6964466318326 68.6407998396445 2747.43600050222 13 16 9
36.321119986344 69.1657803157479 2755.62520356726 13 16 9
35.3585595011889 68.2532597033694 2746.27695547427 15 18 11
25.5897343544516 68.033616668962 2745.36998521311 16 19 12
-14.2344901240063 69.2326831140356 2763.44125966238 14 17 10
25.3922889407807 65.0459777490616 2714.33344829277 15 18 11
11.2851011285002 65.1785479048165 2717.69380463158 15 18 11
-12.8571499069956 66.139331106654 2731.07570973728 9 12 5
9.77725898930437 63.271234342212 2698.06434942064 12 15 8
-23.5946381436078 65.0085446526291 2720.81577997347 12 15 8
-25.4039519468328 64.145635418835 2712.08928472724 13 16 9
-10.8796739514974 61.9098426740342 2686.7882065385 16 19 12
-56.0520725294056 64.6851011702237 2721.98755425236 20 23 16
-102.396950579413 67.6005517503646 2758.80831888792 19 22 15
-51.0205054180997 61.1868512026312 2684.85817177076 17 20 11
-41.5636818323482 57.2270118863107 2642.28856874765 18 21 12
-42.9245180555808 56.2842577871669 2632.65144893394 20 23 14
337.297183246268 59.8089272693607 2700.79895565288 25 26 12
294.093175394861 61.9220898881915 2727.54099617813 25 25 15
244.096788990242 64.5638280781983 2760.47798696695 16 19 12
209.851066300078 66.0859742201827 2780.12479961763 15 18 11
222.921392108391 64.1328261468764 2758.71188758147 14 17 10
196.564764706513 65.096403275913 2771.72359478304 14 17 10
201.069895322995 63.7672261889976 2757.69074237329 14 17 10
216.243380129157 61.6245673168937 2734.09609090413 15 18 11
210.656354869858 61.0354619369742 2728.80791649655 14 17 10
184.48673202241 62.0148353440439 2741.95497282474 13 16 9
153.110669057175 63.4117464436381 2759.9760243468 13 16 9
158.249321601459 62.0140317474312 2745.16733619386 10 13 6
169.365280145732 60.14155195044 2724.80814347885 8 11 4
148.73910723224 60.7319048115932 2733.32624362007 9 12 5
161.245310425856 58.7321201277093 2711.5038563609 9 12 5
106.236337044046 62.051919118949 2751.92676348154 10 13 6
86.6087648571723 62.6041553935557 2759.93324642644 11 14 7
98.3295909363191 60.6608660473209 2738.77713980245 10 13 6
81.735095816851 60.9796225146916 2744.0407414275 12 15 8
92.5860157146285 59.0856268236777 2723.4893075592 14 17 10
45.7757942466488 61.8730925104702 2757.50171881602 17 20 13
63.215355685045 59.4337474309522 2730.60755641306 16 19 12
41.6357175134712 60.1889100862321 2740.90567177026 15 18 11
38.4308864005036 59.4348451180012 2733.63786634342 15 18 11
27.9158909446839 59.2879919547377 2733.4253866254 15 18 11
-5.83533045198648 61.0967898596641 2755.90249350003 16 19 12
-20.5772769745571 61.3276796975095 2760.0382343411 14 17 10
-13.592087409342 59.7206507333954 2742.86167569904 12 15 8
-4.17139559403634 56.8576230046563 2712.62268527442 12 15 8
-35.3571151178313 58.5160826745435 2733.2534133498 13 16 9
-24.9948995456306 56.5829893694474 2712.3475092493 14 17 10
-29.6764882718632 55.9504455214229 2706.48015397689 18 21 14
-93.1218041875861 58.450526337938 2739.54789321385 17 20 11
-70.9869831002514 55.4318346020535 2706.17360823955 18 21 12
-34.185876997284 48.8964866136434 2635.24345144686 17 20 11
-12.082586068908 44.6625413007323 2589.48890436543 21 24 15
332.261192086665 52.0709383884026 2705.75490910715 35 33 20
329.616640801924 51.2260773864939 2697.65806043277 18 18 8
274.069988199809 54.4285357066315 2735.22023032292 18 19 11
265.325164794446 54.0702145687315 2732.58451061001 16 19 12
241.90104063692 54.8512853719437 2742.78039209477 15 18 11
207.006296725938 56.5419103754158 2763.19289989655 14 17 10
198.414258336895 56.1964892861276 2760.66800264386 15 18 11
200.567737500518 55.0055658101718 2748.63649255562 14 17 10
205.729448198065 53.5679581547111 2733.84431768437 13 16 9
182.620519877393 54.3756685964536 2744.26882629289 12 15 8
168.727916880167 54.4592378568389 2746.54945491521 12 15 8
177.614376176612 52.7103825255584 2728.28008116249 10 13 6
175.832426044557 51.8135645596361 2719.57295619402 9 12 5
175.529845704208 50.791384868037 2709.46754971863 11 14 7
110.580896840391 55.0771128484088 2758.74630319122 9 12 5
106.649532566389 54.3745421205177 2752.18741030566 11 14 7
95.7651752013886 53.2153235283075 2741.82086796196 10 13 6
67.2978520438585 54.5723281898942 2758.24492054761 11 14 7
74.4947743248003 52.9321177727644 2741.22168339917 13 16 9
54.0616317581328 52.5947974486357 2739.99384004605 15 18 11
27.3718747320699 53.8517775539965 2755.23590835305 13 16 9
30.79495721071 52.5193054698747 2741.65397057254 13 16 9
13.7401833921662 52.9627041844001 2747.81957431255 15 18 11
5.47505314249852 52.6463800920995 2745.53180712868 17 20 13
-1.32828125782458 52.2032855247543 2741.83301157642 13 16 9
-26.1945618814599 53.3641487044419 2755.92580777883 11 14 7
12.4529428849387 48.8738824279985 2707.34189308193 11 14 7
10.6037971537623 47.9735177352931 2698.58603862477 12 15 8
-48.5568675075418 52.246568302333 2747.12004315942 14 17 10
-26.013822131717 49.1507498193398 2714.0412980216 14 17 10
4.35109127897126 44.2202205750167 2661.92099933136 19 22 15
-31.9258130713611 44.3090896026798 2666.5015243886 18 21 12
-47.9168929372291 44.7189487988815 2672.20331053881 17 20 11
-28.2285647794898 41.7597173806053 2640.76121617195 16 19 10
-36.5521765252681 41.440900605562 2638.43074740054 17 20 11
-43.4758018221675 40.9902268473725 2634.64471202012 22 25 16
-80.1422128965821 43.4087211063092 2662.42213816858 27 30 21
322.529567995233 44.7431275592214 2714.71978440131 32 30 17
319.13441316502 43.9485472673853 2707.31409850905 22 22 12
281.498307787099 45.8925157324281 2729.44572800208 20 21 13
243.872391506158 46.8175669786858 2741.69870078472 15 18 11
211.281700127023 48.4197069794703 2760.07531840213 15 18 11
181.915261390343 49.7822571374564 2775.84761100541 14 17 10
183.351730209203 48.6280958361174 2764.53184213038 13 16 9
191.624844756914 46.8997610026531 2747.05298224945 13 16 9
145.681933986925 49.6773189385199 2777.98867099124 13 16 9
172.187125516727 46.41812704539 2744.07593827367 13 16 9
187.889986526775 44.0381055462053 2719.62850951743 11 14 7
193.638619845521 42.4808473995409 2704.02587022029 11 14 7
145.054684024192 45.5472100857505 2737.98922186393 10 13 6
107.987434999936 47.6669454902108 2761.76915439112 9 12 5
149.432981521219 41.9646761146563 2702.85591664079 10 13 6
37.8851619127549 48.5508276649262 2776.416650591 14 17 10
65.7850104724891 45.0271637304916 2739.80819055023 14 17 10
49.3198241066164 45.4328229245813 2745.1659710298 14 17 10
29.2459942285683 46.1734741170026 2754.08523771568 15 18 11
-3.91440146764577 48.1116512263216 2775.75597097437 15 18 11
0.287476622799598 46.6810273710526 2761.50306496591 14 17 10
8.06274332124479 44.9127795163468 2743.66310238712 15 18 11
-3.82223922295077 44.9382164662555 2744.92873021057 12 15 8
33.4782077405396 40.4191974760497 2697.83823218493 11 14 7
-0.10629912184168 42.4499070584304 2720.43702353271 11 14 7
-11.2539304307353 42.4101785336621 2721.00151182028 12 15 8
-19.5069899951743 42.1033607311 2718.72254308497 14 17 10
-49.881612213478 43.8936899014221 2738.70658974557 20 23 16
-63.7363176337029 44.1372959289068 2742.25083285422 20 23 16
-9.42343005698576 37.8592208613802 2676.60583458061 18 21 14
-12.076682918424 37.0028757536505 2668.50232530129 17 20 13
-39.0956341744722 36.2787819269702 2663.7336607033 18 21 12
-50.1642614150468 36.24724592727 2664.35546222278 17 20 11
-33.3493173198756 33.4552408035305 2635.77167845588 17 20 11
-58.3290717036633 34.8070428903437 2651.01851335733 21 24 15
-72.1198990034433 35.0577654319673 2654.60909912527 18 21 12
316.70519963473 37.1636126432489 2720.34036020595 29 29 17
302.406493565457 37.2664841843328 2722.32669381452 22 22 12
301.375673690822 36.2679783946217 2712.92823302448 19 20 12
290.228218923659 36.1142487565329 2712.25723522361 15 18 11
261.314788641311 37.4661563339999 2727.12283278715 15 18 11
211.701277223513 40.5985955179309 2760.33986332215 16 19 12
175.331936434002 41.5856148600697 2772.2690317466 14 17 10
179.043440162571 40.2036505311297 2758.8959259974 14 17 10
190.322399324535 38.1539123191711 2738.65399805995 13 16 9
192.375037724672 36.8933880387925 2726.54903380842 13 16 9
183.763745346211 36.5620152333541 2724.01025008522 11 14 7
191.795928355579 34.7612143021243 2706.35636673533 11 14 7
156.024711839604 36.8409259943931 2728.60554490009 9 12 5
87.8394742865507 39.7197686318655 2760.70950002593 11 14 7
-8.39063720394062 46.3680270765418 2830.55335908915 15 18 11
-29.8438291585101 47.3047084453485 2840.9437629586 14 17 10
69.8876690347912 37.0452648372123 2736.56638778261 14 17 10
15.864807071635 40.9812746573543 2777.70697486761 14 17 10
19.3766806073246 39.5839147260493 2764.18907494951 15 18 11
30.8797025521024 37.4241982068091 2742.87398121405 15 18 11
18.9297154211796 37.4654287550967 2744.092565823 15 18 11
-8.98807080749586 39.0328755472756 2760.91605538695 15 18 11
1.65892192363915 36.9320903660675 2740.215742934 12 15 8
11.4805673455702 34.8924831240645 2720.15246511033 11 14 7
13.2757915357309 33.6125795037621 2707.86109212134 11 14 7
-29.5285974331585 36.6670309110173 2739.83803370992 13 16 9
-43.4553136292999 36.9340673736332 2743.32989887308 20 23 16
-65.190209722102 37.9789653905118 2754.75196864574 22 25 18
-58.3516706800298 36.2110400874849 2737.4682849381 20 23 16
-33.1403730124671 32.5981309252537 2701.38045819281 17 20 13
-36.4253849553511 31.8048859711102 2694.05462399389 17 20 13
-61.5937932956121 33.2136501920423 2709.16498814066 16 19 10
-43.588453282196 29.1312428455038 2669.08636191449 17 20 11
-61.6294730850286 29.8360152908338 2677.00870653785 16 19 10
-58.7016632367536 28.3928332825642 2663.06717429036 17 20 13
-32.9210214023552 24.569130382369 2624.92093631178 23 26 19
311.660636917221 29.5608913579331 2725.29078511201 24 25 17
284.891546566973 30.7725075016078 2738.00474548642 21 22 14
264.460207989377 31.451780780322 2745.42920448892 16 19 12
281.349014592662 28.877932893134 2720.60547460449 15 18 11
274.12093615174 28.4038990404778 2716.59832184211 15 18 11
229.093236753156 31.2758683473359 2745.7275773154 16 19 12
215.055674387757 31.427736058671 2747.90346774326 16 19 12
179.582233722055 33.5053490369594 2769.13346271713 14 17 10
175.63573645974 32.7748170109481 2762.5634579759 14 17 10
180.064679931901 31.2839651231093 2748.4748514416 14 17 10
177.586662567156 30.4107044531321 2740.4982884329 13 16 9
187.976625767837 28.3560894685181 2720.8472147554 11 14 7
192.976349846535 26.7802451830134 2705.93661765437 10 13 6
131.564134735949 31.3373654828544 2751.60482745788 8 11 4
123.843792244361 30.9557153253433 2748.47662102759 8 11 4
107.679170854325 30.2649046835959 2742.93052054277 12 15 8
65.3586235258206 30.9718727891405 2751.77915045655 15 18 11
55.5283975480618 30.8128841836483 2750.82797664927 13 16 9
9.63959208991749 34.1460253158455 2784.2757748831 14 17 10
-3.71136167719621 34.3569064424311 2786.94970145139 15 18 11
42.9978087179959 28.7003766478131 2731.85240865854 16 19 12
23.7144084593006 29.4778836747376 2740.10982469696 17 20 13
16.1496193948989 29.1105722278272 2737.09416041709 15 18 11
14.3950091596805 28.1668596823634 2728.40661719301 11 14 7
9.72031592698874 27.5103749044106 2722.54443382252 10 13 6
19.4539167072048 25.4028307966143 2702.41698644549 11 14 7
-27.6878138011252 29.0309048608165 2738.66370530678 16 19 12
-81.743987863478 33.4089330998836 2782.25275038601 23 26 19
-56.219906671731 29.7006608711523 2746.39147853683 22 25 18
-43.7082508537616 27.2948863920191 2723.33595095386 19 22 15
-64.3230238702082 27.166975242428 2723.21253713945 16 19 12
-64.7157891485606 26.0731604120706 2713.04139083176 16 19 10
-48.9697537719389 23.2747117131016 2686.15277294355 17 20 11
-36.7602108934222 19.6517076346683 2651.75615311863 15 18 9
-15.79502732252 16.2280367992682 2618.76695827759 17 20 13
-22.1475161051297 14.5070572046255 2603.03697339546 25 28 21
279.22237575047 24.4499044816249 2753.62478131994 24 25 17
276.734480037941 23.5612764227807 2745.64127392428 19 22 13
253.211668724888 24.5729945580161 2755.76707773514 17 20 13
186.303490719391 27.372374542598 2783.85566261596 16 19 12
195.470700652171 25.4255545546044 2765.78880826102 14 17 10
189.204217217775 24.8988412335579 2761.24343277924 15 18 11
191.352195872599 23.5849180765547 2749.20760671418 15 18 11
176.668160782683 23.845313661677 2752.1504416119 14 17 10
170.398489840411 23.3185213483902 2747.60275503752 13 16 9
173.229225229173 21.9263425224644 2734.82644089005 10 13 6
213.81936627678 16.9147812226347 2687.64784975222 9 12 5
176.887565363875 18.1591902527617 2700.40561918844 8 11 4
60.1522928743337 26.1475169637607 2777.62347438527 14 17 10
36.9792527103545 27.3255132759843 2789.23871362752 15 18 11
62.0626400722277 23.7286581233129 2755.52890550106 15 18 11
71.4483547313796 21.6656040550299 2736.38453003064 14 17 10
48.3358992503331 22.8490610325212 2748.04371606184 14 17 10
36.3375587239996 22.9289120129455 2749.22744388264 15 18 11
23.6415418901581 23.0860535632826 2751.14054490314 15 18 11
48.9367191878305 19.3719573428323 2716.34834286562 17 20 13
31.8371616238444 19.974480585497 2722.48258238696 15 18 11
32.2136409060616 18.7854638723983 2711.63326455519 11 14 7
71.6050186510073 13.5396082965533 2662.34944094049 11 14 7
67.4547697543466 12.7855950254333 2655.63161335411 12 15 8
-10.0320042881108 19.7249979693803 2721.77240724643 18 21 14
-48.3848100642921 22.6175366235561 2749.56506212066 21 24 17
-42.9596310152072 20.9027282960827 2733.72714589786 20 23 16
-34.7570887799584 18.8781926089686 2714.96058969661 17 20 13
-60.724864594967 20.5026309620355 2730.72760436279 15 18 11
-75.9530448331334 20.9921671706256 2735.74750520776 16 19 12
-41.7318371187396 16.1287708641994 2690.12846096186 16 19 10
-34.4925639588833 14.1600649370632 2671.89892986862 16 19 10
-39.2586670013315 13.4919181982564 2665.97042250612 15 18 9
-20.268776838376 10.2020549767841 2635.25537744537 15 18 9
-42.5490982154422 11.4583906560119 2647.51816439216 17 20 13
-23.0542428440357 8.07568943781964 2615.93367251554 16 19 12
-39.7268216089506 8.71706404942152 2622.37734039333 23 26 19
260.078032030326 18.3307343233019 2770.59391473962 25 28 21
250.620776063504 18.0895477576392 2768.67736739774 19 22 15
249.742014365122 17.0448068595397 2759.38919711183 17 20 13
251.936270864622 15.703954274959 2747.38678244113 16 19 12
222.348265634676 17.3744575878881 2763.00001660842 15 18 11
164.334977817115 21.784105272356 2803.72062563623 15 18 11
191.155170976155 16.9686046256312 2760.14747932388 15 18 11
178.761834522264 17.0352804101657 2761.04450495518 15 18 11
173.269513598032 16.4346395009751 2755.82492531146 14 17 10
170.054115458327 15.6096493488873 2748.54939484841 13 16 9
163.027175853699 15.1573765442252 2744.68816214497 10 13 6
177.939385463834 12.5297050638378 2720.90135554882 9 12 5
201.777874791308 8.98914408049439 2688.75945266925 9 12 5
163.44530424132 10.4799111932214 2702.97338988933 9 12 5
88.3185174095864 16.9171017056567 2762.17659971191 11 14 7
101.554184783095 14.4262216816211 2739.64549248035 13 16 9
65.6223011037005 16.9506391258161 2763.01548874104 15 18 11
60.9879667099884 16.2844640335951 2757.18221879385 14 17 10
85.8961548271826 12.5574829148452 2723.34474588232 14 17 10
90.7300090899397 10.8855756280045 2708.31341963384 14 17 10
55.8384867468527 13.3593332564396 2731.20230279847 15 18 11
46.0128379560585 13.2275748766438 2730.25429054114 15 18 11
13.5777542242299 15.4923027157621 2751.21743533637 16 19 12
40.2523296847117 11.4987470044011 2714.95369968907 15 18 11
67.453362671428 7.41103712079777 2677.83579632203 12 15 8
93.0039312739388 3.46201182869038 2641.99221182343 11 14 7
73.6451453442144 4.33169035152892 2650.19544604691 13 16 9
19.1341773677878 9.03817876954691 2693.4564650276 20 23 16
-31.4986388426421 13.3777642240918 2733.35150292846 19 22 15
-24.6923479929497 11.4575279704972 2716.04337585594 17 20 13
-27.939902236678 10.6328901342205 2708.74453653139 16 19 12
-64.5841420613182 13.5152747063856 2735.30534815865 15 18 11
-89.0043290148919 15.0691664867585 2749.72381242697 15 18 11
-25.6384143525319 5.57264584444261 2663.45267192305 16 19 10
-41.6519369654451 6.17067683773523 2669.13884749721 15 18 9
-26.1434327391874 3.18194928204377 2642.07736888604 15 18 9
-21.2267020763575 1.38208406860049 2625.87043674731 17 20 13
-51.8124514996128 3.66624796812134 2646.93897079083 20 23 16
-37.231138688341 0.739021080749025 2620.4406994779 26 29 22
266.65478091165 8.71491101990074 2755.55077586542 25 31 21
258.726660018394 8.33005008450785 2752.27193017433 21 24 17
259.34581747538 7.10883537840207 2741.59837184127 19 22 15
208.832440661239 10.9183637575427 2775.40153696584 15 18 11
224.95381989403 8.17345235785888 2751.25594723862 14 17 10
230.940581573797 6.41414936478424 2735.82490887532 13 16 9
179.290769532508 10.4110048145137 2771.27556443496 13 16 9
180.707454373915 9.115753917842 2759.94473908585 14 17 10
177.500584698743 8.27991375178419 2752.67504165426 13 16 9
179.601490414557 6.90093975117603 2740.60476191578 12 15 8
177.100455206217 5.98328714112506 2732.61158240412 9 12 5
187.438002405708 3.74195790587858 2712.92127102723 9 12 5
187.871075753021 2.5056981835278 2702.11274014587 9 12 5
165.698854424491 3.60981241609104 2711.98275235775 9 12 5
139.117916506599 5.1915689055729 2726.07031438579 8 11 4
126.114563675093 5.37041298844107 2727.76073091031 9 12 5
91.5282612553492 7.83429588575227 2749.63578786444 13 16 9
78.6655545428685 8.0252611569511 2751.42851763541 15 18 11
48.7948254701509 10.0376451089051 2769.30860420668 18 21 14
49.3610061754923 8.8134036735987 2758.59692104182 16 19 12
64.6218489439132 5.99751424482881 2733.82685607209 16 19 12
58.4517307112833 5.47944399323344 2729.35138156046 17 20 13
35.4364188059648 6.79650154280828 2741.08166575608 14 17 10
59.5897486510868 1.76137987686531 2696.80917751922 13 16 9
59.8876754508222 0.515516012805334 2685.90262737448 11 14 7
8.04960945695843 5.06431630822218 2726.16005032964 13 16 9
-15.3229335171652 4.0942163929259 2717.85772674404 21 24 15
-22.1424375725288 3.66449394577698 2714.14727719619 17 20 11
-26.1082951152645 2.90940708824419 2707.56311339946 16 19 10
-65.6043357688465 6.2349905493084 2736.99927962894 16 19 10
-79.7399056881059 5.47634280791781 2730.45366499071 16 19 12
-63.2252004312273 2.34480096483361 2702.88554849129 17 20 13
-57.3751308651402 0.43715369088379 2686.1196310754 16 19 10
-35.5174958010218 -3.37536053805751 2652.54038716999 16 19 10
-54.2679263353469 -2.40356539745798 2661.18485396632 17 20 11
-47.9245893047751 -4.41025577158299 2643.54097836025 18 21 14
-82.5287475811489 -1.5200557134365 2669.1103604909 28 31 24
256.145335148189 1.89902691015373 2765.18942126894 17 24 16
243.575631533274 1.99351486392324 2765.9590299325 24 27 20
204.60202575048 3.61309552825365 2779.70862502096 17 20 13
236.182570158321 -0.793982625125367 2742.05850091863 16 19 12
226.743215753225 -1.01255929568905 2740.15533980149 16 19 12
211.179229516097 -0.593336982942505 2743.6961204514 13 16 9
187.246423798727 0.707494195948843 2754.76121161261 13 16 9
184.022423427944 -0.141134457825071 2747.479325475 13 16 9
168.602309060104 0.290470364997908 2751.12475911021 13 16 9
176.000932473701 -1.6823889298245 2734.24576000819 10 13 6
181.805852358353 -3.50093227857956 2718.68260058282 10 13 6
189.048360839125 -5.48672698470296 2701.69065939095 9 12 5
163.109377024271 -3.92171995118307 2715.00817170274 9 12 5
147.034994372367 -3.40059000500667 2719.41480238765 8 11 4
154.201856776019 -5.39243362966027 2702.36769862412 9 12 5
103.868979949548 -1.12265457487637 2738.77441103764 11 14 7
114.762135808455 -3.52145438190243 2718.25103798656 15 18 11
55.8700869347497 1.75817614168647 2763.27975647651 17 20 13
39.4186466659079 2.39236375546845 2768.64865933667 15 18 11
47.3456423591325 0.321005105112543 2750.91715302832 15 18 11
46.3714339889263 -0.769405360503767 2741.5595600877 16 19 12
28.5177860013048 0.0355375247265699 2748.38320529246 13 16 9
20.9576946502299 -0.311324010685871 2745.37134454509 13 16 9
14.8616591783899 -0.823153757201961 2740.94960581714 12 15 8
-7.93103705692166 0.575714667042537 2752.84168325101 12 15 8
4.83754741493048 -2.09635956563956 2729.97105987162 15 18 11
-40.9500430886065 1.98076534249822 2764.73103603978 22 25 16
-36.1464935263127 0.224534496607531 2749.67760862877 21 24 15
-21.3707585480427 -2.71050168224618 2724.55527516747 20 23 14
-18.1619445797119 -4.31221183014702 2710.81664582725 17 20 11
-24.9888841794692 -4.74006762936191 2707.1005210725 16 19 10
-23.9973251783674 -6.09544830076969 2695.46120835995 16 19 8
-25.1757148638581 -7.20072690319351 2685.9555247164 16 19 8
-19.8858270173448 -10.3527292386046 2658.89633472577 17 20 13
-46.4430285707353 -8.40373807960743 2675.47274264837 16 19 12
-41.3987583299498 -10.2817517551752 2659.35787083417 15 18 9
-42.701165659266 -11.3963005002355 2649.76223719884 17 20 11
-66.2761398128584 -9.77224363807708 2663.55873303437 15 18 11
-74.4997415825475 -10.0273117034386 2661.30138100575 23 26 19
247.240656014378 -3.82154537337065 2783.40804742631 14 23 18
267.499141127078 -7.11260380682793 2756.0827011222 18 25 18
240.87924874873 -5.53503834613842 2768.90667189592 28 31 24
245.436823238743 -7.20953253469767 2754.91038254713 25 28 21
232.894908699702 -7.09126606886978 2755.69996207066 18 21 14
213.43716163746 -6.23293992135909 2762.596068649 16 19 12
231.783989468939 -9.39097893599555 2736.35625716697 15 18 11
220.811955847029 -9.43426515464441 2735.81298531566 12 15 8
202.209129353842 -8.65071301142173 2742.09313220812 13 16 9
179.85811173249 -7.44800774394047 2751.83432503168 13 16 9
176.6293479121 -8.30840348705039 2744.54892616517 13 16 9
161.996423730894 -7.92500702799115 2747.52943547505 13 16 9
182.982473033907 -11.4482748190963 2718.26026653491 13 16 9
171.359435961644 -11.3989933390443 2718.48057389218 10 13 6
152.24159357474 -10.5113388076505 2725.62323317764 9 12 5
164.70777895673 -13.1353919811209 2703.76896858684 8 11 4
169.582639245345 -14.9292003591992 2688.76675102856 8 11 4
167.677741403145 -15.9713280741146 2679.96976261865 11 14 7
116.66413715185 -11.4506382008997 2717.11960321346 13 16 9
60.7234089367608 -6.31612835765238 2759.34632649745 17 20 13
34.6465884931773 -4.54436278251369 2773.80000199747 15 18 11
28.5878688249124 -5.05409556191794 2769.40532491345 16 19 12
33.5507531377464 -6.83962752149694 2754.46725424756 15 18 11
31.1202761731271 -7.77825009877939 2746.52482321852 12 15 8
27.9362127335672 -8.63323229807339 2739.27185603269 11 14 7
-7.30925859139631 -5.72255565289559 2763.14140373687 10 13 6
-4.16707892382706 -8.5409751149737 2739.4674249098 20 23 16
-14.5736945868364 -8.53413510500647 2739.33399602573 20 23 14
-38.6243215276196 -6.88414784664837 2752.78581234746 18 21 12
-34.5938802906951 -8.59982224017783 2738.40718426806 17 20 11
-12.0355184081893 -12.5754568939192 2705.33508595045 16 19 10
-7.47492583126586 -14.3930217627249 2690.10492868984 16 19 10
-15.7726067487465 -14.6482959151381 2687.79387406219 17 20 9
7.82025961644095 -18.8298508465624 2653.00029935927 18 21 10
7.92226395389761 -20.1404869277919 2641.95139275638 17 20 13
-7.50440870764346 -19.5260802231516 2646.82803470129 17 20 13
-29.8926262738204 -18.0283678562293 2659.01382801848 16 19 12
-38.888303458767 -18.1943033275851 2657.43256462482 14 17 8
-31.1302573246945 -20.4754372577023 2638.34248399313 15 18 9
-49.1825710752023 -19.4935469681335 2646.25804504931 21 24 17
-46.3720215124759 -21.1622918749018 2632.23036579782 21 24 17
258.624054439525 -12.8131348331686 2774.3225865113 14 23 20
276.513177090891 -15.9482311296789 2748.98612761487 32 41 36
242.855064257404 -13.5455982107382 2767.82803992377 30 33 26
229.544927285797 -13.320919772822 2769.2965887151 28 31 24
232.538983122632 -14.8664933216253 2756.63789207135 21 24 17
223.121769631771 -15.0623464823654 2754.75060199749 19 22 15
189.84590284804 -12.627343390808 2773.86977658669 16 19 12
204.33696418243 -15.4497341872515 2751.01201543219 14 17 10
187.311657741367 -14.789357782175 2755.96504310859 14 17 10
181.036829435151 -15.3190771396961 2751.41360302497 13 16 9
154.965039374766 -13.6241620802899 2764.63549926491 13 16 9
166.20663492245 -16.1212717871935 2744.36421962127 14 17 10
159.178231850932 -16.5645119868932 2740.5022662484 14 17 10
157.436898841133 -17.610207010234 2731.82383140702 10 13 6
162.441584254066 -19.4349005693201 2716.91557041243 10 13 6
170.380517712216 -21.6110283220978 2699.1924818455 8 11 4
186.465342638491 -24.7476541584092 2673.7827834273 8 11 4
184.512859407737 -25.8106534494378 2664.95148811208 10 13 6
61.1284579858853 -13.899008349618 2759.60154641525 17 20 13
45.3993386187657 -13.2777974419503 2764.25897275338 16 19 12
36.1594901136177 -14.654432551496 2752.61339546182 15 18 11
36.6544439091179 -15.9595524949193 2741.84937424735 12 15 8
18.8437882024264 -15.0639605291036 2748.70464462951 11 14 7
17.1272506993785 -16.1059142692296 2740.04420353048 12 15 8
13.2046481726311 -16.8844414487256 2733.49127748809 19 22 15
8.54384887249982 -17.5752540399317 2727.63869777166 21 24 17
-1.17937978537386 -17.6444276322593 2726.76554353574 19 22 13
-23.8339421659672 -16.1081002718598 2738.75845340544 18 21 12
-30.6058051829157 -16.527103083219 2735.08229968309 16 19 10
