ply
format ascii 1.0
comment KinectMotionCapture
element vertex 783
property float x
property float y
property float z
property uchar red
property uchar green
property uchar blue
end_header
254.75537776947 344.285935163498 2696.00009918213 147 152 148
289.151430130005 341.529697179794 2674.99995231628 206 211 207
295.427411794662 340.364754199982 2665.99988937378 137 142 138
301.767021417618 339.327305555344 2657.99999237061 170 175 171
308.178395032883 338.417232036591 2651.00002288818 157 162 158
314.669728279114 337.63462305069 2644.99998092651 166 171 167
321.249127388 336.979478597641 2640.00010490417 171 176 172
328.297853469849 336.83454990387 2638.99993896484 174 179 175
335.340201854706 336.689382791519 2638.00001144409 177 182 178
342.635720968246 336.799204349518 2638.99993896484 176 181 177
349.803060293198 336.781024932861 2638.99993896484 175 180 176
358.321994543076 338.038712739944 2648.9999294281 180 185 181
-176.276177167892 332.456856966019 2658.99991989136 202 208 204
-168.015837669373 330.466032028198 2642.99988746643 191 196 192
-159.842073917389 328.474789857864 2627.00009346008 188 193 189
-152.336105704308 327.733337879181 2621.00005149841 187 192 188
-144.917666912079 327.116549015045 2615.9999370575 182 187 183
-137.789323925972 327.124625444412 2615.9999370575 181 183 180
-130.710393190384 327.257335186005 2617.00010299683 172 174 171
-124.050542712212 328.515082597733 2627.00009346008 170 172 169
-117.424711585045 330.022662878037 2638.99993896484 144 149 142
-110.64950376749 331.279754638672 2648.9999294281 132 137 130
-105.029724538326 336.413383483887 2690.00005722046 122 127 120
-89.692048728466 333.923310041428 2670.00007629395 0 3 0
-82.3822543025017 333.803176879883 2668.99991035461 22 30 19
-74.0364417433739 329.055160284042 2631.00004196167 16 24 13
-67.2698765993118 331.060320138931 2647.0000743866 12 18 8
-53.3944368362427 334.569305181503 2674.99995231628 14 17 8
-45.8421036601067 332.696110010147 2660.00008583069 17 18 10
-38.6760421097279 333.448946475983 2665.99988937378 20 22 17
-31.064810231328 329.823851585388 2637.00008392334 18 20 15
-23.8469988107681 329.450190067291 2634.0000629425 10 12 7
-16.6138280183077 328.450739383698 2625.99992752075 28 30 25
-9.43142268806696 327.70100235939 2619.99988555908 90 92 87
-2.28607025928795 327.576279640198 2618.99995803833 104 106 101
4.85939998179674 327.826380729675 2621.00005149841 113 115 110
12.0203411206603 328.201144933701 2624.00007247925 139 141 136
19.1829819232225 328.325301408768 2625 139 141 136
26.3610370457172 328.574150800705 2627.00009346008 125 127 122
33.5243754088879 328.572392463684 2627.00009346008 123 125 120
40.6566187739372 328.320115804672 2625 122 125 118
47.6502850651741 327.191859483719 2615.9999370575 135 138 131
54.6575225889683 326.438456773758 2609.99989509583 145 148 141
61.6318359971046 325.684666633606 2604.00009155273 154 156 151
68.6787664890289 325.430750846863 2601.99999809265 154 156 151
75.7145509123802 325.176447629929 2599.99990463257 156 158 153
82.8346759080887 325.296968221664 2601.0000705719 156 158 153
89.890792965889 325.166940689087 2599.99990463257 157 159 156
97.0530360937119 325.411707162857 2601.99999809265 156 158 155
104.105725884438 325.280845165253 2601.0000705719 152 154 151
111.366331577301 325.774908065796 2605.00001907349 151 153 150
118.466436862946 325.768321752548 2605.00001907349 150 152 149
125.66252052784 326.011478900909 2607.00011253357 150 152 149
132.818073034286 326.129168272018 2608.00004005432 152 154 151
140.032261610031 326.371490955353 2609.99989509583 158 160 157
147.425964474678 326.98854804039 2615.00000953674 161 163 160
154.78727221489 327.480137348175 2618.99995803833 153 155 152
162.107989192009 327.846318483353 2621.99997901917 150 152 149
169.444441795349 328.212022781372 2625 148 150 147
176.527574658394 328.077286481857 2624.00007247925 151 153 150
183.744579553604 328.192174434662 2625 154 156 153
190.966412425041 328.306704759598 2625.99992752075 157 159 156
198.721066117287 329.295963048935 2634.0000629425 154 156 153
206.284120678902 329.90974187851 2638.99993896484 130 132 129
213.792771100998 330.398142337799 2642.99988746643 149 151 148
221.406042575836 331.011086702347 2648.00000190735 163 168 164
229.391157627106 332.123696804047 2657.00006484985 141 146 142
237.780645489693 333.735793828964 2670.00007629395 133 138 134
245.872959494591 334.847420454025 2678.99990081787 121 126 122
254.769444465637 336.958557367325 2696.00009918213 15 21 17
289.275139570236 334.385603666306 2676.00011825562 204 209 205
295.22168636322 332.870543003082 2664.00003433228 128 133 129
301.329016685486 331.605195999146 2654.00004386902 155 160 156
307.729780673981 330.7144343853 2647.0000743866 160 165 161
314.329475164413 330.073356628418 2641.99995994568 166 171 167
321.022689342499 329.557001590729 2638.00001144409 171 176 172
328.190714120865 329.540014266968 2638.00001144409 174 179 175
335.103511810303 329.272925853729 2635.99991798401 174 179 175
342.523694038391 329.505234956741 2638.00001144409 176 181 177
349.821150302887 329.61231470108 2638.99993896484 180 185 181
358.881592750549 331.342756748199 2653.00011634827 187 192 188
-175.954520702362 324.615299701691 2654.00004386902 195 205 196
-168.025225400925 323.279350996017 2642.99988746643 186 193 186
-159.851044416428 321.331441402435 2627.00009346008 193 195 190
-152.344658970833 320.606172084808 2621.00005149841 189 190 185
-144.815027713776 319.758176803589 2614.00008201599 183 182 178
-137.691751122475 319.766104221344 2614.00008201599 182 181 177
-130.567938089371 319.773584604263 2614.00008201599 173 175 170
-123.86866658926 320.881694555283 2622.99990653992 170 172 167
-117.119885981083 321.989476680756 2631.99996948242 158 159 154
-110.488697886467 323.586314916611 2644.99998092651 125 126 121
-97.6662337779999 328.981012105942 2688.99989128113 93 98 92
-89.6299704909325 326.417118310928 2667.99998283386 13 19 15
-81.6769972443581 323.730319738388 2645.99990844727 16 23 16
-74.2939561605453 323.000699281693 2640.00010490417 17 24 16
-66.3333684206009 319.334149360657 2609.99989509583 16 22 12
-60.0562654435635 323.864758014679 2647.0000743866 15 18 9
-52.7387596666813 323.2561647892 2641.99995994568 15 15 5
-45.9826104342937 326.440185308456 2667.99998283386 15 17 6
-37.9383601248264 319.957792758942 2615.00000953674 16 19 12
-31.2668681144714 324.73161816597 2654.00004386902 17 20 13
-24.1018831729889 325.712025165558 2661.99994087219 17 20 13
-16.6211109608412 321.430742740631 2627.00009346008 14 17 10
-9.42116603255272 320.207893848419 2617.00010299683 13 16 9
-2.2844560444355 320.208251476288 2617.00010299683 77 80 73
4.85782464966178 320.575207471848 2619.99988555908 106 109 102
12.0118670165539 320.819437503815 2621.99997901917 133 136 129
19.1548503935337 320.696204900742 2621.00005149841 132 135 128
26.3224076479673 320.939600467682 2622.99990653992 124 127 120
33.4880165755749 321.060299873352 2624.00007247925 121 124 117
40.6434610486031 321.058183908463 2624.00007247925 110 115 109
47.6530194282532 320.076823234558 2615.9999370575 112 117 111
54.7025389969349 319.584488868713 2611.99998855591 155 160 154
61.6826973855495 318.847090005875 2605.99994659424 147 152 146
68.7354952096939 318.598717451096 2604.00009155273 154 159 153
75.8353695273399 318.594604730606 2604.00009155273 159 164 158
82.9030945897102 318.467736244202 2602.9999256134 151 156 150
90.0342240929604 318.585216999054 2604.00009155273 157 159 156
97.1704572439194 318.70225071907 2605.00001907349 155 157 154
104.311779141426 318.818897008896 2605.99994659424 151 153 150
111.500926315784 319.057554006577 2608.00004005432 150 152 149
118.700556457043 319.295734167099 2609.99989509583 146 148 145
125.910624861717 319.53352689743 2611.99998855591 152 154 151
133.029296994209 319.526255130768 2611.99998855591 152 154 151
139.932841062546 319.029301404953 2608.00004005432 153 155 152
147.26510643959 319.510579109192 2611.99998855591 159 161 158
154.677748680115 320.113807916641 2617.00010299683 152 154 151
162.240713834763 320.961236953735 2624.00007247925 150 152 149
169.518485665321 321.196675300598 2625.99992752075 149 151 148
176.537409424782 320.942491292953 2624.00007247925 152 154 151
183.684810996056 320.932537317276 2624.00007247925 155 157 154
190.976992249489 321.166813373566 2625.99992752075 156 158 155
198.505714535713 321.767628192902 2631.00004196167 136 141 137
206.060975790024 322.368025779724 2635.99991798401 142 147 143
213.561862707138 322.845757007599 2640.00010490417 156 161 157
221.334591507912 323.689937591553 2647.0000743866 156 161 157
229.31732237339 324.778228998184 2655.99989891052 129 134 130
237.526431679726 326.110690832138 2667.00005531311 131 136 132
245.702758431435 327.320426702499 2677.00004577637 17 22 18
254.594206809998 329.38551902771 2694.00000572205 10 15 11
290.047228336334 327.968418598175 2683.00008773804 207 212 208
294.904798269272 325.263857841492 2661.00001335144 130 135 131
300.777167081833 323.78152012825 2648.9999294281 151 156 152
307.280868291855 323.032319545746 2642.99988746643 164 169 165
313.869953155518 322.405129671097 2638.00001144409 169 175 171
320.795923471451 322.144329547882 2635.99991798401 171 176 172
327.958852052689 322.12769985199 2635.99991798401 173 178 174
334.993600845337 321.988523006439 2634.99999046326 171 176 172
342.411398887634 322.215735912323 2637.00008392334 172 177 173
349.9715924263 322.564780712128 2640.00010490417 178 183 179
358.899801969528 324.135303497314 2653.00011634827 182 187 183
-176.096767187119 317.636936903 2655.99989891052 198 208 199
-168.034464120865 316.091567277908 2642.99988746643 193 198 191
-159.920692443848 314.306616783142 2628.00002098084 194 195 189
-152.353063225746 313.477903604507 2621.00005149841 195 192 187
-144.878447055817 312.768399715424 2615.00000953674 192 187 183
-137.699395418167 312.656581401825 2614.00008201599 186 181 177
-130.525231361389 312.544316053391 2612.99991607666 174 173 168
-123.781129717827 313.508242368698 2621.00005149841 176 175 170
-116.948403418064 314.35215473175 2628.00002098084 146 145 140
-110.24421453476 315.674245357513 2638.99993896484 143 142 137
-97.8533253073692 322.264969348907 2694.00000572205 7 12 6
-90.5084982514381 322.270184755325 2694.00000572205 6 11 5
-82.5768113136292 320.002108812332 2674.99995231628 17 24 17
-74.8047009110451 317.972809076309 2657.99999237061 18 25 17
-67.4300119280815 317.378580570221 2653.00011634827 18 24 14
-59.832751750946 315.468072891235 2637.00008392334 19 21 10
-52.8016164898872 316.428244113922 2644.99998092651 15 15 3
-45.5887764692307 316.430985927582 2644.99998092651 13 15 4
-38.4918339550495 317.390412092209 2653.00011634827 13 14 6
-31.2568545341492 317.392379045486 2653.00011634827 15 18 11
-23.8949861377478 315.71900844574 2638.99993896484 16 19 12
-16.6030656546354 313.925623893738 2624.00007247925 15 18 11
-9.42529737949371 313.208490610123 2618.00003051758 14 17 10
-2.2863307967782 313.328444957733 2618.99995803833 15 18 11
4.86366124823689 313.806921243668 2622.99990653992 100 103 96
12.0171271264553 313.806474208832 2622.99990653992 107 110 103
19.1632378846407 313.685953617096 2621.99997901917 135 138 131
26.3138562440872 313.684701919556 2621.99997901917 111 114 107
33.4643796086311 313.683032989502 2621.99997901917 118 121 114
40.6302586197853 313.800573348999 2622.99990653992 116 121 115
47.6557016372681 312.960684299469 2615.9999370575 139 144 138
54.7475069761276 312.718570232391 2614.00008201599 131 136 130
61.8045292794704 312.356442213058 2611.00006103516 158 163 157
69.0297335386276 312.831312417984 2615.00000953674 154 159 153
76.1017426848412 312.588006258011 2612.99991607666 130 135 129
83.0988436937332 312.105059623718 2608.99996757507 116 121 115
90.1084169745445 311.741381883621 2605.99994659424 143 148 142
97.2878113389015 311.975449323654 2608.00004005432 155 160 154
104.51777279377 312.328726053238 2611.00006103516 146 151 145
111.635409295559 312.322735786438 2611.00006103516 157 162 156
118.889100849628 312.67523765564 2614.00008201599 145 150 146
126.014038920403 312.668472528458 2614.00008201599 141 146 142
133.138567209244 312.661349773407 2614.00008201599 151 156 152
139.994263648987 312.055796384811 2608.99996757507 148 153 149
147.273257374763 312.406748533249 2611.99998855591 151 156 152
154.68630194664 312.996476888657 2617.00010299683 148 153 147
162.125989794731 313.585817813873 2621.99997901917 152 157 151
169.398665428162 313.815981149673 2624.00007247925 147 152 146
176.614344120026 313.926160335541 2625 135 140 134
183.834850788116 314.035981893539 2625.99992752075 152 157 151
191.060140728951 314.145475625992 2627.00009346008 109 114 108
198.441058397293 314.493715763092 2630.00011444092 116 123 116
205.681279301643 314.602434635162 2631.00004196167 152 162 154
213.088005781174 314.94989991188 2634.0000629425 156 166 158
220.76116502285 315.655738115311 2640.00010490417 17 24 17
229.070618748665 317.198067903519 2653.00011634827 24 29 23
237.62820661068 318.979054689407 2667.99998283386 20 25 19
246.54196202755 321.118235588074 2686.00010871887 17 22 16
254.324227571487 321.702778339386 2690.99998474121 23 25 20
289.954245090485 320.555955171585 2681.99992179871 205 207 206
294.920116662979 318.03098320961 2661.00001335144 127 131 130
300.792664289474 316.581517457962 2648.9999294281 152 158 154
307.180434465408 315.729439258575 2641.99995994568 167 177 169
313.886046409607 315.235644578934 2638.00001144409 167 177 169
320.568889379501 314.741581678391 2634.0000629425 170 180 172
327.477812767029 314.486265182495 2631.99996948242 176 183 176
334.501981735229 314.350157976151 2631.00004196167 178 183 177
342.168837785721 314.811140298843 2634.99999046326 175 180 174
350.519329309464 315.869182348251 2644.00005340576 175 177 172
360.405772924423 318.240880966187 2664.00003433228 180 185 181
-176.238864660263 310.646593570709 2657.99999237061 216 219 212
-168.107137084007 309.019595384598 2644.00005340576 210 207 200
-160.051062703133 307.392090559006 2630.00011444092 165 158 150
-152.535706758499 306.699156761169 2624.00007247925 127 116 110
-145.107939839363 306.122750043869 2618.99995803833 95 78 71
-137.812227010727 305.779695510864 2615.9999370575 113 96 89
-130.682215094566 305.786937475204 2615.9999370575 119 105 96
-123.787872493267 306.378275156021 2621.00005149841 113 100 91
-116.999305784702 307.319968938828 2628.99994850159 149 140 131
-110.375583171844 308.845788240433 2641.99995994568 152 145 137
-105.515949428082 315.865635871887 2701.99990272522 219 215 206
-98.9847555756569 318.559914827347 2724.99990463257 0 1 0
-91.3534387946129 317.863702774048 2719.00010108948 26 29 20
-82.4578702449799 312.256962060928 2671.0000038147 14 19 12
-75.090266764164 311.910539865494 2667.99998283386 13 18 11
-67.2558024525642 309.342443943024 2645.99990844727 18 21 12
-59.6999116241932 307.592272758484 2631.00004196167 21 23 12
-52.50508710742 307.478457689285 2630.00011444092 22 22 12
-45.2465638518333 306.896537542343 2625 20 21 13
-37.9716195166111 305.963516235352 2617.00010299683 13 16 9
-30.9522412717342 307.134538888931 2627.00009346008 12 15 8
-23.6246585845947 305.031567811966 2608.99996757507 12 15 8
-16.4204798638821 303.395837545395 2595.00002861023 15 18 11
-9.42582078278065 306.085616350174 2618.00003051758 15 18 11
-2.28907656855881 306.553602218628 2621.99997901917 7 10 3
4.85836854204535 306.319683790207 2619.99988555908 5 8 1
11.9994664564729 306.202322244644 2618.99995803833 131 134 127
19.1350653767586 306.08457326889 2618.00003051758 135 138 131
26.285208761692 306.200236082077 2618.99995803833 123 126 119
33.4279425442219 306.198596954346 2618.99995803833 117 120 113
40.586031973362 306.313455104828 2619.99988555908 129 134 128
47.6583391427994 305.843412876129 2615.9999370575 150 155 149
54.7714792191982 305.723696947098 2615.00000953674 158 163 157
61.9026310741901 305.720508098602 2615.00000953674 107 112 106
69.1127330064774 306.067615747452 2618.00003051758 78 83 77
76.1641934514046 305.712968111038 2615.00000953674 93 98 92
83.1989869475365 305.357873439789 2611.99998855591 105 110 104
90.251699090004 305.119335651398 2609.99989509583 137 142 136
97.4050611257553 305.231124162674 2611.00006103516 145 150 144
104.563526809216 305.342525243759 2611.99998855591 148 153 147
111.684285104275 305.336683988571 2611.99998855591 147 152 146
118.941076099873 305.681109428406 2615.00000953674 148 153 149
126.165568828583 305.908292531967 2617.00010299683 144 149 145
133.298605680466 305.901288986206 2617.00010299683 142 147 143
140.216514468193 305.426359176636 2612.99991607666 148 153 149
147.39403128624 305.535495281219 2614.00008201599 156 161 155
154.694676399231 305.878043174744 2617.00010299683 162 167 161
162.011072039604 306.220173835754 2619.99988555908 142 147 141
169.278666377068 306.445062160492 2621.99997901917 136 141 135
176.489278674126 306.552708148956 2622.99990653992 170 175 169
183.844730257988 306.893736124039 2625.99992752075 111 116 110
191.143095493317 307.117521762848 2628.00002098084 91 96 89
198.451638221741 307.340949773788 2630.00011444092 131 138 131
205.692231655121 307.447135448456 2631.00004196167 35 42 35
212.937504053116 307.552963495255 2631.99996948242 9 16 9
220.521956682205 308.125853538513 2637.00008392334 14 19 13
228.132843971252 308.698326349258 2641.99995994568 12 17 11
238.175109028816 312.42510676384 2674.00002479553 6 11 5
247.105613350868 314.515471458435 2691.99991226196 13 18 12
253.864914178848 313.801556825638 2686.00010871887 19 24 18
260.396182537079 312.853664159775 2677.99997329712 20 22 17
288.996040821075 312.21342086792 2673.00009727478 200 204 205
294.71343755722 310.563445091248 2658.99991989136 126 130 129
300.580859184265 309.146910905838 2647.0000743866 150 156 152
307.079672813416 308.430939912796 2641.00003242493 160 167 160
313.663840293884 307.831525802612 2635.99991798401 163 170 163
320.463240146637 307.465404272079 2632.99989700317 170 177 170
327.369719743729 307.215839624405 2631.00004196167 175 182 175
334.772855043411 307.433038949966 2632.99989700317 185 190 186
342.705219984055 308.117002248764 2638.99993896484 188 193 189
351.332038640976 309.384316205978 2650.00009536743 193 195 192
362.046897411346 312.40239739418 2676.00011825562 186 191 187
-176.911249756813 304.557502269745 2667.99998283386 185 186 180
-168.43393445015 302.397608757019 2648.9999294281 114 111 104
-160.363838076591 300.808101892471 2634.99999046326 78 65 57
-152.834504842758 300.131350755692 2628.99994850159 89 72 64
-145.392715930939 299.568384885788 2624.00007247925 128 106 95
-138.030305504799 299.119174480438 2619.99988555908 135 111 101
-130.938991904259 299.240499734879 2621.00005149841 135 113 100
-123.983435332775 299.70395565033 2625 141 123 109
-117.094606161118 300.395399332047 2631.00004196167 116 104 90
-110.548637807369 302.114099264145 2645.99990844727 108 98 86
-105.79501837492 309.313118457794 2709.00011062622 214 206 195
-98.5905081033707 309.88946557045 2713.99998664856 15 13 1
-90.1487618684769 306.354850530624 2683.00008773804 21 21 11
-81.5978720784187 301.792025566101 2642.99988746643 17 20 11
-73.7433061003685 299.169898033142 2619.99988555908 15 18 9
-66.9035762548447 300.543963909149 2631.99996948242 14 17 8
-59.2719912528992 298.263549804688 2611.99998855591 18 19 11
-52.1685183048248 298.380702733994 2612.99991607666 22 23 15
-45.2317856252193 299.639493227005 2624.00007247925 22 23 15
-38.1187833845615 299.984276294708 2627.00009346008 17 20 13
-30.8360923081636 298.844218254089 2617.00010299683 14 17 10
-16.4466872811317 296.791255474091 2598.99997711182 11 14 7
-9.32911783456802 295.878410339355 2591.00008010864 12 15 8
-2.27697845548391 297.820031642914 2608.00004005432 11 14 7
4.84565179795027 298.390924930573 2612.99991607666 12 15 8
11.9817927479744 298.618853092194 2615.00000953674 2 5 0
19.1287975758314 298.846393823624 2617.00010299683 7 10 3
26.2765996158123 298.959374427795 2618.00003051758 111 114 107
33.4169901907444 298.957794904709 2618.00003051758 144 147 140
40.5572541058064 298.955768346787 2618.00003051758 151 156 150
47.6609207689762 298.725008964539 2615.9999370575 109 114 108
54.7953918576241 298.722267150879 2615.9999370575 83 88 82
61.9296543300152 298.719137907028 2615.9999370575 75 80 74
69.0900757908821 298.829823732376 2617.00010299683 107 112 106
76.1100575327873 298.369169235229 2612.99991607666 152 157 151
83.1397697329521 298.022359609604 2609.99989509583 144 149 143
90.1874005794525 297.789335250854 2608.00004005432 131 136 130
97.3730012774467 298.01270365715 2609.99989509583 126 131 125
104.48907315731 298.007309436798 2609.99989509583 134 139 133
111.561991274357 297.88738489151 2608.99996757507 146 151 145
118.765503168106 298.109620809555 2611.00006103516 143 148 144
126.027688384056 298.445671796799 2614.00008201599 89 94 90
133.203849196434 298.552960157394 2615.00000953674 86 91 87
140.43864607811 298.774063587189 2617.00010299683 79 84 78
147.514641284943 298.652291297913 2615.9999370575 114 119 113
154.643759131432 298.644334077835 2615.9999370575 151 156 150
161.648631095886 298.407703638077 2614.00008201599 139 144 138
169.029369950294 298.855662345886 2618.00003051758 131 136 130
176.296725869179 299.074918031693 2619.99988555908 97 102 95
183.714374899864 299.522161483765 2624.00007247925 88 93 86
190.934896469116 299.626499414444 2625 32 37 30
198.462024331093 300.187140703201 2630.00011444092 18 23 16
205.54655790329 300.062507390976 2628.99994850159 26 29 22
212.544053792953 299.823492765427 2627.00009346008 5 8 1
219.362542033195 299.355834722519 2622.99990653992 28 31 24
227.453842759132 300.599753856659 2634.0000629425 11 16 9
236.584022641182 303.098529577255 2655.99989891052 3 8 1
241.977661848068 300.804018974304 2635.99991798401 14 19 12
247.356101870537 298.623502254486 2617.00010299683 13 18 11
287.821233272552 303.690642118454 2661.99994087219 208 214 214
294.395685195923 302.991658449173 2655.99989891052 143 149 147
300.482273101807 301.83619260788 2645.99990844727 163 168 164
306.978642940521 301.13685131073 2640.00010490417 173 178 172
313.679337501526 300.665378570557 2635.99991798401 170 175 169
320.478975772858 300.307720899582 2632.99989700317 171 176 170
327.634543180466 300.291985273361 2632.99989700317 169 174 170
334.916323423386 300.390034914017 2634.0000629425 162 166 165
342.981547117233 301.172018051147 2641.00003242493 163 167 166
351.481556892395 302.295744419098 2651.00002288818 162 166 165
362.199544906616 305.24343252182 2677.00004577637 171 176 172
-177.981406450272 299.081563949585 2684.00001525879 206 206 198
-168.824195861816 295.858860015869 2654.99997138977 211 204 196
-160.615637898445 294.084370136261 2638.99993896484 118 100 90
-153.01688015461 293.312400579453 2631.99996948242 134 110 98
-145.566552877426 292.762905359268 2627.00009346008 154 123 105
-138.037547469139 291.990101337433 2619.99988555908 152 121 101
-130.845949053764 291.885644197464 2618.99995803833 145 117 95
-123.753771185875 292.003691196442 2619.99988555908 141 115 92
-116.78921431303 292.455792427063 2624.00007247925 130 113 97
-109.885960817337 293.130427598953 2630.00011444092 124 108 93
-104.394599795341 297.928690910339 2673.00009727478 210 198 184
-97.6511836051941 299.605846405029 2687.99996376038 19 13 1
-89.078277349472 295.486688613892 2651.00002288818 26 22 11
-81.1390802264214 292.927473783493 2628.00002098084 21 23 12
-73.4376013278961 290.813714265823 2608.99996757507 18 21 12
-66.5004029870033 291.597664356232 2615.9999370575 13 16 7
-59.5020726323128 292.269766330719 2621.99997901917 14 15 7
-51.7320483922958 288.817167282104 2591.00008010864 18 19 11
-44.7342656552792 289.26557302475 2595.00002861023 19 20 12
-38.0627661943436 292.388916015625 2622.99990653992 20 23 16
-30.7434666901827 290.830165147781 2608.99996757507 17 20 13
-23.5004164278507 289.270967245102 2595.00002861023 11 14 7
-16.466548666358 290.052354335785 2601.99999809265 10 13 6
-9.36922244727612 290.053009986877 2601.99999809265 10 13 6
4.84961876645684 291.502386331558 2615.00000953674 8 11 4
11.982430703938 291.501969099045 2615.00000953674 19 22 15
19.1517453640699 292.058497667313 2619.99988555908 12 15 8
26.2880343943834 291.945815086365 2618.99995803833 13 16 9
33.4315374493599 291.944265365601 2618.99995803833 23 26 19
40.5439250171185 291.719377040863 2617.00010299683 135 140 134
47.6999022066593 291.828513145447 2618.00003051758 106 111 105
54.819256067276 291.71434044838 2617.00010299683 82 87 81
61.9329400360584 291.599810123444 2615.9999370575 148 153 147
68.988136947155 291.261970996857 2612.99991607666 154 159 153
76.0267004370689 290.923744440079 2609.99989509583 153 158 152
83.0804631114006 290.696650743485 2608.00004005432 139 144 138
90.1229977607727 290.469169616699 2605.99994659424 117 122 116
97.3408445715904 290.79869389534 2608.99996757507 121 126 120
104.37449067831 290.570497512817 2607.00011253357 129 134 128
111.439593136311 290.453404188156 2605.99994659424 128 133 127
118.635289371014 290.670305490494 2608.00004005432 163 168 164
125.93786418438 291.109770536423 2611.99998855591 153 158 154
133.210852742195 291.437387466431 2615.00000953674 149 154 150
140.338659286499 291.43026471138 2615.00000953674 89 94 88
147.465959191322 291.422843933105 2615.00000953674 74 79 73
154.533594846725 291.303634643555 2614.00008201599 133 138 132
161.6570353508 291.29546880722 2614.00008201599 144 149 143
168.908998370171 291.509836912155 2615.9999370575 119 124 118
175.969392061234 291.389554738998 2615.00000953674 58 63 56
183.163687586784 291.491776704788 2615.9999370575 50 55 48
190.508291125298 291.816562414169 2618.99995803833 25 30 23
198.09490442276 292.475193738937 2625 27 30 23
205.166190862656 292.353570461273 2624.00007247925 9 12 5
211.260303854942 290.894657373428 2611.00006103516 10 13 6
219.540998339653 292.443513870239 2625 4 7 0
227.810800075531 293.880492448807 2638.00001144409 8 11 4
235.081642866135 293.980300426483 2638.99993896484 17 22 15
241.255462169647 292.743057012558 2628.00002098084 10 15 8
246.423289179802 290.391713380814 2607.00011253357 18 23 16
287.402898073196 296.006232500076 2657.99999237061 207 213 211
293.745070695877 295.101195573807 2650.00009536743 133 138 134
300.156265497208 294.307291507721 2642.99988746643 145 150 146
306.877285242081 293.847233057022 2638.99993896484 155 157 152
313.694536685944 293.498277664185 2635.99991798401 152 154 149
320.859581232071 293.483108282089 2635.99991798401 168 170 165
328.272521495819 293.690323829651 2638.00001144409 177 179 176
335.949569940567 294.119894504547 2641.99995994568 182 186 185
343.517363071442 294.437855482101 2644.99998092651 182 186 185
351.630717515945 295.200735330582 2651.99995040894 175 179 180
-169.214352965355 289.286434650421 2661.00001335144 217 210 200
-160.502091050148 286.685556173325 2637.00008392334 153 133 122
-152.617707848549 285.388827323914 2625 160 134 119
-145.075261592865 284.635335206985 2618.00003051758 153 121 100
-137.78118789196 284.316331148148 2615.00000953674 152 120 97
-130.602851510048 284.214437007904 2614.00008201599 155 125 97
-123.571194708347 284.43831205368 2615.9999370575 148 121 94
-116.528168320656 284.661948680878 2618.00003051758 149 124 102
-109.640933573246 285.320103168488 2624.00007247925 131 109 88
-102.954879403114 286.630362272263 2635.99991798401 102 85 69
-96.8569666147232 289.897620677948 2665.99988937378 44 32 16
-88.9820829033852 287.945061922073 2648.00000190735 17 8 0
-81.2976658344269 286.318331956863 2632.99989700317 21 19 6
-73.4414085745811 283.712446689606 2608.99996757507 20 20 8
-67.1902522444725 287.413388490677 2642.99988746643 18 19 11
-59.6413388848305 285.785466432571 2628.00002098084 15 16 8
-51.6748391091824 281.43846988678 2588.00005912781 16 17 9
-44.8400378227234 282.854676246643 2601.0000705719 18 19 11
-37.9631668329239 284.488022327423 2615.9999370575 18 21 14
-30.9571884572506 285.686075687408 2627.00009346008 20 23 16
-23.7280540168285 284.926205873489 2619.99988555908 20 23 16
-16.6635997593403 286.3410115242 2632.99989700317 16 19 12
-9.47774108499289 286.232948303223 2631.99996948242 12 15 8
-2.29118927381933 285.363256931305 2624.00007247925 13 16 9
12.0563749223948 286.123991012573 2631.00004196167 9 12 5
19.1161930561066 284.383177757263 2615.00000953674 6 9 2
26.2091048061848 283.947050571442 2611.00006103516 23 26 19
33.3566851913929 284.162968397141 2612.99991607666 18 21 14
40.5305437743664 284.487307071686 2615.9999370575 1 3 0
47.7388277649879 284.920036792755 2619.99988555908 19 21 16
54.8640079796314 284.80863571167 2618.99995803833 7 9 4
61.9598478078842 284.588158130646 2617.00010299683 4 6 1
69.0181329846382 284.25857424736 2614.00008201599 5 7 2
76.0597810149193 283.928573131561 2611.00006103516 23 25 20
83.0529183149338 283.489495515823 2607.00011253357 16 18 13
90.1276841759682 283.376336097717 2605.99994659424 13 15 10
97.2712561488152 283.480256795883 2607.00011253357 11 13 8
104.379877448082 283.47510099411 2607.00011253357 33 35 30
111.402571201324 283.252120018005 2605.00001907349 58 60 55
118.641398847103 283.572465181351 2608.00004005432 62 64 61
125.847905874252 283.783674240112 2609.99989509583 80 82 77
133.064851164818 283.994555473328 2611.99998855591 75 77 72
140.184849500656 283.987641334534 2611.99998855591 63 65 60
147.360697388649 284.089028835297 2612.99991607666 42 44 39
154.541477560997 284.19017791748 2614.00008201599 9 11 6
161.788955330849 284.399598836899 2615.9999370575 15 17 12
168.723866343498 284.065127372742 2612.99991607666 6 9 2
175.574541091919 283.62163901329 2608.99996757507 22 25 18
182.192698121071 282.851725816727 2601.99999809265 31 34 27
190.008699893951 283.929497003555 2611.99998855591 14 17 10
197.953909635544 285.115510225296 2622.99990653992 9 10 4
204.003572463989 283.583790063858 2608.99996757507 17 18 12
211.432695388794 284.008234739304 2612.99991607666 18 19 13
220.221057534218 286.171346902847 2632.99989700317 20 21 15
229.808434844017 289.203405380249 2661.00001335144 20 23 16
235.449612140656 287.235736846924 2642.99988746643 13 16 9
240.90014398098 285.159289836884 2624.00007247925 20 25 18
250.50014257431 287.972748279572 2650.00009536743 11 16 9
287.200510501862 288.559824228287 2655.99989891052 203 205 202
293.537497520447 287.676870822906 2648.00000190735 149 150 145
299.943536520004 286.902338266373 2641.00003242493 170 169 164
306.775629520416 286.562085151672 2638.00001144409 174 171 164
313.709408044815 286.330193281174 2635.99991798401 179 176 169
320.874780416489 286.315351724625 2635.99991798401 156 157 152
328.287929296494 286.517411470413 2638.00001144409 162 162 160
335.965305566788 286.936432123184 2641.99995994568 175 177 176
343.663215637207 287.355124950409 2645.99990844727 186 187 189
352.310031652451 288.533717393875 2657.00006484985 186 190 193
-169.47714984417 282.468259334564 2664.99996185303 214 208 196
-160.388350486755 279.296576976776 2634.99999046326 154 135 121
-152.392774820328 277.820378541946 2621.00005149841 166 135 115
-144.750028848648 276.873737573624 2611.99998855591 162 130 107
-137.524619698524 276.668697595596 2609.99989509583 159 127 102
-130.259677767754 276.357382535934 2607.00011253357 155 126 94
-123.246751725674 276.575684547424 2608.99996757507 149 120 90
-116.356007754803 277.111738920212 2614.00008201599 140 112 88
-109.395757317543 277.541428804398 2618.00003051758 138 112 89
-102.686680853367 278.712868690491 2628.99994850159 126 108 88
-96.1352288722992 280.520141124725 2645.99990844727 70 57 38
-88.8857915997505 280.418783426285 2644.99998092651 20 8 0
-81.2091752886772 278.832763433456 2630.00011444092 24 20 8
-73.670357465744 277.458369731903 2617.00010299683 20 20 8
-66.5326714515686 277.461886405945 2617.00010299683 16 18 7
-59.848640114069 279.585540294647 2637.00008392334 15 16 8
-52.5560677051544 279.058247804642 2631.99996948242 15 16 10
-44.9974909424782 276.72815322876 2609.99989509583 15 16 10
-37.8490053117275 276.518195867538 2608.00004005432 18 21 14
-30.6995026767254 276.201844215393 2605.00001907349 16 19 12
-23.7745549529791 278.323799371719 2625 15 18 11
-16.6834369301796 279.491096735001 2635.99991798401 20 23 16
-9.31977480649948 274.402379989624 2588.00005912781 11 14 7
-2.2799544967711 276.841342449188 2611.00006103516 6 9 2
4.84084617346525 276.735216379166 2609.99989509583 7 10 3
11.9057623669505 275.462478399277 2598.00004959106 10 13 6
19.0002024173737 275.56774020195 2598.99997711182 11 14 7
26.0699056088924 275.354534387589 2596.99988365173 15 18 11
33.3200879395008 276.731371879578 2609.99989509583 17 20 13
40.5790954828262 277.683764696121 2618.99995803833 9 12 5
47.7594844996929 277.893602848053 2621.00005149841 7 10 3
54.8249073326588 277.466922998428 2617.00010299683 10 13 6
61.9156435132027 277.251929044724 2615.00000953674 15 18 11
68.9952373504639 277.036547660828 2612.99991607666 10 13 6
75.8888572454453 276.184737682343 2605.00001907349 7 10 3
82.8022658824921 275.5446434021 2598.99997711182 7 10 3
89.8209735751152 275.328278541565 2596.99988365173 15 18 11
97.1269309520721 275.959670543671 2602.9999256134 16 19 12
104.345113039017 276.272654533386 2605.99994659424 10 13 6
111.450962722301 276.267260313034 2605.99994659424 11 14 7
118.783868849277 276.791602373123 2611.00006103516 2 4 0
125.806033611298 276.573479175568 2608.99996757507 9 11 6
133.071541786194 276.885032653809 2611.99998855591 7 9 4
139.762505888939 276.030242443085 2604.00009155273 8 10 5
146.804109215736 275.917142629623 2602.9999256134 13 16 9
154.253572225571 276.545643806458 2608.99996757507 18 21 14
161.920726299286 277.491837739944 2618.00003051758 9 12 5
168.86143386364 277.165710926056 2615.00000953674 15 18 11
175.179451704025 275.885373353958 2602.9999256134 14 17 10
182.481795549393 276.194542646408 2605.99994659424 19 22 15
189.654335379601 276.291459798813 2607.00011253357 9 12 3
196.680635213852 276.176035404205 2605.99994659424 12 13 7
205.186560750008 278.073847293854 2624.00007247925 15 16 10
213.142365217209 279.123395681381 2634.0000629425 21 22 16
221.319139003754 280.384480953217 2645.99990844727 28 29 23
228.351414203644 280.161708593369 2644.00005340576 18 21 14
233.946532011032 278.243362903595 2625.99992752075 14 17 10
238.983765244484 275.795042514801 2602.9999256134 11 14 7
249.188721179962 279.279738664627 2635.99991798401 8 13 6
287.754774093628 281.864792108536 2661.00001335144 209 208 203
293.662160634995 280.580192804337 2648.9999294281 169 166 159
300.184696912766 279.930889606476 2642.99988746643 169 165 156
306.906223297119 279.493182897568 2638.99993896484 192 183 176
313.962042331696 279.372990131378 2638.00001144409 180 171 164
321.37656211853 279.57022190094 2640.00010490417 187 180 174
328.676402568817 279.661267995834 2641.00003242493 185 180 176
336.616545915604 280.281454324722 2647.0000743866 162 162 162
344.328343868256 280.689626932144 2651.00002288818 157 158 160
354.31507229805 282.89732336998 2671.99993133545 158 162 165
-178.737476468086 278.303921222687 2694.9999332428 207 207 195
-169.231027364731 274.801164865494 2661.00001335144 198 192 178
-160.27444601059 271.917462348938 2632.99989700317 162 141 124
-151.993215084076 269.962817430496 2614.00008201599 164 133 112
-144.313767552376 268.937259912491 2604.00009155273 167 135 110
-137.215241789818 268.944084644318 2604.00009155273 166 136 108
-130.216106772423 269.157141447067 2605.99994659424 155 129 96
-123.300060629845 269.57643032074 2609.99989509583 151 125 92
-116.361752152443 269.995480775833 2614.00008201599 144 112 87
-109.275795519352 270.104259252548 2615.00000953674 139 111 87
-102.301150560379 270.522594451904 2618.99995803833 128 106 85
-95.667652785778 271.973520517349 2632.99989700317 93 76 56
-89.2598778009415 274.353891611099 2655.99989891052 41 28 11
-81.8307995796204 273.738294839859 2650.00009536743 25 19 5
-74.0962997078896 271.882742643356 2631.99996948242 23 21 8
-66.6122585535049 270.646631717682 2619.99988555908 21 21 11
-59.3068972229958 269.926637411118 2612.99991607666 18 19 11
-52.6185967028141 272.202014923096 2634.99999046326 12 13 5
-45.8273179829121 274.580419063568 2657.99999237061 11 12 4
-37.7783328294754 268.900752067566 2602.9999256134 18 21 14
-30.6067522615194 268.282651901245 2596.99988365173 20 23 16
-23.757629096508 270.969927310944 2622.99990653992 16 19 12
-16.5576841682196 270.247757434845 2615.9999370575 15 18 11
-9.39226802438498 269.421964883804 2608.00004005432 16 19 12
-2.22418014891446 263.12056183815 2546.99993133545 20 23 16
4.75020240992308 264.56680893898 2561.00010871887 26 29 22
11.7780389264226 265.496164560318 2569.9999332428 25 28 21
18.913421779871 267.25161075592 2586.99989318848 21 24 17
26.0109771043062 267.663717269897 2591.00008010864 16 19 12
33.2962237298489 269.41841840744 2608.00004005432 17 20 13
40.4881499707699 269.933104515076 2612.99991607666 14 17 10
47.452088445425 269.001245498657 2604.00009155273 18 21 14
54.3248280882835 267.862379550934 2592.99993515015 12 15 8
61.3031014800072 267.446339130402 2588.99998664856 13 16 9
68.3913305401802 267.546415328979 2589.99991416931 22 25 18
75.397364795208 267.336279153824 2588.00005912781 16 19 12
82.4240371584892 267.229110002518 2586.99989318848 15 18 11
89.5141437649727 267.328202724457 2588.00005912781 17 20 13
96.3854342699051 266.80713891983 2582.99994468689 17 20 13
103.829741477966 267.835170030594 2592.99993515015 13 16 9
111.542008817196 269.379258155823 2608.00004005432 13 16 9
119.108200073242 270.406514406204 2618.00003051758 11 13 8
126.34265422821 270.607084035873 2619.99988555908 11 13 8
132.670491933823 268.948256969452 2604.00009155273 9 11 6
139.393612742424 268.218666315079 2596.99988365173 11 14 7
146.360084414482 268.005192279816 2595.00002861023 9 12 5
153.315097093582 267.791390419006 2592.99993515015 10 13 6
163.103803992271 272.327780723572 2637.00008392334 22 25 18
169.386267662048 270.873993635178 2622.99990653992 11 14 7
176.130205392838 270.246088504791 2617.00010299683 13 16 9
182.910799980164 269.721150398254 2611.99998855591 19 22 15
189.736247062683 269.299209117889 2608.00004005432 16 19 10
196.010828018188 268.154174089432 2596.99988365173 13 14 8
204.805374145508 270.41620016098 2618.99995803833 17 18 12
214.042723178864 273.090749979019 2644.99998092651 22 23 17
221.664309501648 273.596674203873 2650.00009536743 32 33 27
227.325826883316 271.727740764618 2631.99996948242 22 25 18
234.0467274189 271.200716495514 2627.00009346008 19 22 15
241.014987230301 270.983099937439 2625 21 24 17
250.713050365448 273.758828639984 2651.99995040894 16 21 14
287.876218557358 274.728804826736 2661.99994087219 184 179 173
294.008284807205 273.68351817131 2651.99995040894 78 69 60
300.539195537567 273.05081486702 2645.99990844727 96 86 77
307.036548852921 272.417932748795 2640.00010490417 77 64 55
313.976287841797 272.197544574738 2638.00001144409 120 107 98
321.512848138809 272.492825984955 2641.00003242493 199 188 182
328.940123319626 272.684663534164 2642.99988746643 187 180 174
336.631625890732 273.082554340363 2647.0000743866 194 193 191
344.993144273758 273.995935916901 2655.99989891052 175 175 175
355.656862258911 276.662647724152 2681.99992179871 152 153 155
-177.154183387756 268.554359674454 2671.0000038147 208 206 194
-168.412283062935 266.249924898148 2648.00000190735 162 146 131
-159.551605582237 263.542801141739 2621.00005149841 164 141 125
-151.709735393524 262.343555688858 2608.99996757507 162 131 110
-144.26526427269 261.74721121788 2602.9999256134 168 136 111
-137.274518609047 261.954993009567 2605.00001907349 169 138 110
-130.322322249413 262.263059616089 2608.00004005432 152 126 93
-123.353265225887 262.570768594742 2611.00006103516 150 124 91
-116.411872208118 262.978732585907 2615.00000953674 144 112 87
-109.239302575588 262.883573770523 2614.00008201599 141 111 87
-102.110788226128 262.888610363007 2614.00008201599 128 106 83
-95.1999202370644 263.49675655365 2619.99988555908 106 88 68
-89.3314257264137 267.322927713394 2657.99999237061 53 40 23
-82.2671055793762 267.930507659912 2664.00003433228 23 17 3
-74.6066719293594 266.526222229004 2650.00009536743 22 18 6
-66.8189004063606 264.316916465759 2628.00002098084 20 20 10
-59.0374134480953 261.604368686676 2601.0000705719 19 19 11
-51.9621521234512 261.707603931427 2601.99999809265 16 17 9
-45.0536608695984 262.816339731216 2612.99991607666 15 16 8
-37.1850989758968 257.688701152802 2562.00003623962 14 17 10
-30.3371697664261 258.897304534912 2573.99988174438 17 20 13
-23.4236493706703 260.105580091476 2585.99996566772 14 17 10
-16.4508894085884 261.414110660553 2598.99997711182 14 17 10
4.76712873205543 258.498072624207 2569.9999332428 25 28 21
11.8152787908912 259.302318096161 2578.00006866455 25 28 21
18.9435910433531 260.609149932861 2591.00008010864 20 23 16
26.1427592486143 261.915653944016 2604.00009155273 13 16 9
33.3106182515621 262.417107820511 2608.99996757507 13 16 9
40.2576960623264 261.308938264847 2598.00004959106 9 12 5
47.5637353956699 262.513756752014 2609.99989509583 10 13 6
54.3065220117569 260.700881481171 2592.00000762939 18 21 14
61.1640103161335 259.792923927307 2582.99994468689 24 27 20
68.2098120450974 259.789794683456 2582.99994468689 28 31 24
75.4593014717102 260.490387678146 2589.99991416931 21 24 17
82.5236365199089 260.486572980881 2589.99991416931 20 23 16
89.5530730485916 260.381877422333 2588.99998664856 20 23 16
96.1662009358406 259.170562028885 2576.99990272522 20 23 16
103.474378585815 259.869784116745 2584.00011062622 19 22 15
110.649198293686 260.166347026825 2586.99989318848 20 23 16
118.476964533329 261.870503425598 2604.00009155273 10 12 7
124.323323369026 259.250074625015 2578.00006866455 9 11 6
131.046429276466 258.640646934509 2572.00002670288 6 9 2
137.628972530365 257.829785346985 2563.99989128113 8 11 4
144.280180335045 257.219791412354 2558.00008773804 8 11 4
154.20937538147 262.240409851074 2608.00004005432 12 15 8
161.998197436333 263.338983058929 2618.99995803833 18 21 14
170.556753873825 265.543222427368 2641.00003242493 6 9 2
176.475092768669 263.624727725983 2621.99997901917 13 16 7
183.199599385262 263.013035058975 2615.9999370575 18 21 12
189.308673143387 261.59679889679 2601.99999809265 21 24 15
196.54843211174 261.788874864578 2604.00009155273 14 15 7
204.502195119858 262.885391712189 2615.00000953674 13 14 6
212.676972150803 264.182567596436 2628.00002098084 15 16 8
220.252603292465 264.675199985504 2632.99989700317 22 23 15
227.250054478645 264.463841915131 2631.00004196167 15 18 9
234.235778450966 264.252215623856 2628.99994850159 14 17 8
242.587059736252 265.547960996628 2641.99995994568 18 21 12
252.331852912903 268.250375986099 2668.99991035461 11 14 5
283.49381685257 270.211845636368 2688.99989128113 234 224 215
287.456661462784 267.084032297134 2657.99999237061 171 154 144
294.24324631691 266.669124364853 2654.00004386902 114 96 82
301.007062196732 266.254007816315 2650.00009536743 127 105 92
307.748109102249 265.838652849197 2645.99990844727 132 109 95
314.82344865799 265.724450349808 2644.99998092651 125 102 88
322.622776031494 266.212821006775 2650.00009536743 117 99 87
330.448180437088 266.700834035873 2654.99997138977 106 92 81
338.172554969788 267.088085412979 2658.99991989136 53 48 42
346.437096595764 267.876863479614 2667.00005531311 69 68 64
-176.76442861557 260.695278644562 2664.99996185303 213 203 193
-167.529672384262 257.670670747757 2634.0000629425 153 131 117
-159.193798899651 255.819469690323 2615.00000953674 164 136 122
-151.658669114113 255.141824483871 2608.00004005432 166 131 112
-144.21658217907 254.56166267395 2601.99999809265 167 132 110
-137.122854590416 254.568159580231 2601.99999809265 156 126 98
-130.228504538536 254.965752363205 2605.99994659424 145 118 89
-123.500816524029 255.754351615906 2614.00008201599 140 113 84
-116.550929844379 256.151288747787 2618.00003051758 127 95 70
-109.286248683929 255.863040685654 2615.00000953674 127 97 73
-101.881235837936 255.183041095734 2608.00004005432 130 108 87
-94.9137434363365 255.579024553299 2611.99998855591 122 104 84
-89.066781103611 259.301573038101 2650.00009536743 74 61 44
-82.5798436999321 261.654049158096 2674.00002479553 27 21 7
-74.2442011833191 258.037209510803 2637.00008392334 24 20 8
-66.6695237159729 256.572693586349 2621.99997901917 20 17 8
-59.0629242360592 254.618555307388 2601.99999809265 17 17 9
-51.4653511345387 252.174764871597 2576.99990272522 17 17 9
-44.5212759077549 252.66632437706 2582.00001716614 17 18 10
-37.2594445943832 251.200348138809 2566.99991226196 14 17 10
-30.2207544445992 250.908404588699 2563.99989128113 14 17 10
-23.2707764953375 251.398950815201 2569.00000572205 17 20 13
-16.3377355784178 252.57420539856 2581.00008964539 17 20 13
-2.28116242215037 255.608707666397 2611.99998855591 20 23 16
4.83970157802105 255.315065383911 2608.99996757507 21 24 17
11.8983434513211 254.042506217957 2595.99995613098 20 23 16
18.9591180533171 253.748208284378 2592.99993515015 17 20 13
26.1440090835094 254.823595285416 2604.00009155273 9 12 5
33.2994423806667 255.213648080826 2608.00004005432 8 11 4
40.0581657886505 252.961158752441 2585.00003814697 11 12 6
47.6571246981621 255.894780158997 2615.00000953674 14 15 9
54.6233989298344 255.109548568726 2607.00011253357 11 12 6
61.4037215709686 253.736823797226 2592.99993515015 19 20 14
68.6619952321053 254.418760538101 2599.99990463257 18 19 13
75.6959766149521 254.219681024551 2598.00004959106 19 20 14
82.8780606389046 254.509538412094 2601.0000705719 19 20 14
89.7994562983513 254.016220569611 2595.99995613098 18 19 13
96.4320003986359 252.837687730789 2584.00011062622 19 20 14
103.439204394817 252.735137939453 2582.99994468689 23 24 18
110.269479453564 252.24095582962 2578.00006866455 23 24 18
117.254041135311 252.137780189514 2576.99990272522 19 20 15
123.750433325768 251.055955886841 2565.99998474121 16 17 11
130.594000220299 250.756502151489 2562.99996376038 8 9 3
137.742787599564 251.043826341629 2565.99998474121 10 11 5
145.30223608017 252.015620470047 2575.99997520447 12 13 7
151.673898100853 250.932633876801 2565.00005722046 13 14 8
160.830438137054 254.349380731583 2599.99990463257 6 7 1
169.273033738136 256.396174430847 2621.00005149841 14 15 7
176.415950059891 256.38821721077 2621.00005149841 14 15 7
182.577759027481 255.010545253754 2607.00011253357 18 19 11
188.953593373299 254.023879766464 2596.99988365173 19 20 12
196.708425879478 254.895448684692 2605.99994659424 18 21 12
203.807711601257 254.886329174042 2605.99994659424 15 18 9
211.229965090752 255.268156528473 2609.99989509583 15 18 9
219.509765505791 256.627708673477 2624.00007247925 20 23 14
227.692261338234 257.791191339493 2635.99991798401 15 18 9
233.889997005463 256.705105304718 2625 11 12 4
244.434520602226 260.312676429749 2661.99994087219 30 31 23
254.706859588623 263.430714607239 2694.00000572205 8 9 1
263.109892606735 264.494806528091 2704.99992370605 1 2 0
280.343443155289 259.961277246475 2658.99991989136 206 192 181
287.144929170609 259.557843208313 2654.99997138977 94 75 61
294.034451246262 259.251892566681 2651.99995040894 127 104 88
300.906658172607 258.945733308792 2648.9999294281 133 105 91
307.994186878204 258.834838867188 2648.00000190735 122 93 77
315.313249826431 258.919149637222 2648.9999294281 150 123 106
323.245465755463 259.491920471191 2654.99997138977 128 106 92
331.20921254158 260.064363479614 2661.00001335144 128 110 98
339.840412139893 261.125147342682 2671.99993133545 107 94 85
-175.445809960365 251.536518335342 2644.99998092651 213 199 188
-166.964828968048 249.642178416252 2625 150 124 111
-158.835753798485 248.127847909927 2608.99996757507 161 129 116
-151.491120457649 247.754395008087 2605.00001907349 166 129 111
-144.167751073837 247.380629181862 2601.0000705719 163 127 105
-137.076452374458 247.386991977692 2601.0000705719 150 119 91
-130.234465003014 247.868597507477 2605.99994659424 141 111 83
