ply
format ascii 1.0
comment KinectMotionCapture
element vertex 793
property float x
property float y
property float z
property uchar red
property uchar green
property uchar blue
end_header
68.1025694721766 364.985080836467 2866.88613796311 38 43 37
54.4298444963256 365.72491080352 2866.18390273494 37 42 36
291.9849652664 328.414816265243 2625.88353087099 180 182 179
293.480462969006 329.108414949617 2637.04916334758 166 167 169
295.769374651865 329.800717603758 2648.8440248834 163 164 166
293.538843436017 330.468577951219 2656.62824099923 168 169 173
291.324449634222 331.134168045921 2664.39676796672 186 186 188
288.362543966709 331.794736760526 2671.49141810718 150 150 152
283.881550424657 332.448515811342 2677.26139199522 125 125 127
277.102351123993 333.094750065309 2681.06390533981 118 118 118
263.389712867683 333.723591014091 2679.00046155789 122 122 122
254.264163621027 334.367920582719 2680.88215080078 113 113 113
238.932023919828 335.002204774065 2677.59227274995 114 114 114
221.999143764958 335.63981600015 2673.05730542119 130 130 130
201.121864405925 336.279175411273 2665.35404199954 153 153 153
201.208451668879 336.94923482746 2675.08806598636 104 104 102
202.885559125741 337.616695431193 2686.0772204892 92 92 90
204.598467911224 338.279436317702 2697.03152131563 123 123 123
205.561858077152 338.937451329644 2707.31355653368 165 165 165
204.9830708336 339.591603927058 2716.29374894465 125 125 125
202.061310526768 340.24377994237 2723.3497745858 154 154 152
202.315850511235 340.891575326061 2732.92030965164 128 128 126
201.805542260357 341.536534854511 2741.83386014217 110 110 108
201.319342582184 342.178307692235 2750.7239414551 143 144 139
198.46687070948 342.821011689146 2757.71256261707 173 174 169
198.023127371576 343.457107902031 2766.56132315917 128 129 124
196.802654704678 344.091879098221 2774.76433608431 83 84 79
193.997339471814 344.728078047541 2781.707091449 63 64 59
189.595343096489 345.367210228573 2787.40078478365 45 41 32
183.585077203229 346.010723502268 2791.85704736517 47 43 32
179.188654075405 346.648769789526 2797.54536687729 46 42 30
173.986609299859 347.289061389208 2802.61643942095 67 61 49
172.847158966221 347.912691378179 2810.74098047899 61 55 41
167.656532739118 348.551248644265 2815.800970569 73 70 53
160.834362380119 349.197016238179 2819.6458859399 61 58 43
154.823511478347 349.83948285379 2824.10288413914 65 59 45
148.809664732726 350.48215023664 2828.56282758229 43 39 27
145.25871394254 351.111600600211 2834.82976035624 41 37 26
135.948932249804 351.772786962741 2836.89190371477 38 31 21
109.276400078084 352.540137120854 2826.42236343888 29 30 22
25.5465996626918 357.417046478488 2829.4938228259 30 33 26
70.6802348663516 357.66208338429 2869.65987974228 20 23 16
47.7367694480582 358.452695518609 2862.56910521715 46 49 42
23.8675771034043 359.26035336907 2854.97782470555 46 49 42
6.69187170088525 360.017766481375 2852.08352693058 41 44 37
294.307925485664 321.068733625877 2628.91361063466 184 186 183
292.785067487174 321.760613259946 2637.40845606197 157 159 158
292.79800496435 322.462011742981 2647.21098347442 143 144 146
289.039878883958 323.130082939272 2653.67827407394 138 139 143
286.813490207331 323.808212349089 2661.45685882416 133 133 135
283.076000018708 324.473195570514 2667.90411407943 174 174 176
279.346941683071 325.136806236555 2674.34319924313 183 183 185
271.788180859761 325.774450796017 2677.50385109713 178 178 178
258.831589095938 326.380260665763 2676.11029311488 141 141 141
248.151047038636 327.003897495732 2676.70467726408 123 123 123
232.030058772065 327.601058929831 2672.78671490958 115 115 115
206.550605635552 328.156910814078 2661.16368886729 156 156 156
198.07196371638 328.807121313677 2663.81902968963 155 155 153
200.488288146216 329.507863113959 2675.48612118208 104 104 102
203.725391846025 330.206748526918 2687.75535041705 129 129 127
205.439839997183 330.893944321392 2698.70450820589 123 123 121
206.40500443496 331.573659023717 2708.981912183 151 151 149
206.614892691564 332.246661117583 2718.59306153393 170 171 166
204.485729328276 332.909128282078 2726.27741498376 102 102 100
203.163846980889 333.571337533208 2734.5770738882 74 75 70
202.655172860566 334.23269077819 2743.48657867878 16 17 12
202.170565065048 334.890833174053 2752.37265981516 31 32 26
197.72625091537 335.539074187839 2758.10702904381 17 18 12
198.079109133542 336.193110849424 2767.57934803402 15 16 10
203.263586505837 336.848580738964 2780.75504185558 12 13 5
202.078869855333 337.492629988635 2788.92151507761 64 64 54
196.891633018771 338.132072024577 2793.97800868411 61 57 45
188.479283433101 338.770711521153 2796.5692304285 99 93 81
180.052267717888 339.410949298881 2799.17477963108 73 67 53
175.662365710307 340.05107771002 2804.85631583739 47 39 26
173.714110023484 340.688718905084 2812.36469455763 53 46 30
170.968079943533 341.324977286459 2819.24857010505 40 35 16
162.521300886841 341.966925210456 2821.873491839 47 41 25
158.150367184368 342.604043192664 2827.53663717802 63 56 40
150.503960509898 343.246559919726 2830.78360255362 61 55 41
146.956950299739 343.881367870896 2837.04616826623 44 38 26
136.003057524813 344.53306848881 2837.90818374529 42 34 23
125.848706835961 345.185575261671 2839.39303228184 30 30 22
38.7613085353529 350.524884701284 2848.56411210856 20 21 15
46.1041683915777 351.110194040457 2862.44136423494 37 38 32
13.7789037680744 351.905778227185 2849.07876627901 33 34 28
5.05202763552459 352.580058912416 2851.9770497819 36 39 32
-18.9736369360807 353.347913542994 2844.54703140326 35 44 39
288.33747871977 313.63512701842 2624.60474827507 175 177 174
289.066568137079 314.370047776779 2635.10841880636 199 201 200
289.82718930235 315.100696908859 2645.5810713483 197 199 198
283.781636184263 315.749602199158 2650.07157772802 164 165 167
280.017976117523 316.423766689984 2656.54346307152 168 169 171
276.262537903579 317.096583394989 2663.00704535381 106 108 107
274.046831201916 317.783892107658 2670.77366604803 124 126 125
268.009547003426 318.430664045965 2675.25627657684 160 162 161
255.812728710903 319.018337450689 2674.52784218541 137 139 136
240.49567799258 319.581386838256 2671.23350902441 101 103 100
221.26172793322 320.115739378045 2664.74807176246 137 139 136
201.958205175386 320.658418691446 2658.33015268307 147 149 146
200.463604582382 321.357573256725 2666.79620069935 115 117 112
203.664548357344 322.091179757513 2679.09620551262 120 122 117
206.127882217399 322.81319464338 2690.71347179317 99 101 96
207.064740875852 323.51859104888 2701.01518808307 115 117 112
209.603502860009 324.230802177068 2712.55900211246 80 82 77
211.394982680557 324.932596804349 2723.42950861374 13 16 9
206.121376540806 325.584784581344 2728.56988440012 17 19 14
200.057506653255 326.231898953739 2733.07850645758 17 20 13
197.162105144539 326.897248552932 2740.1064103726 18 21 14
210.970192108919 327.650581403591 2760.29162214881 26 29 20
210.530927559378 328.319445123206 2769.13109216467 17 20 11
206.920984788331 328.969955866522 2775.45382997474 19 22 13
210.525259885427 329.651227082616 2787.36105595502 17 20 9
207.752569749728 330.300355110899 2794.26950320372 41 43 30
199.360678773504 330.926243352113 2796.84229387647 43 41 26
190.147529582572 331.550906564936 2798.8135399958 37 34 17
182.532688162981 332.182868965917 2802.03072053147 68 65 48
178.148643520142 332.825400757467 2807.70642291143 90 84 68
173.76913115533 333.46718257258 2813.3773976765 81 75 59
167.765992968567 334.104475349027 2817.82750172688 92 89 72
161.759734645206 334.74190914646 2822.2803454342 65 62 45
155.75062616395 335.379586018227 2826.73632130615 74 68 54
153.83868935369 336.02327777279 2834.20774057502 58 55 40
149.477335690238 336.662064473446 2839.86146399981 35 32 17
141.824964951547 337.297298562961 2843.11542814999 43 37 23
132.510004947042 337.932850675268 2845.18616453765 31 32 24
132.282559525972 338.572829381492 2853.81956422005 27 30 23
147.014527300768 339.209220625524 2873.10463261244 22 25 18
120.256411942703 339.847264714626 2862.73918908627 23 26 19
116.739839951192 340.483336248183 2868.97134244088 23 26 19
109.054143706592 341.121901757047 2872.25790692875 22 25 18
58.6456957100352 341.811729650939 2845.69377607296 26 29 22
41.6060805783096 342.478275389124 2842.67776880551 32 35 28
51.4366735005685 343.104657491366 2858.32932263859 29 32 25
41.9420296873936 343.76122521788 2860.57538160587 26 29 22
32.4291447757541 344.419946806925 2862.83957375564 49 52 45
10.1901578466075 345.113416738315 2856.48050856957 37 40 33
28.6315347996942 345.700672885452 2877.7573160715 46 51 44
22.5022521330551 346.351111385303 2882.33074052299 50 55 49
259.879480818758 305.038026278666 2590.36929736884 151 153 148
281.613879144571 306.145363525051 2619.63550627624 179 181 178
284.592477940649 306.939757326454 2632.14731860392 158 160 159
285.341005280296 307.693793769835 2642.62852385909 151 152 154
280.043319205942 308.353012343195 2647.79177222787 150 151 155
275.508007094647 309.022987376045 2653.61362934106 157 158 160
271.740654897938 309.702967035225 2660.08798370287 136 138 137
267.981880105542 310.381631205293 2666.5543528461 122 124 123
261.928823266961 311.027929586994 2671.05269583115 117 119 118
250.485904052902 311.603632219291 2670.99430710277 118 120 117
235.926909031857 312.14336775122 2668.36790636565 114 116 113
215.907942059687 312.62121327989 2661.25310705466 128 130 127
201.243088506963 313.173569889338 2658.72962217263 156 158 153
202.07810487147 313.914257514879 2669.12725333902 103 105 100
206.841083982248 314.69523515421 2682.70328901654 14 17 10
210.092923859635 315.452352072021 2694.94927841835 10 13 6
210.255901359679 316.170084242164 2704.60039975827 13 15 10
213.587081073983 316.916889526534 2716.76912758408 20 22 17
214.600952982892 317.634248231855 2726.99260055512 21 24 17
218.013449447156 318.37050740369 2739.08213835697 18 21 14
212.769624554523 319.019161914381 2744.19346313993 15 18 11
212.283692090446 319.710788692725 2753.07591071467 27 30 23
216.590685247603 320.441074443579 2765.69533010611 23 26 17
212.180944372836 321.091192900116 2771.39509007646 21 24 13
208.574522989193 321.747022215089 2777.71320717222 29 32 21
211.381942358998 322.451622385313 2788.99170318443 27 30 19
209.41344865125 323.11507810653 2796.51636318293 37 39 26
200.220782841119 323.72427437515 2798.46955500992 36 35 17
191.009727391736 324.335613747814 2800.4410291127 39 36 17
184.205097991626 324.964914311344 2804.27095987202 63 60 43
179.824598969039 325.610108022424 2809.94241012612 80 77 60
173.824392728243 326.244893560535 2814.38997327954 84 81 64
169.449466549276 326.889045655375 2820.05604356797 91 88 71
160.182616758882 327.506386836796 2822.08203521144 61 58 41
155.805610335778 328.150462108711 2827.75018256744 75 72 57
151.433366910961 328.793818991359 2833.41370637335 66 63 48
147.887972290273 329.440069615035 2839.67297655973 47 44 29
139.407822091769 330.064745106658 2842.33358918878 45 42 27
128.435496983866 330.681648536752 2843.21905125613 25 26 18
126.542467602387 331.333659551497 2850.67046558569 26 29 22
138.77112022013 332.028946887936 2868.18159232294 35 38 31
126.964040378406 332.643424229917 2868.47942743796 37 40 33
120.128327989254 333.274638358003 2872.33994124088 39 42 35
100.752887443263 333.877258961742 2867.40182545145 40 43 36
111.461407883324 334.549599851379 2883.5920387522 45 48 41
41.6614192983609 335.070608145415 2843.71766662199 33 36 29
68.318384400424 335.770869971702 2870.98967815642 28 31 24
48.7432929914124 336.39759830017 2866.24625551416 32 35 28
44.3170474081525 337.046023432566 2871.9626551766 34 37 30
47.5198565745525 337.698565401155 2882.85587961334 22 25 18
43.1208199229136 338.343503150859 2888.54611368009 34 39 32
68.5117086102274 338.989673592747 2914.24919601597 34 39 32
259.942367787651 297.533804248322 2591.41597041793 156 158 153
277.906191763645 298.665039046184 2617.33766107378 182 184 181
278.607235905721 299.447132288702 2627.86220890541 163 164 166
277.824181648719 300.196425851095 2637.03084184529 156 157 159
274.026349703166 300.886397171378 2643.53432412712 150 151 155
270.236895791023 301.575076432121 2650.02967786375 152 153 155
268.746578942256 302.303055734664 2658.4868739331 137 139 138
264.979769588163 302.988423280653 2664.96023075884 126 128 127
258.151133471783 303.620219552781 2668.81363167766 123 125 124
247.46805626127 304.188614306641 2669.41903586819 107 109 106
235.215451147141 304.734907120104 2668.7521146486 89 91 88
219.835051455018 305.235931913153 2665.52985516304 150 152 149
201.303495085682 305.694515911949 2659.7750384586 114 116 111
205.247187992974 306.504552733748 2672.74343319526 14 17 10
211.575804932143 307.343295919966 2687.59004827765 2 5 0
216.401280168261 308.151761483357 2701.09996167567 26 29 22
211.881037695593 308.820131592944 2706.9070916219 39 42 35
205.010127834104 309.455045811352 2710.80201016343 34 37 30
202.067181424113 310.143858715653 2717.87365900201 14 17 10
207.02610253767 310.934867390941 2731.25363879148 16 19 12
209.663731953368 311.688836544393 2742.69310418193 19 22 13
209.962531614351 312.407947642332 2752.20914830329 26 29 20
214.263251970306 313.171781362558 2764.82983830383 24 27 18
208.254042756014 313.806815631836 2769.28596693868 24 27 18
203.839277008544 314.46047347242 2774.99053140448 33 36 25
216.241590728501 315.301440581286 2793.72458801103 36 39 28
203.851687085195 315.861269755338 2793.19234343437 27 29 16
193.840966850185 316.450617443867 2794.54389969209 26 24 9
186.227093584717 317.067229094199 2797.76238767065 35 32 17
183.452616564183 317.733005205883 2804.67014874294 38 35 20
177.449350205445 318.366007711814 2809.12067632811 41 38 23
172.255391350456 319.006768915599 2814.18365002585 54 50 38
165.434079080429 319.632675481189 2818.03098659502 53 50 35
160.23806123988 320.273357182068 2823.09601664635 46 42 30
152.588696113042 320.893352222178 2826.34924850438 44 40 28
149.848623278623 321.553936091558 2833.22361312243 36 32 20
146.299054440428 322.206475440168 2839.48576105571 33 29 17
139.462846908452 322.833493195459 2843.34772460684 33 29 18
128.490541408797 323.43195165314 2844.23589336178 27 28 20
122.458418826537 324.067176692717 2848.71474711397 28 31 24
157.908622964118 324.971156978817 2882.81218666166 32 35 28
148.641115848221 325.574428508206 2884.84091052751 33 36 29
124.350696853002 326.09172689008 2876.29391999172 39 42 35
137.570212315501 326.829305883629 2894.23210174775 41 44 37
93.9291812364456 327.25580050707 2872.32269662018 45 48 41
43.3957552485809 327.670547906086 2845.92298969228 42 45 38
45.6575431674144 328.359107378171 2856.32842944969 37 40 33
54.7011893647733 329.072757580723 2871.33162550897 33 36 29
38.4557082516368 329.674200699389 2868.95356287806 57 60 53
51.810387497512 330.394548501693 2886.76007176165 81 84 77
69.4962962755814 331.119237760462 2907.34984845765 60 65 58
60.0556332427504 331.742818192936 2909.54717921972 50 55 48
272.036177883853 290.311947260001 2603.14626381545 160 162 159
277.968372717731 291.244037323355 2618.37273528091 173 175 174
277.157346360071 292.013576580099 2627.56649046746 158 159 163
274.854603901028 292.745956256839 2635.41287748657 159 160 164
271.048769685525 293.442582655535 2641.92332252307 146 147 151
267.251093008578 294.137928345069 2648.42551844945 144 145 147
264.225573113144 294.848192862007 2655.57599344075 135 137 136
257.384648594097 295.476704543072 2659.44242022819 125 127 126
250.536395413321 296.105814085553 2663.31569827943 118 120 119
236.756040872097 296.595933550384 2661.34033858619 94 96 93
226.790414853455 297.16743407596 2662.64975342333 75 77 74
212.935491012709 297.666320270969 2660.74714642796 38 40 35
205.240728078556 298.28855926527 2664.04512732431 9 11 6
211.525284378915 299.173840329509 2678.92861699432 14 17 10
213.973114106707 299.980012301712 2690.5488407268 8 11 4
214.898400210734 300.752912697235 2700.85207167407 29 32 25
210.373902402909 301.424824965287 2706.66256585955 27 30 23
205.854062242873 302.095928929728 2712.46855439884 29 32 25
192.68224869239 302.619454267882 2711.30087645014 14 17 10
192.883846499925 303.370278916661 2720.90875619992 14 17 10
204.976466801326 304.310363998035 2739.93603119814 19 22 13
202.884845713502 305.012369208665 2747.57726090751 27 30 21
199.220235475462 305.687344365117 2753.95066849086 23 26 17
190.784065737879 306.288239311231 2756.5711226263 23 26 17
215.875656436279 307.390595961623 2785.33814464466 30 33 24
207.491636411616 307.984651248079 2787.90782424297 34 37 28
198.29030114346 308.568890960537 2789.87331353804 25 27 14
185.048181856045 309.099348224875 2788.77442568976 34 35 21
181.444932487651 309.765644367501 2795.08818377693 33 31 18
179.466949803108 310.452085306401 2802.61886926451 24 22 9
172.643809320406 311.073563809957 2806.46867574154 19 17 4
166.625748216124 311.705969480137 2810.9339829398 25 23 11
160.604880009608 312.338553827974 2815.40238906559 29 27 14
159.477722952047 313.029833972039 2823.50472405537 35 33 21
151.826365749233 313.642414197536 2826.76102998066 42 40 28
146.624245754666 314.283968367334 2831.83199061061 49 47 35
140.600962310271 314.916236317307 2836.30250402479 41 39 27
132.927096447739 315.531197108604 2839.58080953533 33 30 21
121.113596471072 316.104586459392 2839.89109272641 29 30 22
120.030663985233 316.78955428316 2847.95044502089 29 32 25
117.925475193713 318.151662123307 2864.00971637053 42 45 38
143.577080368816 319.071764726634 2890.83066348583 51 54 47
145.143577139479 319.760747503729 2900.50922790766 52 55 48
94.8214807200083 320.004455243212 2873.9252850233 46 49 42
61.9178213455278 320.4181308689 2859.77657820615 41 44 37
11.219738905571 320.707938601958 2833.55884359732 35 38 31
15.1243571014579 321.439315249394 2845.16075672174 24 27 20
30.0594741566145 322.245386309824 2864.21901627287 36 39 32
39.1586497964744 322.998370899229 2879.16125716967 62 65 58
65.3053816249294 323.8568067732 2905.49965051454 53 58 51
85.6395528103073 324.659328300251 2927.69956355345 55 60 53
43.8279888065543 325.066956585424 2908.22732480731 54 59 53
276.610304591616 282.971703001875 2608.19076702065 176 178 177
278.030709617084 283.822234604197 2619.40777301899 188 189 191
276.463610104481 284.588347744616 2627.93591708599 151 152 156
274.916349314672 285.351751803613 2636.44442356705 146 147 151
269.590807907593 286.015204352391 2641.63470691328 142 143 147
265.027441991386 286.697485921749 2647.48226512675 140 141 143
259.705029768575 287.360086978723 2652.66956699686 133 135 134
253.61779025246 288.003588886477 2657.20226720365 123 125 124
243.689751498645 288.554989560787 2658.47732808041 109 111 108
231.430883942278 289.054264582829 2657.82391260958 90 92 89
219.908747810941 289.57558929215 2657.85222448437 87 89 86
207.58292384198 290.082699099125 2657.26380190125 16 18 13
215.380071619965 291.048844530199 2673.46780847509 17 20 13
225.575622626635 292.058154517215 2691.53451343857 1 4 0
218.70800910615 292.68320342502 2695.42761675336 18 21 14
214.176721452882 293.359214946432 2701.24424748787 17 20 13
208.084100836698 294.001360802839 2705.78249163037 14 17 10
202.77327616641 294.659994889574 2710.958873206 17 20 13
191.167714901235 295.189936622229 2711.06909172165 11 14 7
186.631758303992 295.865666948025 2716.89040034714 18 21 12
198.708186515077 296.867558205304 2735.92461940461 15 18 9
203.735892470705 297.720599081252 2749.22712649691 14 17 8
194.509798157839 298.29553238452 2751.2185773726 16 19 10
198.011825312324 299.110107922106 2763.2076347509 18 21 12
218.328444552486 300.225824701535 2788.21250564479 24 27 18
215.554082206512 300.909291746819 2795.11753813129 22 25 16
188.717279092545 301.167296977263 2783.46949296957 19 21 10
177.86527539475 301.715724162646 2784.24559485706 27 27 17
171.825058826796 302.349035878611 2788.7327688451 20 20 8
170.632017863624 303.062980645077 2796.8971777058 15 15 5
163.787263653469 303.682125621238 2800.76845398603 18 18 8
161.809051207958 304.379506462355 2808.29808855888 23 23 13
154.962174101884 304.998594734733 2812.17148128694 27 27 17
155.45330314133 305.730374143906 2821.49466712147 22 22 12
146.974197737105 306.324313101665 2824.15878510064 30 30 22
142.580227996578 306.979726006209 2829.84210158445 35 35 27
138.191085164695 307.634397722361 2835.52073442394 36 36 28
132.982926387962 308.27686059867 2840.59755734743 37 37 29
119.517812450194 308.806638352396 2839.72020691479 43 44 38
96.0823500751102 309.208784319658 2831.75849845293 41 44 37
84.7166926539149 310.496852748292 2841.43714117652 38 41 34
107.601671437861 312.197174948861 2875.1414767179 33 36 29
90.6896075179762 312.698963972028 2872.02282234008 40 43 36
87.1540327916707 313.36044368678 2878.27009037317 35 38 31
67.6426817826092 313.843331317656 2873.48463216379 38 41 34
8.43514890445451 313.906410835297 2841.58031126093 44 47 40
29.2704442598417 314.841708959649 2864.67988558567 40 43 36
39.2142976593579 315.649928353766 2880.19209461821 54 57 50
56.0210728737229 316.516466118755 2900.21698947396 42 47 40
273.665726449882 275.432002065606 2606.56116603703 177 179 178
274.324194826113 276.28524238585 2617.11747672651 195 196 198
273.502592313953 277.088988351382 2626.31634061221 145 146 150
271.947433321709 277.867144287367 2634.83084764606 136 137 141
268.133321924455 278.576121428819 2641.34768661201 143 144 148
262.804283346815 279.24002959372 2646.54137536044 137 138 140
256.712187766873 279.881930650189 2651.07879647352 119 121 120
249.085880622279 280.481225021871 2654.31219096408 117 119 118
238.378715858592 280.996960337932 2654.9492974929 113 115 112
225.336706377396 281.452995838091 2653.66269715312 82 84 81
209.171046434533 281.830793289355 2649.82151633441 71 73 70
178.258691787461 281.826639987922 2633.75716941901 26 28 23
225.519100081824 283.878590566885 2682.88053623278 17 20 13
232.630385106403 284.859359863412 2698.34586825704 20 23 16
222.663843096559 285.39830883866 2699.6613416339 22 25 18
218.923119309406 286.095659106216 2706.10668622304 19 22 15
215.191153085962 286.791730141531 2712.54386133391 18 21 14
216.177459847622 287.600514172053 2722.78085643853 26 29 22
204.605021711904 288.105080914815 2722.8619336094 20 23 16
206.413021881969 288.927905057027 2733.69814704995 20 23 14
213.792343124288 289.87399959699 2748.90244006156 14 17 8
211.721837170788 290.595752767792 2756.52012123251 15 18 9
214.4357810759 291.421994225042 2767.87312339189 17 20 11
214.00271379406 292.172955661914 2776.69396758057 15 18 9
215.989758547062 292.972677670107 2787.35580158881 16 19 10
206.004531903613 293.511754362812 2788.68947236447 13 16 7
197.601826375108 294.087128125081 2791.28046806543 16 19 10
178.727057758432 294.448486251982 2785.88083613761 18 19 11
170.26974325341 295.03027259283 2788.52511158321 20 20 10
165.839236455979 295.69424248532 2794.24344518556 21 21 11
162.223894664378 296.373296631476 2800.56732560038 28 28 18
163.490151601588 297.144901491698 2810.53182110739 28 28 18
157.461331635175 297.77394768558 2815.00864638591 23 23 13
153.877586175029 298.448633610442 2821.30145895572 31 31 23
144.576627951552 299.017792446246 2823.3684421071 35 35 27
134.437145180934 299.574413830155 2824.85269839967 28 28 20
134.137977583464 300.306771950356 2833.54366562644 31 31 23
126.448541779085 300.908348943127 2836.83941043897 36 36 28
120.399980537531 301.539014048226 2841.33559982117 24 27 20
111.03748912728 302.115073367664 2843.46232860619 25 28 21
99.9974310917064 302.666362310223 2844.42474826459 25 28 21
90.5943574339765 303.247215042533 2846.59140519893 26 29 22
112.012654904071 304.311010348688 2870.50962945379 36 39 32
84.264435783604 304.606768081312 2859.76105405639 41 44 37
89.9080142433091 305.415824900023 2872.45849147233 41 44 37
80.4950801061031 305.997537405075 2874.63481293452 42 45 38
54.5176561184331 308.504625084994 2891.55810091667 55 60 53
63.7175572246731 309.3377727884 2906.38847186312 51 56 49
9.82343004969666 310.077574608824 2887.52901378794 61 66 60
53.2512045823408 311.320966468351 2924.99073118858 48 53 47
270.721522740442 267.869875256548 2604.93450777082 162 162 162
271.37166331791 268.745952705236 2615.49537492797 156 156 158
271.297997581793 269.592542621568 2625.36277922301 138 137 142
268.221065054317 270.335041448356 2632.55920565904 146 145 150
262.877630246543 271.001221495217 2637.76685429365 165 164 169
257.534792832959 271.667090355743 2642.9739557002 161 161 163
250.665573632772 272.283984558131 2646.87019658256 147 147 145
241.492528339067 272.829143894052 2648.81336957739 115 115 113
231.53326548125 273.352534501056 2650.12357632672 100 100 98
220.012619128135 273.831304002631 2650.15703631283 87 88 83
206.918794432026 274.266819684792 2648.92492206757 33 34 29
170.588210001797 274.012388130235 2628.35890753149 11 12 7
231.913439626379 277.48188796978 2698.73128352337 14 15 7
225.840458460094 278.117282721549 2703.25102321211 21 22 14
222.888524466021 278.841622221675 2710.32634603919 18 19 11
229.345094022569 279.827490143501 2725.02415730936 27 30 21
222.516691033645 280.436939029683 2728.88096750505 30 33 24
216.467954231439 281.068509095092 2733.37685962684 26 29 20
207.260947537859 281.615430592057 2735.35383418915 27 30 21
213.060246122255 282.562979174039 2749.29307951489 21 24 15
223.671244984307 283.627931505595 2766.9390147023 22 25 16
233.566167476505 284.662434860473 2783.88361533827 21 24 15
220.433655144337 285.100174136689 2782.68958984129 21 24 15
209.658790675623 285.602522415029 2783.39590177632 21 24 17
210.064692790325 286.384761536901 2792.79626128351 22 25 18
206.486429823942 287.065701589926 2799.08304314055 25 28 21
195.677028407344 287.571782922341 2799.82276118962 24 25 17
173.552763967831 287.814305156367 2791.99951543045 25 26 18
165.896763096099 288.40521005812 2795.263636191 29 30 22
165.522139566515 289.164387948081 2804.02556832354 30 31 23
170.856753879194 290.048763630496 2817.01867960964 33 34 26
170.544036537778 290.80000458193 2825.72031105824 33 34 26
162.911063551618 291.38747573337 2828.9620722948 30 31 25
153.631273184512 291.940902725173 2831.01002276957 30 31 25
142.693289242873 292.46175089601 2831.87558047652 31 32 26
139.125859816421 293.139909957353 2838.15201549762 32 33 27
133.095538878048 293.766180484772 2842.63040366379 34 35 29
130.365340471769 294.459293920954 2849.49015497295 29 32 25
122.681588957152 295.052267238139 2852.78152682122 29 32 25
124.113104143842 295.824357605238 2862.58218452781 30 33 26
125.576276341301 296.592411172203 2872.35166515004 30 33 26
107.901234617008 296.995438583715 2868.58868445822 34 37 30
122.750698066746 298.008157857037 2887.70145679011 36 39 32
92.4761519301649 298.187567867748 2875.22769181302 43 46 39
85.5868844759731 298.80044222707 2879.14409719704 44 47 40
84.579552381542 299.517246052037 2887.12367183821 41 44 37
61.4977677435733 300.586575202657 2888.63084983797 38 41 34
54.573637003025 301.203477782312 2892.5816174535 53 58 51
49.340545415649 301.848700538196 2897.68279111753 56 61 54
44.1083048444924 302.49374229893 2902.78314646089 39 44 37
0.498751134478503 302.539809562668 2882.31562015588 60 65 59
266.912216405074 261.127727066473 2612.54784830923 171 171 171
267.582025221261 262.022996064887 2623.08634811191 144 143 148
262.222248888921 262.691707971188 2628.30984991427 129 128 133
259.141933483808 263.442802150219 2635.50870305048 112 111 116
252.26597012309 264.055576733274 2639.41191201989 116 116 116
246.909952257075 264.723121941464 2644.6318540471 115 115 113
236.196301672982 265.202642475214 2645.28075362047 99 99 97
227.758253853624 265.765002179966 2647.90876821072 98 98 96
216.99722261311 266.249979821073 2648.60391091825 106 107 102
206.20959945055 266.738029694557 2649.32500572287 86 87 82
188.436057910435 266.996485259284 2644.26395730036 25 26 20
214.09932011261 269.540076399641 2685.00348462186 13 14 6
223.563448022968 270.681282058932 2702.36010009191 22 23 15
234.664188930723 271.862784721881 2720.91939741787 26 27 19
231.753697008146 272.590214394942 2727.95311092912 26 29 18
223.361116047241 273.145087957159 2730.5370827054 29 32 23
221.248695217812 273.89491491121 2738.19189883286 24 27 18
210.475586290814 274.379395454298 2738.89910833248 24 27 18
213.909884478289 275.293203359472 2750.94075507564 18 21 12
220.558791976801 276.295175151405 2765.44552962319 19 22 13
238.392032453471 277.614387203919 2788.63529003267 20 23 14
214.91537807688 277.725644044358 2779.34023196343 20 23 16
196.14143426221 277.984010329585 2773.85570166597 21 24 17
213.324273692952 279.261617552714 2796.28022194465 21 24 17
221.790047818155 280.280926638915 2811.81207726459 22 25 18
214.23526068497 280.851907228286 2814.97863609122 17 20 11
193.768696542239 281.076049395961 2808.34614247524 19 22 13
178.88681912816 281.459679221246 2806.06310324076 20 23 14
174.491864173322 282.125329481449 2811.74588498025 21 24 15
176.598937552416 282.958510287167 2822.28358359277 22 25 18
174.671334900623 283.683136228633 2829.75859723638 22 25 18
172.760165802067 284.405616748562 2837.21760921106 23 26 19
162.685995303811 284.922811677859 2838.64317450645 23 26 19
158.328503346906 285.583149443645 2844.28954011954 25 27 22
145.757396980812 286.044462550904 2843.95145531493 27 29 24
138.918970885709 286.646993084207 2847.81924113276 29 31 26
130.422002286232 287.211530759652 2850.50510518357 34 37 30
126.876610036292 287.892440012222 2856.75925048556 34 37 30
129.147062042521 288.704316720093 2867.13786044251 35 38 31
120.643187636531 289.269371169218 2869.83050568235 35 38 31
117.959150975119 289.9649503041 2876.64405326727 41 44 37
101.921171448373 290.368340421546 2874.08921064073 44 47 40
84.9963935858597 290.759855337454 2870.99981770277 42 45 38
77.2503671326921 291.352305826792 2874.35310675933 48 51 44
86.3180441021854 292.294777252197 2889.29862022984 47 50 43
72.6874058000986 292.764502009981 2888.59451374444 45 48 41
58.1738168300734 293.221881248767 2887.35210566931 42 45 38
48.7008351581646 293.784686696594 2889.59084967593 32 37 30
45.151968107163 294.46504457091 2895.84818915821 55 60 53
15.2340403115923 294.640714234086 2884.43775903617 52 57 50
-1.14982325275559 295.086145856441 2882.220170656 29 34 28
61.0275522418742 297.718759083885 2940.53409445194 44 46 41
261.075085521755 252.522126196869 2598.36078063956 159 160 155
261.699156929273 253.445230205694 2608.94058436279 164 164 162
262.35516851346 254.364117703352 2619.48963205893 158 158 160
259.254557983275 255.126335627421 2626.7069944697 148 148 150
256.925781141553 255.917059493494 2634.57061076997 118 118 120
250.04384872294 256.525426798824 2638.48039849583 129 129 129
243.918366557421 257.164270561329 2643.05176269063 114 114 112
233.19691471386 257.626081449798 2643.71102650782 109 109 107
224.751033434242 258.178917493364 2646.34822743287 97 98 93
218.598115493354 258.820510641076 2650.94609155827 90 91 86
223.240199510594 259.865547991226 2664.60314994089 156 157 152
203.963309466018 260.018625718794 2658.21670496977 8 9 3
190.818446444314 260.406648601045 2657.04229195139 21 22 14
209.497686659231 261.950373575828 2682.19259783819 24 25 17
222.845048590504 263.283958800311 2702.7498931776 31 32 24
224.570906997174 264.191761562592 2713.65477695854 15 16 8
217.720145689378 264.794092822866 2717.53484127739 24 27 16
217.926493597941 265.641057005775 2727.12379472547 26 29 18
217.374021432904 266.457506118584 2736.05386852038 21 24 13
206.59123928001 266.924645687363 2736.77324666474 22 25 16
199.735683254595 267.526798356729 2740.65776076272 18 21 12
205.556287906567 268.547937147407 2754.56497224769 20 23 14
195.539389867712 269.044023110242 2755.93644719828 22 25 16
178.330927901273 269.311792388303 2751.73013700266 24 27 20
193.804487162554 270.62868698047 2773.01237246599 28 31 24
211.781355950857 272.008353621221 2796.05057267706 29 32 25
233.883726114986 273.498420914413 2822.06065629819 25 28 21
222.336142056228 273.934647921682 2822.12681574431 27 30 21
207.533378039113 274.276639690697 2819.77170766565 28 31 22
191.068291526995 274.575735928615 2816.23949386151 29 32 23
178.600561438071 275.001195877707 2815.80405396661 30 33 24
168.535164923584 275.501906881136 2817.22300504146 30 33 26
159.261307452267 276.028787075569 2819.26898766807 30 33 26
155.681183092595 276.720576175561 2825.55601443175 27 30 23
162.743014691994 277.710340507977 2839.65255350016 27 30 23
155.105953415028 278.282759283243 2842.90059920455 29 31 26
150.745415276281 278.946488478802 2848.5494884694 31 33 28
139.799713459153 279.431173992001 2849.42805496582 32 34 29
134.607588752902 280.073384583749 2854.48899310784 30 33 26
123.622965308262 280.562667200196 2855.40552990589 30 33 26
119.248698167514 281.227684888404 2861.06786183403 29 32 25
119.86831471223 282.020014333619 2870.25450840755 28 31 24
127.183763829017 282.97751130402 2884.10397063405 32 35 28
112.002581575354 283.364538660875 2882.11764337613 34 37 30
87.5653074862726 283.53030633239 2873.76843820494 35 38 31
77.3073051792839 284.05330815845 2875.37535510513 41 44 37
77.1214635632793 284.820648192536 2883.94861764544 42 45 38
65.1559839003277 285.306345484055 2884.42277975974 44 47 40
51.4701895556757 285.756325401209 2883.77636231878 43 46 39
41.1346829192554 286.288611386668 2885.45886996912 30 35 28
35.8705029452842 286.938667344467 2890.59020051548 56 61 54
17.8440178504871 287.30442944351 2887.18137824078 42 47 40
59.4571604702927 288.986471878176 2923.54606311519 23 28 22
67.9489260486608 289.921940318468 2937.64759083104 44 46 41
261.890906092423 245.048925444627 2600.07210387805 159 160 155
258.748017318291 245.825230083851 2607.32936719969 162 162 160
259.395878273653 246.767037274611 2617.88312107011 151 151 151
256.287251466079 247.538609866765 2625.10706114698 151 151 153
254.709942655714 248.374367959187 2633.6347118621 148 148 150
248.583704880797 249.011080905063 2638.20714132197 142 142 142
244.744467504687 249.745440376466 2644.74484141708 119 119 117
237.086654509511 250.317349887739 2648.01356915341 96 96 94
230.952588872516 250.954401002919 2652.59372181477 95 96 91
225.584570405099 251.623473819804 2657.82535483667 102 103 98
210.984639546008 252.804337124248 2665.06388649511 26 27 21
194.756582075368 253.039363203802 2661.30543104828 20 21 13
204.119552779983 254.296723173432 2678.74532956267 18 19 11
216.673362794636 255.666795017919 2698.66799381992 21 22 14
218.383538399321 256.601240262552 2709.5848509498 19 20 12
213.865782422409 257.290612436316 2715.38606983108 30 33 22
217.201841815091 258.277367591616 2727.51482541999 31 34 23
205.631288239085 258.696662003601 2727.60629656647 25 28 17
201.129544548048 259.38351433928 2733.39198744214 25 28 19
188.725365316095 259.77874789199 2732.89824589699 20 23 14
175.4942608395 260.149205163381 2731.81206810782 21 24 15
185.268808529294 261.353763593233 2748.85073079423 25 28 19
185.559700594495 262.208543331038 2758.35491335137 26 29 22
197.855895309796 263.481493383581 2777.13050080785 28 31 24
227.047912977295 265.329146456181 2808.8008060173 27 30 23
229.126722675234 266.215984366095 2819.35864038646 27 30 23
221.589316125459 266.769456704083 2822.51052774874 21 27 17
200.334445640201 266.862395002792 2815.26297869902 22 28 18
192.742408182196 267.422356395233 2818.46815628135 23 29 19
180.278659226298 267.823402600112 2818.03237140324 23 29 19
164.532471925056 268.122827435578 2815.20314080656 23 28 21
137.340212955813 268.061525763229 2803.95526198452 22 27 20
137.787368649207 268.895454391362 2813.30701639177 27 32 25
143.170161862743 269.880077151936 2826.23746884273 28 33 26
154.343306329305 271.036562246045 2843.3116566325 32 37 30
133.544905770882 271.199017891695 2837.01779872377 35 40 33
137.38574877077 272.120233603674 2848.65464558775 37 42 36
142.095972143927 273.060681804739 2860.84258949551 39 42 35
132.7839979841 273.578406343739 2862.92777575914 39 42 35
107.692203853407 273.637059811569 2853.82744077966 36 39 32
118.262464095337 274.740585367045 2870.09121959571 33 36 29
128.073760878848 275.810973369072 2885.69631090173 30 33 26
122.083830438976 276.424974282049 2890.13674199146 30 33 26
126.975818578219 277.342359019863 2902.14726172731 25 28 21
79.8822990327484 276.822992678697 2878.13805140868 23 26 19
72.1314376806634 277.400765015602 2881.49831101586 19 22 15
52.566377285352 277.663408328278 2876.79873903505 24 27 20
38.8517859182205 278.090497337971 2876.18430072924 27 30 23
36.9570493182136 278.831899182584 2883.62419842642 18 23 16
29.9854775860506 279.439922308764 2887.62338802727 37 42 35
19.6034748939202 279.962163019894 2889.35355163543 22 27 20
-5.29814686152541 280.123239768742 2881.46614387758 34 39 33
-45.6727787192222 279.914157132543 2863.49197850894 29 34 28
253.536095247533 238.073627496821 2603.73152543139 159 156 151
255.68117960076 239.111397826977 2615.61814966005 164 160 157
256.350706697208 240.072188926744 2626.14758291862 174 169 166
254.013649386539 240.886099471843 2634.01599486593 174 169 166
247.88515138286 241.520633702666 2638.59065293751 161 153 151
240.990184523171 242.120208428412 2642.51502143747 151 143 140
233.322547281879 242.685513588088 2645.79448091571 133 128 124
227.178607586805 243.321421247708 2650.38460766494 68 65 60
184.74231257261 245.091294714819 2654.0032972559 22 23 15
196.410652484714 246.504076468252 2673.38202459102 18 19 11
197.259002570801 247.440451828554 2683.73749261302 24 25 17
222.349309833209 249.395790038284 2713.79662811805 14 15 7
220.190170379463 250.185297459129 2721.49230961642 28 31 20
214.122661091942 250.81004969987 2726.00785076515 28 31 20
211.199525833066 251.564076048793 2733.05018831917 22 25 14
205.133823766184 252.188292578614 2737.56435189092 23 26 15
188.785839442071 252.399372200361 2733.92886270043 18 21 12
185.859306984293 253.15336981178 2740.97457797057 20 23 14
180.561437929615 253.811697435906 2746.13813972342 23 26 19
191.195196432102 255.091183874177 2763.72976620415 23 26 19
217.877163182323 256.97727970022 2793.63584146251 24 27 20
231.108259022663 258.323856688142 2812.88942341226 25 28 21
220.358541695915 258.7487340483 2813.58221403144 25 28 21
203.952173281604 258.966007573682 2810.00344780735 24 30 20
193.136196604951 259.398839938135 2810.76085919433 24 30 20
186.335013727022 259.982906151159 2814.59439096542 24 30 20
184.38760691421 260.743980023643 2822.08368344539 23 29 19
171.087563310456 261.094926326145 2821.06884694128 22 28 18
149.609401769033 261.161482588144 2814.04692846469 21 27 17
140.293862961987 261.667273054005 2816.13741832651 23 28 21
160.404396633677 263.198328761878 2839.86863900644 23 28 21
154.401068349178 263.812513276682 2844.32200937567 26 31 24
143.464184059994 264.259364363687 2845.19741184816 28 33 26
138.267160457124 264.903224493658 2850.26297086592 31 36 29
149.584132226397 266.096020839986 2867.18896923071 34 37 30
138.6345596631 266.5441324148 2868.07678504741 36 39 32
119.363504414566 266.725588282762 2863.09726107852 36 39 32
94.2071420071162 266.727854969448 2854.06937729398 34 37 30
125.6304385565 268.543257832929 2884.94566547391 30 33 26
111.281247606086 268.893183687619 2883.5558892983 29 32 25
93.5410691438996 269.144128903045 2879.87973019028 29 32 25
89.1714431738331 269.814519053715 2885.53699716171 26 29 22
73.8713962180855 270.152225689672 2883.67599389111 22 25 18
55.9966135615007 270.419579698723 2880.13107352542 26 29 22
57.5004566846964 271.270327078398 2889.84828304975 30 33 26
27.6985147795323 271.198683887856 2878.35922995572 26 31 24
24.9499641229414 271.927369334929 2885.23194779306 36 41 34
13.7057198381672 272.411022061855 2886.40712401848 34 39 32
6.69899293419007 273.018389290454 2890.44098232402 36 41 35
-26.8100885493983 272.886738623998 2876.97406759882 29 34 28
68.0604362506014 277.090235723359 2956.43730522599 33 35 30
258.767657459613 231.777842251066 2619.30510294396 102 89 81
257.171894949908 232.643717489282 2627.84696499632 92 78 69
253.317414438492 233.391718654356 2634.39778551375 116 97 90
244.902555643289 233.909699929139 2637.00933217279 116 92 88
237.999706319139 234.505123334668 2640.94214163979 50 29 24
228.793368564524 234.988301948764 2642.92753526407 40 23 16
218.800893777655 235.436227304773 2644.28187568106 30 20 11
194.938917193495 235.21782148567 2634.00126293944 150 148 136
182.552339398216 235.564632317767 2633.49686192244 182 182 170
181.729060272411 236.465771977427 2642.68333380681 21 24 13
191.006434241961 237.837413066062 2660.191340445 18 21 10
202.689725475325 239.308119100141 2679.5466597137 23 26 15
223.028519365745 241.163367335786 2705.83711774354 22 25 14
212.258040467167 241.573965748878 2706.55229749062 20 22 11
239.82355417215 243.7256173298 2738.37590501451 27 28 20
236.159385537362 244.44762342309 2744.74192292737 23 24 16
226.209283408961 244.88857064729 2746.05521803295 24 25 17
223.33539117699 245.644806930212 2753.04832990603 22 23 15
209.404420620446 245.916358019487 2751.25483845297 21 22 14
195.431277786539 246.192988014811 2749.50213619267 22 23 15
192.540361876996 246.950883909967 2756.51190753927 22 25 16
215.150585253721 248.787852058954 2783.38366077756 20 23 14
212.346894497677 249.534619157702 2790.30846108856 23 26 17
231.166555583026 251.178552168047 2813.88760695361 26 29 20
207.579321873058 251.056139188101 2804.73689209449 27 30 23
198.380730330602 251.535127468029 2806.71521294514 29 32 25
187.551210828512 251.951165651507 2807.48855473059 30 33 26
188.009806789943 252.822881063891 2816.82336391236 28 31 24
185.256058893609 253.562644445695 2823.69960537168 27 30 23
183.326811151316 254.332603671422 2831.16955237486 27 30 23
164.320146909266 254.436708623048 2825.93891665977 25 28 21
177.070011638391 255.771924166369 2844.2551381157 29 32 25
174.366437215068 256.505008571717 2851.08254372442 31 34 27
168.396182818665 257.112902423947 2855.50433883303 31 34 27
157.492186079629 257.537207534537 2856.35007792553 30 33 26
143.267404510965 257.843056119923 2854.84327599588 31 34 27
143.036712407842 258.666704492502 2863.45275338508 30 35 28
137.86470718843 259.307734986257 2868.49388699721 30 35 28
122.7393911022 259.592425901438 2866.46720909056 30 35 28
112.557282165024 260.059274789417 2868.00706213235 29 34 27
98.1859720903571 260.38284376869 2866.64314610878 27 30 21
92.9615687864462 261.030008122956 2871.7354052115 25 28 19
81.8772215214478 261.475974806208 2872.75737131337 27 30 21
78.3195871681128 262.181395728344 2879.02005039094 29 32 23
70.5648678692685 262.744469947919 2882.38631337161 25 28 19
73.7593856606313 263.672807680855 2893.2470087728 22 23 15
55.0234161431193 263.874403533067 2889.15006939983 26 27 19
43.0018863237773 264.303640964776 2889.68789704862 31 32 26
23.3106173392459 264.491014327551 2885.12477692833 34 36 31
18.8691556628759 265.173114107614 2890.85164713994 41 43 38
17.8432063625733 265.961802211526 2898.83874663472 32 34 29
27.9485886341888 267.093227154306 2914.14312331247 33 35 30
27.8448631474704 267.90001261519 2922.62867546366 33 35 30
43.2193392852871 269.173308411103 2941.18192718092 29 31 28
48.3614941063344 270.124802709769 2952.9389863254 72 74 71
258.076201762192 224.257400846562 2619.68633731063 137 119 109
256.478219271837 225.13735465401 2628.22832303021 131 111 100
252.621603453871 225.891315500159 2634.78038310035 118 91 80
243.443367021234 226.358142222852 2636.7406263409 103 72 67
232.719383921503 226.745942010602 2637.41334254124 66 39 32
218.907211715426 226.975433542314 2635.50776111226 56 36 27
203.518337903039 227.129787463115 2632.34515435691 43 26 18
187.310305237018 227.250353227296 2628.58406900969 88 84 72
176.44678904942 227.654844103257 2629.39287669342 107 108 94
181.019701203692 228.850215302623 2643.09640448126 23 27 13
193.394904932092 230.430456855496 2663.16536442992 20 26 12
226.063521563999 233.010660694747 2699.77721638105 22 25 14
227.763944899137 234.02051644733 2710.69227417663 19 22 11
247.461842042197 235.909313278121 2736.19728436536 18 20 9
242.232876735378 236.560767781409 2741.29343952226 23 24 16
250.346633815755 237.856835612384 2757.13394814986 19 20 12
231.777160783311 237.862984812919 2751.48365291799 21 22 14
231.282884694499 238.738363604379 2760.34722736814 24 25 17
216.580707015782 238.940934412577 2757.91250408365 25 26 18
199.751784072973 239.950305038891 2763.13873857956 20 23 14
197.687179676826 240.749328277754 2770.73880109251 20 23 14
241.948408847458 243.647963562657 2814.21312589209 23 26 17
206.413228092467 242.916812192489 2795.76154136427 23 26 17
196.405838331881 243.347941146433 2797.13351291351 20 23 14
181.550227552291 243.568616289591 2794.84847515354 22 25 18
175.517274489259 244.182866373296 2799.33159151673 26 29 22
183.219707922357 245.392845702961 2814.17602728975 26 29 22
182.884435501858 246.247000179037 2822.8848456913 27 30 23
180.137243140351 246.994384415906 2829.75345104858 30 33 26
182.286469462498 247.945938286913 2840.23179567816 29 32 25
164.889417501459 248.075375322073 2836.23286573814 32 35 28
185.056618775347 249.767746373326 2859.88397231409 33 36 29
180.751043945941 250.437431258999 2865.47740195186 32 35 28
170.69808995954 250.873034773526 2866.89362027081 31 34 27
152.386049921971 250.980277955458 2862.38965794089 30 33 26
143.094751522113 251.456507749623 2864.46078361639 26 31 24
131.30212380705 251.837060166079 2864.77850371583 25 30 23
131.092518105667 252.67457627629 2873.36499235082 25 30 23
115.941407704066 252.930485864089 2871.36852029025 26 31 24
108.244853390507 253.479077492855 2874.6791651013 26 29 20
118.91446045471 254.725446918397 2890.8231787926 24 27 18
102.029354680859 254.92561734119 2887.72233367467 28 31 22
81.7346182185856 255.007578211465 2882.3571362833 33 36 27
78.1931319050653 255.716829110539 2888.60287620771 26 29 20
74.660529495076 256.42491753009 2894.84030394055 22 23 15
66.9115351183707 256.979589342615 2898.20212386099 24 26 15
44.7542948883335 257.021762659838 2891.85814434942 29 30 24
34.40456552371 257.493069330389 2893.56378809522 30 31 26
24.8834110538136 257.996860882609 2895.85909063037 37 39 34
27.2817156825358 258.91589236338 2906.09456577254 32 34 29
9.2043074357222 259.128137639545 2902.75933850195 31 33 28
45.8914036835196 261.204947331037 2935.45518222565 33 35 30
3.78486971037528 260.609978692607 2916.42403640703 34 36 33
45.8373421490599 262.832853980981 2952.27218757523 79 84 80
258.140512129452 216.775215879614 2620.72833983576 140 122 112
256.542276211457 217.668985598833 2629.268535227 142 120 109
251.166607201716 218.34107205486 2634.50731993598 128 100 89
241.984285455255 218.795129363812 2636.47316942532 121 92 86
229.729612001618 219.078151238794 2635.84721342718 73 46 39
215.144690306654 219.23608880301 2633.30298783341 50 30 21
201.280673702814 219.442440082908 2631.45230877692 46 29 21
189.682394382594 219.781643158256 2631.58348730384 23 17 5
179.595879358173 220.209153090154 2633.03422845765 19 17 4
179.537373535022 221.186524756066 2642.86691140754 19 23 9
222.910890792093 224.503882888084 2688.57776952387 16 19 8
233.118658956123 226.00122664794 2706.56021149099 17 19 8
236.394495112828 227.116371540088 2718.72979369645 21 23 12
220.191023425237 227.197840934569 2714.9699576566 25 25 15
248.55667074535 229.616011341956 2747.37653862408 23 24 16
232.356521077786 229.696721167978 2743.61317819112 18 19 11
249.146346412272 231.480604070271 2766.35347779491 19 20 12
218.724112148683 230.841513648903 2751.31318684015 20 21 13
222.175701740722 231.933822182119 2763.3112806481 21 22 14
222.500749196223 232.861899065919 2772.7707131116 27 30 21
210.935675140449 233.194938930089 2772.86949139798 26 29 20
215.269941885707 234.315329617527 2785.40417037399 24 27 18
198.892907917264 234.417146105812 2781.81367695317 22 25 16
200.070027500142 235.376924109736 2791.83887526226 23 26 17
194.860820296829 236.024914804497 2796.91592227968 24 27 18
182.414244744003 236.328738280757 2796.47745343528 20 23 16
178.801747851883 237.054402452422 2802.79161988144 22 25 18
177.622104935122 237.892083171879 2810.92409832219 21 24 17
178.893252388505 238.839596391197 2820.85807613769 20 23 16
