ply
format ascii 1.0
comment KinectMotionCapture
element vertex 757
property float x
property float y
property float z
property uchar red
property uchar green
property uchar blue
end_header
131.027492807216 618.653786727981 2782.59858154232 172 173 175
116.532678798562 616.650832834043 2785.66741700572 180 181 183
99.0633748539516 614.096669697941 2791.51733576911 183 184 186
83.1655911798839 611.824565023449 2796.03783853784 185 186 188
74.8352475788754 610.940499774276 2793.69992108297 184 185 187
68.0149744994547 610.333713616716 2789.98772271355 177 178 180
61.1980345671759 609.727088351994 2786.2782359056 176 177 179
50.6621417313946 608.431346106141 2786.04449340415 182 183 185
42.3784808547882 607.550524983929 2783.7404336846 141 141 141
31.8866189905811 606.257971761399 2783.53892080416 141 141 141
25.8478226049377 605.791404813545 2779.15890517634 167 167 167
19.0721813507313 605.187438148447 2775.47937012781 209 209 209
15.2342361923967 605.131709169283 2768.99147513384 186 186 186
10.6508236125578 604.937871591549 2763.19751197888 166 166 166
5.32834981942187 604.606484619839 2758.10242196948 158 158 158
-0.726301579436317 604.138035800942 2753.71090317216 156 156 156
-6.78197820397086 603.669324695886 2749.31863983835 166 166 166
-11.393527857801 603.472699878936 2743.50426540006 167 167 167
-13.1335644915869 603.819170642412 2734.83382192349 158 158 158
-17.0554068108988 603.755838516056 2728.28506957564 142 142 140
-20.275603355693 603.826796098982 2721.01059879825 151 151 149
-22.8006877479228 604.031693326393 2713.00567145618 181 181 179
-22.5026291060562 604.77581701137 2702.10929656586 182 182 180
-24.3731569017003 605.111148969213 2693.344200841 167 167 165
-28.3924302264498 605.039206919052 2686.72477506706 121 121 119
-33.8357548028747 604.696386731212 2681.54201983427 121 121 119
-44.905999462024 603.275855230779 2682.15561331647 104 104 102
-61.5503341546733 600.781723367851 2688.60416844358 137 137 135
-76.7326794385255 598.561024875621 2693.64327367501 146 146 144
-87.6824465633064 597.149158496872 2694.34454226056 151 151 149
-95.8265732033246 596.275130545906 2692.14166829568 154 154 156
-106.033275301113 595.00047037435 2692.14666997033 155 155 157
-114.146120833576 594.128349231894 2689.96648200625 191 191 191
-120.184833198512 593.657218688791 2685.58650417132 183 183 183
-124.854429770555 593.452197665943 2679.73030223182 175 175 175
-129.533601902926 593.246211326097 2673.86685939775 181 183 182
-135.583797256239 592.773284247554 2669.47854819968 188 190 189
-140.277885564063 592.565492092993 2663.60428316488 188 190 189
-141.600684037176 593.019508260685 2654.00181264476 193 195 192
-136.889142454132 594.662187343116 2637.66357172869 193 195 192
358.375663839389 642.3566106516 2727.67576029326 202 208 206
355.780112208861 642.544149202873 2719.61966182119 196 200 199
344.511980231364 641.208145697425 2718.85489960793 172 176 175
329.347948828655 639.183119903817 2721.43849330206 131 133 132
307.19348720439 635.919628257509 2730.06422048855 132 132 132
271.089238359918 630.181463694602 2750.7970462204 127 125 126
240.594005646949 625.419926979032 2766.95536337948 148 146 147
221.865412946342 622.731654747245 2773.12704866631 145 145 145
204.752697816946 620.32343800801 2778.0011688899 137 137 137
184.616445560196 617.371221108937 2785.62114805016 181 183 182
167.633513536283 614.973050656485 2790.58969618008 180 182 181
156.844425235881 613.674282178603 2790.17268603142 186 187 189
149.138724351431 612.924172811582 2787.05293281905 184 185 187
140.67854167162 612.038132514592 2784.62088224105 178 179 181
134.510763701373 611.561982905262 2780.14731657188 172 173 175
122.279161784832 609.996386448716 2781.1533192402 179 180 182
102.524943270728 607.073485946819 2789.05068578386 181 182 184
82.8489748888823 604.156585628944 2797.00451343343 184 185 187
73.7689184227999 603.144772354222 2795.35779716029 183 184 186
68.4511294875523 602.811663516339 2790.26580010574 180 181 183
63.1277684276044 602.477964273052 2785.17005518557 170 171 173
53.3309417652759 601.3329361791 2784.23809877042 176 177 179
45.0402961562815 600.459365297082 2781.92871791618 136 136 136
33.8004789262847 599.04748094445 2782.41972289944 144 144 144
25.5429336038704 598.176243450275 2780.13464344543 149 149 149
19.5052244786997 597.709256760215 2775.75541386985 191 191 191
14.9340688898367 597.510676729186 2769.97031204777 195 195 195
11.8159424481243 597.579418089213 2762.76982284078 169 169 169
5.76217087292497 597.110801570584 2758.37894099698 160 160 160
0.434552402428068 596.775731426327 2753.27980836815 155 155 155
-4.89861246948387 596.440043088632 2748.17694638031 161 161 161
-8.06904999095948 596.504128461103 2740.93851217173 171 171 171
-10.537532486268 596.699889509443 2732.97427599912 176 176 176
-15.1840540226502 596.494318197309 2727.1347988581 142 142 140
-19.1241446494426 596.420815029425 2720.57276640438 137 137 135
-23.0784283033545 596.345982836614 2714.00043839064 158 158 156
-24.2003165554525 596.800174014628 2704.54361286383 191 191 189
-23.9350066522479 597.516552284167 2693.62335717797 184 184 182
-26.5395250603064 597.700526595239 2685.56074044393 118 118 116
-29.1669602910478 597.882544413997 2677.48120642901 125 125 123
-39.5488146404099 596.611628459645 2677.35954994079 92 92 90
-55.5103803266885 594.288572376329 2683.06859431796 127 127 125
-72.8081026232141 591.706896569624 2690.2780880289 139 139 137
-84.4661870898069 590.181518193885 2691.70004944866 151 151 149
-93.3139687969002 589.183353925029 2690.22178324021 155 155 157
-102.836611222283 588.055299869853 2689.48838032963 156 156 158
-112.338236237664 586.928570482858 2688.77051457483 193 193 193
-117.006715143226 586.718133214085 2682.91480094424 184 184 184
-122.370213783559 586.376104154868 2677.78991724332 175 175 175
-128.421951444237 585.903082004136 2673.40048751217 180 182 181
-135.155279091059 585.299515792087 2669.751334052 188 190 189
-139.849267153297 585.085996352279 2663.87711267754 190 192 191
-141.847674027155 585.39066613985 2655.01945384689 193 195 192
-139.828262865906 586.470936761537 2641.66722241924 191 193 190
360.195056335326 635.092597842309 2716.60663336132 199 203 202
349.701348312804 633.907215544534 2715.16928837398 167 171 170
334.522717338683 631.910749084411 2717.74214870886 136 138 137
311.56992569368 628.564968657539 2727.0237692464 124 124 122
278.568379636739 623.469412621046 2745.06891886597 120 119 117
248.826537822126 618.925328512174 2760.53915549953 155 154 152
228.522418095323 616.008890739173 2768.03762517661 141 141 141
211.389845605998 613.637013013353 2772.8978289175 139 139 139
188.148455695026 610.194198064093 2783.20478354327 182 183 185
171.923699128296 607.967357260836 2787.48848595459 175 176 178
161.88947494284 606.817764426608 2786.3844118873 183 184 186
154.934859371409 606.20562133187 2782.57479864447 186 187 189
145.696492953623 605.192354023955 2780.81301826685 177 178 180
136.474645402927 604.180335312775 2779.06321909291 173 174 176
125.753397544924 602.902685674978 2778.69549489982 178 179 181
105.987477211976 600.027677764172 2786.58462113069 182 183 185
84.7926005266251 596.892526210981 2795.90662198583 175 176 178
74.956161631738 595.757930187818 2794.9457081814 182 183 185
69.6361465298918 595.421455069878 2789.85237475732 184 185 187
64.3106942846199 595.084479738868 2784.75509729826 163 164 166
55.2557785469148 594.084908977543 2783.12637360937 182 183 185
46.2174812683989 593.086535137209 2781.50970305885 156 156 156
37.1957559540692 592.089324579344 2779.90505177109 134 134 134
28.1905573116106 591.09331386505 2778.31268157493 147 147 147
22.8824161664871 590.75716300159 2773.22766300087 152 152 152
17.5686995956168 590.42048120912 2768.13889446946 213 213 213
15.9078889761055 590.740212345875 2759.52574817993 206 206 206
9.84296909560634 590.270304355388 2755.12677815014 171 171 171
3.77704476114715 589.800195505298 2750.72707895285 165 165 165
-2.28985665346171 589.329828269373 2746.32667014053 155 155 155
-6.18914743533594 589.251415569352 2739.79418949736 169 169 169
-7.94080632736671 589.563309032342 2731.11514565691 172 172 172
-11.8752978538099 589.481816062557 2724.55742611763 166 164 165
-15.1075168498207 589.529236044244 2717.27382630917 154 152 153
-19.7866797144632 589.314896679436 2711.41064236077 139 137 138
-21.6282031967712 589.619091901709 2702.66641476792 176 174 175
-23.4970924592113 589.920980574877 2693.90233745391 183 181 182
-25.3934886373157 590.220491521571 2685.11830774606 118 117 115
-25.9069024890644 590.776332086103 2674.86805654253 106 105 103
-34.1897433023812 589.908183343168 2672.56465549247 103 102 100
-49.4683280733397 587.750734133831 2677.53460951295 106 105 103
-69.5807355939249 584.695627446681 2687.64172080969 137 136 134
-82.6419265728697 582.933717685732 2690.5157100322 140 139 137
-92.8831846173319 581.688798962866 2690.49610648697 164 164 164
-102.406803903692 580.573988641845 2689.76206251115 151 151 151
-111.909455576099 579.460528826877 2689.04351972375 192 192 192
-117.26527374769 579.116393269315 2683.92389861168 174 174 174
-123.31190303101 578.643695338397 2679.53817369453 177 177 177
-129.359432224621 578.17065565754 2675.15179468218 188 188 188
-136.769781400396 577.442332653808 2672.24655305579 190 190 190
-140.778391302549 577.350792203096 2665.6347581547 191 191 191
-142.77152121702 577.639150856596 2656.78054760839 192 192 192
-142.768989629975 578.305922583538 2645.66954704626 195 195 195
-140.118835778949 579.476214571488 2631.54026827893 192 194 191
366.188937350583 627.879226501733 2712.26934311868 193 197 196
358.039332958839 627.104607299056 2708.82796511037 167 171 170
342.052699258017 625.003202224952 2712.04959211946 132 134 133
322.988401263527 622.375497784987 2717.97822426225 130 130 128
284.489990154241 616.442830496258 2740.68018432138 120 119 117
257.83998551865 612.507774094669 2753.45410908365 148 147 145
234.405858253046 609.109756625752 2763.62186567292 139 139 139
214.935262156908 606.378678958195 2770.49047667442 136 136 136
190.138720191581 602.73114640506 2782.13969366482 182 183 185
173.907450435097 600.538877452222 2786.41884963912 173 174 176
163.868296951773 599.402197802305 2785.31097314941 182 183 185
155.379515924136 598.529523471691 2782.85825872001 186 187 189
145.377789222668 597.395647191616 2781.77782237984 179 180 182
135.39724369956 596.263446592922 2780.71245473853 175 176 178
125.437513101211 595.132733490292 2779.66247829186 176 177 179
107.939130546188 592.69818166117 2785.49192320485 183 184 186
86.736631239142 589.616719718622 2794.8086702073 168 169 171
74.6400575225463 588.104341159775 2795.91312173557 173 174 176
68.5729845779024 587.63488605714 2791.51259319761 192 193 195
63.2522749588307 587.295148023069 2786.41844529883 160 161 163
54.945983351272 586.436062494358 2784.09809017452 174 175 177
48.1374793815399 585.836901559707 2780.39475658416 175 175 175
40.5919532140096 585.108580343817 2777.39122780366 134 134 134
32.3157275221866 584.251512282878 2775.09267832218 148 148 148
24.05168925061 583.395312051268 2772.80296815745 138 138 138
19.4700109047385 583.184169771789 2767.01017453398 206 206 206
16.3419674480303 583.229434965139 2759.80237735977 219 219 219
13.1953431192167 583.273135156813 2752.58110258779 184 184 184
7.12057981419711 582.801951788641 2748.17499038946 165 165 165
2.49523416105557 582.586823891669 2742.3505212151 164 164 164
-2.86300328834788 582.242801423077 2737.22944136676 152 152 152
-5.34355002049147 582.409426283202 2729.25660646788 148 148 148
-10.00269809958 582.191201549861 2723.40761750749 159 157 158
-12.5224523129663 582.354430705022 2715.4060485918 164 162 163
-16.4937709206365 582.261072016017 2708.82127773618 165 163 164
-19.0553699612215 582.420682656624 2700.78965076077 142 140 141
-22.3497416369405 582.4513382768 2693.46120471061 154 152 153
-24.2474714102214 582.733923303436 2684.67612251803 165 164 162
-24.0565626056601 583.394029705664 2673.70164685986 133 132 130
-28.1253362915308 583.292059142692 2667.04618511742 110 109 107
-41.3209007156794 581.547134123894 2669.82285019289 108 107 105
-62.8584662682885 578.292065161869 2681.36618890491 132 131 129
-78.7274171146353 576.051759248692 2687.14279090197 146 145 143
-89.6751210342512 574.696298456198 2687.84554637737 151 151 151
-101.285136374012 573.217242682979 2689.30288324315 141 141 141
-109.410991784783 572.367785889921 2687.11337894004 181 181 181
-116.836724346947 571.644240427288 2684.19671529073 176 176 176
-121.512628638438 571.421293086691 2678.33584995046 174 174 174
-130.297934629188 570.448014635875 2676.90270529663 187 187 187
-137.704382335212 569.725205406625 2674.00031985729 190 190 190
-140.350464928931 569.874615925213 2665.9071028086 189 189 189
-140.989586627487 570.395001118392 2655.56554371574 187 187 187
-141.664741503598 570.912307504421 2645.1975533317 192 192 192
-141.031630990198 571.674573403582 2633.30911995811 192 194 193
367.450286981559 619.844770930232 2711.90798965408 202 206 205
356.150860528872 618.554246737171 2711.1210662466 198 202 201
343.307597890012 617.005683422715 2711.68374928005 126 128 127
327.368540243898 614.940314942485 2714.94034219599 124 124 122
297.436088529877 610.544636719186 2730.27315335072 122 121 119
266.078359673282 605.900075900617 2747.04156330687 135 134 132
238.739296436621 601.913021796587 2760.55133698861 144 144 144
218.481358212343 599.097737530993 2768.08379698489 136 136 136
193.672489359315 595.514495994109 2779.72410912097 185 186 188
178.969001532426 593.614214439806 2782.64219253586 173 174 176
166.614455317713 592.103659394924 2783.55934905428 180 181 183
157.353786093982 591.10970474967 2781.78149871911 185 186 188
148.109590445025 590.117035262253 2780.01589141647 182 183 185
137.361141282442 588.869313829624 2779.62830553242 177 178 180
126.63798292804 587.623472361441 2779.25935749437 174 175 177
108.378757611186 585.101374605861 2785.77213892096 184 185 187
90.9427178053965 582.71215092451 2791.64730149635 171 172 174
76.578782106874 580.837872925641 2794.81137073161 161 162 164
70.5072547356092 580.367638758066 2790.4076091386 185 186 188
61.4453913138022 579.388684339332 2788.77395335108 175 176 178
54.6354072274782 578.791793251338 2785.06955828983 157 158 160
48.5719350138138 578.321942794194 2780.67163799605 186 186 186
43.9890728044645 578.105118561851 2774.87795738446 152 152 152
37.1807343664865 577.508111456088 2771.17446022415 142 142 142
26.6938222478843 576.279735740872 2770.97686059165 142 142 142
19.9032195193398 575.683836834383 2767.28622603885 192 192 192
16.0438782805681 575.591872480814 2760.78263703024 211 211 211
13.6297098403948 575.750193389182 2752.85787911065 201 201 201
9.01000281888686 575.529757006089 2747.03747061217 160 160 160
5.10578073154866 575.433887956092 2740.50132674058 159 159 159
-0.98208834011726 574.960955820788 2736.08570503446 167 167 167
-3.46633520978168 575.113211260031 2728.11011504299 150 150 150
-7.4110262279361 575.013675440517 2721.54461580688 146 144 145
-7.78729437538361 575.536565272884 2711.39361754929 155 153 154
-11.7713809531523 575.433628870336 2704.79954240665 162 160 161
-13.6332924805385 575.702596409445 2696.04035664966 151 149 150
-19.0724580444124 575.348015025427 2690.86055680105 147 145 146
-21.685916470606 575.489075603424 2682.79094741354 154 153 151
-22.2060170422664 575.999835454844 2672.53562052135 132 131 129
-24.1688841016492 576.260086775636 2663.70320579535 123 122 120
-35.2738281630738 574.911872084245 2664.29201123922 123 122 120
-55.4347468697609 571.961838040828 2674.36448795552 134 133 131
-73.4182801265004 569.387971493804 2682.31189885011 138 137 135
-85.0773428317129 567.926928060982 2683.73377147001 147 147 147
-98.7787251474495 566.099812199268 2687.37837867757 147 147 147
-106.221845262937 565.380305196465 2684.4494253524 191 191 191
-116.408362857093 564.17111646134 2684.46939083023 171 171 171
-121.769764333914 563.820056748217 2679.34598166586 173 173 173
-129.870297906592 562.979671204727 2677.17487965124 183 183 183
-135.914648125298 562.505992899062 2672.79080191087 189 189 189
-139.2437648653 562.519166674913 2665.43707987313 189 189 189
-140.5608318788 562.895621732111 2655.83837134808 186 186 186
-139.885781413685 563.633743336285 2643.98021884492 191 191 191
-137.910854983501 564.610608155368 2630.59521571559 192 194 193
367.922545265293 611.67658879118 2712.2089663096 198 202 201
356.622239083742 610.40191505702 2711.42148545359 166 170 169
346.132251610846 609.256583315891 2709.98674595902 119 121 120
335.663261741675 608.112933101305 2708.56753106978 123 123 121
313.508702661909 605.066423096796 2717.19428666349 119 118 116
278.988944078074 599.99791019364 2736.60906185926 126 125 123
246.954334151039 595.321475722811 2754.12195594197 143 143 143
222.802333433093 591.920783910536 2765.00433382858 133 133 133
199.522146465072 588.654176900186 2775.28405616767 190 191 193
181.723697379856 586.277743287117 2780.89656530643 171 172 174
165.524852271214 584.158270203308 2785.19959532536 175 176 178
156.267936811208 583.175104694345 2783.42452082273 179 180 182
149.316311806283 582.570074407593 2779.61711153315 183 184 186
142.36797015245 581.965230851551 2775.8123778377 180 181 183
131.630825380205 580.734287183544 2775.43307173014 174 175 177
113.355913687887 578.25432253835 2781.93469518091 184 185 187
95.1502567191915 575.779579963321 2788.48654930961 182 183 185
80.0215027642981 573.809219204011 2792.33102989689 162 163 165
73.9411878690448 573.337854942286 2787.92089231606 149 150 152
63.374773006962 572.119856502185 2787.66571201109 189 190 192
55.8151003705123 571.400695072668 2784.6519745495 189 190 192
50.4924938800184 571.054271781471 2779.55671218303 168 168 168
48.1282301570412 571.203003580244 2771.6677882102 175 175 175
42.0473141277942 570.731142541347 2767.25721233823 140 140 140
30.0730767957909 569.270525136529 2768.45061030293 148 148 148
21.070523493659 568.306053996995 2766.86002304757 166 166 166
15.0129346569887 567.835634642236 2762.46636485775 198 198 198
14.7936495428644 568.349375614666 2752.42912061041 216 216 216
11.627481192154 568.368689898732 2745.19325996342 177 177 177
8.44251981820365 568.386432352892 2737.94406236821 158 158 158
1.6222678109461 567.789814709372 2734.232225257 173 173 173
-2.31006086310148 567.682766883934 2727.67564969817 184 184 184
-5.53754185647004 567.696666081553 2720.39531477956 151 149 150
-5.20036851629224 568.319074406028 2709.52697293352 139 137 138
-7.04729560648576 568.5724977115 2700.77857098023 149 147 148
-8.92156935561772 568.823705632618 2692.0103336289 151 149 150
-14.3739236486276 568.464949136065 2686.82095184132 147 145 146
-16.9999924357536 568.59097820953 2678.74212479651 134 133 131
-19.6492529596828 568.714959620602 2670.64676967196 128 127 125
-22.3214527285351 568.836952851003 2662.53448085168 118 117 115
-30.6269849374317 567.990325683705 2660.21473933572 121 120 118
-45.9108714060525 565.93798442727 2665.18138243493 142 141 139
-66.7133699462867 562.925977453016 2676.02348696199 140 139 137
-81.8669267555676 560.883328067145 2681.08465790386 144 144 144
-97.6565721467935 558.724734345793 2686.91945848318 163 163 163
-103.721833063707 558.250078966153 2682.52021718236 189 189 189
-113.916102677886 557.056393061057 2682.53464158033 175 175 175
-120.655862403593 556.462502457753 2678.8811688548 172 172 172
-130.126407752488 555.390884941254 2678.18581808897 182 182 182
-134.806072970505 555.155534801089 2672.32216355017 188 188 188
-136.778455904549 555.395538746156 2663.48274800661 190 190 190
-138.778222089397 555.633115239169 2654.62346946462 188 188 188
-139.455872171419 556.105720701751 2644.2537383106 191 191 191
-140.842088763076 556.456668823103 2634.60447810594 192 192 192
-135.556577880747 557.988799921802 2617.4467232075 188 190 187
367.605072327892 603.382723534617 2713.17184996864 195 199 198
354.731757510623 601.87459184596 2713.71295233077 127 131 130
346.602553432287 601.116680737607 2710.28644757482 122 124 123
340.046913171291 600.60827354375 2705.53154886266 126 126 124
325.684342304802 598.857378194319 2707.46219582203 119 118 116
291.126037630174 593.883871844385 2726.84950936089 120 119 117
251.291286434382 588.055234440396 2751.05332816267 144 144 144
224.028663120847 584.22094391482 2764.61899407662 131 131 131
203.05810424464 581.384243434982 2772.87008278311 188 189 191
184.479001958394 578.924204845384 2779.15129290998 166 167 169
169.038905119756 576.962347223972 2782.77011746652 173 174 176
158.242169765285 575.742886115779 2782.34767103561 176 177 179
152.049084843252 575.262625199499 2777.85573899243 181 182 184
143.572357669877 574.414137837711 2775.41188517099 180 181 183
133.590496326742 573.321421278863 2774.34605813512 178 179 181
118.33463938055 571.373761859283 2778.09821956124 179 180 182
102.37603817775 569.307775313876 2782.57567843443 184 185 187
84.2173935130197 566.880006166241 2789.16185071524 167 168 170
75.8764298413634 566.041770364481 2786.8164666797 152 153 155
63.8092423409318 564.595937274384 2787.94255796912 172 173 175
56.9946631718885 564.003323592652 2784.23455902323 195 196 198
51.6698725060647 563.653556936689 2779.13769636665 170 170 170
50.0452157453317 563.909184378558 2770.55043408305 176 176 176
44.6986217581871 563.55753192278 2765.43775618159 143 143 143
34.9267047866193 562.480319245639 2764.5239063543 145 145 145
23.7068139386727 561.163298889317 2765.02954242498 149 149 149
16.9103289545482 560.571434112573 2761.33466413324 178 178 178
13.7675634898033 560.581333196797 2754.1160155249 204 204 204
14.2453901212964 561.190372195082 2743.34956853316 196 196 196
9.60310649053397 560.95627757945 2737.51272458718 174 174 174
5.6744241698099 560.841041527539 2730.95875087271 161 161 161
0.288861050341538 560.485276236404 2725.81780258326 181 181 181
-1.50662126962686 560.726288233276 2717.10663117607 167 165 166
-3.32966030130866 560.964948341547 2708.37547140768 150 148 149
-4.46548672293456 561.320418850269 2698.90804176468 148 146 147
-7.05802993769677 561.435363047673 2690.85346197567 151 149 150
-11.8045635307116 561.191877479803 2684.94129191724 149 147 148
-15.8527914735922 561.066090613967 2678.30060358809 137 136 134
-19.2093998402367 561.057441290081 2670.92684174519 127 126 124
-21.8809409259562 561.165388340776 2662.8149592717 115 114 112
-26.6800131221803 560.916989378153 2656.86467797127 117 116 114
-39.1801111672079 559.370545662173 2658.91117570766 117 116 114
-60.0061090910136 556.413879909108 2669.73681982129 147 146 144
-80.0453880226431 553.581746733813 2679.8980729976 168 168 168
-95.8416182181008 551.460666021783 2685.72799564557 186 186 186
-103.292335360408 550.750819511296 2682.79358400583 183 183 183
-112.111426521575 549.807244976543 2681.33609821715 170 170 170
-119.541728827811 549.098504242737 2678.41619685171 177 177 177
-129.015608965784 548.040009544112 2677.7187895728 189 189 189
-133.697173180244 547.798700055606 2671.85343374865 191 191 191
-135.671220573893 548.021731763376 2663.01302011209 188 188 188
-137.672444018779 548.242432061912 2654.15259968995 187 187 187
-139.701050714467 548.460704908394 2645.2723162694 192 192 192
-141.08437625246 548.792331496236 2635.62534846089 192 192 192
-137.135143112568 550.046585191619 2619.96756306394 190 192 189
369.655554890633 595.460240792367 2712.14779186545 192 196 195
359.925915252385 594.461223513979 2710.03024370226 130 134 133
351.783428439794 593.707274350025 2706.59383559978 148 150 149
346.780499271893 593.440777488115 2700.49568236063 131 131 129
335.521999179659 592.201353480453 2699.73839170075 135 135 133
304.824485137556 587.93008714606 2715.75255412358 129 128 126
263.392922354616 581.972806167268 2741.26852625855 150 150 150
229.899856774974 577.240970089025 2760.19394735204 138 138 138
205.823106342121 573.97099998755 2771.13153790747 190 191 193
183.385815337617 570.950147032069 2780.78879615937 166 167 169
170.251275262525 569.38244719092 2782.37526566204 169 170 172
158.685942040294 568.058322613208 2782.63044719922 169 170 172
151.729448689053 567.457448824443 2778.819824272 180 181 183
139.449508893361 566.016893485701 2779.79141913806 185 186 188
130.997735179454 565.178015096948 2777.36570328326 176 177 179
118.775103414768 563.741833500666 2778.37886411787 174 175 177
103.568896081963 561.830318912521 2782.16749516603 178 179 181
87.6622402614764 559.803460782373 2786.68280854857 171 172 174
77.8117953722433 558.733966494988 2785.71236573009 160 161 163
67.982632903993 557.666066475043 2784.75706459102 153 154 156
59.665473801267 556.837227085741 2782.4289845902 155 156 158
54.3342605032757 556.483803574648 2777.3274475078 195 195 195
51.9626512528761 556.603681479194 2769.43305245472 192 192 192
45.8728280209102 556.130232572221 2765.01601151855 156 156 156
39.0450039934365 555.538468069708 2761.2987098704 150 150 150
28.5476387061099 554.357179584563 2761.0934765419 141 141 141
21.0052180083156 553.648805891838 2758.09259449786 145 145 145
14.9310701312912 553.176119041003 2753.68692082098 173 173 173
13.2240805640365 553.407721029028 2745.0398520352 221 221 221
7.86048911925485 553.050808241633 2739.91482566934 207 207 207
6.10966965239701 553.278740031355 2731.23596506369 165 165 165
2.88845139407989 553.270514032776 2723.96035254391 161 161 161
1.08715794498915 553.494237379404 2715.24488095477 181 179 180
-3.60970486879375 553.24929878113 2709.36841646734 191 189 190
-6.17202684458773 553.352661797734 2701.33598051546 187 185 186
-9.47006060503108 553.337764808198 2694.00464900898 175 173 174
-13.4970674269654 553.205183596157 2687.37930990859 175 173 174
-17.5382946498284 553.071330885421 2680.74365569568 154 153 151
-20.8878226666114 553.051873952042 2673.37497180683 133 132 130
-21.4406909030793 553.492876594338 2663.09524312409 125 124 122
-24.1348356102358 553.584694214253 2654.9671875813 124 123 121
-32.4469537583005 552.753037032476 2652.64274760342 134 133 131
-53.9931822341082 549.736739001884 2664.18072132235 144 143 141
-76.8334406476265 546.498013819199 2677.25016069854 150 150 150
-94.7191589684122 544.070049714038 2685.26921875231 163 163 163
-102.86309943681 543.250612820228 2683.06675626167 165 165 165
-110.306195902342 542.546272304017 2680.13760242509 171 171 171
-114.99706355139 542.298842548564 2674.26576581933 180 180 180
-123.801113438877 541.366583229491 2672.81924108474 194 194 194
-129.179840485917 541.004411581991 2667.68321596063 192 192 192
-134.563734476582 540.641572020796 2662.54314734867 184 184 184
-138.598328641369 540.504970751902 2655.91228765914 182 182 182
-141.297009087113 540.593553223277 2647.78092767599 189 189 189
-143.345642361283 540.793176706229 2638.8860320986 191 191 191
-138.044205781661 542.232680686533 2621.73935290339 189 191 188
377.234009205001 588.362583184116 2706.48970547827 208 212 211
365.909244458142 587.133772470989 2705.68443191452 127 131 130
354.609903402381 585.907061590658 2704.89789364011 139 141 140
350.383986607986 585.753079124897 2698.12825205415 133 133 131
339.115702717734 584.528824477517 2697.36424022311 127 127 125
314.634518969836 581.28989716178 2708.00880567526 125 124 122
275.499173865896 575.807996266071 2731.48635853867 146 146 146
236.547196635523 570.340412518761 2755.09691120606 133 133 133
208.588669025183 566.540685350749 2769.39331294334 189 190 192
181.521965597629 562.868370020953 2783.10182580008 166 167 169
171.463463617064 561.79632943259 2781.98054505841 169 170 172
159.89478618205 560.490633750503 2782.23339565036 171 172 174
152.172700176595 559.774426343382 2779.10223071124 178 179 181
139.891432519193 558.355181590779 2780.07297092432 182 183 185
129.162288273833 557.17275120902 2779.70000477583 177 178 180
116.945020875593 555.758422343992 2780.71716504255 173 174 176
100.988942647757 553.762869042453 2785.1968096324 171 172 174
87.3462087847949 552.121459095872 2787.64983636286 176 177 179
77.4971544179892 551.065250967561 2786.68046886078 166 167 169
71.4091158715426 550.591886896203 2782.26472211094 149 150 152
63.082667205423 549.770091516548 2779.92994358666 158 159 161
56.9992140376372 549.296889808647 2775.51752169807 175 175 175
50.9147531148457 548.823546717535 2771.10436855024 194 194 194
45.568414398089 548.465552225188 2765.99184357606 173 173 173
40.2167801212752 548.107028759318 2760.87518258101 142 142 142
31.9204072740304 547.287072418256 2758.56221597478 152 152 152
23.6362218470325 546.467983906521 2756.2580886853 144 144 144
14.6339127631694 545.534838310552 2754.66783713903 160 160 160
11.4735385528828 545.520429008789 2747.43630044849 214 214 214
7.56867605851186 545.389916409684 2740.89951685577 215 215 215
7.26834277200439 545.829909656092 2730.80314551185 175 175 175
4.04567530061417 545.810234443735 2723.52612995704 166 166 166
1.52348308690309 545.90289823776 2715.52273073244 178 176 177
-5.32474634800151 545.310545699974 2711.79033931344 189 187 188
-8.59474063449528 545.286688383277 2704.47928883419 192 190 191
-11.1707156675682 545.374636706239 2696.43687741126 190 188 189
-13.059012039232 545.573956267542 2687.65821193684 186 184 185
-17.8082393418264 545.318353101555 2681.74373329581 176 175 173
-19.7427164912658 545.513662657666 2672.93157007856 150 149 147
-20.2968251272539 545.932230985263 2662.65112304653 127 126 124
-21.5889896679955 546.235127494255 2653.07009426688 135 134 132
-29.2087182730305 545.523198984095 2650.01285758817 153 152 150
-46.5834828522327 543.239557144071 2657.16801130503 144 143 141
-70.1447897109004 539.952106773856 2670.94953710192 149 149 149
-90.1319309208173 537.232751847681 2681.14915726943 161 161 161
-101.052545125939 535.973014566859 2681.87203551545 164 164 164
-109.877672507256 535.050189957257 2680.41027904443 178 178 178
-114.568386813622 534.796947602289 2674.53852415809 184 184 184
-122.004976314327 534.097794240382 2671.61411363313 194 194 194
-126.024340860231 533.954301581597 2664.99425931309 190 190 190
-132.096865025145 533.476757660982 2660.58973809776 178 178 178
-135.460453685657 533.441823143006 2653.21078295118 177 177 177
-140.192973961517 533.184078419318 2647.30840474296 187 187 187
-140.897061019475 533.587539503276 2636.91915863098 190 190 190
-135.599844059883 534.979772880465 2619.76918110823 189 191 188
382.445415630917 580.864899326643 2702.81877923722 214 218 217
373.469543577397 580.000739474339 2700.01300525563 169 173 172
362.149581476466 578.788309658034 2699.2115906819 129 131 130
353.98819664256 578.042866504549 2695.76152608509 127 127 125
341.929238304565 576.717765498718 2695.65886329557 125 125 123
324.447696818125 574.58356698565 2700.26729585516 123 122 120
293.823199821958 570.486653174847 2716.33497854573 124 124 124
250.941805950982 564.551230973725 2743.27012116147 141 141 141
212.127103584566 559.208699476901 2766.98082072164 186 187 189
183.507151268252 555.378320922618 2782.03291742496 163 164 166
171.907680068371 554.088949903941 2782.26352764723 166 167 169
158.806496707293 552.572116202054 2783.8747302678 170 171 173
151.852108754103 551.975913273681 2780.06536277037 177 178 180
141.855627368286 550.921801709247 2778.98913289547 181 182 184
131.121310637441 549.754923410666 2778.6122013992 181 182 184
118.898192551229 548.361578962695 2779.62552114459 173 174 176
102.935695774169 546.400635050421 2784.10068809451 173 174 176
90.7920331088956 545.013358556389 2785.17134302856 163 164 166
80.1831281437804 543.855993185874 2784.88566785957 172 173 175
74.8365145675138 543.495108723712 2779.7729289956 168 169 171
66.500822833004 542.680390992226 2777.43148582347 145 146 148
59.6648260991555 542.092882915729 2773.70798668868 158 158 158
53.5736993565794 541.618521868354 2769.28999618968 164 164 164
46.7422880013921 541.031176155313 2765.56982191613 190 190 190
41.3883794124526 540.669282509061 2760.45178963008 185 185 185
33.8241620586266 539.969359236512 2757.43514952796 135 135 135
25.5352563894999 539.157674542029 2755.127343459 144 144 144
17.2582089267159 538.346781621438 2752.8284321444 140 140 140
11.9068319640387 537.984585242718 2747.71223355485 174 174 174
8.72838701769219 537.957241197287 2740.46753148507 206 206 206
7.70318091689592 538.263183990595 2731.08004200574 204 204 204
5.20270159877034 538.343586488272 2723.09202633963 184 184 184
2.67895502450566 538.421994949464 2715.08742811982 169 167 168
-2.0196631089302 538.165114747221 2709.20963067712 168 166 167
-6.72816854592795 537.907314075493 2703.32466105472 172 170 171
-10.0207318741445 537.870097858387 2695.99718213001 190 188 189
-11.1997572948144 538.163041877006 2686.49811990169 191 189 190
-13.1191810898184 538.34287252636 2677.69679077861 191 190 188
-15.0660653054837 538.520359087763 2668.8755431373 162 161 159
-17.7446514737292 538.585417273518 2660.75863076959 126 125 123
-21.8500632556606 538.428620984578 2654.07633158631 116 115 113
-28.0687075667494 537.941390479891 2649.5658356942 110 109 107
-42.65845867252 536.139051713816 2653.80190201422 134 133 131
-64.8441533797679 533.137374675738 2666.11171817953 139 139 139
-86.9293901107828 530.143357903553 2678.49439727645 158 158 158
-101.314318426529 528.356436704945 2682.87872762409 164 164 164
-110.826770726166 527.335472897295 2682.15354866337 190 190 190
-116.199329540783 526.968035667245 2677.02196835136 197 197 197
-120.892820331644 526.708523902358 2671.14787449934 187 187 187
-124.232122253297 526.664713378626 2663.78648036934 178 178 178
-130.309250232981 526.186467906688 2659.37861819694 166 166 166
-135.031927396272 525.923904666263 2653.48335106435 169 169 169
-140.439882671128 525.552464795693 2648.32609082875 183 183 183
-141.140555622115 525.933967402761 2637.93891397474 187 187 187
-139.193673489111 526.742214025987 2624.53302132851 187 189 186
390.3226095982 573.278846367215 2707.25566376876 193 199 199
384.498516918467 572.877806690824 2701.79629224168 228 232 231
377.093343076111 572.248650193502 2697.66026799365 191 195 194
365.763875392328 571.051421431163 2696.85174513936 134 136 135
353.676347886815 569.742646074491 2696.72845464324 136 136 134
343.180791440338 568.66289045856 2695.2903047139 132 132 130
326.47414305562 566.679390186345 2699.22590603004 128 127 125
306.716219438323 564.248219953493 2705.88774626986 122 122 122
255.27110899308 557.196347864152 2740.19579377264 144 144 144
216.438863914149 551.966864361882 2763.89434885651 188 189 191
186.263028700699 547.989191702678 2780.28788002823 164 165 167
172.351642307507 546.380922471212 2782.54632267045 163 164 166
160.014984720676 545.00029567926 2783.4771051492 166 167 169
150.767027497758 544.070171955985 2781.70908780793 177 178 180
143.058879167761 543.365030642866 2778.58778816212 184 185 187
130.802507784332 541.990500080438 2779.57709717873 184 185 187
120.851812495596 540.953081621916 2778.53384869957 177 178 180
104.128007147537 538.915506679158 2783.69177529717 175 176 178
92.7333356705398 537.660451121608 2784.07131750079 155 156 158
81.3686144597834 536.407662151723 2784.47228829528 163 164 166
76.0201475726139 536.043480642034 2779.35789474947 179 180 182
67.6817655128601 535.236281788268 2777.01453938775 167 168 170
60.0993343269827 534.540379423194 2773.98471605676 156 156 156
53.2664910007292 533.955307457134 2770.26351523381 158 158 158
47.1764564701957 533.480437452964 2765.84631392466 176 176 176
41.8226746911889 533.115387657526 2760.72835757932 187 187 187
34.9933176491075 532.530239656473 2757.00968365303 154 154 154
27.4343181994756 531.835638085201 2753.99685307648 145 145 145
19.1523640667151 531.032114365596 2751.69442213855 143 143 143
14.5252743336153 530.77565181812 2745.86847927526 154 154 154
11.3407900812135 530.736437324753 2738.61933905747 186 186 186
10.3099520732384 531.022298027479 2729.2276651687 216 216 216
5.63783870551715 530.761889344406 2723.36906372386 200 200 200
1.67552377314406 530.60912790352 2716.79051893796 176 174 175
-3.01869310546965 530.346670100767 2710.91617828419 169 167 168
-5.5766537299542 530.407957968302 2702.88639637301 169 167 168
-8.15785753781495 530.467253749515 2694.84004936888 181 179 180
-7.20772914844603 531.063872063959 2683.1805899814 183 181 182
-9.84598000556702 531.118356808152 2675.09256950795 159 158 156
-11.8008883940417 531.278345566185 2666.26541634269 144 143 141
-17.3046822905669 530.899231314159 2661.03864177269 123 122 120
-22.1117072708654 530.626728281493 2655.08217876048 125 124 122
-27.6285271482166 530.246170444952 2649.84595406695 123 122 120
-40.1272570353164 528.796722519735 2651.89422939005 124 123 121
-61.6278178443728 525.963594500289 2663.46623636743 133 133 133
-85.8053399328018 522.71178624742 2678.03627175712 161 161 161
-100.194662673518 520.957079789038 2682.41787414336 180 180 180
-109.710258382815 519.949184200938 2681.690482651 192 192 192
-117.14470369388 519.260629838055 2678.76768018089 189 189 189
-121.833867098732 518.995564360368 2672.89698968971 180 180 180
-123.12152295527 519.257652276018 2663.31872817087 172 172 172
-126.481129428386 519.200636428934 2655.94254795063 166 166 166
-130.537008059921 519.036680784145 2649.29612014161 170 170 170
-135.958229233772 518.661149165143 2644.12922244721 178 178 178
-139.364644992467 518.599684061928 2636.71908664054 182 182 182
-138.09146002008 519.269711282039 2624.05885858882 182 182 180
388.418390447568 564.726303629739 2709.53704424095 202 208 208
383.39107693875 564.433844222473 2703.42108276727 199 203 202
376.778322038315 563.918450225161 2698.62474504457 223 227 226
367.021568916768 562.95910650832 2696.48744821609 210 212 211
352.579974997243 561.336292738302 2698.36145843633 196 196 194
342.869683959099 560.380683096469 2696.2578618775 194 194 192
333.175820000726 559.426324973952 2694.16647447557 132 131 129
316.50589520723 557.480769367597 2698.1285952269 120 120 120
269.674282000744 551.245028305381 2728.37439047027 148 148 148
219.979455002171 544.587217908465 2761.48288406118 192 193 195
190.560305994547 540.80257110341 2777.19089429679 165 166 168
175.099900975979 539.000974032114 2780.79580877159 162 163 165
161.989260199685 537.531677048705 2782.40039629289 163 164 166
150.444982430242 536.283908094571 2782.67122813342 170 171 173
140.453731356864 535.256586779805 2781.5986310445 179 180 182
129.723872095443 534.121893525926 2781.22538836357 187 188 190
122.80550455195 533.53292056552 2777.44246392808 186 187 189
109.850452128385 532.075590305417 2779.15960690348 177 178 180
98.4394774872497 530.837963209347 2779.52712439707 160 161 163
85.5568635462971 529.386093425863 2781.29710170985 148 149 151
77.9519949262393 528.693630834128 2778.25103042711 160 161 163
68.8624334144796 527.78588758199 2776.59765640167 183 184 186
60.5334505081525 526.987097372818 2774.26115727831 177 177 177
55.1840738888263 526.619357509867 2769.14638070151 166 166 166
49.8293535639163 526.25108477307 2764.02743318235 170 170 170
44.4690594637818 525.882251369065 2758.90473675172 170 170 170
36.1622980534504 525.084783398369 2756.58435316243 162 162 162
27.8677240633658 524.288183257 2754.2728088899 154 154 154
21.0470172714938 523.705767312401 2750.560419553 153 153 153
16.4155438851896 523.442985616986 2744.73156135524 145 145 145
13.227399026551 523.392083018517 2737.47941380629 166 166 166
10.0203698051899 523.339511574903 2730.21386260379 215 215 215
6.79468749343393 523.285369279126 2722.93478142131 214 214 214
2.83056430028816 523.123798495748 2716.35488116753 185 183 184
-1.86547440491003 522.855297980551 2710.47889474823 176 174 175
-5.14053587089469 522.796826831606 2703.16399563655 174 172 173
-7.00776833007999 522.947309537078 2694.40035247351 176 174 175
-6.05831799782508 523.516062175361 2682.74026040282 173 171 172
-7.28057256126968 523.766192720914 2673.20964358766 163 162 160
-9.94800055469081 523.80404537822 2665.10068221765 168 167 165
-14.7516497430924 523.52605054418 2659.14663857196 133 132 130
-19.5650899440034 523.247143041303 2653.18549258951 129 128 126
-25.7885250153125 522.758658146291 2648.67151741934 136 135 133
-35.5020389161704 521.749396084058 2647.80064388468 138 137 135
-57.7151484412362 518.870900408088 2660.09121040138 138 138 138
-81.9078582259332 515.688837434892 2674.65058917952 154 154 154
-100.457220861085 513.344187266929 2683.42401593765 171 171 171
-109.971554664386 512.349716778076 2682.69760722865 182 182 182
-114.65723714566 512.079351824875 2676.82911881335 181 181 181
-116.614493362032 512.220211593248 2668.00016676544 173 173 173
-119.963903230262 512.152879563343 2660.63132602819 167 167 167
-126.052427810409 511.673023785794 2656.21519406038 168 168 168
-129.430151514588 511.603039556521 2648.82581458529 172 172 172
-134.177786840162 511.326595279294 2642.91238443804 175 175 175
-136.914709755727 511.355711394487 2634.75300046357 179 179 179
-138.331940652476 511.586760772769 2625.08094449352 181 181 179
-134.428195835031 512.629779392752 2609.38911369357 190 191 186
395.23015499521 557.385819838885 2704.55697474661 200 204 205
383.072966366254 556.108770910733 2704.38334611608 152 156 155
374.098132744612 555.267726423749 2701.5784419998 131 135 134
366.707391205564 554.644209531711 2697.45261412513 133 135 134
355.401451571188 553.480621128012 2696.66161212804 134 134 132
348.028666662926 552.858588795233 2692.54880891782 130 130 128
338.321033147229 551.913570352669 2690.44748697726 131 130 128
324.744513476606 550.432121849624 2691.71399291885 123 123 123
280.982685568365 544.765396363071 2719.24758221963 157 157 157
225.839059838798 537.506712319284 2757.04892714227 192 194 193
194.858656178146 533.587998057321 2774.09483921841 161 162 164
177.080381132788 531.497150761702 2779.72312502317 162 163 165
167.028741171144 530.478360118399 2778.60708842693 165 166 168
154.706189106138 529.141592858888 2779.54831845665 166 167 169
143.179377922361 527.913814641933 2779.83220793194 174 175 177
129.403615597309 526.369719403985 2782.18929240944 187 188 190
123.244835857312 525.889160783549 2777.7222274169 185 186 188
114.06424717884 524.985080985599 2776.00288441181 183 184 186
105.653201235771 524.187902337709 2773.60690420468 161 162 164
91.99860441483 522.653055290626 2776.05187098583 148 149 151
81.3813284697096 521.542821765482 2775.76036624687 148 149 151
70.0431516254581 520.329358774319 2776.18077881296 152 153 155
61.711478393887 519.538087442867 2773.84236750001 191 191 191
56.3601089786485 519.166949616826 2768.72583461454 181 181 181
50.2633819396054 518.690671159509 2764.30377462906 165 165 165
44.9032154746654 518.318666737219 2759.18115466207 169 169 169
37.3312806216259 517.633188638548 2756.15899314772 170 170 170
30.5004731881695 517.052388989804 2752.43928982703 159 159 159
21.4798566781762 516.15980499809 2750.83597228938 154 154 154
16.1198610581863 515.787336465625 2745.71347382073 147 147 147
12.2076941276981 515.621565776967 2739.1712164972 145 145 145
9.73013828921943 515.661452031219 2731.19961332793 180 180 180
6.50725467653102 515.59609552067 2723.92250417992 208 208 208
1.1055881380897 515.219832972377 2718.76977835575 203 201 202
-3.58357514667729 514.945959869253 2712.89874886224 187 185 186
-6.13603940999807 514.9793250495 2704.87310442367 183 181 182
-6.57110749628664 515.318553154047 2694.67825607567 182 180 181
-4.90910858188998 515.961958265832 2682.30004717901 174 172 173
-8.259544003548 515.885656262152 2674.93041756151 158 157 155
-10.9217415167868 515.909777940061 2666.82488385107 146 145 143
-15.7209653776029 515.626207455673 2660.87431445505 132 131 129
-17.7203836852704 515.748596183017 2652.01470464791 135 134 132
-21.8478744753106 515.563948008811 2645.31625884517 119 118 116
-30.1773339939093 514.769824014176 2642.9794378507 126 125 123
-50.322326832549 512.256074862101 2653.06566943761 142 142 142
-75.9283099738965 508.940839731243 2669.06993491393 140 140 140
-93.807163858548 506.744366862015 2677.09543616972 136 136 136
-104.720441469916 505.560262158989 2677.82401596304 165 165 165
-110.108286509226 505.182345796437 2672.68100678463 178 178 178
-113.447523845334 505.104695633547 2665.31948806963 171 171 171
-116.805336276715 505.025376385293 2657.94449541741 166 166 166
-121.542180433904 504.744459241593 2652.03886536246 169 169 169
-126.288946458569 504.46246489123 2646.1263317548 169 169 169
-131.045264796061 504.179522043128 2640.20657419037 169 169 169
-135.137701532447 503.995025166518 2633.53354058556 176 176 176
-134.544075713295 504.504109306379 2621.61520149894 178 178 178
-129.310828650293 505.703101814258 2604.41787202987 184 184 182
386.706563102404 548.31783529401 2702.03751431625 179 181 178
376.145985297137 547.272382142067 2700.55210828801 185 187 184
366.392371216496 546.334123800518 2698.41748829589 148 150 147
357.439403138547 545.502557618585 2695.62848298835 119 121 118
349.280433679613 544.777204827869 2692.18027111005 136 138 135
343.467759511551 544.36745191049 2686.7294274485 128 128 126
331.431214604219 543.118637308142 2686.64339903887 125 125 123
301.596583078903 539.464776636879 2702.05087958812 134 134 132
237.883754921707 531.223338090633 2747.22182977912 183 183 181
203.011953519344 526.867168253211 2767.62004641003 158 158 158
182.135111124937 524.398344931076 2775.94093556451 162 164 163
170.536908391797 523.183711633481 2776.17284388668 159 161 160
158.204362270346 521.867552901687 2777.10693339785 167 169 168
147.429736392026 520.761315481346 2776.70138257537 173 175 174
135.160998772894 519.450042166731 2777.68175297722 178 180 179
128.229190126193 518.864490985114 2773.88910213115 187 189 188
119.034733948821 517.969772804665 2772.1597536986 186 188 187
109.856846434588 517.07627738308 2770.44242243708 162 164 163
95.4386378621659 515.464563336769 2773.56877252301 147 149 148
84.8118546836711 514.369560603789 2773.27015845763 141 143 142
73.4636895440071 513.17398826346 2773.68342091488 143 145 144
62.8895520852466 512.082932188295 2773.42328532288 185 185 185
56.7938592095807 511.606319303038 2769.00197333055 202 202 202
49.2170143697193 510.925656088553 2765.97627685031 178 178 178
45.3369810894153 510.754273809335 2759.45728547175 173 173 173
37.02917047544 509.972224361485 2757.13621939021 175 175 175
31.666978301196 509.596635500731 2752.01211278743 167 167 167
22.6434706470369 508.714317269617 2750.40675139577 152 152 152
17.2813879680311 508.338498303937 2745.2827230029 150 150 150
14.0943148280552 508.264800645413 2738.03123690421 150 150 150
10.8883548495724 508.189478749039 2730.76634558316 165 165 165
7.66374343121745 508.112556262306 2723.487925328 188 188 188
1.53984855044875 507.632583311444 2719.04615208092 211 211 211
-1.71329996081648 507.55311002667 2711.7470317578 205 205 205
-4.26927545802513 507.572095795004 2703.71847463927 189 189 189
-5.4213149599196 507.788797280606 2694.23858889592 168 168 168
-7.31652760262946 507.903168407861 2685.45447938845 162 160 161
-9.23927370955169 508.015204465777 2676.65039845759 160 159 157
-12.6034667163579 507.926242451984 2669.27073154756 167 166 164
-14.5768013924974 508.033956232307 2660.42995599007 132 131 129
-15.8751984829508 508.238278362626 2650.84390980347 134 130 129
-18.6061596236857 508.242322031119 2642.68872064991 131 127 126
-24.8507010118 507.751156452064 2638.15943148207 129 128 126
-41.5347858199127 505.78273589591 2644.58153925656 159 159 157
-64.3971347431083 502.934618513768 2657.63694325636 144 144 142
-84.3884537526376 500.487028345528 2667.83491138986 128 128 126
-98.0887840527966 498.927635064919 2671.4816372936 154 154 154
-106.931946429121 498.056148016266 2670.00706690468 157 157 157
-112.334165302543 497.673716981623 2664.85390943649 167 167 167
-117.058925104405 497.388118078983 2658.95701587459 164 164 164
-120.432660019096 497.295933567814 2651.57041550932 172 172 172
-124.503125937654 497.105076477653 2644.9132768035 169 169 171
-129.263858603207 496.815931484237 2638.99058226038 163 163 165
-133.360442784698 496.622510444886 2632.31449688147 174 174 174
-133.441412474417 497.007038905323 2621.14153484401 174 176 175
-126.199717563187 498.448174100058 2601.69599421835 187 189 186
