ply
format ascii 1.0
comment KinectMotionCapture
element vertex 757
property float x
property float y
property float z
property uchar red
property uchar green
property uchar blue
end_header
124.328777194023 681.194067001343 2588.99998664856 158 157 152
131.359040737152 681.184053421021 2588.99998664856 158 157 152
138.388976454735 681.173324584961 2588.99998664856 160 159 154
145.474746823311 681.425213813782 2589.99991416931 167 166 161
152.860015630722 682.992041110992 2595.99995613098 164 163 158
160.154283046722 684.032082557678 2599.99990463257 155 154 150
167.469918727875 685.071647167206 2604.00009155273 163 162 158
174.672812223434 685.584425926209 2605.99994659424 165 164 160
181.955933570862 686.359822750092 2608.99996757507 145 144 140
189.254865050316 687.134683132172 2611.99998855591 154 153 149
196.719989180565 688.435077667236 2617.00010299683 136 135 131
204.445466399193 690.524220466614 2625 163 162 158
212.213888764381 692.612648010254 2632.99989700317 146 145 141
220.025271177292 694.700539112091 2641.00003242493 158 157 153
227.535426616669 695.735692977905 2644.99998092651 143 142 138
234.800606966019 695.981204509735 2645.99990844727 143 142 138
241.796359419823 695.43731212616 2644.00005340576 149 148 144
249.063163995743 695.681929588318 2644.99998092651 159 158 154
256.722390651703 696.978092193604 2650.00009536743 161 160 156
264.408200979233 698.273777961731 2654.99997138977 158 157 153
272.018224000931 699.306011199951 2658.99991989136 184 183 179
279.649376869202 700.337767601013 2663.00010681152 164 165 160
287.301659584045 701.369047164917 2667.00005531311 181 183 180
296.631544828415 706.344306468964 2686.00010871887 194 196 193
-191.293522715569 696.763038635254 2676.00011825562 210 212 209
-182.92909860611 692.611515522003 2660.00008583069 208 210 207
-175.245583057404 690.802872180939 2653.00011634827 163 163 161
-167.789697647095 689.774632453918 2648.9999294281 154 153 149
-160.476386547089 689.266800880432 2647.0000743866 180 179 175
-152.883991599083 687.456429004669 2640.00010490417 161 160 156
-145.494818687439 686.426520347595 2635.99991798401 157 156 152
-137.969583272934 684.614956378937 2628.99994850159 159 160 155
-131.029441952705 685.667276382446 2632.99989700317 150 151 146
-123.831994831562 685.41693687439 2631.99996948242 151 152 146
-116.63968116045 685.166120529175 2631.00004196167 144 145 140
-109.452523291111 684.914827346802 2630.00011444092 165 164 160
-102.192707359791 684.141993522644 2627.00009346008 118 117 113
-94.8765724897385 682.847797870636 2621.99997901917 143 142 138
-87.4869450926781 680.77164888382 2614.00008201599 150 149 144
-80.2328288555145 679.476201534271 2608.99996757507 162 161 156
-73.0617493391037 678.701102733612 2605.99994659424 155 154 149
-65.8054947853088 676.883637905121 2598.99997711182 152 149 142
-58.5871152579784 675.065636634827 2592.00000762939 157 154 147
-51.4861568808556 674.288690090179 2588.99998664856 161 158 151
-44.4528795778751 674.29256439209 2588.99998664856 157 154 147
-37.3905785381794 673.77495765686 2586.99989318848 162 159 154
-30.3155854344368 672.735989093781 2582.99994468689 162 159 154
-23.2712645083666 671.956777572632 2579.99992370605 162 159 154
-16.2684004753828 672.218859195709 2581.00008964539 161 158 153
-9.27081704139709 673.261642456055 2585.00003814697 158 157 152
-2.24886811338365 673.522651195526 2585.99996566772 156 155 150
4.77667292580009 673.522531986237 2585.99996566772 156 155 150
11.7793818935752 672.219574451447 2581.00008964539 157 156 151
18.7985803931952 672.478854656219 2582.00001716614 158 157 152
25.8131623268127 672.477006912231 2582.00001716614 158 157 152
32.8403934836388 672.735035419464 2582.99994468689 159 158 153
39.9038381874561 673.513352870941 2585.99996566772 156 157 152
46.9108894467354 673.249483108521 2585.00003814697 154 153 149
53.9749823510647 673.766255378723 2586.99989318848 153 152 148
60.9790682792664 673.501193523407 2585.99996566772 154 153 148
68.0301487445831 673.756301403046 2586.99989318848 153 152 147
75.0865116715431 674.011051654816 2588.00005912781 153 152 147
82.1163728833199 674.004733562469 2588.00005912781 152 151 146
89.1460403800011 673.99787902832 2588.00005912781 154 151 144
96.2126180529594 674.250721931458 2588.99998664856 155 152 145
103.244535624981 674.242794513702 2588.99998664856 155 152 145
110.361374914646 674.755096435547 2591.00008010864 156 153 146
117.307581007481 674.225211143494 2588.99998664856 152 151 146
124.338664114475 674.215495586395 2588.99998664856 157 156 151
131.369471549988 674.205362796783 2588.99998664856 156 155 150
138.453379273415 674.455046653748 2589.99991416931 158 157 152
145.598575472832 674.964666366577 2592.00000762939 169 168 163
152.872055768967 675.994515419006 2595.99995613098 167 166 161
160.105258226395 676.763296127319 2598.99997711182 161 160 156
167.483031749725 678.052425384521 2604.00009155273 162 161 157
174.619421362877 678.299427032471 2605.00001907349 163 162 158
182.10956454277 679.847836494446 2611.00006103516 148 147 143
189.414441585541 680.614590644836 2614.00008201599 149 148 144
196.885511279106 681.901395320892 2618.99995803833 147 146 142
204.694852232933 684.22919511795 2628.00002098084 146 145 141
212.633177638054 686.816811561584 2638.00001144409 144 143 139
220.45861184597 688.883066177368 2645.99990844727 142 141 137
227.72479057312 689.126431941986 2647.0000743866 144 143 139
234.99584197998 689.369142055511 2648.00000190735 140 139 135
241.997420787811 688.830375671387 2645.99990844727 146 145 141
249.175950884819 688.811898231506 2645.99990844727 153 152 148
256.547749042511 689.31370973587 2648.00000190735 157 156 152
264.228612184525 690.595865249634 2653.00011634827 158 157 153
271.935969591141 691.877603530884 2657.99999237061 185 184 180
279.354810714722 692.377805709839 2660.00008583069 162 163 158
286.999404430389 693.398296833038 2664.00003433228 178 180 177
295.879930257797 697.281181812286 2678.99990081787 189 191 188
-191.522851586342 690.321683883667 2678.99990081787 206 208 205
-182.874575257301 685.182690620422 2658.99991989136 206 208 205
-175.19323527813 683.392822742462 2651.99995040894 161 162 157
-167.802900075912 682.633221149445 2648.9999294281 155 154 150
-160.489022731781 682.130753993988 2647.0000743866 184 183 179
-152.89606153965 680.339217185974 2640.00010490417 157 156 152
-145.506337285042 679.320216178894 2635.99991798401 166 165 160
-138.085514307022 678.042948246002 2631.00004196167 158 159 153
-131.089642643929 678.826808929443 2634.0000629425 148 149 143
-123.935990035534 678.836941719055 2634.0000629425 148 149 143
-116.737678647041 678.588807582855 2632.99989700317 144 145 139
-109.586142003536 678.597807884216 2632.99989700317 159 158 153
-102.317623794079 677.833259105682 2630.00011444092 128 127 122
-95.1013267040253 677.325665950775 2628.00002098084 147 146 141
-87.6613557338715 675.013482570648 2618.99995803833 149 148 143
-80.3008228540421 672.958374023438 2611.00006103516 147 146 141
-73.0115696787834 671.160340309143 2604.00009155273 149 148 143
-65.7348558306694 669.103980064392 2595.99995613098 158 155 150
-58.5692562162876 667.820334434509 2591.00008010864 161 158 151
-51.5102185308933 667.567014694214 2589.99991416931 162 159 152
-44.4564819335938 667.313158512115 2588.99998664856 162 159 152
-37.3936183750629 666.800916194916 2586.99989318848 159 158 153
-30.3297881036997 666.030526161194 2584.00011062622 160 159 154
-23.2821796089411 665.259480476379 2581.00008964539 159 158 153
-16.2697229534388 665.261030197144 2581.00008964539 156 155 150
-9.25722438842058 665.26210308075 2581.00008964539 157 156 151
-2.24644201807678 665.778040885925 2582.99994468689 157 156 151
4.77336719632149 666.035771369934 2584.00011062622 156 155 150
11.7894681170583 665.777266025543 2582.99994468689 156 155 150
18.8146717846394 666.033804416656 2584.00011062622 157 156 151
25.825260207057 665.77422618866 2582.99994468689 158 157 152
32.8303501009941 665.514051914215 2582.00001716614 158 157 152
39.8916490375996 666.284382343292 2585.00003814697 156 157 152
46.8965508043766 666.023135185242 2584.00011062622 154 153 149
53.9585016667843 666.53448343277 2585.99996566772 154 153 149
60.9604306519032 666.272163391113 2585.00003814697 154 153 148
68.0356547236443 666.782259941101 2586.99989318848 154 153 148
75.1215890049934 667.29199886322 2588.99998664856 153 152 147
82.0912569761276 666.770160198212 2586.99989318848 151 150 145
89.1532152891159 667.021095752716 2588.00005912781 153 150 143
96.1460247635841 666.755855083466 2586.99989318848 156 153 146
103.212952613831 667.005598545074 2588.00005912781 156 153 146
110.242433845997 666.997015476227 2588.00005912781 153 150 143
117.271646857262 666.987895965576 2588.00005912781 158 157 152
124.252527952194 666.720509529114 2586.99989318848 153 152 147
131.227687001228 666.452646255493 2585.99996566772 158 157 152
138.303980231285 666.699528694153 2586.99989318848 157 156 151
145.441561937332 667.203783988953 2588.99998664856 164 163 158
152.766332030296 668.480515480042 2594.00010108948 178 177 172
159.933045506477 668.983638286591 2595.99995613098 163 162 158
167.174533009529 669.743776321411 2598.99997711182 172 171 167
174.498975276947 670.761168003082 2602.9999256134 163 162 158
181.914478540421 672.035694122314 2608.00004005432 164 163 159
189.284205436707 673.051953315735 2611.99998855591 151 150 146
196.825563907623 674.58301782608 2618.00003051758 165 164 160
204.632744193077 676.886558532715 2627.00009346008 133 132 128
212.891325354576 680.477738380432 2641.00003242493 152 151 147
220.642104744911 682.264685630798 2648.00000190735 130 129 125
227.914184331894 682.505249977112 2648.9999294281 129 128 124
235.102415084839 682.487547397614 2648.9999294281 143 142 138
242.198646068573 682.211935520172 2648.00000190735 145 144 140
249.571412801743 682.70868062973 2650.00009536743 151 150 146
256.760686635971 682.689666748047 2650.00009536743 150 149 145
264.347821474075 683.700621128082 2654.00004386902 147 146 142
271.956086158752 684.711217880249 2657.99999237061 177 176 172
279.480397701263 685.463607311249 2661.00001335144 158 159 154
287.235856056213 686.730742454529 2665.99988937378 163 165 162
295.570135116577 689.285337924957 2676.00011825562 195 197 194
-191.394805908203 682.588338851929 2677.00004577637 205 207 202
-182.888865470886 678.01308631897 2658.99991989136 202 204 199
-175.074860453606 675.732314586639 2650.00009536743 160 161 156
-167.689383029938 674.980759620667 2647.0000743866 155 154 150
-160.319790244102 674.228727817535 2644.00005340576 187 186 181
-152.792319655418 672.711074352264 2638.00001144409 159 158 153
-145.407482981682 671.702802181244 2634.0000629425 166 165 160
-138.306453824043 671.9691157341 2634.99999046326 161 162 156
-131.299167871475 672.744870185852 2638.00001144409 148 149 143
-124.181166291237 673.010110855103 2638.99993896484 147 148 142
-116.880051791668 672.254681587219 2635.99991798401 141 142 136
-109.719812870026 672.26380109787 2635.99991798401 155 154 149
-102.520391345024 672.017335891724 2634.99999046326 124 123 118
-95.3261479735374 671.770334243774 2634.0000629425 140 139 134
-87.8358036279678 669.227242469788 2624.00007247925 143 142 137
-80.3688168525696 666.428506374359 2612.99991607666 153 152 147
-72.9614049196243 663.629353046417 2601.99999809265 154 153 148
-65.7148659229279 661.849677562714 2595.00002861023 161 158 153
-58.5514008998871 660.579383373261 2589.99991416931 162 159 152
-51.5144020318985 660.583794116974 2589.99991416931 161 158 151
-44.4429293274879 660.077691078186 2588.00005912781 160 157 150
-37.3822078108788 659.570872783661 2585.99996566772 158 157 152
-30.3322598338127 659.063577651978 2584.00011062622 160 159 154
-23.3021154999733 658.810615539551 2582.99994468689 159 158 153
-16.27735234797 658.557176589966 2582.00001716614 155 154 149
-9.2543913051486 658.048033714294 2579.99992370605 155 154 149
-2.24401545710862 658.048510551453 2579.99992370605 156 155 150
4.76821418851614 658.303558826447 2581.00008964539 155 154 149
11.7813013494015 658.302903175354 2581.00008964539 155 154 149
18.8016407191753 658.556759357452 2582.00001716614 156 155 150
25.7973652333021 658.044755458832 2579.99992370605 157 156 151
32.8075885772705 658.042371273041 2579.99992370605 157 156 151
39.8794636130333 659.059703350067 2584.00011062622 156 157 152
46.9366647303104 659.566223621368 2585.99996566772 155 154 150
54.0046095848084 660.072207450867 2588.00005912781 154 153 149
61.0361285507679 660.067558288574 2588.00005912781 155 154 149
68.0937767028809 660.317361354828 2588.99998664856 154 153 148
75.1276761293411 660.311579704285 2588.99998664856 154 153 148
82.0978879928589 659.795045852661 2586.99989318848 151 150 145
89.1604050993919 660.043299198151 2588.00005912781 153 150 143
96.1537659168243 659.780621528625 2586.99989318848 156 153 146
103.221252560616 660.027801990509 2588.00005912781 156 153 146
110.208667814732 659.764051437378 2586.99989318848 153 150 143
117.281042039394 660.010039806366 2588.00005912781 156 155 150
124.262444674969 659.745275974274 2586.99989318848 154 153 148
131.238132715225 659.480094909668 2585.99996566772 157 156 151
138.208046555519 659.21425819397 2585.00003814697 156 155 150
145.453080534935 660.223066806793 2588.99998664856 161 160 155
152.719512581825 661.231338977814 2592.99993515015 171 170 165
160.007238388062 662.238955497742 2596.99988365173 168 167 163
167.252004146576 662.991046905518 2599.99990463257 169 168 164
174.512669444084 663.74272108078 2602.9999256134 164 163 159
181.928709149361 665.003716945648 2608.00004005432 166 165 161
189.226478338242 665.754199028015 2611.00006103516 157 156 152
196.91601395607 667.778968811035 2618.99995803833 164 163 159
204.882234334946 670.568108558655 2630.00011444092 140 139 135
213.149547576904 674.121499061584 2644.00005340576 146 145 141
221.075654029846 676.399409770966 2653.00011634827 122 121 117
228.361800312996 676.637172698975 2654.00004386902 120 119 115
235.475316643715 676.364660263062 2653.00011634827 140 139 135
242.491379380226 675.836622714996 2651.00002288818 144 143 139
249.778568744659 676.072895526886 2651.99995040894 149 148 144
256.876826286316 675.798952579498 2651.00002288818 150 149 145
264.267921447754 676.28937959671 2653.00011634827 167 166 162
271.976232528687 677.543878555298 2657.99999237061 176 175 171
279.395967721939 678.033232688904 2660.00008583069 158 159 154
287.364691495895 679.796695709229 2667.00005531311 162 164 161
295.370727777481 681.559503078461 2674.00002479553 193 195 192
305.677562952042 688.419461250305 2700.99997520447 208 210 207
-191.052228212357 674.107730388641 2671.99993133545 204 206 201
-182.903185486794 670.842528343201 2658.99991989136 199 201 196
-175.35288631916 669.595181941986 2654.00004386902 160 161 156
-168.019384145737 669.104158878326 2651.99995040894 158 157 153
-160.453736782074 667.603194713593 2645.99990844727 187 186 181
-152.978211641312 666.354119777679 2641.00003242493 162 161 156
-145.695075392723 665.861368179321 2638.99993896484 165 164 159
-138.579949736595 666.125059127808 2640.00010490417 161 162 156
-131.409227848053 666.135847568512 2640.00010490417 151 152 146
-124.238185584545 666.145980358124 2640.00010490417 147 148 142
-117.022469639778 665.903329849243 2638.99993896484 140 141 135
-109.936773777008 666.417062282562 2641.00003242493 147 146 141
-102.723203599453 666.17339849472 2640.00010490417 120 119 114
-95.4786017537117 665.676653385162 2638.00001144409 137 136 131
-87.9433378577232 662.908375263214 2627.00009346008 146 145 140
-80.4060995578766 659.634649753571 2614.00008201599 153 152 147
-72.9392841458321 656.360387802124 2601.0000705719 154 153 148
-65.7455250620842 655.104219913483 2595.99995613098 161 158 153
-58.5787706077099 653.847515583038 2591.00008010864 162 159 154
-51.5384897589684 653.851985931396 2591.00008010864 162 159 154
-44.4293729960918 652.846455574036 2586.99989318848 158 157 152
-37.3852550983429 652.597427368164 2585.99996566772 157 158 152
-30.3464736789465 652.34786272049 2585.00003814697 155 156 150
-23.3130417764187 652.097702026367 2584.00011062622 154 155 149
-16.2723772227764 651.342213153839 2581.00008964539 152 153 147
-9.25156101584435 650.838553905487 2578.9999961853 153 152 147
-2.24419916048646 651.091337203979 2579.99992370605 153 152 147
4.76675573736429 651.09121799469 2579.99992370605 154 153 148
11.7822634056211 651.342988014221 2581.00008964539 155 154 149
18.7886077910662 651.089310646057 2579.99992370605 155 154 149
25.7994700223207 651.087522506714 2579.99992370605 155 154 149
32.7975451946259 650.832772254944 2578.9999961853 156 155 150
39.8518443107605 651.586949825287 2582.00001716614 156 155 151
46.9041839241982 652.088165283203 2584.00011062622 154 153 149
53.9881326258183 652.840971946716 2586.99989318848 154 153 149
60.9939023852348 652.583956718445 2585.99996566772 156 155 150
68.0466964840889 652.831137180328 2586.99989318848 155 154 149
75.0757157802582 652.82529592514 2586.99989318848 155 154 149
82.0410624146461 652.314186096191 2585.00003814697 154 153 148
89.1331508755684 652.812004089355 2586.99989318848 155 152 145
96.1615219712257 652.804434299469 2586.99989318848 156 153 146
103.309333324432 653.553545475006 2589.99991416931 156 153 146
110.345348715782 653.544902801514 2589.99991416931 153 150 143
117.335766553879 653.283476829529 2588.99998664856 150 149 144
124.320439994335 653.021454811096 2588.00005912781 156 155 150
131.299361586571 652.758896350861 2586.99989318848 153 152 147
138.379469513893 653.000473976135 2588.00005912781 151 150 145
145.577013492584 653.746068477631 2591.00008010864 153 152 147
152.672693133354 653.986513614655 2592.00000762939 151 150 145
159.896656870842 654.731094837189 2595.00002861023 180 179 175
167.136520147324 655.475080013275 2598.00004959106 171 170 166
174.593403935432 656.975448131561 2604.00009155273 174 173 169
182.012662291527 658.222913742065 2608.99996757507 167 166 162
189.458653330803 659.469842910767 2614.00008201599 167 166 162
197.232067584991 661.725342273712 2622.99990653992 162 161 157
205.131813883781 664.232492446899 2632.99989700317 164 163 159
213.407844305038 667.748093605042 2647.0000743866 138 137 133
221.259325742722 669.749438762665 2654.99997138977 115 114 110
228.809505701065 670.741200447083 2658.99991989136 105 104 100
235.848307609558 670.21906375885 2657.00006484985 137 136 132
242.875665426254 669.69633102417 2654.99997138977 142 141 137
249.985784292221 669.425427913666 2654.00004386902 144 143 139
257.186830043793 669.406294822693 2654.00004386902 149 148 144
264.486908912659 669.638991355896 2654.99997138977 167 166 162
272.201150655746 670.880019664764 2660.00008583069 169 168 164
279.626727104187 671.364009380341 2661.99994087219 155 156 151
287.601321935654 673.108458518982 2668.99991035461 159 161 158
295.171409845352 673.843622207642 2671.99993133545 189 191 188
304.907500743866 679.369747638702 2694.00000572205 204 206 203
-189.85153734684 662.658035755157 2654.99997138977 205 207 202
-182.642385363579 662.672638893127 2654.99997138977 196 198 193
-175.300613045692 662.187516689301 2653.00011634827 161 162 157
-168.096005916595 662.201046943665 2653.00011634827 160 159 155
-160.466447472572 660.46679019928 2645.99990844727 186 185 180
-153.106197714806 659.730315208435 2642.99988746643 167 166 161
-145.706668496132 658.743739128113 2638.99993896484 163 162 157
-138.591006398201 659.004747867584 2640.00010490417 160 161 155
-131.369948387146 658.765852451324 2638.99993896484 153 154 148
-124.342262744904 659.524977207184 2641.99995994568 146 147 141
-117.209255695343 659.784317016602 2642.99988746643 144 145 139
-110.070519149303 660.043120384216 2644.00005340576 144 143 138
-102.809317409992 659.552454948425 2641.99995994568 120 119 114
-95.4863205552101 658.561885356903 2638.00001144409 138 137 132
-87.9169702529907 655.573546886444 2625.99992752075 149 148 143
-80.4741308093071 653.083860874176 2615.9999370575 152 151 146
-73.0573832988739 650.343954563141 2605.00001907349 154 153 148
-65.8268481492996 648.851692676544 2598.99997711182 160 157 152
-58.6513690650463 647.608518600464 2594.00010108948 162 159 154
-51.5426807105541 646.863996982574 2591.00008010864 161 158 153
-44.4501675665379 646.118879318237 2588.00005912781 158 157 152
-37.4027602374554 645.872592926025 2586.99989318848 157 158 152
-30.3606875240803 645.625710487366 2585.99996566772 150 153 146
-23.3329907059669 645.627856254578 2585.99996566772 148 151 144
-16.2989273667336 645.379900932312 2585.00003814697 151 152 146
-9.26307868212461 644.631922245026 2582.00001716614 153 154 148
-2.24525225348771 644.38271522522 2581.00008964539 153 152 147
4.76714503020048 644.132912158966 2579.99992370605 154 153 148
11.7877898737788 644.631564617157 2582.00001716614 156 155 150
18.7974274158478 644.380688667297 2581.00008964539 158 155 150
25.8015748113394 644.129157066345 2579.99992370605 157 154 149
32.8002236783504 643.877148628235 2578.9999961853 157 156 151
39.8242175579071 644.123792648315 2579.99992370605 155 154 150
46.8898490071297 644.869327545166 2582.99994468689 153 152 148
53.9925284683704 645.863771438599 2586.99989318848 153 152 148
61.0224567353725 645.859122276306 2586.99989318848 156 155 150
68.0522173643112 645.853817462921 2586.99989318848 155 154 149
75.0237628817558 645.348787307739 2585.00003814697 155 154 149
82.0477083325386 645.342350006104 2585.00003814697 154 153 148
89.1403630375862 645.834743976593 2586.99989318848 155 152 145
96.243642270565 646.326541900635 2588.99998664856 156 153 146
103.317648172379 646.568119525909 2589.99991416931 156 153 146
110.396832227707 646.809220314026 2591.00008010864 154 151 144
117.390491068363 646.550297737122 2589.99991416931 149 148 143
124.42646920681 646.540641784668 2589.99991416931 156 155 150
131.462126970291 646.530389785767 2589.99991416931 153 152 147
138.497442007065 646.519660949707 2589.99991416931 150 149 144
145.700961351395 647.257149219513 2592.99993515015 149 148 143
152.684807777405 646.995723247528 2592.00000762939 144 143 138
160.032540559769 648.231387138367 2596.99988365173 175 174 170
167.342707514763 649.216949939728 2601.0000705719 173 172 168
174.808293581009 650.70104598999 2607.00011253357 177 176 172
182.236224412918 651.934921741486 2611.99998855591 168 167 163
189.690917730331 653.168439865112 2617.00010299683 172 171 167
197.473019361496 655.3995013237 2625.99992752075 159 158 154
205.537289381027 658.378779888153 2638.00001144409 170 169 165
213.908106088638 662.106215953827 2653.00011634827 140 139 135
221.776381134987 664.085865020752 2661.00001335144 119 118 114
229.343354701996 665.066719055176 2664.99996185303 103 102 98
236.310124397278 664.300322532654 2661.99994087219 136 135 131
243.35153400898 663.783073425293 2660.00008583069 141 140 136
250.193059444427 662.766098976135 2655.99989891052 142 141 137
257.496893405914 662.996530532837 2657.00006484985 149 148 144
264.506697654724 662.477850914001 2654.99997138977 165 164 160
272.016704082489 663.206398487091 2657.99999237061 164 163 159
279.332250356674 663.435339927673 2658.99991989136 154 155 150
287.191450595856 664.911448955536 2664.99996185303 159 161 158
294.751137495041 665.638566017151 2667.99998283386 187 189 186
303.911060094833 669.857919216156 2684.99994277954 193 195 192
-189.365804195404 653.767943382263 2648.00000190735 203 205 200
-182.312726974487 654.276251792908 2650.00009536743 191 193 188
-175.182238221169 654.537200927734 2651.00002288818 162 163 158
-168.045908212662 654.797673225403 2651.99995040894 163 162 157
-160.479143261909 653.329133987427 2645.99990844727 178 177 172
-153.060436248779 652.354001998901 2641.99995994568 179 178 173
-145.718291401863 651.625096797943 2638.99993896484 159 158 153
-138.497069478035 651.389539241791 2638.00001144409 155 156 150
-131.131559610367 650.412619113922 2634.0000629425 156 157 151
-124.211043119431 651.657521724701 2638.99993896484 143 144 136
-117.263033986092 652.901887893677 2644.00005340576 145 146 138
-110.204294323921 653.651833534241 2647.0000743866 141 141 133
-102.93436050415 653.166532516479 2644.99998092651 126 126 118
-95.4940393567085 651.445984840393 2638.00001144409 144 143 138
-87.9575833678246 648.736953735352 2627.00009346008 148 147 142
-80.48065751791 646.027326583862 2615.9999370575 156 155 150
-73.0913579463959 643.563985824585 2605.99994659424 157 156 151
-65.9335181117058 642.828762531281 2602.9999256134 160 157 152
-58.7465912103653 641.599118709564 2598.00004959106 160 157 152
-51.6065694391727 640.61576128006 2594.00010108948 158 155 150
-44.5225052535534 640.125751495361 2592.00000762939 152 151 146
-37.4491922557354 639.63520526886 2589.99991416931 146 147 141
-30.3983893245459 639.39094543457 2588.99998664856 141 144 137
-23.3348980545998 638.652205467224 2585.99996566772 142 145 138
-16.3002610206604 638.406991958618 2585.00003814697 148 149 143
-9.26024839282036 637.420058250427 2581.00008964539 150 151 145
-2.24717590026557 637.914538383484 2582.99994468689 150 149 144
4.76753478869796 637.173473834991 2579.99992370605 153 152 147
11.7978863418102 638.160705566406 2584.00011062622 156 155 150
18.8135299831629 637.912511825562 2582.99994468689 157 154 149
25.8436929434538 638.157665729523 2584.00011062622 155 152 147
32.815620303154 637.16733455658 2579.99992370605 156 155 150
39.8274697363377 637.164413928986 2579.99992370605 155 154 150
46.8755140900612 637.654781341553 2582.00001716614 154 153 149
53.9343170821667 638.144612312317 2584.00011062622 155 154 150
60.9802417457104 638.386905193329 2585.00003814697 158 157 152
68.031445145607 638.628602027893 2585.99996566772 158 157 152
75.0588774681091 638.622760772705 2585.99996566772 158 157 152
82.0543691515923 638.36944103241 2585.00003814697 154 153 148
89.147575199604 638.85635137558 2586.99989318848 155 152 145
96.1770564317703 638.848841190338 2586.99989318848 156 153 146
103.286094963551 639.334738254547 2588.99998664856 157 154 147
110.40572822094 639.820039272308 2591.00008010864 156 153 146
117.445275187492 639.810860157013 2591.00008010864 149 148 143
124.484494328499 639.801204204559 2591.00008010864 154 153 148
131.624937057495 640.284717082977 2592.99993515015 153 152 147
138.775885105133 640.767812728882 2595.00002861023 151 150 145
145.937323570251 641.250193119049 2596.99988365173 146 145 140
152.814745903015 640.49768447876 2594.00010108948 141 140 135
160.045206546783 641.225934028625 2596.99988365173 164 163 159
167.227223515511 641.706883907318 2598.99997711182 173 172 168
174.956142902374 644.162356853485 2608.99996757507 175 174 170
182.459875941277 645.629823207855 2615.00000953674 171 170 166
190.140649676323 647.590219974518 2622.99990653992 173 172 168
197.864428162575 649.550318717957 2631.00004196167 156 155 151
205.70906996727 651.756465435028 2640.00010490417 170 169 165
214.085876941681 655.44331073761 2654.99997138977 144 143 139
221.960157155991 657.401442527771 2663.00010681152 124 123 119
229.533106088638 658.371567726135 2667.00005531311 102 101 97
236.416950821877 657.366275787354 2663.00010681152 133 132 128
243.552997708321 657.101154327393 2661.99994087219 139 138 134
250.494599342346 656.341850757599 2658.99991989136 142 141 137
257.807046175003 656.569540500641 2660.00008583069 150 149 145
264.825403690338 656.056225299835 2657.99999237061 163 162 158
272.241711616516 656.529784202576 2660.00008583069 159 158 154
279.352962970734 656.262457370758 2658.99991989136 153 154 149
286.997139453888 657.228708267212 2663.00010681152 158 160 157
294.551759958267 657.947599887848 2665.99988937378 185 187 184
303.706824779511 662.121117115021 2683.00008773804 187 189 186
-189.237594604492 646.13538980484 2645.99990844727 202 204 199
-182.120651006699 646.394193172455 2647.0000743866 189 191 186
-174.997806549072 646.652400493622 2648.00000190735 161 162 157
-167.805701494217 646.665930747986 2648.00000190735 163 162 157
-160.43122112751 645.946323871613 2644.99998092651 176 175 170
-153.072595596313 645.226061344147 2641.99995994568 182 181 176
-145.67469060421 644.261121749878 2638.00001144409 157 156 151
-138.508126139641 644.272446632385 2638.00001144409 153 154 148
-131.291419267654 644.039034843445 2637.00008392334 157 158 152
-124.315150082111 645.026206970215 2641.00003242493 142 143 135
-117.316819727421 646.012842655182 2644.99998092651 143 144 136
-110.296450555325 646.999001502991 2648.9999294281 142 141 136
-103.137284517288 647.251904010773 2650.00009536743 132 131 126
-95.6465825438499 645.305931568146 2641.99995994568 151 150 145
-88.0651623010635 642.382383346558 2630.00011444092 152 151 146
-80.5487334728241 639.458179473877 2618.00003051758 153 152 147
-73.2094943523407 637.510299682617 2609.99989509583 154 153 148
-66.0402178764343 636.783242225647 2607.00011253357 158 155 150
-58.8644407689571 635.81120967865 2602.9999256134 158 155 150
-51.7102517187595 634.838700294495 2598.99997711182 156 153 148
-44.6120239794254 634.354054927826 2596.99988365173 151 150 145
-37.5390127301216 634.113192558289 2595.99995613098 140 141 135
-30.459588393569 633.627533912659 2594.00010108948 140 141 135
-23.3729016035795 632.652580738068 2589.99991416931 142 143 137
-16.3205116987228 632.165729999542 2588.00005912781 148 149 143
-9.27535910159349 631.433963775635 2585.00003814697 148 149 143
-2.2482299245894 631.190180778503 2584.00011062622 149 148 143
4.76792501285672 630.212962627411 2579.99992370605 152 151 146
11.7942849174142 630.945086479187 2582.99994468689 156 155 150
18.8296381384134 631.432354450226 2585.00003814697 156 153 148
25.8658062666655 631.674766540527 2585.99996566772 154 151 146
32.856460660696 630.939543247223 2582.99994468689 155 154 149
39.8615971207619 630.692422389984 2582.00001716614 156 155 151
46.8974933028221 630.933046340942 2582.99994468689 155 154 150
53.9595857262611 631.417512893677 2585.00003814697 156 155 151
61.0559843480587 632.145643234253 2588.00005912781 159 158 153
68.0632814764977 631.896018981934 2586.99989318848 160 159 154
75.0939920544624 631.89023733139 2586.99989318848 159 158 153
82.0610150694847 631.39533996582 2585.00003814697 154 153 148
89.1548022627831 631.876945495605 2586.99989318848 155 152 145
96.1848497390747 631.869435310364 2586.99989318848 157 154 147
103.214628994465 631.861329078674 2586.99989318848 158 155 148
110.329374670982 632.341206073761 2588.99998664856 156 156 148
117.500029504299 633.064806461334 2592.00000762939 151 150 145
124.590575695038 633.299291133881 2592.99993515015 151 150 145
131.584689021111 633.044838905334 2592.00000762939 155 154 149
138.7869566679 633.766710758209 2595.00002861023 153 152 147
145.892769098282 633.999586105347 2595.99995613098 144 143 138
153.003633022308 634.231925010681 2596.99988365173 142 141 136
160.181164741516 634.707927703857 2598.99997711182 153 152 148
167.497828602791 635.671854019165 2602.9999256134 173 172 168
175.036981701851 637.367725372314 2609.99989509583 162 161 157
182.543948292732 638.818860054016 2615.9999370575 172 171 167
190.228030085564 640.757858753204 2624.00007247925 164 163 159
198.105499148369 643.18460226059 2634.0000629425 162 161 157
206.114664673805 645.854830741882 2644.99998092651 169 168 164
214.505672454834 649.501264095306 2660.00008583069 155 154 150
222.227320075035 650.94929933548 2665.99988937378 132 131 127
229.722827672958 651.664435863495 2668.99991035461 103 102 98
236.612603068352 650.669991970062 2664.99996185303 133 132 128
243.846029043198 650.651574134827 2664.99996185303 137 136 132
250.984668731689 650.388717651367 2664.00003433228 143 142 138
258.117258548737 650.125324726105 2663.00010681152 152 151 147
265.144199132919 649.617433547974 2661.00001335144 158 157 153
272.466719150543 649.84142780304 2661.99994087219 152 151 147
279.688954353333 649.820804595947 2661.99994087219 153 152 148
287.12609410286 650.288045406342 2664.00003433228 156 158 155
294.683933258057 650.998890399933 2667.00005531311 181 183 180
303.615808486938 654.638290405273 2681.99992179871 177 179 176
-189.68154489994 640.444576740265 2651.99995040894 199 201 196
-182.272553443909 639.734625816345 2648.9999294281 177 179 174
-175.011575222015 639.507234096527 2648.00000190735 160 161 156
-167.818978428841 639.520764350891 2648.00000190735 161 160 156
-160.686567425728 639.775276184082 2648.9999294281 165 164 159
-153.258591890335 638.821601867676 2644.99998092651 179 178 173
-145.907208323479 638.109028339386 2641.99995994568 158 157 152
-138.571709394455 637.395799160004 2638.99993896484 151 152 146
-131.401509046555 637.406527996063 2638.99993896484 149 150 144
-124.372206628323 638.141453266144 2641.99995994568 151 152 146
-117.414981126785 639.358818531036 2647.0000743866 141 140 136
-110.388621687889 640.334188938141 2651.00002288818 140 139 135
-103.223443031311 640.584290027618 2651.99995040894 134 133 129
-95.7629233598709 638.90153169632 2644.99998092651 145 144 140
-88.2397368550301 636.493504047394 2634.99999046326 144 143 139
-80.8014199137688 634.326338768005 2625.99992752075 149 148 144
-73.4118148684502 632.158577442169 2617.00010299683 151 150 146
-66.1975890398026 631.198048591614 2612.99991607666 153 152 148
-58.9823238551617 629.995346069336 2608.00004005432 149 148 144
-51.8537536263466 629.516661167145 2605.99994659424 144 143 139
-44.7015687823296 628.554403781891 2601.99999809265 141 140 136
-37.628848105669 628.557741641998 2601.99999809265 141 140 136
-30.4855592548847 627.111077308655 2595.99995613098 140 139 135
-23.3748126775026 625.663876533508 2589.99991416931 145 144 140
-16.3092315196991 624.699294567108 2585.99996566772 147 146 142
-9.28329396992922 624.941825866699 2586.99989318848 147 146 142
-2.25015380419791 624.700725078583 2585.99996566772 147 146 142
4.77385940030217 623.975932598114 2582.99994468689 154 153 149
11.7952488362789 623.975276947021 2582.99994468689 158 157 153
18.8384614884853 624.698758125305 2585.99996566772 152 151 147
25.8679203689098 624.696850776672 2585.99996566772 153 152 148
32.8591465950012 623.969793319702 2582.99994468689 155 154 150
39.8648530244827 623.725295066834 2582.00001716614 154 153 148
46.9194836914539 624.204874038696 2584.00011062622 155 154 149
53.963977843523 624.442279338837 2585.00003814697 156 155 150
60.9901733696461 624.437630176544 2585.00003814697 158 157 152
67.9898858070374 624.190807342529 2584.00011062622 159 158 153
75.0420391559601 624.426603317261 2585.00003814697 159 158 153
82.0676758885384 624.42022562027 2585.00003814697 155 154 149
89.1964808106422 625.137865543365 2588.00005912781 155 154 149
96.2298065423965 625.130414962769 2588.00005912781 153 152 147
103.342659771442 625.605344772339 2589.99991416931 151 150 145
110.508732497692 626.321375370026 2592.99993515015 161 160 155
117.645494639874 626.79535150528 2595.00002861023 153 152 147
124.696679413319 626.785635948181 2595.00002861023 154 155 149
131.646007299423 626.292288303375 2592.99993515015 157 158 152
138.905018568039 627.247631549835 2596.99988365173 157 158 153
146.129205822945 627.960801124573 2599.99990463257 147 148 143
153.310388326645 628.431916236877 2601.99999809265 139 140 135
160.502031445503 628.902554512024 2604.00009155273 139 140 135
167.832806706429 629.855573177338 2608.00004005432 184 184 182
175.319030880928 631.291091442108 2614.00008201599 164 164 162
182.837411761284 632.726013660431 2619.99988555908 161 161 159
190.677925944328 635.126352310181 2630.00011444092 163 163 161
198.647454380989 637.767553329468 2641.00003242493 161 160 156
206.676214933395 640.408098697662 2651.99995040894 166 165 161
214.844837784767 643.289506435394 2664.00003433228 144 143 139
222.577914595604 644.721448421478 2670.00007629395 120 119 115
229.998707771301 645.186901092529 2671.99993133545 95 94 90
236.897051334381 644.203186035156 2667.99998283386 133 132 128
244.139105081558 644.184827804565 2667.99998283386 140 139 135
251.380562782288 644.166052341461 2667.99998283386 144 143 139
258.621424436569 644.146740436554 2667.99998283386 154 153 149
265.662342309952 643.644154071808 2665.99988937378 153 152 148
272.794187068939 643.382608890533 2664.99996185303 152 151 147
280.13002872467 643.603384494781 2665.99988937378 155 154 150
287.794083356857 644.547998905182 2670.00007629395 164 164 162
295.147597789764 644.767761230469 2671.0000038147 180 182 179
303.29841375351 646.677017211914 2678.99990081787 179 181 178
312.535256147385 650.75808763504 2696.00009918213 194 196 193
-199.646070599556 642.107546329498 2688.99989128113 209 214 208
-190.340176224709 635.436594486237 2661.00001335144 197 199 194
-182.562157511711 633.540809154511 2653.00011634827 176 178 173
-175.223678350449 633.077323436737 2651.00002288818 160 161 156
-167.895615100861 632.613182067871 2648.9999294281 161 160 156
-160.75998544693 632.865071296692 2650.00009536743 162 161 156
-153.328731656075 631.92218542099 2645.99990844727 173 172 167
-146.084502339363 631.69527053833 2644.99998092651 158 157 152
-138.740316033363 630.990207195282 2641.99995994568 155 156 150
-131.611227989197 631.239891052246 2642.99988746643 146 147 141
-124.476365745068 631.488978862762 2644.00005340576 152 153 147
-117.424428462982 632.215201854706 2647.0000743866 144 143 139
-110.439151525497 633.418560028076 2651.99995040894 141 140 136
-103.270716965199 633.666098117828 2653.00011634827 134 133 129
-95.8430990576744 632.241010665894 2647.0000743866 140 139 135
-88.3138552308083 629.859864711761 2637.00008392334 142 141 137
-80.9618383646011 628.433585166931 2631.00004196167 147 146 142
-73.6141577363014 626.767933368683 2624.00007247925 143 142 138
-66.3549900054932 625.579297542572 2618.99995803833 145 144 140
-59.0775907039642 623.912334442139 2611.99998855591 150 149 145
-51.9176796078682 623.200237751007 2608.99996757507 141 140 136
-44.756755232811 622.248709201813 2605.00001907349 140 139 135
-37.6897677779198 622.49094247818 2605.99994659424 140 139 135
-30.5350311100483 621.06055021286 2599.99990463257 142 141 137
-23.4218500554562 619.868397712708 2595.00002861023 146 145 141
-16.3231808692217 618.197977542877 2588.00005912781 145 144 140
-9.28046461194754 617.721199989319 2585.99996566772 144 143 139
-2.24946765229106 617.482841014862 2585.00003814697 156 155 151
4.77609829977155 617.243885993958 2584.00011062622 156 155 151
11.8053471669555 617.482125759125 2585.00003814697 154 153 149
18.8472867012024 617.958545684814 2586.99989318848 149 148 144
25.8700344711542 617.717862129211 2585.99996566772 151 150 146
32.8618288040161 616.998851299286 2582.99994468689 151 150 146
39.8835428059101 616.995811462402 2582.99994468689 154 153 148
46.9233058393002 617.231249809265 2584.00011062622 158 157 152
53.9683811366558 617.465972900391 2585.00003814697 160 159 154
60.9479434788227 616.983532905579 2582.99994468689 160 159 154
67.9690986871719 616.978228092194 2582.99994468689 159 158 153
75.0191062688828 617.21134185791 2584.00011062622 158 157 152
82.1060687303543 617.682695388794 2585.99996566772 157 156 151
89.1692414879799 617.914617061615 2586.99989318848 157 156 151
96.1632058024406 617.668271064758 2585.99996566772 155 154 149
103.231303393841 617.899119853973 2586.99989318848 154 153 148
110.432401299477 618.845820426941 2591.00008010864 161 160 155
117.564260959625 619.314312934875 2592.99993515015 151 152 146
124.65862929821 619.543492794037 2594.00010108948 146 147 141
131.605759263039 619.055509567261 2592.00000762939 152 153 147
138.755634427071 619.522392749786 2594.00010108948 155 156 151
146.084621548653 620.705187320709 2598.99997711182 147 148 143
153.381496667862 621.648550033569 2602.9999256134 147 148 143
160.761311650276 622.830212116241 2608.00004005432 142 143 138
168.167859315872 624.011218547821 2612.99991607666 157 157 155
175.668224692345 625.430524349213 2618.99995803833 188 188 186
183.061137795448 626.371622085571 2622.99990653992 158 158 156
190.765336155891 628.267347812653 2631.00004196167 157 157 155
198.81334900856 631.117641925812 2642.99988746643 155 154 150
207.081973552704 634.444892406464 2657.00006484985 157 156 152
215.345397591591 637.532591819763 2670.00007629395 140 139 135
223.262026906013 639.425873756409 2677.99997329712 119 118 114
230.618968605995 639.64718580246 2678.99990081787 98 97 93
237.536758184433 638.674199581146 2674.99995231628 131 130 126
244.615271687508 638.17834854126 2673.00009727478 139 138 134
251.776516437531 637.920677661896 2671.99993133545 146 145 141
258.73789191246 637.185156345367 2668.99991035461 152 151 147
265.781968832016 636.687934398651 2667.00005531311 148 147 143
272.916913032532 636.429071426392 2665.99988937378 150 149 145
280.466139316559 637.124538421631 2668.99991035461 156 155 151
288.138777017593 638.058364391327 2673.00009727478 165 165 163
295.500874519348 638.275504112244 2674.00002479553 182 184 181
303.094178438187 638.969600200653 2677.00004577637 179 181 178
312.094211578369 642.527341842651 2691.99991226196 193 195 192
-198.399394750595 630.835890769959 2671.99993133545 209 214 208
-190.14048576355 627.545773983002 2657.99999237061 193 195 190
-182.714104652405 626.852035522461 2654.99997138977 172 174 169
-175.435796380043 626.630067825317 2654.00004386902 161 162 157
-168.162450194359 626.407504081726 2653.00011634827 161 160 156
-160.894051194191 626.184403896332 2651.99995040894 155 154 149
-153.398871421814 625.016272068024 2647.0000743866 160 159 154
-146.040931344032 624.319791793823 2644.00005340576 157 156 151
-138.698890805244 623.62277507782 2641.00003242493 158 159 153
-131.621763110161 624.105751514435 2642.99988746643 143 144 138
-124.533422291279 624.588370323181 2644.99998092651 151 152 146
-117.522597312927 625.542640686035 2648.9999294281 147 146 142
-110.489711165428 626.496434211731 2653.00011634827 142 141 137
-103.356897830963 626.977324485779 2654.99997138977 134 133 129
-95.9956869482994 626.040756702423 2651.00002288818 136 135 131
-88.4549841284752 623.686730861664 2641.00003242493 140 139 135
-81.0607299208641 622.040510177612 2634.0000629425 141 140 136
-73.7884789705276 621.102154254913 2630.00011444092 141 140 136
-66.5124133229256 619.926929473877 2625 143 142 138
-59.2407397925854 618.515133857727 2618.99995803833 145 144 140
-52.0214140415192 617.33877658844 2614.00008201599 140 139 135
-44.8291338980198 616.16188287735 2608.99996757507 141 140 136
-37.692841142416 615.456759929657 2605.99994659424 137 136 132
-30.5492673069239 614.278674125671 2601.0000705719 146 145 141
-23.4237667173147 612.863898277283 2595.00002861023 147 146 142
-16.3308214396238 611.448466777802 2588.99998664856 142 141 137
-9.28481109440327 610.977113246918 2586.99989318848 145 144 140
-2.25052190944552 610.741496086121 2585.99996566772 159 158 154
4.78018540889025 610.741317272186 2585.99996566772 156 155 151
11.815445497632 610.976815223694 2586.99989318848 152 151 147
18.8633985817432 611.447989940643 2588.99998664856 150 149 145
25.8921571075916 611.209988594055 2588.00005912781 152 151 147
32.8772328794003 610.262870788574 2584.00011062622 153 152 148
39.8713536560535 609.78752374649 2582.00001716614 155 154 149
46.9089671969414 610.020220279694 2582.99994468689 157 156 151
53.9518930017948 610.252261161804 2584.00011062622 159 158 153
60.8821026980877 609.302878379822 2579.99992370605 159 158 153
67.9483041167259 609.770059585571 2582.00001716614 159 158 153
75.0251933932304 610.236585140228 2584.00011062622 159 158 153
82.1762382984161 611.174821853638 2588.00005912781 157 156 151
89.1419798135757 610.695540904999 2585.99996566772 157 156 151
96.1709693074226 610.688030719757 2585.99996566772 156 155 150
103.239618241787 610.916137695313 2586.99989318848 154 153 148
110.398665070534 611.616015434265 2589.99991416931 159 158 153
117.52837151289 612.07914352417 2592.00000762939 155 156 150
124.62056428194 612.305581569672 2592.99993515015 145 146 140
131.768628954887 612.767577171326 2595.00002861023 148 149 143
138.980701565742 613.465189933777 2598.00004959106 154 155 150
146.32111787796 614.634394645691 2602.9999256134 148 149 144
153.629392385483 615.567088127136 2607.00011253357 148 149 144
161.082252860069 616.97119474411 2612.99991607666 141 142 137
168.567299842834 618.374884128571 2618.99995803833 148 148 146
176.084533333778 619.777977466583 2625 191 191 189
183.633893728256 621.180474758148 2631.00004196167 152 152 150
191.142827272415 622.34628200531 2635.99991798401 157 157 155
199.054539203644 624.691963195801 2645.99990844727 154 153 149
207.253903150558 627.745270729065 2658.99991989136 154 153 149
215.765357017517 631.506204605103 2674.99995231628 140 139 135
223.779499530792 633.613884449005 2684.00001525879 118 117 113
231.153219938278 633.832454681396 2684.99994277954 98 97 93
237.910151481628 632.398128509521 2678.99990081787 129 128 124
244.816944003105 631.435453891754 2674.99995231628 138 137 133
251.889854669571 630.944550037384 2673.00009727478 146 145 141
259.145200252533 630.925238132477 2673.00009727478 150 149 145
266.30026102066 630.669414997101 2671.99993133545 146 145 141
273.346841335297 630.177140235901 2670.00007629395 150 149 145
280.697166919708 630.392491817474 2671.0000038147 156 155 151
287.944495677948 630.371391773224 2671.0000038147 164 164 162
295.633137226105 631.293833255768 2674.99995231628 181 183 180
303.116351366043 631.743848323822 2677.00004577637 175 177 174
312.232911586761 635.497152805328 2693.00007820129 189 191 188
-197.969317436218 622.222185134888 2665.99988937378 209 214 208
-189.797654747963 619.203209877014 2653.00011634827 191 193 188
-182.590827345848 619.217813014984 2653.00011634827 171 173 168
-175.515696406364 619.698643684387 2654.99997138977 161 162 157
-168.175742030144 619.245409965515 2653.00011634827 161 160 156
-160.785466432571 618.558168411255 2650.00009536743 157 156 151
-153.411045670509 617.870330810547 2647.0000743866 157 156 151
-146.163031458855 617.648839950562 2645.99990844727 159 158 153
-138.920053839684 617.426753044128 2644.99998092651 159 160 154
-131.881311535835 618.137836456299 2648.00000190735 148 149 143
-124.731749296188 618.381500244141 2648.9999294281 149 150 144
-117.665126919746 619.09157037735 2651.99995040894 148 147 143
-110.623545944691 620.034515857697 2655.99989891052 138 137 133
-103.559896349907 620.976984500885 2660.00008583069 133 132 128
-96.2207317352295 620.284676551819 2657.00006484985 136 135 131
-88.6966064572334 618.191003799438 2648.00000190735 136 135 131
-81.1904072761536 615.86332321167 2638.00001144409 143 142 138
-73.9066898822784 614.93581533432 2634.0000629425 148 147 143
-66.6191726922989 613.774120807648 2628.99994850159 146 145 141
-59.3586564064026 612.611949443817 2624.00007247925 135 134 130
-52.0455539226532 610.515296459198 2615.00000953674 139 138 134
-44.8499657213688 609.351873397827 2609.99989509583 137 136 132
-37.6959182322025 608.421385288239 2605.99994659424 140 139 135
-30.5987410247326 608.190715312958 2605.00001907349 151 150 146
-23.4798397868872 607.259035110474 2601.0000705719 147 146 142
-16.3700021803379 605.859756469727 2595.00002861023 144 143 139
-9.29274782538414 604.460000991821 2588.99998664856 153 152 148
-2.2515757009387 603.993475437164 2586.99989318848 153 152 148
4.78427298367023 604.226887226105 2588.00005912781 149 148 144
11.8209784850478 604.226291179657 2588.00005912781 147 146 142
18.8649371266365 604.458451271057 2588.99998664856 151 150 146
25.8942693471909 604.223191738129 2588.00005912781 152 151 147
32.9053625464439 603.753805160522 2585.99996566772 155 154 150
39.8900471627712 603.050410747528 2582.99994468689 159 158 153
46.9127893447876 603.046953678131 2582.99994468689 156 155 150
53.9353974163532 603.042781352997 2582.99994468689 155 154 149
60.8398579061031 601.870834827423 2578.00006866455 157 156 151
67.901186645031 602.332532405853 2579.99992370605 159 158 153
75.0022307038307 603.027105331421 2582.99994468689 161 160 155
82.1828842163086 604.188024997711 2588.00005912781 156 155 150
