ply
format ascii 1.0
comment KinectMotionCapture
element vertex 760
property float x
property float y
property float z
property uchar red
property uchar green
property uchar blue
end_header
341.816246509552 565.401077270508 2638.00001144409 189 191 188
350.29324889183 567.520201206207 2648.00000190735 194 196 193
-75.863428413868 572.408437728882 2701.99990272522 181 181 179
-68.1580826640129 569.448232650757 2687.99996376038 161 162 157
-60.6418885290623 567.546725273132 2678.99990081787 146 145 141
-53.114727139473 565.00905752182 2667.00005531311 155 154 150
-45.7386709749699 563.530027866364 2660.00008583069 162 161 157
-38.3716151118279 561.626672744751 2651.00002288818 158 159 154
-31.112177297473 560.782074928284 2647.0000743866 153 154 149
-23.847309872508 559.301316738129 2640.00010490417 153 154 149
-16.6520234197378 558.879137039185 2638.00001144409 156 157 152
-9.46756731718779 558.456480503082 2635.99991798401 157 158 153
-2.28961068205535 556.973934173584 2628.99994850159 157 158 153
4.84471302479506 554.855227470398 2618.99995803833 156 157 152
11.9337486103177 553.159773349762 2611.00006103516 156 157 152
19.0302524715662 552.946627140045 2609.99989509583 161 162 157
26.1112507432699 552.521109580994 2608.00004005432 164 165 160
33.1812798976898 552.095055580139 2605.99994659424 163 164 159
40.1939675211906 551.032841205597 2601.0000705719 160 161 156
47.2156703472137 550.39381980896 2598.00004959106 159 160 155
54.2417988181114 549.966037273407 2595.99995613098 159 160 155
61.2332709133625 549.325942993164 2592.99993515015 160 161 156
68.2872384786606 549.320757389069 2592.99993515015 160 161 156
75.3410011529922 549.315094947815 2592.99993515015 161 162 157
82.2991877794266 548.673272132874 2589.99991416931 160 161 156
89.2063304781914 547.819137573242 2585.99996566772 161 162 157
96.0914343595505 546.964466571808 2582.00001716614 160 161 156
103.2340452075 547.592103481293 2585.00003814697 160 161 156
110.307328402996 547.795474529266 2585.99996566772 161 162 157
117.476500570774 548.422038555145 2588.99998664856 161 162 157
124.613530933857 548.836231231689 2591.00008010864 163 164 159
131.913512945175 549.885272979736 2595.99995613098 166 167 162
139.186754822731 550.721943378448 2599.99990463257 166 167 162
146.593824028969 551.981627941132 2605.99994659424 158 159 154
153.91518175602 552.817165851593 2609.99989509583 157 158 153
161.13443672657 553.228616714478 2611.99998855591 157 158 153
168.428510427475 553.851246833801 2615.00000953674 167 168 163
176.074028015137 555.532276630402 2622.99990653992 155 156 151
183.692708611488 557.000994682312 2630.00011444092 149 150 145
191.131219267845 557.833731174469 2634.0000629425 146 147 142
198.590889573097 558.665931224823 2638.00001144409 143 142 137
206.071764230728 559.497654438019 2641.99995994568 154 153 148
213.977381587029 561.387598514557 2651.00002288818 141 142 136
221.931263804436 563.276886940002 2660.00008583069 141 142 137
230.364218354225 566.22439622879 2674.00002479553 139 141 136
238.961428403854 569.382965564728 2688.99989128113 119 121 116
247.273176908493 571.693897247314 2700.00004768372 108 110 105
255.738258361816 574.215948581696 2711.99989318848 216 218 215
262.036502361298 571.867704391479 2700.99997520447 222 222 220
267.177283763886 567.190289497375 2678.99990081787 116 116 114
273.324817419052 564.841568470001 2667.99998283386 141 140 138
279.832452535629 563.339352607727 2661.00001335144 142 141 139
286.30131483078 561.836779117584 2654.00004386902 142 141 137
292.731463909149 560.333907604218 2647.0000743866 140 139 137
299.349427223206 559.254109859467 2641.99995994568 158 158 156
305.823504924774 557.96229839325 2635.99991798401 175 175 173
312.382966279984 556.881904602051 2631.00004196167 161 161 159
319.643169641495 557.071089744568 2631.99996948242 160 160 158
326.659649610519 556.836545467377 2631.00004196167 159 159 157
334.177404642105 557.448208332062 2634.0000629425 161 161 159
341.32182598114 557.424604892731 2634.0000629425 186 188 185
349.920660257339 559.728384017944 2644.99998092651 192 194 191
359.793484210968 563.936173915863 2664.99996185303 197 199 196
-84.3597128987312 572.834014892578 2739.00008201599 211 213 210
-75.7290497422218 564.056396484375 2697.00002670288 171 171 169
-68.0874139070511 561.552405357361 2684.99994277954 152 153 148
-60.6240592896938 560.093462467194 2677.99997329712 160 159 155
-53.0791133642197 557.379007339478 2664.99996185303 164 163 159
-45.6735230982304 555.500626564026 2655.99989891052 156 155 151
-38.2878109812737 553.203344345093 2644.99998092651 154 155 150
-31.0676340013742 552.787780761719 2642.99988746643 152 153 148
-23.8401740789413 551.953315734863 2638.99993896484 153 154 149
-16.6596621274948 551.954925060272 2638.99993896484 159 160 155
-9.45036299526691 550.282776355743 2631.00004196167 160 161 156
-2.28369631804526 548.40087890625 2621.99997901917 159 160 155
4.83584916219115 546.727478504181 2614.00008201599 158 159 154
11.9255566969514 545.681118965149 2608.99996757507 159 160 155
19.0026015043259 545.052409172058 2605.99994659424 162 163 158
26.053249835968 544.213950634003 2601.99999809265 164 165 160
33.1075191497803 543.793320655823 2599.99990463257 164 165 160
40.1508025825024 543.37215423584 2598.00004959106 160 161 156
47.164898365736 542.741179466248 2595.00002861023 160 161 156
54.1625246405602 542.109787464142 2592.00000762939 160 161 156
61.1200481653214 541.268646717072 2588.00005912781 160 161 156
68.1872963905334 541.472613811493 2588.99998664856 161 162 157
75.2016752958298 541.257798671722 2588.00005912781 161 162 157
82.2421535849571 541.251659393311 2588.00005912781 162 163 158
89.1788750886917 540.6174659729 2585.00003814697 163 164 159
96.2478891015053 540.81928730011 2585.99996566772 162 163 158
103.282108902931 540.811479091644 2585.99996566772 162 163 158
110.401317477226 541.22132062912 2588.00005912781 163 164 159
117.485716938972 541.421473026276 2588.99998664856 161 162 157
124.671369791031 542.039394378662 2592.00000762939 163 164 159
131.974637508392 543.07496547699 2596.99988365173 167 168 163
139.25114274025 543.900907039642 2601.0000705719 169 170 165
146.605223417282 544.935286045074 2605.99994659424 162 163 158
153.927102684975 545.760035514832 2609.99989509583 157 158 153
161.085233092308 545.957088470459 2611.00006103516 156 157 152
168.312668800354 546.362519264221 2612.99991607666 165 166 161
175.886198878288 547.812938690186 2619.99988555908 157 158 153
183.706820011139 549.890041351318 2630.00011444092 151 152 147
191.290974617004 551.13011598587 2635.99991798401 148 149 144
198.681309819221 551.742494106293 2638.99993896484 145 144 139
206.243455410004 552.772521972656 2644.00005340576 153 152 147
214.155033230782 554.638147354126 2653.00011634827 144 145 139
222.365215420723 557.130336761475 2664.99996185303 140 142 137
230.726152658463 559.830963611603 2677.99997329712 134 136 131
239.42369222641 563.158094882965 2694.00000572205 120 125 119
248.024344444275 566.066443920136 2707.99994468689 98 103 97
257.077544927597 569.810211658478 2726.0000705719 217 219 216
263.317227363586 567.282736301422 2713.99998664856 215 217 214
266.997545957565 559.529542922974 2677.00004577637 121 121 119
273.447275161743 557.837605476379 2668.99991035461 142 141 139
280.063211917877 556.563377380371 2663.00010681152 139 138 136
286.645799875259 555.288851261139 2657.00006484985 139 138 136
293.084442615509 553.804934024811 2650.00009536743 138 137 135
299.371004104614 552.111744880676 2641.99995994568 159 159 157
305.961459875107 551.04523897171 2637.00008392334 172 172 170
312.5239610672 549.978315830231 2631.99996948242 160 160 158
319.787263870239 550.164878368378 2632.99989700317 160 160 158
326.558500528336 549.515247344971 2630.00011444092 158 158 156
334.200799465179 550.327837467194 2634.0000629425 160 160 158
341.345608234406 550.304353237152 2634.0000629425 186 188 185
349.944949150085 552.578449249268 2644.99998092651 192 194 191
361.843436956406 559.865772724152 2680.0000667572 197 199 196
-83.71951431036 561.091125011444 2717.99993515015 211 213 210
-75.73501765728 556.762337684631 2697.00002670288 166 166 164
-68.0674389004707 554.084300994873 2684.00001525879 150 151 146
-60.583584010601 552.437841892242 2676.00011825562 162 161 157
-53.0434772372246 549.758553504944 2663.00010681152 163 162 158
-45.6427410244942 547.904491424561 2654.00004386902 159 158 154
-38.3198000490665 546.462655067444 2647.0000743866 157 158 153
-31.1053618788719 546.258926391602 2645.99990844727 155 156 151
-23.8782037049532 545.641779899597 2642.99988746643 156 157 152
-16.6609846055508 544.817626476288 2638.99993896484 159 160 155
-9.44033544510603 542.547702789307 2628.00002098084 160 161 156
-2.28039338253438 540.483713150024 2618.00003051758 158 159 154
4.83068265020847 539.038419723511 2611.00006103516 158 159 154
11.912789195776 538.005530834198 2605.99994659424 159 160 155
18.982233479619 537.384927272797 2602.9999256134 161 162 157
26.0052476078272 536.144435405731 2596.99988365173 162 163 158
33.0464690923691 535.729229450226 2595.00002861023 163 164 159
40.1076152920723 535.726368427277 2595.00002861023 160 161 156
47.1322722733021 535.309970378876 2592.99993515015 160 161 156
54.1459172964096 534.893155097961 2591.00008010864 160 161 156
61.1248798668385 534.269273281097 2588.00005912781 160 161 156
68.1663453578949 534.264206886292 2588.00005912781 161 162 157
75.1494765281677 533.845603466034 2585.99996566772 161 162 157
82.2168365120888 534.045815467834 2586.99989318848 162 163 158
89.1858860850334 533.626317977905 2585.00003814697 163 164 159
96.2926596403122 534.031867980957 2586.99989318848 162 163 158
103.330135345459 534.024000167847 2586.99989318848 162 163 158
110.537953674793 534.841477870941 2591.00008010864 164 165 160
117.58566647768 534.832537174225 2591.00008010864 162 163 158
124.729186296463 535.23588180542 2592.99993515015 163 164 159
131.832435727119 535.432398319244 2594.00010108948 168 169 164
139.101326465607 536.247551441193 2598.00004959106 170 171 166
146.447792649269 537.268459796906 2602.9999256134 165 166 161
153.821051120758 538.288950920105 2608.00004005432 164 165 160
160.974219441414 538.483142852783 2608.99996757507 153 154 149
168.26120018959 539.089739322662 2611.99998855591 159 160 155
175.899669528008 540.727615356445 2619.99988555908 162 163 158
183.860540390015 543.190479278564 2631.99996948242 158 159 154
191.305547952652 544.001758098602 2635.99991798401 153 154 149
198.771715164185 544.812440872192 2640.00010490417 143 142 137
206.337064504623 545.828878879547 2644.99998092651 150 149 144
214.413344860077 548.083007335663 2655.99989891052 146 147 141
222.632244229317 550.542831420898 2667.99998283386 141 143 138
230.915769934654 553.002059459686 2680.0000667572 138 140 135
239.619329571724 556.285917758942 2696.00009918213 125 130 124
248.592376708984 559.981822967529 2713.99998664856 105 110 104
267.508864402771 568.815588951111 2756.99996948242 209 211 208
267.316371202469 552.909851074219 2680.0000667572 119 119 117
273.97957444191 551.652252674103 2674.00002479553 132 131 129
280.609458684921 550.394237041473 2667.99998283386 136 135 133
286.990225315094 548.72339963913 2660.00008583069 135 134 132
292.994946241379 546.433329582214 2648.9999294281 141 140 138
299.165844917297 544.5556640625 2640.00010490417 165 165 163
305.751204490662 543.502748012543 2634.99999046326 165 165 163
312.664866447449 543.06823015213 2632.99989700317 159 159 157
319.688349962235 542.839646339417 2631.99996948242 159 159 157
326.705574989319 542.610764503479 2631.00004196167 157 157 155
333.843499422073 542.587697505951 2631.00004196167 159 159 157
340.980470180511 542.564272880554 2631.00004196167 186 188 185
349.307507276535 544.396340847015 2640.00010490417 193 195 192
362.678438425064 553.857386112213 2686.00010871887 199 201 198
-83.4488421678543 551.905393600464 2709.00011062622 211 213 210
-75.7690519094467 549.670577049255 2697.99995422363 162 162 160
-68.0981427431107 547.02764749527 2684.99994277954 162 163 158
-60.5430640280247 544.791638851166 2674.00002479553 166 165 161
-53.0078113079071 542.147517204285 2661.00001335144 160 159 155
-45.6463359296322 540.72517156601 2654.00004386902 154 153 149
-38.3662581443787 539.913594722748 2650.00009536743 152 153 148
-31.1195719987154 539.305031299591 2647.0000743866 153 154 149
-23.8981582224369 538.899719715118 2644.99998092651 155 156 151
-16.6622996330261 537.678837776184 2638.99993896484 160 161 156
-9.44826565682888 535.84623336792 2630.00011444092 160 161 156
-2.28144438005984 533.605456352234 2618.99995803833 160 161 156
4.83291456475854 532.179176807404 2611.99998855591 161 162 157
11.909157037735 530.752301216125 2605.00001907349 162 163 158
18.9472660422325 529.324889183044 2598.00004959106 161 162 157
25.95722861588 528.100669384003 2592.00000762939 161 162 157
32.972663640976 527.487099170685 2588.99998664856 163 164 159
40.0489456951618 527.891755104065 2591.00008010864 161 162 157
47.1359901130199 528.295814990997 2592.99993515015 160 161 156
54.1292689740658 527.680575847626 2589.99991416931 160 161 156
61.0824413597584 526.861131191254 2585.99996566772 161 162 157
68.0663362145424 526.448607444763 2584.00011062622 161 162 157
75.0681832432747 526.239216327667 2582.99994468689 161 162 157
82.1279361844063 526.436865329742 2584.00011062622 162 163 158
89.123860001564 526.226401329041 2582.99994468689 162 163 158
96.22573107481 526.626646518707 2585.00003814697 161 162 157
103.298254311085 526.822566986084 2585.99996566772 162 163 158
110.546566545963 527.832925319672 2591.00008010864 165 166 161
117.685563862324 528.23144197464 2592.99993515015 161 162 157
124.835096299648 528.629541397095 2595.00002861023 161 162 157
131.944298744202 528.823256492615 2595.99995613098 166 167 162
139.112070202827 529.220223426819 2598.00004959106 169 170 165
146.402820944786 530.023992061615 2601.99999809265 163 164 159
153.596937656403 530.419886112213 2604.00009155273 162 163 158
160.92486679554 531.222581863403 2608.00004005432 152 153 148
168.20964217186 531.821072101593 2611.00006103516 157 158 153
175.913095474243 533.64109992981 2619.99988555908 163 164 159
183.734834194183 535.664260387421 2630.00011444092 159 160 155
191.320031881332 536.872029304504 2635.99991798401 155 156 151
198.86203110218 537.875592708588 2641.00003242493 142 141 136
206.58665895462 539.286017417908 2648.00000190735 149 148 143
214.752390980721 541.714072227478 2660.00008583069 142 143 137
222.982704639435 544.141411781311 2671.99993133545 139 141 136
231.277644634247 546.568214893341 2684.00001525879 142 144 139
240.081548690796 550.012528896332 2700.99997520447 119 124 118
267.834663391113 546.679973602295 2684.99994277954 120 120 118
274.204462766647 544.827818870544 2676.00011825562 124 123 121
280.734956264496 543.382525444031 2668.99991035461 134 133 131
286.902993917465 541.326224803925 2658.99991989136 135 134 132
293.126612901688 539.473235607147 2650.00009536743 144 143 141
299.187213182449 537.416338920593 2640.00010490417 164 164 162
306.005001068115 536.784112453461 2637.00008392334 160 160 158
312.92450428009 536.355137825012 2634.99999046326 157 157 155
319.710820913315 535.722255706787 2631.99996948242 158 158 156
326.85261964798 535.699605941772 2631.99996948242 156 156 154
333.612859249115 535.06600856781 2628.99994850159 159 159 157
341.00404381752 535.449743270874 2631.00004196167 186 188 185
349.066853523254 536.85063123703 2638.00001144409 193 195 192
361.48789525032 544.762909412384 2677.00004577637 199 201 198
-83.4245458245277 544.375061988831 2707.99994468689 207 209 206
-75.8311375975609 542.773067951202 2700.00004768372 168 168 166
-68.1541934609413 540.165364742279 2687.00003623962 168 169 164
-60.547798871994 537.557005882263 2674.00002479553 163 162 158
-53.0318804085255 535.148978233337 2661.99994087219 158 157 153
-45.6843115389347 533.946692943573 2655.99989891052 152 151 147
-38.3982211351395 533.145844936371 2651.99995040894 153 154 149
-31.1455316841602 532.545447349548 2648.9999294281 155 156 151
-23.9000339061022 531.743407249451 2644.99998092651 157 158 153
-16.6509784758091 530.13676404953 2637.00008392334 160 161 156
-9.45260003209114 528.931498527527 2631.00004196167 160 161 156
-2.282494911924 526.720583438873 2619.99988555908 161 162 157
4.8332940787077 525.112152099609 2611.99998855591 162 163 158
11.9009502232075 523.30219745636 2602.9999256134 163 164 159
18.9487542957067 522.295773029327 2598.00004959106 162 163 158
25.9792990982533 521.489918231964 2594.00010108948 161 162 157
32.9879857599735 520.683407783508 2589.99991416931 164 165 160
40.0520898401737 520.881593227386 2591.00008010864 161 162 157
47.1396818757057 521.280229091644 2592.99993515015 161 162 157
54.1753135621548 521.075189113617 2592.00000762939 161 162 157
61.1580908298492 520.467698574066 2588.99998664856 161 162 157
68.0979937314987 519.658505916595 2585.00003814697 162 163 158
75.1321837306023 519.652903079987 2585.00003814697 162 163 158
82.1025371551514 519.244730472565 2582.99994468689 163 164 159
89.0617966651917 518.836081027985 2581.00008964539 163 164 159
96.0843041539192 518.828868865967 2581.00008964539 162 163 158
103.266336023808 519.625246524811 2585.00003814697 163 164 159
110.51245033741 520.62201499939 2589.99991416931 167 168 163
117.694675922394 521.216213703156 2592.99993515015 170 171 166
124.796628952026 521.407902240753 2594.00010108948 165 166 161
131.954446434975 521.799981594086 2595.99995613098 169 170 165
138.962104916573 521.588623523712 2595.00002861023 172 173 168
146.357789635658 522.783637046814 2601.0000705719 166 167 162
153.549715876579 523.174166679382 2602.9999256134 163 164 159
161.060571670532 524.569094181061 2609.99989509583 152 153 148
168.351292610168 525.159478187561 2612.99991607666 154 155 150
175.993606448174 526.754260063171 2621.00005149841 160 161 156
183.608993887901 528.147459030151 2628.00002098084 157 158 153
191.261917352676 529.540121555328 2634.99999046326 157 158 153
198.952287435532 530.932188034058 2641.99995994568 152 151 146
206.758201122284 532.524645328522 2650.00009536743 144 143 138
214.768454432487 534.518420696259 2660.00008583069 143 144 138
223.082795739174 537.114381790161 2673.00009727478 138 140 135
231.294825673103 539.307773113251 2684.00001525879 136 138 133
240.988239645958 544.715464115143 2710.99996566772 132 137 131
268.752008676529 541.225373744965 2694.00000572205 165 165 163
274.941682815552 538.995802402496 2683.00008773804 114 113 111
281.176000833511 536.966919898987 2673.00009727478 130 129 127
287.031531333923 534.335017204285 2660.00008583069 138 137 135
292.815655469894 531.702876091003 2647.0000743866 158 157 155
299.208492040634 530.275821685791 2640.00010490417 160 160 158
306.026667356491 529.651820659637 2637.00008392334 159 159 157
313.065260648727 529.429078102112 2635.99991798401 160 160 158
319.490283727646 528.201997280121 2630.00011444092 157 157 155
326.751202344894 528.380334377289 2631.00004196167 158 158 156
333.382219076157 527.554154396057 2627.00009346008 161 161 159
340.768277645111 527.932524681091 2628.99994850159 186 188 185
348.164439201355 528.310596942902 2631.00004196167 190 192 189
360.297054052353 535.715997219086 2667.99998283386 195 197 194
-92.1747907996178 545.171439647675 2749.00007247925 205 207 204
-83.6774930357933 538.633763790131 2716.00008010864 204 206 203
-75.8932009339333 535.863399505615 2701.99990272522 175 175 173
-68.0833980441093 532.299220561981 2684.00001525879 170 171 166
-60.4845769703388 529.725968837738 2671.0000038147 157 156 152
-52.9961735010147 527.548789978027 2660.00008583069 156 155 151
-45.6878766417503 526.759266853333 2655.99989891052 154 153 149
-38.4012199938297 525.969266891479 2651.99995040894 158 159 154
-31.1597213149071 525.575339794159 2650.00009536743 159 160 155
-23.9109378308058 524.78414773941 2645.99990844727 160 161 156
-16.6585966944695 523.199081420898 2638.00001144409 161 162 157
-9.45333950221539 521.811783313751 2631.00004196167 159 160 155
-2.28180224075913 519.432246685028 2618.99995803833 160 161 156
4.83182165771723 517.845511436462 2611.00006103516 161 162 157
11.9064524769783 516.456484794617 2604.00009155273 162 163 158
18.9502369612455 515.265345573425 2598.00004959106 160 161 156
25.9813256561756 514.470219612122 2594.00010108948 160 161 156
33.0033004283905 513.872981071472 2591.00008010864 163 164 159
40.0397516787052 513.671815395355 2589.99991416931 161 162 157
47.106996178627 513.866722583771 2591.00008010864 161 162 157
54.1795343160629 514.061152935028 2592.00000762939 161 162 157
61.1864738166332 513.659954071045 2589.99991416931 161 162 157
68.1032910943031 512.6633644104 2585.00003814697 162 163 158
75.0508159399033 512.062847614288 2582.00001716614 163 164 159
82.0135474205017 511.660099029541 2579.99992370605 163 164 159
88.9996737241745 511.455237865448 2578.9999961853 164 165 160
96.0172712802887 511.448085308075 2578.9999961853 163 164 159
103.154458105564 512.035310268402 2582.00001716614 164 165 160
110.307611525059 512.622058391571 2585.00003814697 168 169 164
117.612943053246 513.803064823151 2591.00008010864 170 171 166
124.854318797588 514.586985111237 2595.00002861023 165 166 161
132.269561290741 515.965223312378 2601.99999809265 168 169 164
139.240503311157 515.558242797852 2599.99990463257 171 172 167
146.481513977051 516.142308712006 2602.9999256134 164 165 160
153.561398386955 516.130924224854 2602.9999256134 161 162 157
161.072790622711 517.506897449493 2609.99989509583 152 153 148
168.428510427475 518.287599086761 2614.00008201599 154 155 150
176.006898283958 519.662499427795 2621.00005149841 158 159 154
183.692693710327 521.235048770905 2628.99994850159 156 157 152
191.276267170906 522.410571575165 2634.99999046326 157 158 153
199.042484164238 523.981988430023 2642.99988746643 157 156 151
206.773638725281 525.3546833992 2650.00009536743 140 139 134
214.865177869797 527.519643306732 2661.00001335144 148 149 143
223.015874624252 529.684066772461 2671.99993133545 141 143 138
231.82900249958 533.235430717468 2690.00005722046 134 136 131
268.771439790726 533.936977386475 2694.00000572205 202 202 200
274.96150135994 531.737387180328 2683.00008773804 109 108 106
280.985772609711 529.339194297791 2671.0000038147 130 129 127
286.728292703629 526.544511318207 2657.00006484985 140 139 137
292.615205049515 524.145781993866 2644.99998092651 159 158 156
299.116313457489 522.935926914215 2638.99993896484 161 161 159
305.932104587555 522.320151329041 2635.99991798401 162 162 160
312.849700450897 521.90226316452 2634.0000629425 164 164 162
319.512546062469 521.087646484375 2630.00011444092 157 157 155
326.649636030197 521.065294742584 2630.00011444092 158 158 156
333.532065153122 520.646214485168 2628.00002098084 161 161 159
340.92128276825 521.019339561462 2630.00011444092 186 188 185
348.717510700226 521.986365318298 2634.99999046326 190 192 189
359.241008758545 526.914656162262 2660.00008583069 193 195 192
-92.4501493573189 539.296090602875 2756.99996948242 207 209 206
-83.8996395468712 532.652139663696 2723.00004959106 190 192 189
-75.73052495718 527.376651763916 2696.00009918213 176 176 174
-67.8857266902924 523.469924926758 2676.00011825562 166 167 162
-60.3760294616222 521.518707275391 2665.99988937378 163 162 158
-53.0002787709236 520.349323749542 2660.00008583069 161 160 156
-45.6914231181145 519.570648670197 2655.99989891052 159 158 154
-38.3897162973881 518.595814704895 2651.00002288818 159 160 155
-31.1268623918295 517.815947532654 2647.0000743866 161 162 157
-23.8856840878725 517.035603523254 2642.99988746643 161 162 157
-16.6346281766891 515.276610851288 2634.0000629425 161 162 157
-9.43970121443272 513.908267021179 2627.00009346008 161 162 157
-2.2784941829741 511.561214923859 2615.00000953674 161 162 157
4.82849543914199 510.387301445007 2608.99996757507 162 163 158
11.9073772802949 509.408533573151 2604.00009155273 163 164 159
18.9590007066727 508.429169654846 2598.99997711182 163 164 159
26.0033775120974 507.840633392334 2595.99995613098 163 164 159
33.0313369631767 507.251441478729 2592.99993515015 162 163 158
40.0273986160755 506.466090679169 2588.99998664856 161 162 157
47.0561012625694 506.267130374908 2588.00005912781 161 162 157
54.121021181345 506.458878517151 2588.99998664856 161 162 157
61.1203275620937 506.063163280487 2586.99989318848 161 162 157
68.0558606982231 505.275726318359 2582.99994468689 161 162 157
74.9984681606293 504.683315753937 2579.99992370605 161 162 157
82.0198655128479 504.677295684814 2579.99992370605 162 163 158
88.9720097184181 504.279553890228 2578.00006866455 163 164 159
95.987431704998 504.272401332855 2578.00006866455 163 164 159
103.122420608997 504.851639270782 2581.00008964539 164 165 160
110.273398458958 505.430281162262 2584.00011062622 167 168 163
117.531143128872 506.399512290955 2588.99998664856 169 170 165
124.719500541687 506.977081298828 2592.00000762939 166 167 162
132.177978754044 508.531987667084 2599.99990463257 167 168 163
139.197543263435 508.326172828674 2598.99997711182 170 171 166
146.380066871643 508.706510066986 2601.0000705719 169 170 165
153.51402759552 508.890748023987 2601.99999809265 167 168 163
161.023244261742 510.247886180878 2608.99996757507 158 159 154
168.505623936653 511.408925056458 2615.00000953674 154 155 150
176.020100712776 512.56936788559 2621.00005149841 158 159 154
183.776363730431 514.316022396088 2630.00011444092 158 159 154
191.435754299164 515.670895576477 2637.00008392334 156 157 152
199.057310819626 516.829609870911 2642.99988746643 149 148 143
206.789001822472 518.183469772339 2650.00009536743 154 153 148
214.9618268013 520.514309406281 2661.99994087219 144 145 139
223.366215825081 523.235678672791 2676.00011825562 148 150 145
232.363164424896 527.129471302032 2696.00009918213 137 139 134
268.890559673309 526.842951774597 2694.9999332428 217 217 215
275.186151266098 524.868667125702 2684.99994277954 136 135 133
281.005799770355 522.11207151413 2671.0000038147 132 131 129
286.640703678131 519.159853458405 2655.99989891052 148 147 145
292.304009199142 516.402900218964 2641.99995994568 154 153 151
298.910677433014 515.404880046844 2637.00008392334 153 153 151
305.953532457352 515.188157558441 2635.99991798401 154 154 152
312.871485948563 514.775812625885 2634.0000629425 162 162 160
319.656193256378 514.167606830597 2631.00004196167 161 161 159
326.175272464752 513.168156147003 2625.99992752075 160 160 158
333.047240972519 512.754738330841 2624.00007247925 166 166 164
340.425938367844 513.12255859375 2625.99992752075 186 188 185
348.476439714432 514.467000961304 2632.99989700317 192 194 191
360.480755567551 521.477043628693 2668.99991035461 194 196 193
-91.3840979337692 525.659918785095 2724.99990463257 208 210 207
-83.6595594882965 523.737549781799 2714.99991416931 192 194 191
-75.4554271697998 518.149435520172 2686.00010871887 178 178 176
-67.7387192845345 515.068352222443 2670.00007629395 166 167 162
-60.3127293288708 513.722896575928 2663.00010681152 163 162 158
-53.0043579638004 513.148486614227 2660.00008583069 163 162 158
-45.6777401268482 512.187719345093 2654.99997138977 159 158 154
-38.3781976997852 511.226356029511 2650.00009536743 159 160 155
-31.082222238183 509.878575801849 2642.99988746643 161 162 157
-23.8513760268688 509.109079837799 2638.99993896484 162 163 158
-16.6043322533369 507.181406021118 2628.99994850159 162 163 158
-9.42246150225401 505.832016468048 2621.99997901917 161 162 157
-2.27779895067215 504.289150238037 2614.00008201599 161 162 157
4.83071897178888 503.517329692841 2609.99989509583 161 162 157
11.91287022084 502.552092075348 2605.00001907349 162 163 158
18.9531706273556 501.200497150421 2598.00004959106 162 163 158
25.9953681379557 500.620007514954 2595.00002861023 162 163 158
33.0211445689201 500.038981437683 2592.00000762939 161 162 157
40.0459505617619 499.650359153748 2589.99991416931 161 162 157
47.0415391027927 499.068200588226 2586.99989318848 161 162 157
54.0833733975887 499.064356088638 2586.99989318848 161 162 157
61.0777735710144 498.674124479294 2585.00003814697 161 162 157
68.0084004998207 497.897565364838 2581.00008964539 161 162 157
74.9751552939415 497.506231069565 2578.9999961853 161 162 157
81.9625928997993 497.307389974594 2578.00006866455 162 163 158
88.9097899198532 496.915012598038 2575.99997520447 163 164 159
95.9202945232391 496.907979249954 2575.99997520447 164 165 160
103.090330958366 497.671991586685 2579.99992370605 165 166 161
110.324487090111 498.628377914429 2585.00003814697 169 170 165
117.585495114326 499.584168195724 2589.99991416931 170 171 166
124.680854380131 499.767869710922 2591.00008010864 167 168 163
132.035478949547 500.91540813446 2596.99988365173 168 169 164
139.154508709908 501.098096370697 2598.00004959106 170 171 166
146.334826946259 501.473128795624 2599.99990463257 168 169 164
153.525590896606 501.847624778748 2601.99999809265 166 167 162
161.035344004631 503.185868263245 2608.99996757507 160 161 156
168.518230319023 504.330694675446 2615.00000953674 156 157 152
176.03325843811 505.475044250488 2621.00005149841 157 158 153
183.720141649246 507.004499435425 2628.99994850159 157 158 153
191.449970006943 508.533358573914 2637.00008392334 154 155 150
199.072062969208 509.675979614258 2642.99988746643 150 149 144
206.72619342804 510.818064212799 2648.9999294281 154 153 148
214.896872639656 513.116538524628 2661.00001335144 141 142 136
223.382577300072 515.992939472198 2676.00011825562 148 150 145
232.89729654789 520.989537239075 2701.99990272522 142 144 139
275.410771369934 517.987847328186 2687.00003623962 175 174 172
280.815333127975 514.498174190521 2668.99991035461 133 132 130
286.445140838623 511.586785316467 2654.00004386902 151 150 148
292.32457280159 509.253323078156 2641.99995994568 158 157 155
298.818200826645 508.076071739197 2635.99991798401 156 156 154
305.742740631104 507.669568061829 2634.0000629425 155 155 153
312.299221754074 506.684541702271 2628.99994850159 162 162 160
319.192230701447 506.277322769165 2627.00009346008 160 160 158
325.576573610306 505.098819732666 2621.00005149841 162 162 160
332.816123962402 505.269110202789 2621.99997901917 167 167 165
340.060085058212 505.438923835754 2622.99990653992 184 186 183
349.029362201691 508.113443851471 2637.00008392334 190 192 189
360.234826803207 513.870120048523 2667.00005531311 194 196 193
-91.6593745350838 519.803524017334 2733.00004005432 205 207 204
-83.142064511776 513.153254985809 2697.99995422363 180 182 179
-75.1521438360214 508.784651756287 2674.99995231628 177 177 175
-67.6170364022255 506.888091564178 2664.99996185303 172 173 168
-60.2720454335213 506.132185459137 2661.00001335144 162 161 157
-53.0283413827419 506.136417388916 2661.00001335144 161 160 156
-45.6984415650368 505.189180374146 2655.99989891052 159 158 154
-38.3666530251503 503.860950469971 2648.9999294281 161 162 157
-31.0610849410295 502.34192609787 2641.00003242493 162 163 158
-23.8351281732321 501.583218574524 2637.00008392334 163 164 159
-16.5992919355631 499.872863292694 2628.00002098084 163 164 159
-9.4159971922636 498.352140188217 2619.99988555908 162 163 158
-2.2762306034565 496.830880641937 2611.99998855591 162 163 158
4.82368608936667 495.689570903778 2605.99994659424 162 163 158
11.8954917415977 494.737893342972 2601.0000705719 162 163 158
18.9400333911181 493.78564953804 2595.99995613098 162 163 158
25.9873438626528 493.403553962708 2594.00010108948 161 162 157
33.0236777663231 493.020802736282 2592.00000762939 160 161 156
40.0490127503872 492.637604475021 2589.99991416931 160 161 156
47.0633395016193 492.253929376602 2588.00005912781 160 161 156
54.0457032620907 491.679459810257 2585.00003814697 160 161 156
61.0115602612495 491.104453802109 2582.00001716614 160 161 156
67.9608806967735 490.528881549835 2578.9999961853 160 161 156
74.9227255582809 490.143030881882 2576.99990272522 162 163 158
81.9052383303642 489.946901798248 2575.99997520447 163 164 159
88.9165550470352 489.940375089645 2575.99997520447 163 164 159
95.9275886416435 489.933401346207 2575.99997520447 163 164 159
103.178076446056 491.06702208519 2582.00001716614 163 164 159
110.418193042278 492.009878158569 2586.99989318848 166 167 162
117.594383656979 492.571830749512 2589.99991416931 170 171 166
124.545887112617 492.182403802872 2588.00005912781 170 171 166
131.689503788948 492.553114891052 2589.99991416931 171 172 167
138.950690627098 493.303626775742 2594.00010108948 170 171 166
146.233230829239 494.053721427917 2598.00004959106 169 170 165
153.596073389053 494.993269443512 2602.9999256134 167 168 163
161.109074950218 496.312648057938 2609.99989509583 162 163 158
168.53079199791 497.251242399216 2615.00000953674 159 160 155
175.979152321815 498.189210891724 2619.99988555908 155 156 151
183.454185724258 499.126672744751 2625 157 158 153
191.391482949257 501.204371452332 2635.99991798401 155 156 151
199.0866959095 502.520978450775 2642.99988746643 152 151 146
206.819400191307 503.837108612061 2650.00009536743 152 151 146
214.831843972206 505.722999572754 2660.00008583069 143 144 138
223.482325673103 508.93896818161 2677.00004577637 147 149 144
233.25902223587 514.435708522797 2706.00008964539 136 138 133
275.327801704407 510.524749755859 2686.00010871887 209 208 206
280.414283275604 506.513774394989 2664.99996185303 135 134 132
286.357343196869 504.213213920593 2653.00011634827 154 153 151
292.234390974045 501.912415027618 2641.00003242493 163 162 160
298.952400684357 501.13171339035 2637.00008392334 161 161 159
305.531769990921 500.160574913025 2631.99996948242 157 157 155
311.726748943329 498.619079589844 2624.00007247925 160 160 158
318.485021591187 498.027443885803 2621.00005149841 158 158 156
325.101912021637 497.245490550995 2617.00010299683 163 163 161
332.711726427078 497.983157634735 2621.00005149841 168 168 166
339.823782444 497.96050786972 2621.00005149841 181 183 180
348.523288965225 500.217199325562 2632.99989700317 189 191 188
360.123753547668 506.462812423706 2665.99988937378 193 195 192
-82.7477127313614 503.409504890442 2684.99994277954 177 179 176
-74.9330669641495 500.040590763092 2667.00005531311 175 175 173
-67.5206631422043 498.921036720276 2661.00001335144 172 173 168
-60.2313168346882 498.550862073898 2658.99991989136 163 162 158
-52.9925152659416 498.555153608322 2658.99991989136 162 161 157
-45.6675067543983 497.621417045593 2654.00004386902 162 161 157
-38.369569927454 496.687084436417 2648.9999294281 161 162 157
-31.0987383127213 495.752245187759 2644.00005340576 163 164 159
-23.8279029726982 494.254291057587 2635.99991798401 163 164 159
-16.5942385792732 492.568343877792 2627.00009346008 163 164 159
-9.40952636301517 490.88180065155 2618.00003051758 163 164 159
-2.27640429511666 489.757239818573 2611.99998855591 164 165 160
4.82035148888826 488.257110118866 2604.00009155273 164 165 160
11.8918232619762 487.506449222565 2599.99990463257 164 165 160
18.9414769411087 486.755281686783 2595.99995613098 163 164 159
25.9893219918013 486.378580331802 2594.00010108948 163 164 159
32.987967133522 485.438853502274 2588.99998664856 161 162 157
40.0520637631416 485.623568296433 2589.99991416931 160 161 156
47.0305345952511 484.870225191116 2585.99996566772 160 161 156
54.0498085319996 484.678953886032 2585.00003814697 160 161 156
60.9925575554371 483.924597501755 2581.00008964539 160 161 156
67.9396912455559 483.35725069046 2578.00006866455 160 161 156
74.9284103512764 483.164370059967 2576.99990272522 161 162 157
81.9114372134209 482.970982789993 2575.99997520447 162 163 158
88.923268020153 482.964485883713 2575.99997520447 162 163 158
95.9720611572266 483.144998550415 2576.99990272522 162 163 158
103.185847401619 484.074980020523 2582.00001716614 162 163 158
110.426500439644 485.004335641861 2586.99989318848 165 166 161
117.603212594986 485.558211803436 2589.99991416931 169 170 165
124.507084488869 484.986782073975 2586.99989318848 170 171 166
131.597653031349 485.164672136307 2588.00005912781 171 172 167
138.800367712975 485.71702837944 2591.00008010864 170 171 166
146.300405263901 487.206071615219 2598.99997711182 169 170 165
153.666496276855 488.132238388062 2604.00009155273 168 169 164
161.306217312813 489.807665348053 2612.99991607666 162 163 158
168.607696890831 490.357875823975 2615.9999370575 159 160 155
176.126480102539 491.469889879227 2621.99997901917 154 155 150
183.60747396946 492.393881082535 2627.00009346008 158 159 154
191.405519843102 494.067013263702 2635.99991798401 158 159 154
199.251919984818 495.739609003067 2644.99998092651 159 158 153
206.990584731102 497.036784887314 2651.99995040894 149 148 143
215.008959174156 498.895645141602 2661.99994087219 143 144 138
223.415046930313 501.503646373749 2676.00011825562 144 146 141
233.362033963203 507.296681404114 2707.00001716614 137 139 134
275.24471282959 503.065824508667 2684.99994277954 226 225 223
280.328750610352 499.111890792847 2664.00003433228 135 134 132
286.485284566879 497.218579053879 2654.00004386902 146 145 143
292.365342378616 494.950324296951 2641.99995994568 146 145 143
298.973083496094 493.993252515793 2637.00008392334 150 150 148
305.204480886459 492.473810911179 2628.99994850159 161 161 159
311.154067516327 490.579545497894 2618.99995803833 167 167 165
318.020641803741 490.183532238007 2617.00010299683 161 161 159
325.123935937881 490.161776542664 2617.00010299683 167 167 165
332.734137773514 490.888744592667 2621.00005149841 172 172 170
339.716821908951 490.678876638412 2619.99988555908 184 186 183
348.149448633194 492.528825998306 2630.00011444092 191 193 190
358.526557683945 496.999830007553 2654.00004386902 195 197 194
-83.0005034804344 497.615247964859 2693.00007820129 190 192 189
-74.9387145042419 492.816865444183 2667.00005531311 180 180 178
-67.525751888752 491.713464260101 2661.00001335144 172 173 168
-60.1905547082424 490.979135036469 2657.00006484985 162 161 157
-52.9765859246254 491.168141365051 2657.99999237061 164 163 159
-45.6537529826164 490.247964859009 2653.00011634827 159 158 154
-38.3724719285965 489.511907100677 2648.9999294281 162 163 158
-31.089324504137 488.405734300613 2642.99988746643 163 164 159
-23.8206665962934 486.929535865784 2634.99999046326 164 165 160
-16.595495864749 485.452711582184 2627.00009346008 164 165 160
-9.4138327986002 483.975291252136 2618.99995803833 163 164 159
-2.27483338676393 482.312619686127 2609.99989509583 162 163 158
4.81331115588546 480.464547872543 2599.99990463257 162 163 158
11.8790017440915 479.90956902504 2596.99988365173 161 162 157
18.9429093152285 479.72360253334 2595.99995613098 161 162 157
25.9912889450789 479.352355003357 2594.00010108948 160 161 156
32.990463078022 478.42612862587 2588.99998664856 159 160 155
40.0241613388062 478.238582611084 2588.00005912781 160 161 156
47.0159016549587 477.680951356888 2585.00003814697 160 161 156
54.0538877248764 477.677136659622 2585.00003814697 160 161 156
60.997162014246 476.933687925339 2581.00008964539 160 161 156
67.997507750988 476.744025945663 2579.99992370605 160 161 156
74.9631300568581 476.369142532349 2578.00006866455 159 160 155
81.9493904709816 476.178467273712 2576.99990272522 160 161 156
88.964469730854 476.172059774399 2576.99990272522 161 162 157
96.0165113210678 476.349949836731 2578.00006866455 161 162 157
103.153608739376 476.896852254868 2581.00008964539 162 163 158
110.349372029305 477.62793302536 2585.00003814697 165 166 161
117.430336773396 477.804243564606 2585.99996566772 166 167 162
124.4200989604 477.610498666763 2585.00003814697 169 170 165
131.607428193092 478.155314922333 2588.00005912781 170 171 166
138.86421918869 478.884339332581 2592.00000762939 169 170 165
146.367520093918 480.351865291595 2599.99990463257 168 169 164
153.854891657829 481.634050607681 2607.00011253357 167 168 163
161.37982904911 482.915639877319 2614.00008201599 164 165 160
168.620064854622 483.273059129715 2615.9999370575 160 161 156
176.072210073471 484.184145927429 2621.00005149841 153 154 149
183.620885014534 485.279411077499 2627.00009346008 158 159 154
191.419452428818 486.928284168243 2635.99991798401 158 159 154
199.266389012337 488.576620817184 2644.99998092651 157 156 151
207.239732146263 490.409106016159 2654.99997138977 150 149 144
215.024471282959 491.686850786209 2661.99994087219 141 142 136
223.347589373589 494.072288274765 2674.99995231628 143 145 140
233.120113611221 499.412149190903 2703.9999961853 144 146 141
275.674045085907 496.534287929535 2688.99989128113 222 221 219
280.769199132919 492.637306451797 2667.99998283386 130 129 127
286.613076925278 490.217268466949 2654.99997138977 139 138 136
292.385548353195 487.79708147049 2641.99995994568 138 137 135
298.880219459534 486.668974161148 2635.99991798401 144 144 142
305.457562208176 485.725253820419 2631.00004196167 155 155 153
311.769306659698 484.411984682083 2624.00007247925 159 159 157
318.528264760971 483.836829662323 2621.00005149841 160 160 158
325.394302606583 483.446002006531 2618.99995803833 165 165 163
332.502514123917 483.423948287964 2618.99995803833 171 171 169
339.480131864548 483.217030763626 2618.00003051758 185 187 184
347.510546445847 484.486311674118 2625 191 193 190
357.874661684036 488.892555236816 2648.9999294281 189 194 190
-82.883395254612 489.591389894485 2688.99989128113 198 200 195
-74.9162063002586 485.409528017044 2665.99988937378 182 183 178
-67.4800425767899 484.140336513519 2658.99991989136 170 171 166
-60.1950623095036 483.780980110168 2657.00006484985 164 163 158
-52.9805533587933 483.967244625092 2657.99999237061 161 160 155
-45.7087978720665 483.60675573349 2655.99989891052 163 162 157
-38.4333021938801 483.063668012619 2653.00011634827 169 170 165
-31.0916546732187 481.245428323746 2642.99988746643 166 167 162
-23.7953308969736 479.244560003281 2631.99996948242 165 166 161
-16.565153375268 477.425247430801 2621.99997901917 164 165 160
-9.40735172480345 476.515829563141 2617.00010299683 163 164 159
-2.27326108142734 474.877506494522 2608.00004005432 161 162 157
4.81552444398403 473.602801561356 2601.0000705719 165 166 161
11.879893951118 472.87380695343 2596.99988365173 164 165 160
18.9297366887331 472.326397895813 2594.00010108948 162 163 158
25.9631797671318 471.778512001038 2591.00008010864 163 164 159
32.9674519598484 471.047908067703 2586.99989318848 162 163 158
40.0271601974964 471.227288246155 2588.00005912781 158 159 154
47.0194220542908 470.677822828293 2585.00003814697 157 158 153
54.0579371154308 470.67403793335 2585.00003814697 157 158 153
61.0726252198219 470.487654209137 2584.00011062622 158 159 154
68.1343823671341 470.664948225021 2585.00003814697 160 161 156
75.1141160726547 470.295459032059 2582.99994468689 157 158 153
82.0509046316147 469.743371009827 2579.99992370605 160 161 156
89.0056267380714 469.372868537903 2578.00006866455 164 165 160
96.0609018802643 469.548106193542 2578.9999961853 163 164 159
103.16126793623 469.904839992523 2581.00008964539 163 164 159
110.229477286339 470.079004764557 2582.00001716614 169 170 165
117.302790284157 470.252692699432 2582.99994468689 168 168 166
124.381169676781 470.42590379715 2584.00011062622 168 168 166
131.667986512184 471.326738595963 2588.99998664856 169 169 167
138.874441385269 471.862882375717 2592.00000762939 168 168 166
146.3782787323 473.308831453323 2599.99990463257 166 166 164
153.866171836853 474.57218170166 2607.00011253357 164 164 162
161.391630768776 475.834876298904 2614.00008201599 164 164 162
168.761283159256 476.551026105881 2618.00003051758 161 161 159
176.152184605598 477.266609668732 2621.99997901917 156 156 154
183.843895792961 478.709757328033 2630.00011444092 155 155 153
191.578552126884 480.15233874321 2638.00001144409 155 155 153
199.506774544716 481.958389282227 2648.00000190735 148 149 144
207.33268558979 483.399897813797 2655.99989891052 156 158 153
215.120658278465 484.658777713776 2663.00010681152 147 149 144
223.029509186745 486.099094152451 2671.0000038147 145 147 142
232.705608010292 491.178601980209 2698.99988174438 141 143 138
275.69317817688 489.252090454102 2688.99989128113 210 212 211
280.788630247116 485.412120819092 2667.99998283386 129 128 124
286.632835865021 483.027398586273 2654.99997138977 138 137 132
292.516261339188 480.824440717697 2642.99988746643 150 149 145
299.12742972374 479.894727468491 2638.00001144409 149 150 145
305.594444274902 478.782713413239 2631.99996948242 155 156 151
312.028020620346 477.670431137085 2625.99992752075 157 158 153
318.671196699142 476.921647787094 2621.99997901917 158 159 154
325.416058301926 476.354479789734 2618.99995803833 163 163 161
332.524657249451 476.332634687424 2618.99995803833 168 168 166
339.761942625046 476.492255926132 2619.99988555908 181 183 180
347.798228263855 477.74276137352 2627.00009346008 187 189 186
358.303397893906 482.266008853912 2651.99995040894 185 190 186
-91.5526077151299 489.47337269783 2729.00009155273 204 206 201
-82.9820185899735 482.843369245529 2691.99991226196 201 203 198
-75.0341787934303 478.903234004974 2670.00007629395 183 184 179
-67.6119476556778 477.832287549973 2664.00003433228 171 172 167
-60.3128112852573 477.478295564651 2661.99994087219 166 165 160
-53.1040988862515 477.841258049011 2664.00003433228 163 162 157
-45.7810424268246 477.127432823181 2660.00008583069 164 163 158
-38.4651347994804 476.233631372452 2654.99997138977 168 169 164
-31.058682128787 473.545670509338 2640.00010490417 165 166 161
-23.7699821591377 471.574574708939 2628.99994850159 163 164 159
-16.5537521243095 469.961673021317 2619.99988555908 162 163 158
-9.40445717424154 469.245165586472 2615.9999370575 161 162 157
-2.27343058213592 467.810600996017 2608.00004005432 163 164 159
4.81588346883655 466.554880142212 2601.0000705719 166 167 162
11.8716303259134 465.478003025055 2595.00002861023 164 165 160
18.9238488674164 465.118080377579 2592.99993515015 162 163 158
25.9651113301516 464.757710695267 2591.00008010864 161 162 157
33.0081395804882 464.576154947281 2589.99991416931 160 161 156
40.0765463709831 464.752852916718 2591.00008010864 159 160 155
47.0593012869358 464.032053947449 2586.99989318848 157 158 153
54.1037768125534 464.02832865715 2586.99989318848 157 158 153
61.1717104911804 464.203476905823 2588.00005912781 158 159 154
68.2448744773865 464.377999305725 2588.99998664856 159 160 155
75.2069354057312 463.834643363953 2585.99996566772 159 160 155
82.08879083395 462.932080030441 2581.00008964539 161 162 157
89.0467241406441 462.56697177887 2578.9999961853 162 163 158
96.14247828722 462.918907403946 2581.00008964539 161 162 157
103.168867528439 462.911576032639 2581.00008964539 161 162 157
110.194899141788 462.903767824173 2581.00008964539 166 167 162
117.311403155327 463.254123926163 2582.99994468689 168 168 166
124.486550688744 463.783353567123 2585.99996566772 168 168 166
131.72847032547 464.491337537766 2589.99991416931 169 169 167
138.938158750534 465.01949429512 2592.99993515015 169 169 167
146.332636475563 466.085195541382 2598.99997711182 167 167 165
153.877332806587 467.508912086487 2607.00011253357 165 165 163
161.403357982635 468.752831220627 2614.00008201599 163 163 161
168.837979435921 469.637483358383 2618.99995803833 161 161 159
176.164910197258 470.163077116013 2621.99997901917 156 156 154
183.78721177578 471.405297517776 2628.99994850159 155 155 153
191.519662737846 472.826331853867 2637.00008392334 155 155 153
199.445724487305 474.605441093445 2647.0000743866 152 154 149
207.347467541695 476.204633712769 2655.99989891052 154 156 151
215.055152773857 477.265357971191 2661.99994087219 148 150 145
222.961828112602 478.684216737747 2670.00007629395 145 147 142
232.204675674438 482.791632413864 2693.00007820129 134 136 131
274.789452552795 480.355501174927 2680.0000667572 222 224 223
280.492156744003 477.647960186005 2664.99996185303 136 135 131
286.32852435112 475.298643112183 2651.99995040894 143 142 137
292.536169290543 473.66601228714 2642.99988746643 153 152 147
299.034297466278 472.57074713707 2637.00008392334 153 154 149
305.615037679672 471.654385328293 2631.99996948242 158 159 154
