ply
format ascii 1.0
comment KinectMotionCapture
element vertex 755
property float x
property float y
property float z
property uchar red
property uchar green
property uchar blue
end_header
-191.707738107973 614.326595994082 2684.48304849744 195 197 196
-198.999444490307 613.574895435397 2681.66340067504 204 205 207
-206.283253118555 612.82345670645 2678.84977390636 213 214 216
-214.223410492155 611.929777660695 2676.79466207895 212 213 215
-221.488625561715 611.179147805111 2673.99422379786 215 216 218
-228.745869008378 610.428755891554 2671.19985999857 211 213 212
-232.047488074303 610.531174152497 2663.8665236525 216 218 217
-237.990237623599 610.064173294943 2659.55613222825 221 223 222
-243.280166535502 609.738499628045 2654.48466363681 222 224 223
-251.180099400188 608.845828464662 2652.45842204245 223 225 224
-255.822325752831 608.660679032216 2646.62216201263 203 205 204
252.194939936538 657.910969251686 2774.29466512758 203 207 208
245.872401348668 657.424403211828 2769.70885742266 180 184 185
229.448265671627 655.006420842396 2773.84705749224 199 203 204
215.404771069091 653.03797792569 2776.00790772345 194 195 197
202.177082521434 651.221128030801 2777.52558991634 188 189 191
185.906175618495 648.815021206591 2781.7749289463 169 170 172
164.314029306952 645.377943057605 2790.80741125353 168 169 171
142.042697158585 641.799772081851 2800.58215369633 202 204 203
125.209570156319 639.26158952306 2805.65829501749 201 203 202
106.152213409956 636.285911263596 2812.82523309238 171 173 172
93.2438582749935 634.49356718707 2814.57482549486 152 154 153
81.1316608686092 632.85131401453 2815.66699875944 191 193 192
75.0938246531527 632.386617165625 2811.28768865189 238 238 238
67.549478659382 631.628410520122 2808.28515850598 156 156 156
59.2623288806258 630.724185901446 2805.97845106348 151 151 151
53.9812270124878 630.406336837544 2800.9134210176 142 142 142
47.2024247946607 629.795621536815 2797.23126585889 163 163 163
40.4269993657675 629.185060306019 2793.55155938695 145 145 145
32.9131127045597 628.428753639901 2790.57111948501 156 156 156
26.8865257566717 627.96440054088 2786.19996595276 157 157 157
19.3841047806513 627.2088032614 2783.22754688686 160 160 160
13.3599864587901 626.744411173358 2778.85818271681 160 160 160
9.53400795734138 626.715311595482 2772.37909749097 157 157 157
7.88642586164112 627.120064808917 2763.77626597126 162 162 160
2.56834179469356 626.798373002685 2758.68411279895 162 162 160
-2.02880292105156 626.620699289765 2752.8805712758 156 156 154
-5.9113807551503 626.58665607184 2746.36043094532 158 158 156
-9.08610185426428 626.695680238666 2739.11911910374 148 148 146
-11.5594255236979 626.947297899916 2731.15165638545 135 135 133
-14.0559168571717 627.196869848937 2723.16768304816 124 123 121
-17.290567135031 627.300730006483 2715.88260663221 123 122 120
-17.6911415035661 627.977492505802 2705.71476767162 123 122 120
-16.7057051280617 628.938271883268 2694.08274834438 122 122 120
-16.4740671882093 629.752023110612 2683.13857634692 117 117 115
-22.6428808479793 629.274057028238 2678.66425068351 112 112 110
-31.6302557666932 628.22388825593 2677.0842324868 111 111 109
-43.4100378177433 626.603526440367 2678.41778609761 131 131 129
-57.9553899261163 624.415035351444 2682.68378778371 139 141 138
-77.3335487032862 621.233120505486 2692.08749272666 136 138 135
-93.8464793172571 618.626501835278 2698.63073570685 135 137 134
-110.293935834109 616.024728860134 2705.22117232471 143 145 144
-123.220179990881 614.137475654296 2708.19235248926 169 171 170
-133.347292224533 612.820462810711 2708.25513050735 191 193 192
-140.701628909666 612.071495425286 2705.39038896293 188 190 189
-148.732527052605 611.181547842963 2703.26951611593 188 190 189
-154.021449816922 610.857259690799 2698.19848944323 185 187 186
-159.995879651632 610.391187390006 2693.86513700731 184 186 185
-165.971133877297 609.924719713368 2689.53118495014 183 185 184
-173.974465000651 609.035631259318 2687.4303003756 182 184 183
-181.965358072989 608.147251707037 2685.3384360004 186 188 187
-190.615057772504 607.119091321885 2684.00331725326 190 192 191
-197.240635837768 606.512584470107 2680.43255334636 199 200 202
-205.863141847894 605.485910151286 2679.11715541221 201 202 204
-213.139421586686 604.739980339195 2676.30901439993 213 214 216
-222.394882692327 603.575231115073 2675.7691110617 215 216 218
-228.987889456483 602.969948563896 2672.22167051038 213 215 214
-233.603097184781 602.782686386649 2666.40498615648 213 215 214
-238.227727784213 602.594321902392 2660.58117090178 216 218 217
-242.861975215274 602.40483024301 2654.75067296825 215 217 216
-248.808525240455 601.936595475389 2650.43752024793 219 221 220
-252.158689342583 602.022614103165 2643.06861502472 217 219 218
-259.409420950837 601.275796655716 2640.27898990144 206 208 205
257.3400793554 650.945013926195 2770.57839382876 203 207 208
248.666373880395 650.018973251747 2767.99135340992 182 186 187
233.788090758154 647.92717145537 2770.78145942009 194 198 199
215.08228688711 645.110623343436 2776.96901507318 196 197 199
200.309752797425 643.027000063244 2779.83582223964 191 192 194
186.355153430541 641.092434265497 2782.06128611859 175 176 178
166.296538488486 637.999726659199 2789.73712908902 166 167 169
147.848463941465 635.203071723839 2796.11161899218 190 192 191
127.17796409247 631.977271683955 2804.57796154807 195 197 196
108.875227404809 629.191763425998 2811.05786642725 172 174 173
95.1993603650765 627.278583178958 2813.48549764063 156 158 157
85.3534756502445 626.09032914906 2812.51775904838 128 130 129
77.7944407988169 625.336149767724 2809.50430655793 169 169 169
70.2431186869008 624.582515946957 2806.49674243735 221 221 221
61.9488907379147 623.685574229253 2804.18494076753 176 176 176
56.661268296033 623.364090247768 2799.11516540701 153 153 153
49.1293110366646 622.611745990475 2796.12135133618 151 151 151
42.3491842446513 622.00320400782 2792.43854145069 154 154 154
36.3146199941062 621.53793581115 2788.06160036635 154 154 154
29.5393164551747 620.929535232147 2784.38199319916 153 153 153
22.0299210115318 620.178481039208 2781.40454120447 156 156 156
16.7344805582812 619.855826017276 2776.32909246912 160 160 160
12.1668398005048 619.675046022992 2770.54692326081 165 165 165
9.7826623054118 619.920293800593 2762.64405224206 153 153 151
3.73132992717551 619.453039888517 2758.25494552606 155 155 153
0.585482596105358 619.553320674846 2751.0345206082 155 155 153
-4.02770929872309 619.368421965376 2745.21901506941 156 156 154
-6.4841529915427 619.607467270512 2737.26401980196 151 151 149
-11.1234522807264 619.420244467589 2731.42957668385 145 145 143
-13.6192898826371 619.655859451494 2723.44600655574 132 131 129
-17.5692270770038 619.607278314265 2716.87696235005 127 126 124
-17.9662462030359 620.262153514063 2706.71129532012 127 126 124
-17.6883567952804 621.054678711367 2695.80054448476 126 126 124
-18.1601780117862 621.703295362643 2685.58091459932 122 122 120
-20.7884611731042 621.92760285454 2677.50098010697 115 115 113
-23.4399360712256 622.149862684046 2669.40451753488 118 118 116
-27.5190977890585 622.08997650585 2662.74173845209 131 131 129
-36.513629822762 621.049384375992 2661.15658041757 132 134 131
-55.2631841927975 618.053435111825 2669.78187943347 132 134 131
-77.4131380384606 614.365538445786 2682.11412907439 133 135 132
-98.0752652175738 610.964022117304 2693.05601885514 137 139 136
-115.188959877665 608.265400001354 2700.39832577096 136 138 135
-128.098004089539 606.406335283986 2703.38211732288 179 181 178
-138.216093893784 605.105825725015 2703.45151948499 180 182 179
-146.938955733262 604.084463823235 2702.06339837689 186 188 185
-153.597499115337 603.47972696901 2698.46845169668 185 187 186
-158.211627711401 603.290013101363 2692.65253721047 173 175 174
-162.157186715166 603.237485091706 2686.0866468569 171 173 172
-169.496208937724 602.493511850522 2683.23273791254 174 176 175
-177.501068291599 601.611916929193 2681.13078344729 167 169 168
-189.522391681362 599.90496429063 2683.52383661653 167 169 168
-197.48903532137 599.025808086351 2681.44959789042 179 180 182
-206.777363264551 597.872565924425 2680.8862214428 197 198 200
-212.055051647607 597.543661579527 2675.82331543091 202 203 205
-221.313923061663 596.392088799186 2675.28130110564 194 195 197
-226.588634955057 596.062708657362 2670.22055040461 204 205 207
-231.868620196855 595.732583082902 2665.15626764205 206 208 207
-237.153737203689 595.401683315351 2660.08826083205 207 209 208
-242.443915407793 595.070044943394 2655.01658131097 211 213 212
-248.390742752469 594.601578606448 2650.70322638288 213 215 214
-251.740552708793 594.676423958635 2643.33452129268 218 220 219
-258.991891056097 593.934874558109 2640.54448301501 217 219 218
-268.814737747948 592.651263085602 2640.82799880223 195 197 192
248.343138765491 642.023240782879 2768.95157004487 183 187 188
231.9106402229 639.674899398555 2773.08406044006 191 195 196
213.984170336497 637.044926986648 2778.60218586691 196 197 199
201.532891236488 635.419604428443 2779.44893180933 191 192 194
189.886791202632 633.939547428363 2779.64477393265 179 180 182
175.196407864407 631.891943360378 2782.57131637644 165 166 168
157.487986687904 629.278898886409 2788.24789018685 180 182 181
136.023859433652 625.960238398549 2797.37377604957 191 193 192
116.170670911233 622.93219629226 2805.1985700821 177 179 178
101.71361161893 620.902518659525 2808.29463938411 160 162 161
89.5768390704732 619.301349917162 2809.36920570447 133 135 134
80.4956739282039 618.268466389795 2807.7212845263 124 124 124
69.9248252471749 616.954339425158 2807.46240314143 250 250 250
62.3831952723526 616.206449512247 2804.4618941519 211 211 211
57.8446265760828 616.022846480774 2798.70049112514 168 168 168
51.8030894768402 615.556864046058 2794.31849165622 155 155 155
45.0161898613883 614.950103397964 2790.63078102928 145 145 145
37.4907520859469 614.203156412515 2787.64172040973 153 153 153
29.9728892155309 613.456624333874 2784.65844757909 155 155 155
23.938595402035 612.990840351284 2780.28169992778 156 156 156
18.6388490692511 612.6647298267 2775.20311226566 157 157 157
14.8004800068087 612.617509872148 2768.71495307444 162 162 162
10.9480043051606 612.569147122499 2762.21656189094 173 173 171
6.35237957882584 612.380115374779 2756.41377023284 174 174 172
3.20046391736772 612.468612977599 2749.18888656862 167 167 165
-0.694578346537078 612.416473270707 2742.65961884468 165 165 163
-3.88153074695574 612.50189353167 2735.40932071333 170 170 168
-7.08699180118999 612.585754641444 2728.14559736642 173 173 171
-10.3109162169248 612.668020038928 2720.86818697512 139 138 136
-13.5536511265697 612.748592703556 2713.57742635834 132 131 129
-15.3877845153132 613.103929873477 2704.83881504607 132 131 129
-15.8266307195358 613.733082784967 2694.64299086308 128 128 126
-16.3016080428877 614.359178826855 2684.4206645001 121 121 119
-17.5199175177287 614.844511778012 2674.89409891041 116 116 114
-17.360655711204 615.602195413102 2663.89747039293 124 124 122
-17.2418149272193 616.356564264293 2652.87122854652 135 135 133
-21.3657274142371 616.284330177701 2646.17594613152 130 132 129
-31.7870450598781 614.977686748871 2646.02550089093 122 124 121
-51.9257132388351 611.757023449065 2656.1127366991 136 138 135
-78.220640678889 607.31281763258 2672.84718439762 133 135 130
-104.388268563963 602.878346575112 2689.6736690917 124 126 121
-123.536004026791 599.81663320129 2699.24502165686 168 170 167
-135.729758530127 598.12268605208 2701.51314170737 167 169 166
-145.144984053465 596.975373858407 2700.85751005521 182 184 181
-150.443005431517 596.644324850102 2695.78014783519 180 182 179
-155.065892558835 596.448166037487 2689.95785145785 177 179 176
-159.698255654382 596.250990232128 2684.12838612061 177 179 178
-168.39665153104 595.241049868989 2682.75805876343 173 175 174
-175.73059083068 594.502308136748 2679.90815551402 163 165 164
-187.757956886708 592.819271323333 2682.29694936389 165 167 166
-193.721435140331 592.351935445397 2677.97152956256 202 204 203
-203.688855468972 591.076645587599 2678.14998850871 213 215 214
-208.9756165865 590.743999545736 2673.08078100256 194 195 197
-219.569908619912 589.336574650691 2674.03946908803 190 191 193
-224.188716737655 589.137938324028 2668.22011712267 194 195 197
-229.475307527836 588.804309949252 2663.15073363773 198 199 201
-234.111026559327 588.603646468012 2657.31911232216 198 199 201
-241.371918417852 587.867705356382 2654.52188243039 206 207 209
-247.97306440342 587.265388296696 2650.96885108159 209 210 212
-253.271168654468 586.929423223531 2645.89110940731 215 216 218
-259.221724256739 586.459728827006 2641.57504556536 217 219 218
-265.172918752673 585.989564466262 2637.2585161953 211 213 208
-273.696218599831 584.988312403241 2636.01516369459 192 194 189
294.99997574819 641.838891333297 2739.78159339203 202 206 207
250.35825660173 634.453876626211 2767.90366391196 190 194 195
229.25449204465 631.297688707569 2776.05657071077 189 193 194
213.660153926358 629.129586629687 2779.56253780319 197 198 200
201.983065895007 627.665868429915 2779.73599882505 193 194 196
193.419344703145 626.764061997578 2777.22881111146 188 189 191
181.024610762397 625.164608539622 2778.11638440164 167 168 170
163.298440364355 622.590781847002 2783.78029006836 158 160 159
137.994474101366 618.628066436052 2796.29481004528 182 184 183
118.895871057935 615.787423800898 2803.43282625827 179 181 180
102.910773136315 613.508723649119 2807.88999965818 168 170 169
93.0436719852747 612.345386234476 2806.90671254908 145 147 146
81.686538754727 610.906213834057 2807.31223996354 148 148 148
71.865726463427 609.746337972582 2806.3628206472 163 163 163
62.8173052938088 608.726472624107 2804.73870221323 242 242 242
56.7810342126882 608.260588204603 2800.36052068969 180 180 180
50.7438998131406 607.794574102864 2795.98171267133 167 167 167
44.7058074546369 607.328392780043 2791.60220936108 162 162 162
38.6667089916499 606.862040335815 2787.22197583744 153 153 153
33.3667857409319 606.533017903868 2782.14324517435 154 154 154
28.0616150756821 606.203470398724 2777.06041341186 160 160 160
22.0152149979298 605.736227723194 2772.67488228266 159 159 159
15.9679084077937 605.268762250514 2768.28869287478 151 151 151
11.3821428514229 605.07471454191 2762.49331740958 151 151 149
7.51580008518804 605.016535680268 2755.98482397447 158 158 156
4.36219898675905 605.093575290918 2748.75866046404 174 174 172
-0.259378140726962 604.896377112033 2742.93701399191 173 173 171
-3.44577721114381 604.970520745918 2735.68705986295 154 154 152
-5.21003599622816 605.315118860729 2726.99904774664 148 148 146
-9.87417638492483 605.114084248208 2721.14652682582 135 134 132
-13.8322673339712 605.047725962865 2714.5714817446 126 125 123
-16.3771909840826 605.251075732949 2706.55216466293 129 128 126
-18.9449783597813 605.452383696454 2698.51596835947 131 131 129
-20.1172470729807 605.922029722828 2689.02269924309 125 125 123
-19.9070939095221 606.658882724166 2678.06256296803 124 124 122
-16.9181406373606 607.931569859786 2664.17940578304 132 132 130
-13.2845440327112 609.334147129681 2649.52859664303 136 136 134
-16.7187286010686 609.386992626639 2642.09890963934 130 132 129
-18.7748741861844 609.706719907221 2633.19917657684 124 126 123
-29.9075596068135 608.280622186321 2633.76747722448 137 139 136
-50.0306567828899 605.115318336058 2643.86628119147 133 135 130
-90.1249017952004 598.077191975244 2675.28666981701 202 204 199
-117.593522591108 593.460355481538 2693.63977548102 123 125 120
-132.555512726637 591.25554702627 2698.83899582527 149 151 146
-143.35068467934 589.854372035813 2699.65209342725 179 181 178
-150.018766761033 589.253761433386 2696.05025284041 182 184 181
-154.641550341719 589.051815859129 2690.22800221513 184 186 183
-160.630722205884 588.583414157054 2685.88395116858 173 175 174
-167.973061454991 587.849537751663 2683.02768878335 165 167 166
-175.307552746062 587.115949013882 2680.17741148449 188 190 189
-185.321206056823 585.853801755096 2680.32271620212 205 207 206
-192.630605793679 585.12157817269 2677.49034074416 225 227 226
-200.599431707722 584.257778571827 2675.41459782525 213 215 214
-205.895103204638 583.921423499103 2670.33891220795 185 186 188
-215.173596335526 582.795225115054 2669.7825077307 190 191 193
-220.466342789354 582.458449821474 2664.70894041106 196 197 199
-226.422686162652 581.989780146328 2660.38868608079 205 206 208
-231.723486403911 581.651725096088 2655.30927391655 200 201 203
-239.645829338458 580.78954035761 2653.26723568106 203 204 206
-246.90350133213 580.058759083788 2650.47236607364 206 207 209
-254.153155207901 579.328249390515 2647.68360482362 212 213 215
-259.452155021482 578.988906343431 2642.60549130387 218 220 219
-265.401401756842 578.518720541571 2638.29037379841 219 221 216
-269.422070804344 578.437942825284 2631.66989148087 207 209 204
-302.93514648125 572.38601514654 2660.45529676827 165 168 161
254.712992331862 627.286438906546 2764.84872266931 193 197 198
226.596883121774 622.94156873437 2779.02812888518 190 194 195
211.009470176598 620.806408820577 2782.53928304193 198 199 201
203.206164658316 620.048731339059 2779.34903029055 194 195 197
197.724098516118 619.703270116384 2774.13788261556 191 192 194
189.930085084412 618.946345397507 2770.95436970893 169 170 172
172.944210029138 616.547956040224 2775.92048878678 154 156 155
145.316355146377 612.240798213835 2790.45432648189 177 179 178
121.621917810165 608.625563060688 2801.66731512449 172 174 173
105.628184994587 606.381322621441 2806.11840345072 168 170 169
94.9958454911144 605.094525260063 2805.81479000918 145 147 146
85.9000820297959 604.081648646911 2804.15668201398 135 135 135
75.314217813911 602.798347454966 2803.88677720904 132 132 132
65.5049049550387 601.652606558921 2802.94576567306 178 178 178
57.963872596007 600.914861764321 2799.94574129499 242 242 242
51.1775710125835 600.312918710329 2796.25819411927 169 169 169
43.650030954578 599.57605783923 2793.2679550754 160 160 160
38.3578304011207 599.244603738935 2788.19451596647 153 153 153
34.5409005774417 599.182302717843 2781.72182214839 149 149 149
31.4477468091705 599.253335990091 2774.53944777431 159 159 159
25.3924612658545 598.784985157959 2770.14746976847 164 164 164
18.6026299239481 598.182158716013 2766.45735932097 158 158 158
14.0104441953954 597.981795751788 2760.65729774793 144 144 142
8.67946970768108 597.646632964155 2755.55573180134 147 147 145
4.06991499779652 597.444653815385 2749.74307089677 167 167 165
0.175584358144132 597.375335667311 2743.21423203225 178 178 176
-3.01028710555706 597.438230462152 2735.96460339906 185 185 183
-4.05331697170697 597.899317871311 2726.56497892992 184 184 182
-9.43769503158043 597.559141744885 2721.42467420063 156 155 153
-11.9633600052604 597.750101501691 2713.41925538665 137 136 134
-15.9396751890239 597.673574124982 2706.8309476603 133 132 130
-18.5068312553993 597.860893435013 2698.79513815116 131 131 129
-20.3877428024772 598.178636411402 2690.02272040864 127 127 125
-18.7595241619882 599.155234058725 2677.62141667937 127 127 125
-16.4759513088923 600.259842528788 2664.46109945265 133 133 131
-13.5432232518335 601.49199865982 2650.53668363477 134 134 132
-15.5734138218531 601.797189933553 2641.65569228888 131 133 130
-13.4403127612792 602.889389048582 2628.38593751569 127 129 126
-16.9311484524104 602.926025000749 2620.91510079956 136 138 135
-25.9927644853293 601.911244334158 2619.28144288252 130 132 127
-62.7106813638227 595.655797498972 2646.97759615274 235 237 232
-111.64852172884 587.059463643666 2688.03583523496 152 154 149
-130.754939040786 584.104185453974 2697.63767932465 131 133 128
-141.55584666244 582.72139498406 2698.44671213902 141 143 140
-149.594759195394 581.862133777835 2696.32018492221 179 181 178
-154.898156679112 581.524256656789 2691.23889086272 182 184 181
-162.921077610156 580.665723382418 2689.12395998652 183 185 184
-169.578796289324 580.067475798459 2685.52964402049 198 200 199
-176.907193838673 579.339548561731 2682.68381288167 227 228 230
-184.227441142056 578.611942636459 2679.84359718058 223 224 226
-190.2002058456 578.143316758177 2675.51143889941 193 195 194
-196.841409001829 577.545162854021 2671.92939033993 181 183 182
-204.144054444133 576.818026974755 2669.10193698445 187 188 190
-213.428102009878 575.70486120824 2668.54186646863 194 195 197
-218.725237667356 575.364732791078 2663.46480586034 204 205 207
-224.686286098046 574.895442978551 2659.14113759244 186 187 189
-229.991613825276 574.554004088788 2654.05842621718 179 180 182
-238.573268866621 573.571384435982 2652.77286516768 189 191 190
-244.52973550005 573.101450155272 2648.45251507804 196 197 199
-253.086353945385 572.120062562832 2647.18540430894 202 203 205
-258.387521183593 571.777635996768 2642.10540948117 208 210 209
-265.630154313896 571.052205720222 2639.32176344762 216 218 213
-267.718787340691 571.34492567912 2630.39834274792 221 223 220
-274.321515607807 570.745755988441 2626.84388583448 194 196 191
-286.669398993148 569.00468054791 2630.23507248427 173 175 170
270.768652040868 622.118057320149 2751.75913471934 199 203 204
234.826550798144 616.495967114883 2772.61009264761 192 196 197
217.66407663594 614.121726763902 2777.44860806054 194 195 197
203.655946148764 612.290751550562 2779.6357907947 197 198 200
198.174054962024 611.942138079025 2774.4247539819 200 201 203
191.148703261484 611.324543774503 2770.56412947506 188 189 191
180.293042074857 610.03662210975 2770.09861968467 156 157 159
151.876433586269 605.669817535565 2785.29540756474 171 172 174
124.348628041122 601.446519978971 2799.90219792864 163 165 164
106.825902313465 598.969579390404 2805.71378124885 158 160 159
98.4643987485967 598.098851819586 2803.35334282917 146 148 147
89.3593321580726 597.095785846129 2801.68824601286 135 135 135
80.2707440938928 596.093915815919 2800.03539536669 125 125 125
69.6961344722951 594.827418226468 2799.77373437089 129 129 129
59.1468156588784 593.562800601462 2799.53071122108 144 144 142
50.8640132439249 592.697881135243 2797.22735436373 237 237 235
44.8280373577012 592.231034856868 2792.84938196127 193 193 191
39.5336073365984 591.89627395291 2787.77460439106 165 165 165
36.4551824547776 591.957238720057 2780.60285630213 165 165 165
31.8818817424344 591.752868991475 2774.8161701083 152 152 152
27.2987161487688 591.547610481766 2769.02232814961 151 151 151
20.5040406576869 590.94676184879 2765.32901057001 162 162 162
14.4445064740402 590.477409647442 2760.93394756199 167 167 167
9.11356250520567 590.139082909973 2755.83238771316 161 161 161
4.50423665733801 589.931237535782 2750.01986300196 147 147 147
2.7854238828211 590.246030875862 2741.36464470152 155 155 155
-0.406490187980779 590.29711469916 2734.11057582859 184 184 184
-2.89634553000861 590.477134383896 2726.13076629017 190 190 190
-11.1567558843704 589.612206737946 2723.84364187398 180 180 180
-15.1075168498207 589.529236044244 2717.27382630917 156 156 156
-19.7866797144632 589.314896679436 2711.41064236077 135 135 135
-20.916421170043 589.748945304727 2701.94802185316 134 134 134
-21.3682056843307 590.310066893601 2691.74217934401 131 131 131
-19.0266401967458 591.386145494186 2678.62346322922 134 134 132
-16.7390654131725 592.457860604001 2665.46588047595 132 132 130
-15.2084489801443 593.395913165212 2652.99392206213 135 135 133
-16.5302949043096 593.813940749145 2643.39166529878 129 129 127
-13.6925555758682 595.002196981808 2629.39816776272 132 132 130
-13.0023030156066 595.799710729318 2617.55133641567 139 139 137
-15.8281943680336 595.950934896906 2609.328075824 133 135 130
-31.8246211802951 593.662155582837 2615.01202224556 234 236 231
-102.826413119109 581.803756092956 2668.46701276908 168 170 167
-137.704577692996 575.959905220063 2695.02885330346 148 150 147
-148.487783330348 574.59712913482 2695.85082004084 176 178 177
-155.836143042653 573.873698122948 2692.99024620132 184 186 185
-163.176654796922 573.150554778686 2690.13565744819 185 187 186
-169.156072520796 572.681987369712 2685.79867654676 204 205 207
-175.81056557408 572.086181746678 2682.20671127478 208 209 211
-182.461641708271 571.49033469959 2678.61751726756 208 209 211
-189.778765437854 570.767880811477 2675.77959200786 189 190 192
-196.420322242376 570.172177626196 2672.19729949457 181 182 184
-204.389141459531 569.323941831713 2670.12164026412 198 199 201
-211.01882430733 568.728562900912 2666.54766260085 211 212 214
-216.322793932308 568.384874151877 2661.46592434692 207 208 210
-222.949550086495 567.789045262023 2657.89406602717 168 170 169
-230.885870668667 566.942127855475 2655.84197242868 172 174 173
-238.809639920817 566.095838911836 2653.79898074046 189 191 188
-244.764143456246 565.625824688697 2649.48005333753 194 196 195
-251.369256141107 565.030404925391 2645.9238869029 199 201 200
-257.322843058647 564.559777904648 2641.60562087189 203 205 202
-265.213795778324 563.714743486463 2639.58642494282 212 214 211
-266.658461777856 564.115303912226 2629.89533928815 217 219 218
-271.981472183906 563.767134842254 2624.79948079494 207 209 206
-275.392806455336 563.790585452751 2617.38620956824 192 194 189
-304.927844222013 558.729619080628 2641.64959011744 159 161 156
272.008079763697 614.324255873283 2751.38281407925 200 204 205
253.172321700106 611.71431891878 2757.47720969106 194 198 199
219.666714072299 606.600341484117 2776.39189764188 193 194 196
204.105383738081 604.531997104547 2779.9222980738 193 194 196
197.0809596451 603.91676772509 2776.06206351127 203 204 206
192.367470962588 603.696470805641 2770.17367139174 197 198 200
183.042375911542 602.687061243948 2768.34933359426 159 160 162
158.438547451289 599.054413349766 2780.1380336339 159 160 162
131.651493575209 595.036671106977 2794.0475207631 171 173 172
114.106447654227 592.598618230352 2799.84341514978 152 154 153
103.450284837796 591.341973343698 2799.5226844085 147 149 148
92.0632278166078 589.956695686715 2799.90708689303 141 141 141
82.9675994629584 588.964819611454 2798.2488887351 137 137 137
72.3852729999273 587.713718572635 2797.98200609985 128 128 128
61.0790244259847 586.334528864089 2798.42472471196 127 127 125
51.2970456276935 585.217279252096 2797.50337805679 231 231 229
46.0059150696894 584.879708834963 2792.43097810706 232 232 230
42.1951356642118 584.800699847561 2785.96265822925 166 166 166
39.1106441025268 584.849851693003 2778.78645243985 163 163 163
33.7926072452497 584.509882103832 2773.69424091026 162 162 162
28.4689451661757 584.169407423522 2768.59824345599 152 152 152
22.4059577088211 583.69953649323 2764.2006744687 150 150 150
17.0737405807744 583.358099911376 2759.09847040463 167 167 167
11.7360414648227 583.016099739735 2753.99228947584 171 171 171
6.39318957486923 582.673612033742 2748.88207624473 168 168 168
3.94553710576595 582.843140671282 2740.93310180734 156 156 156
1.4750383817459 583.010748405193 2732.96726142542 144 144 144
-1.01872594789043 583.176332364423 2724.98483953568 145 145 145
-7.84689486202561 582.574134140024 2721.26694054596 151 151 151
-13.2389795818566 582.226951458345 2716.12130808184 154 154 154
-18.6363549101753 581.879150588554 2710.97154273445 154 154 154
-19.7673038360839 582.293565167713 2701.50794745552 138 138 138
-19.5106319914786 582.95915882751 2690.58146709959 129 129 129
-17.171686233806 584.001837511416 2677.46068270952 134 134 132
-17.002831381336 584.660217041387 2666.47021092387 132 132 130
-17.5779144223682 585.188747398857 2656.17511607737 134 134 132
-16.0862023370383 586.09310882609 2643.67448994238 129 129 127
-14.6441844502165 586.993245724061 2631.13811250131 131 131 129
-12.5549738039461 588.015334615928 2617.83618550802 136 136 134
-13.2971692816806 588.52987892372 2607.41987644769 129 131 126
-15.4598682393068 588.790132206083 2598.44259932397 217 219 214
-128.367774701837 570.170595925535 2685.7113229684 221 223 220
-143.964118851804 567.950074058077 2691.68564358747 187 189 188
-154.731787403013 566.607107104704 2692.51897382733 180 182 181
-163.432723590846 565.639886879246 2691.14702133029 193 195 194
-169.410149192387 565.171152263414 2686.81148371392 197 198 200
-175.388402485929 564.702081748132 2682.47534438455 197 198 200
-182.712037831462 563.98463700779 2679.63301856482 194 195 197
-190.027661213351 563.267482862964 2676.79650226045 193 194 196
-198.003005612268 562.427022846299 2674.71615217234 196 197 199
-205.965696507988 561.587219083242 2672.64468372576 202 203 205
-211.925766208005 561.118157918352 2668.32172611876 197 198 200
-215.241772042216 561.141265780345 2660.97755877453 181 183 182
-221.212134296637 560.670743493703 2656.64713247431 166 168 167
-230.467276232855 559.585728733709 2656.10815885661 165 167 166
-237.737052465111 558.87000809595 2653.30459091341 175 177 174
-243.041704131318 558.522052154999 2648.22233661906 181 183 180
-249.001554918846 558.051007306653 2643.89952765865 191 193 190
-254.314148744003 557.701720908378 2638.81150918476 196 198 195
-259.631629374964 557.351729546881 2633.71965011325 202 204 203
-261.736817891043 557.609751764106 2624.78434671218 205 207 206
-268.358111661238 557.014186156828 2621.21644952474 210 212 211
-273.697413812379 556.661421722355 2616.10905199842 214 216 213
-286.684138684874 554.853039012771 2620.27182452523 202 204 199
250.516301937191 603.309616962349 2760.44996828113 196 200 201
224.773164290262 599.584711469844 2772.64732810357 192 193 195
205.328387404439 596.90166844015 2779.53489930655 193 194 196
195.215409129965 595.772490747535 2778.37383812615 206 207 209
188.200923662741 595.160306900673 2774.52082371175 202 203 205
178.121268694559 594.03370927987 2773.38393237581 170 171 173
159.64837381234 591.495168191905 2779.74173688581 156 157 159
139.719574630726 588.705382855034 2787.51292595539 175 177 176
119.868741211947 585.921585023468 2795.34066439821 151 153 152
106.162755858582 584.167661492954 2797.74726886994 142 144 143
93.2558202528964 582.544925617833 2799.49874941847 139 139 139
84.1573015803427 581.563300434073 2797.83850792947 129 129 129
75.0752116380844 580.582897031433 2796.19047664325 142 142 142
63.7612359579425 579.221811027172 2796.62768541001 125 125 123
53.2243573160103 577.990104392107 2796.39384710665 167 167 165
47.9291089568443 577.649083350389 2791.31815011986 232 232 230
42.6283333174569 577.307535279986 2786.23873809721 186 186 186
39.5444722556331 577.345327134247 2779.06293183001 161 161 161
34.2265107617155 577.002256971958 2773.97075922792 172 172 172
29.6392335708195 576.784906203803 2768.17416991201 165 165 165
22.8398683564883 576.188297438244 2764.47717965068 153 153 153
18.2396034271539 575.96968541508 2758.6711688575 150 150 150
14.3594201270636 575.875943006383 2752.15246198765 160 160 160
10.4650388482845 575.78096078735 2745.62345642017 172 172 172
6.55638737252673 575.684732907493 2739.08409977283 167 167 167
3.35672283541211 575.712516078718 2731.82429439908 155 155 155
0.138522718507783 575.738697687166 2724.55074959871 154 154 154
-5.2547450237399 575.388431976719 2719.40424392024 149 149 149
-10.6534449578435 575.037576838611 2714.25379734441 150 150 150
-15.343018020459 574.810733729331 2708.38270901038 157 157 157
-15.7697568490927 575.329355642211 2698.19510186104 146 146 146
-15.5226644285862 575.969219860603 2687.26125237443 135 135 135
-16.0241135603749 576.481580302382 2677.01945441636 135 135 133
-16.5616746900992 576.99097503931 2666.7511686014 132 132 130
-17.1356468046429 577.497310951149 2656.45676666998 134 134 132
-15.6423906706622 578.37123850207 2643.95710569522 130 130 128
-15.5966584240397 578.994292836693 2632.87749525297 133 133 131
-12.1079030709412 580.229951789933 2618.12084212447 138 138 136
-10.7655380801817 581.091367114769 2605.51202803994 128 130 125
-147.495983778076 560.432075943144 2685.38183482148 186 188 187
-156.899012575791 559.351779094434 2684.73567875897 197 199 198
-164.927055086362 558.516250490559 2682.61715166366 196 197 199
-172.942473118067 557.681465404719 2680.50748561155 193 194 196
-182.96294798405 556.483408331923 2680.64816986764 188 189 191
-190.947028957894 555.650485201753 2678.56152462574 196 197 199
-198.918668579673 554.818211496959 2676.48390167492 199 200 202
-204.21468432127 554.469760285908 2671.40790523798 196 197 199
-208.188627359651 554.361820601193 2664.82115802091 190 191 193
-212.176591614762 554.252506066293 2658.22423956072 178 180 179
-218.156085013948 553.780945336015 2653.88718863888 165 167 166
-226.764031511558 552.828726289414 2652.58272233671 163 165 164
-233.390890087678 552.23723088722 2649.01110619611 170 172 169
-240.666320569349 551.526010928862 2646.20346216366 177 179 176
-245.332542721681 551.293303166133 2640.34956617423 186 188 185
-250.656147410878 550.940157087845 2635.25325166295 190 192 189
-255.984930807948 550.586303115766 2630.15347388722 196 198 197
-261.962421091845 550.112634395189 2625.81786438901 200 202 201
-267.940484653208 549.638620513669 2621.48183756142 206 208 207
-273.27993469795 549.282856907404 2616.37431763248 218 220 217
-280.535302540401 548.570902365868 2613.58121371455 212 214 209
-292.226196008269 547.03087722648 2616.21464810659 181 183 178
-324.120856235221 541.712785681715 2643.70662658163 169 171 166
250.971789191532 595.43314946831 2760.74026485172 197 201 202
223.6725797872 591.522619272026 2774.2790225587 192 193 195
206.551207632043 589.265151788673 2779.14763069427 192 193 195
192.577090658274 587.517556327851 2781.35989288507 206 207 209
184.801561653662 586.782232847524 2778.18988914865 203 204 206
176.266751947154 585.921542303992 2775.70386824788 186 187 189
166.214051573178 584.810231714983 2774.58629982732 167 168 170
149.316311806283 582.570074407593 2779.61711153315 168 170 169
128.675526081568 579.707365313854 2788.10712809611 162 164 163
109.634254644466 577.101489995939 2795.28759987977 138 140 139
95.2044850367852 575.251940213646 2798.40436443962 136 136 136
86.8549406856491 574.405362072808 2796.05271783082 144 144 144
77.7657623083949 573.434948724793 2794.39930411137 121 121 121
68.6932488853329 572.465765936289 2792.75797740589 137 137 135
56.6472754473324 571.000103418082 2793.89905230492 133 133 131
49.852476198609 570.406712736257 2790.20568278675 133 133 131
45.2906882136412 570.185740857226 2784.42725832152 225 225 225
41.4599195066301 570.087846550882 2777.94435211457 223 223 223
35.3987945897387 569.617529068988 2773.54813106074 166 166 166
30.0730767957909 569.270525136529 2768.45061030293 171 171 171
24.0077282767706 568.799626520499 2764.05132452622 173 173 173
20.8698657466426 568.821393609623 2756.83629027361 172 172 172
15.5236964549919 568.472453672223 2751.72363950539 164 164 164
12.3551269822237 568.491553925094 2744.48633162669 156 156 156
7.71687987225578 568.263681436836 2738.6527398341 162 162 162
3.79222050651373 568.157434142347 2732.10172797538 172 172 172
1.29557872809816 568.294605428895 2724.1167817688 172 172 172
-2.66192675515775 568.185458257316 2717.54194437008 159 159 159
-8.78381422255492 567.708963711069 2713.1016439586 151 151 151
-13.4778688799506 567.475823391396 2707.22756940128 151 151 151
-16.0445633645712 567.606901420785 2699.19180962943 142 142 142
-14.3739236486276 568.464949136065 2686.82095184132 132 132 132
-15.5843071530886 568.833617198085 2677.29954102605 134 134 132
-16.1207332835613 569.320819439544 2667.03196558691 130 130 128
-17.3970870276308 569.683904201174 2657.46270325656 133 133 131
-13.0949777264062 571.010865608532 2642.06109359861 131 131 129
-10.2583446452429 572.091055635243 2628.06654122068 135 135 133
-6.78300121907727 573.286914080583 2613.29996390269 138 138 136
-8.92777263546307 573.51519302912 2604.33552087991 131 133 128
-149.683376542507 553.132755768063 2677.58369700654 182 184 183
-160.442097091813 551.827674355685 2678.42370574167 155 157 156
-171.845480630479 550.405943626824 2680.03083029544 155 157 156
-182.54181311067 549.105199418033 2680.91608744209 172 174 173
-188.515476354335 548.635335743584 2676.58327152033 197 198 200
-195.158207865461 548.046856011328 2673.00016402536 200 201 203
-200.465160602285 547.694521232554 2667.91592497912 187 189 188
-205.777462206848 547.341494647049 2662.82809939739 178 180 179
-210.433324806903 547.105463570054 2656.98140195822 171 173 172
-214.439482621876 546.985862941164 2650.37124249713 167 169 168
-221.088197943156 546.395404858172 2646.78378718974 162 164 163
-227.733015162213 545.804983359388 2643.19886340813 164 166 163
-235.026836000644 545.097571263059 2640.3782015782 172 174 171
-241.661939657404 544.507279489183 2636.80032002228 177 179 176
-246.348478603232 544.266941099705 2630.93136282801 178 180 177
-252.336675832442 543.792524484781 2626.58798784841 190 192 191
-259.61317261201 543.085141722674 2623.77988474704 197 199 198
-268.164564916595 542.145868330545 2622.51648135861 201 203 202
-273.501889629344 541.787319581023 2617.41048802089 208 210 207
-279.481348040799 541.312296543861 2613.07344492513 212 214 211
-284.826413595059 540.952493389788 2607.96183373239 211 213 208
-293.340112982108 540.014839692779 2606.72576294836 196 198 193
-313.186272828363 537.003784270696 2619.49617925297 166 169 162
244.421465981575 586.439355355806 2767.06215904257 199 203 204
233.438282642541 585.205397678066 2766.50477353769 191 192 194
209.322172177671 581.869956047703 2777.41349953973 187 188 190
193.024308167499 579.777889410989 2781.64488746283 204 205 207
181.400531942576 578.430629203206 2781.85758523359 205 206 208
175.178551452147 577.94817678317 2777.34469507582 191 192 194
168.955559905665 577.465642456319 2772.83107156706 177 178 180
157.390393291482 576.122831561562 2773.08627923209 166 168 167
136.724608520585 573.309715922612 2781.55842465359 168 170 169
114.624135185358 570.257828632634 2791.45939754994 142 144 143
97.9100472673267 568.069660440758 2796.62390021248 137 137 137
87.2905896145957 566.863675004613 2796.33032890481 130 130 130
78.9529385289507 566.025786816608 2793.98705351728 148 148 148
72.1269916162952 565.432441810689 2790.27110462417 123 123 121
63.0616054448461 564.474261704802 2788.63500034624 127 127 125
54.7582134394586 563.638741036037 2786.31686656609 135 135 133
45.7237532011261 562.682767556553 2784.70319233407 189 189 189
40.4111997515986 562.333842892046 2779.61520496158 221 221 221
33.6155615806697 561.742405179505 2775.92094270596 185 185 185
29.7700209472107 561.634442225822 2769.4272770146 173 173 173
24.4412075139793 561.283961346038 2764.32749455039 176 176 176
22.0362428510814 561.414908039583 2756.40897551255 178 178 178
17.4178564241991 561.182968825705 2750.58976055421 172 172 172
14.2453901212964 561.190372195082 2743.34956853316 159 159 159
8.87749947377703 560.836326931963 2738.22114563103 158 158 158
4.22740825238721 560.601401069441 2732.37893206258 162 162 162
0.288861050341538 560.485276236404 2725.81780258326 163 163 163
-5.10187561484576 560.128961984361 2720.6728066225 156 156 156
-9.0645031475729 560.010587656911 2714.09420940344 152 152 152
-13.0414893635504 559.890911114825 2707.50549114951 160 160 160
-13.4701978532061 560.364764346778 2697.31593491165 165 165 165
-13.224957825301 560.954353439763 2686.38048793269 147 147 147
-15.1448090205073 561.184673219057 2677.5793991925 138 138 136
-16.3859127550832 561.531216398168 2668.0353120829 134 134 132
-16.9554898658735 561.99321998056 2657.7438716315 136 136 134
-12.651182628459 563.278837493702 2642.34364588943 133 133 131
-7.01562914049214 564.79487654874 2625.43956283673 136 136 134
-4.24426768180619 565.833713095255 2611.39718972614 138 138 136
-6.39501423292277 566.044700465642 2602.42862209244 123 125 122
-165.348726189774 544.052100583008 2673.59206967561 147 149 146
-176.066440432276 542.7685434889 2674.4622082596 150 152 149
-182.060167156223 542.296815473533 2670.11483844955 178 180 179
-188.722999786206 541.709236080244 2666.51686930792 185 187 186
-194.716162248376 541.236926466314 2662.16990559736 179 181 180
-200.04618486364 540.879477090553 2657.06921127448 172 174 173
-207.366318808015 540.176405184762 2654.2292020194 169 171 170
-213.359507273825 539.703257050834 2649.88221521098 169 171 170
-218.696241518793 539.344308057174 2644.77664788863 162 164 163
-224.038078021743 538.984706748453 2639.66737852648 159 161 158
-231.996163045422 538.167351452111 2637.59936268076 166 168 165
-238.640667205686 537.578787859321 2634.01496972983 174 176 173
-245.281223467677 536.990235012866 2630.43314427203 175 177 174
-250.625712521413 536.629194069738 2625.32194472717 185 187 186
-259.83900059592 535.585974854102 2624.81322909268 192 194 193
-267.747333660999 534.770897937084 2622.78158552096 195 197 196
-272.445253461846 534.522657903427 2616.90463255565 202 204 201
-277.152438010342 534.273298500618 2611.02066323019 207 209 206
-279.963642853339 534.361537223364 2602.80743569191 212 214 209
-286.595134875658 533.771399030994 2599.23246754182 208 210 205
-291.961118684151 533.406306277753 2594.10537099028 180 182 177
241.654537819173 578.579717026201 2760.07610215702 193 194 196
211.319569660729 574.336675460745 2776.35293031503 185 186 188
191.155299679874 571.675003610196 2783.95436497413 194 195 197
179.536946679525 570.346792942516 2784.1710906458 206 207 209
175.624463085571 570.225938885565 2777.62883127776 203 204 206
170.932224971146 569.983595819054 2771.75602695749 193 194 196
160.12483469545 568.779223142071 2771.32593297267 164 166 165
144.015581130124 566.736848492385 2775.6943003321 163 165 164
122.650787321397 563.860005091619 2784.89443302 142 144 143
103.642568033415 561.348823200164 2792.09963912982 141 141 141
93.0070504041627 560.157627326632 2791.79420603747 135 135 135
82.3966791465125 558.968299716571 2791.50730602668 132 132 132
77.0618417298632 558.61482158671 2786.40314146667 130 130 128
67.982632903993 557.666066475043 2784.75706459102 133 133 131
62.647949827062 557.312421616975 2779.65301107065 133 133 131
52.8474969471953 556.246578546699 2778.71853254376 138 138 138
44.5503297915462 555.419149624713 2776.40495227631 153 153 153
35.526376894806 554.474273421385 2774.79895125035 229 229 229
30.2030792694064 554.121132705159 2769.70315384035 214 214 214
26.3437197168868 554.003357539808 2763.19942081886 175 175 175
23.2025394099122 554.002123330325 2755.9818649329 176 176 176
19.3124712642296 553.881711066919 2749.45585723945 181 181 181
13.9520781959006 553.525117127501 2744.33315105996 182 182 182
8.58627040638593 553.168054663373 2739.20651726036 177 177 177
3.21517035786023 552.810403749329 2734.07574953162 175 175 175
0.00278680361986972 552.802893460308 2726.80654510258 175 175 175
-2.50887641261643 552.910529274467 2718.81055993216 185 185 185
-6.47793132343 552.783011634794 2712.2275515339 181 181 181
-11.8905047567317 552.421493091629 2707.06669927315 179 179 179
-13.7456017969011 552.640439540639 2698.31220011669 177 177 177
-14.9177878400628 552.973099695971 2688.81829706915 157 157 157
-16.1218188478256 553.30312031021 2679.30129555736 149 149 147
-17.357713941383 553.630410218602 2669.7611812582 149 149 147
-17.9217972322683 554.070544546702 2659.47361262201 137 137 135
-12.2076766840236 555.545919668893 2642.62598406015 137 137 135
-4.47144830588497 557.360727053679 2623.54083402182 142 142 140
-2.40210306911814 558.24807789205 2610.22411817145 138 138 136
-6.64128750580995 558.097441641622 2603.44487553769 135 137 134
-13.6656511829196 557.486787558387 2599.58470794668 129 131 128
-172.248644949396 536.472877405508 2659.90593569716 140 142 139
-182.285175783661 535.321434160005 2660.03521674742 129 131 128
-190.297213486121 534.509486567145 2657.92841132154 147 149 146
-196.968577216691 533.923127861653 2654.32426398606 153 155 152
-203.636475882641 533.336731632432 2650.72292283682 167 169 166
-210.300510904989 532.750339323979 2647.12408806812 174 176 173
-216.303513770987 532.275828547939 2642.7699796895 164 166 163
-222.307211928789 531.80099259834 2638.41536563195 151 153 150
-229.617630874216 531.102691037896 2635.58271762669 153 155 152
-237.570478031447 530.29334753168 2633.51853940343 166 168 165
-244.213794015359 529.707120587495 2629.93501962249 172 174 171
-249.560443891629 529.3428771726 2624.82194295309 173 175 174
-256.844674567064 528.645442533966 2622.00828377477 179 181 178
-265.40446339039 527.726966831741 2620.73889891511 186 188 185
-271.388286056788 527.251500625534 2616.39868983307 196 198 195
-276.735221548275 526.885959938971 2611.28569402119 198 200 197
-278.910653867451 527.070442164236 2602.2988024166 207 209 206
-284.278594292944 526.702572533706 2597.17056788324 213 215 212
-287.127969134684 526.77317144187 2588.92958074913 207 209 206
-295.657863210683 525.855096616235 2587.68216373734 194 196 191
-323.589284108964 521.545825804992 2610.64148012811 164 166 161
245.214418776087 571.188081779619 2757.67885475074 195 196 198
214.865832821721 567.028325159784 2773.94623293253 185 186 188
195.462256688526 564.532690545146 2780.86462070093 190 191 193
180.751929061915 562.750416492036 2783.77834353029 201 202 204
176.070027516819 562.502985806836 2777.9127121629 205 206 208
167.550354628779 561.666702114705 2775.43778789038 198 199 201
157.516224187661 560.59645666139 2774.33418369049 168 170 169
142.174971502241 558.706970121224 2778.02473457991 162 164 163
124.608453628516 556.470187260991 2783.80608296212 145 147 146
109.377286374066 554.589170789827 2787.57648003236 140 140 140
97.2159850863523 553.179087443205 2788.63452730839 143 143 143
88.0985306200417 552.238017766776 2786.96076428003 133 133 133
80.4978126039431 551.530895722638 2783.91762760566 130 130 128
71.4091158715426 550.591886896203 2782.26472211094 134 134 132
65.3200247256103 550.118318064917 2777.84821127212 130 130 128
55.5121484358123 549.065106870714 2776.90841533988 134 134 134
45.7250356241996 548.013438748643 2775.98397358908 138 138 138
35.9590624475139 546.963323454843 2775.07456979914 190 190 190
32.1097637091428 546.837770576629 2768.57838515791 219 219 219
28.981288973827 546.826233848792 2761.36969315068 185 185 185
23.6362218470325 546.467983906521 2756.2580886853 179 179 179
20.4769467312351 546.453813003208 2749.02734995935 179 179 179
14.3862665025809 545.979249153179 2744.60968212059 191 191 191
9.74666024163229 545.733512287045 2738.77472008683 192 192 192
3.64951929439972 545.258156199592 2734.35236472246 190 190 190
0.437669948967212 545.23927811874 2727.08348997267 194 194 194
-2.79283248686002 545.218829185725 2719.80108524291 188 188 188
-6.75917448270758 545.082858110839 2713.21970619927 183 183 183
-11.4545981942236 544.832031842471 2707.34425512557 174 174 174
-13.3088589798396 545.034168409634 2698.59027704251 162 162 162
-15.9012450352878 545.120667769133 2690.53596157995 152 152 152
-17.8082393418264 545.318353101555 2681.74373329581 143 143 141
-17.6242260090285 545.852618113209 2670.76362155155 148 148 146
-15.3691825770981 546.721884630829 2657.58143068519 143 143 141
-10.36100725031 548.037270849415 2641.45656809756 141 141 139
-4.02524696429096 549.571838527911 2623.82484264082 144 144 142
-4.74347214577309 549.976902481689 2613.42535562023 139 139 137
-6.88810218190383 550.154709359766 2604.46075943602 133 135 132
-12.5248456512232 549.770410756368 2599.13758062366 128 130 127
-187.875852917076 527.418742055801 2655.94238688896 146 148 145
-193.890108351689 526.943947006271 2651.58011984331 149 151 148
-199.905069463965 526.468796069904 2647.21733943423 162 164 161
-206.580557328942 525.88398519371 2643.61021026576 175 177 174
-213.25253033325 525.299110955915 2640.00592325088 166 168 165
-219.265278682193 524.823302864643 2635.64474359254 147 149 146
-227.891278533939 523.911860172361 2634.32739656895 149 151 148
-236.500252822765 523.001468149567 2633.02239706111 165 167 164
-243.794857379362 522.309048004756 2630.20124303434 169 171 168
-247.848669800578 522.158403385388 2623.55638048825 171 173 172
-253.849247795213 521.682027889347 2619.20402050546 174 176 173
-261.13452563913 520.989426924764 2616.38933221884 181 183 180
-268.411654615471 520.297138004819 2613.58084727783 192 194 191
-274.405150546524 519.820380333867 2609.23361929827 194 196 193
