ply
format ascii 1.0
comment KinectMotionCapture
element vertex 769
property float x
property float y
property float z
property uchar red
property uchar green
property uchar blue
end_header
89.3520936369896 950.379014015198 2601.0000705719 97 73 45
96.2501093745232 948.912739753723 2596.99988365173 109 83 56
103.325240314007 949.273228645325 2598.00004959106 107 79 55
110.363163053989 949.267983436584 2598.00004959106 107 77 53
117.446169257164 949.627697467804 2598.99997711182 107 80 59
124.486565589905 949.621737003326 2598.99997711182 106 81 61
131.729274988174 951.077044010162 2602.9999256134 104 77 58
138.780236244202 951.070427894592 2602.9999256134 106 78 57
145.887076854706 951.429009437561 2604.00009155273 110 82 61
152.999192476273 951.787173748016 2605.00001907349 109 81 60
160.546660423279 954.702615737915 2612.99991607666 112 85 64
168.137311935425 957.61775970459 2621.00005149841 81 56 36
175.369963049889 958.340346813202 2622.99990653992 79 57 36
182.613283395767 959.06263589859 2625 102 79 61
189.939543604851 960.150063037872 2628.00002098084 97 79 59
197.806745767593 963.794767856598 2638.00001144409 93 71 50
205.106407403946 964.516282081604 2640.00010490417 80 45 26
212.41669356823 965.237379074097 2641.99995994568 87 54 37
219.571396708488 965.227723121643 2641.99995994568 94 62 47
226.725891232491 965.217769145966 2641.99995994568 77 53 41
233.791694045067 964.842140674591 2641.00003242493 81 61 52
243.406370282173 974.69574213028 2667.99998283386 26 15 9
247.624561190605 962.994635105133 2635.99991798401 16 9 3
-373.639822006226 904.161512851715 2493.99995803833 189 191 186
-365.125298500061 899.823248386383 2482.00011253357 170 172 167
-357.830762863159 898.385107517242 2477.9999256134 108 110 105
-350.982815027237 898.034691810608 2476.99999809265 111 113 108
-344.696044921875 899.134457111359 2480.00001907349 120 122 117
-338.529109954834 900.596678256989 2483.99996757507 116 117 112
-332.206785678864 901.696503162384 2486.99998855591 118 119 114
-325.606286525726 902.071177959442 2487.99991607666 124 125 120
-319.384753704071 903.533637523651 2492.00010299683 124 125 120
-313.51763010025 906.083643436432 2499.00007247925 127 128 123
-307.489663362503 908.271133899689 2505.00011444092 133 134 129
-300.708770751953 908.283054828644 2505.00011444092 169 170 165
-293.810307979584 907.932221889496 2503.99994850159 145 146 141
-287.719488143921 910.119533538818 2509.99999046326 141 142 137
-281.931728124619 913.394570350647 2519.00005340576 164 165 160
-275.876611471176 915.944397449493 2526.00002288818 171 172 167
-270.102888345718 919.581949710846 2536.00001335144 186 187 182
-264.274805784225 923.219442367554 2546.0000038147 195 197 194
-258.493423461914 927.219450473785 2556.99992179871 210 212 209
-250.291049480438 922.516465187073 2543.99991035461 180 182 179
40.812723338604 961.901605129242 2651.99995040894 159 143 128
47.473207116127 951.380789279938 2622.99990653992 184 163 146
54.3302297592163 947.025656700134 2611.00006103516 133 111 90
61.1927174031734 943.758249282837 2601.99999809265 110 88 65
68.1112706661224 941.941320896149 2596.99988365173 98 72 47
75.118400156498 941.575050354004 2595.99995613098 98 72 45
82.278236746788 943.021655082703 2599.99990463257 98 73 43
89.3909707665443 943.742752075195 2601.99999809265 104 79 49
96.3291078805923 942.649841308594 2598.99997711182 108 81 52
103.370197117329 942.644715309143 2598.99997711182 109 82 55
110.45365780592 943.002045154572 2599.99990463257 107 80 53
117.452040314674 942.63356924057 2598.99997711182 109 78 58
124.492757022381 942.627429962158 2598.99997711182 107 76 56
131.735771894455 944.071710109711 2602.9999256134 105 74 56
139.000341296196 945.515811443329 2607.00011253357 109 78 60
146.174341440201 946.233928203583 2608.99996757507 111 80 62
153.41779589653 947.314620018005 2611.99998855591 109 80 62
160.923078656197 949.845612049103 2618.99995803833 105 76 58
168.273687362671 951.288282871246 2622.99990653992 93 66 45
175.378322601318 951.279938220978 2622.99990653992 92 65 44
182.830661535263 953.084647655487 2628.00002098084 108 81 62
190.526708960533 955.977022647858 2635.99991798401 107 82 60
198.190897703171 958.506405353546 2642.99988746643 113 82 61
205.271258950233 958.134233951569 2641.99995994568 72 27 8
212.265640497208 957.399189472198 2640.00010490417 80 39 21
219.332009553909 957.026422023773 2638.99993896484 108 76 61
226.650297641754 957.741498947144 2641.00003242493 73 47 34
234.244763851166 959.544122219086 2645.99990844727 80 62 50
236.756891012192 941.039025783539 2595.00002861023 27 18 9
-366.020321846008 895.290672779083 2487.99991607666 193 195 190
-358.853995800018 894.223749637604 2484.99989509583 114 116 111
-351.987063884735 893.876552581787 2483.99996757507 102 104 99
-345.542371273041 894.608974456787 2486.00006103516 118 120 115
-339.495480060577 896.420836448669 2490.9999370575 118 119 114
-333.287805318832 897.873044013977 2494.99988555908 117 118 113
-326.534688472748 897.88556098938 2494.99988555908 122 123 118
-319.909691810608 898.258090019226 2496.00005149841 123 124 119
-313.780784606934 900.069892406464 2500.99992752075 121 122 117
-307.870090007782 902.601599693298 2507.99989700317 122 123 118
-301.201045513153 902.97394990921 2509.0000629425 149 150 145
-294.174313545227 902.266383171082 2506.99996948242 146 147 142
-287.846028804779 903.718173503876 2510.99991798401 134 135 130
-281.71968460083 905.889570713043 2516.99995994568 150 151 146
-275.451421737671 907.701194286346 2522.0000743866 161 162 157
-269.688427448273 911.312162876129 2532.00006484985 180 181 176
-263.871073722839 914.923012256622 2542.00005531311 169 171 168
-258.201479911804 919.253647327423 2553.99990081787 211 213 210
-251.679599285126 920.704901218414 2558.00008773804 187 189 186
-245.614245533943 923.955500125885 2566.99991226196 175 177 174
-238.105341792107 921.807050704956 2561.00010871887 216 218 215
40.6148098409176 950.086355209351 2638.99993896484 170 154 139
47.3671145737171 942.163646221161 2617.00010299683 140 121 104
54.2914718389511 939.280867576599 2608.99996757507 127 106 85
61.24297529459 937.477707862854 2604.00009155273 98 76 53
68.1672990322113 935.674130916595 2598.99997711182 104 80 52
75.1223340630531 934.590339660645 2595.99995613098 102 79 48
82.2508931159973 935.66620349884 2598.99997711182 100 75 45
89.3956273794174 936.741650104523 2601.99999809265 106 79 50
96.445307135582 936.736762523651 2601.99999809265 109 82 53
103.494875133038 936.731576919556 2601.99999809265 111 84 57
110.586799681187 937.085926532745 2602.9999256134 110 82 58
117.638826370239 937.079906463623 2602.9999256134 108 77 57
124.690726399422 937.073707580566 2602.9999256134 107 74 55
131.742477416992 937.067031860352 2602.9999256134 106 73 56
139.114007353783 939.220070838928 2608.99996757507 107 76 58
146.293774247169 939.932823181152 2611.00006103516 109 78 60
153.660401701927 941.725075244904 2615.9999370575 107 78 60
161.053985357285 943.517088890076 2621.00005149841 107 78 60
168.410316109657 944.948792457581 2625 93 65 44
175.58753490448 945.300161838531 2625.99992752075 105 77 56
183.117866516113 947.450995445251 2631.99996948242 120 92 71
190.897345542908 950.681567192078 2641.00003242493 81 53 31
198.350414633751 952.111959457397 2644.99998092651 76 44 23
205.358743667603 951.382100582123 2642.99988746643 71 24 6
212.114855647087 949.572324752808 2638.00001144409 77 34 17
219.092965126038 948.842108249664 2635.99991798401 88 56 41
226.403370499611 949.551522731781 2638.00001144409 96 73 59
233.193203806877 948.100864887238 2634.0000629425 74 58 45
-360.599845647812 891.811430454254 2496.99997901917 187 189 184
-353.700429201126 891.467452049255 2496.00005149841 147 149 144
-346.667259931564 890.766322612762 2493.99995803833 115 117 112
-340.462446212769 892.208218574524 2497.99990653992 122 123 118
-333.968579769135 892.935633659363 2500 123 124 119
-327.33279466629 893.305897712708 2500.99992752075 125 126 121
-320.691496133804 893.676221370697 2502.00009346008 121 122 117
-314.169853925705 894.403457641602 2503.99994850159 120 121 116
-308.128267526627 896.559596061707 2509.99999046326 123 124 119
-301.453679800034 896.929562091827 2510.99991798401 129 130 125
-294.773489236832 897.299528121948 2512.00008392334 155 156 151
-287.972956895828 897.312045097351 2512.00008392334 137 138 133
-281.619995832443 898.753464221954 2516.00003242493 144 145 140
-275.354295969009 900.551795959473 2520.99990844727 151 152 147
-269.593864679337 904.13624048233 2530.99989891052 167 168 163
-263.882905244827 908.077895641327 2542.00005531311 167 169 166
-258.112102746964 912.019312381744 2552.99997329712 190 192 189
-251.592755317688 913.46001625061 2556.99992179871 212 214 211
-244.955807924271 914.543271064758 2559.99994277954 163 165 162
-238.395392894745 915.98379611969 2563.99989128113 218 220 217
-232.174143195152 918.852984905243 2572.00002670288 202 204 201
40.4631048440933 939.413666725159 2628.99994850159 138 122 107
47.3877862095833 935.480713844299 2618.00003051758 106 87 70
54.3776489794254 933.691203594208 2612.99991607666 94 76 54
61.3168478012085 931.544244289398 2607.00011253357 84 64 40
68.1971982121468 929.039299488068 2599.99990463257 101 77 51
75.0684961676598 926.891565322876 2594.00010108948 98 74 46
82.0654109120369 926.529943943024 2592.99993515015 104 78 51
89.2629697918892 928.311884403229 2598.00004959106 108 81 54
96.4504405856133 929.736137390137 2601.99999809265 109 82 55
103.619694709778 930.802702903748 2605.00001907349 109 81 57
110.890053212643 932.583510875702 2609.99989509583 107 79 57
118.051797151566 933.292090892792 2611.99998855591 106 77 59
125.08051097393 932.928264141083 2611.00006103516 104 75 57
132.002428174019 931.849479675293 2608.00004005432 105 74 56
139.334514737129 933.628797531128 2612.99991607666 104 75 57
146.693542599678 935.407876968384 2618.00003051758 105 76 58
154.138267040253 937.543869018555 2624.00007247925 108 79 61
161.430925130844 938.607513904572 2627.00009346008 109 80 62
168.675497174263 939.313530921936 2628.99994850159 107 78 60
176.198214292526 941.448450088501 2634.99999046326 109 80 62
183.47492814064 942.153871059418 2637.00008392334 101 72 54
191.195979714394 945.002555847168 2644.99998092651 99 70 52
198.360219597816 944.99284029007 2644.99998092651 123 92 74
205.446541309357 944.625437259674 2644.00005340576 86 49 33
212.205588817596 942.828774452209 2638.99993896484 105 71 59
219.103530049324 941.746234893799 2635.99991798401 84 60 48
225.985080003738 940.663695335388 2632.99989700317 45 27 15
233.735471963882 943.153440952301 2640.00010490417 24 11 2
-355.556160211563 889.348864555359 2509.0000629425 181 183 178
-348.348766565323 888.299167156219 2506.00004196167 138 140 135
-341.566264629364 888.312935829163 2506.00004196167 116 117 112
-334.917157888412 888.681054115295 2506.99996948242 120 121 116
-328.000545501709 888.340175151825 2506.00004196167 127 128 123
-321.217447519302 888.353705406189 2506.00004196167 124 125 120
-314.559429883957 888.721525669098 2506.99996948242 118 119 114
-308.26410651207 890.152812004089 2510.99991798401 122 123 118
-301.82683467865 891.229629516602 2513.99993896484 124 125 120
-295.49041390419 892.660737037659 2517.99988746643 158 159 154
-288.788199424744 893.028378486633 2519.00005340576 146 147 142
-282.192230224609 893.750250339508 2520.99990844727 138 139 134
-275.69442987442 894.826591014862 2523.9999294281 141 142 137
-269.606202840805 897.320866584778 2530.99989891052 148 149 144
-263.687461614609 900.524139404297 2539.99996185303 162 162 160
-257.820844650269 904.08182144165 2549.99995231628 144 144 142
-251.309424638748 905.512094497681 2553.99990081787 196 196 194
-244.776099920273 906.942248344421 2558.00008773804 199 199 197
-238.127946853638 908.017694950104 2561.00010871887 171 171 169
-232.095167040825 911.57478094101 2571.00009918213 208 208 206
-225.920394062996 914.776980876923 2579.99992370605 197 197 195
40.4807478189468 932.696282863617 2630.00011444092 99 85 72
47.5171282887459 930.920600891113 2625 90 73 55
54.5471608638763 929.499208927155 2621.00005149841 80 62 42
61.4848807454109 927.013516426086 2614.00008201599 83 62 41
68.4370473027229 925.236642360687 2608.99996757507 97 73 47
75.3330886363983 923.104822635651 2602.9999256134 98 74 48
82.3864191770554 923.100471496582 2602.9999256134 104 78 53
89.5083695650101 923.804938793182 2605.00001907349 107 79 55
96.641056239605 924.509108066559 2607.00011253357 107 79 55
103.704899549484 924.50362443924 2607.00011253357 107 79 57
110.896058380604 925.561547279358 2609.99989509583 106 78 57
118.148572742939 926.973760128021 2614.00008201599 102 73 55
125.32676756382 927.676320075989 2615.9999370575 100 73 56
132.161349058151 925.896346569061 2611.00006103516 101 72 56
139.341950416565 926.598250865936 2612.99991607666 101 72 56
146.701335906982 928.363621234894 2618.00003051758 103 74 58
154.263854026794 931.192278862 2625.99992752075 107 78 60
161.562278866768 932.247698307037 2628.99994850159 109 80 62
168.940931558609 933.65740776062 2632.99989700317 107 75 60
176.742315292358 937.194228172302 2642.99988746643 103 71 56
183.901831507683 937.184691429138 2642.99988746643 97 65 50
191.278055310249 938.238859176636 2645.99990844727 110 78 63
198.220297694206 937.165021896362 2642.99988746643 120 88 73
205.301493406296 936.800122261047 2641.99995994568 97 65 52
212.296634912491 936.080396175385 2640.00010490417 93 65 54
219.280675053596 935.360252857208 2638.00001144409 34 16 6
228.914484381676 945.631563663483 2667.00005531311 17 3 0
-357.837706804276 888.216257095337 2525.00009536743 196 198 193
-349.891841411591 885.416209697723 2516.99995994568 172 174 169
-342.534303665161 884.023368358612 2513.00001144409 116 117 112
-335.73254942894 884.037494659424 2513.00001144409 117 118 113
-328.668773174286 883.347988128662 2510.99991798401 124 125 120
-322.128385305405 884.065628051758 2513.00001144409 123 124 119
-314.949482679367 883.024096488953 2509.99999046326 117 118 113
-308.645963668823 884.445071220398 2513.99993896484 118 119 114
-302.080363035202 885.16241312027 2516.00003242493 123 124 119
-296.090483665466 887.638628482819 2523.00000190735 144 145 140
-289.374560117722 888.003766536713 2523.9999294281 147 148 143
-282.876878976822 889.07265663147 2526.99995040894 129 130 125
-276.253402233124 889.789402484894 2529.00004386902 137 138 133
-270.044982433319 891.913414001465 2535.00008583069 140 141 136
-263.596206903458 893.333613872528 2539.00003433228 146 147 142
-257.428795099258 895.80911397934 2546.0000038147 154 155 150
-251.026421785355 897.580802440643 2551.00011825562 200 201 196
-244.501009583473 899.000465869904 2555.0000667572 187 188 183
-238.046675920486 900.771796703339 2559.99994277954 151 152 147
-231.835886836052 903.598606586456 2568.00007820129 187 188 183
-225.581496953964 906.425178050995 2575.99997520447 202 203 198
-219.113796949387 908.547818660736 2582.00001716614 179 180 175
40.7601185142994 931.956946849823 2648.00000190735 119 111 98
47.718957066536 927.731037139893 2635.99991798401 74 62 46
54.8208169639111 927.024185657501 2634.0000629425 84 69 50
61.7000684142113 923.149466514587 2622.99990653992 84 66 46
68.7032341957092 921.737909317017 2618.99995803833 83 62 41
75.6846517324448 920.326054096222 2615.00000953674 96 72 48
82.802526652813 920.673489570618 2615.9999370575 98 72 49
89.9257436394691 921.020567417145 2617.00010299683 100 72 50
96.9801023602486 920.663356781006 2615.9999370575 101 73 52
103.989146649837 919.9538230896 2614.00008201599 104 75 57
111.157163977623 920.65155506134 2615.9999370575 104 77 60
118.381097912788 921.700954437256 2618.99995803833 104 77 60
125.525310635567 922.046065330505 2619.99988555908 102 76 59
132.421687245369 920.631229877472 2615.9999370575 101 75 58
139.669522643089 921.679437160492 2618.99995803833 99 72 53
147.101566195488 923.783123493195 2625 100 73 54
154.68342602253 926.590144634247 2632.99989700317 107 78 60
162.062630057335 927.98912525177 2637.00008392334 104 73 55
169.334962964058 928.683936595917 2638.99993896484 109 78 60
177.219852805138 932.54566192627 2650.00009536743 105 73 58
184.746578335762 934.295415878296 2654.99997138977 89 57 44
192.300215363503 936.044871807098 2660.00008583069 98 69 55
198.755636811256 932.515561580658 2650.00009536743 92 64 52
205.545246601105 930.745482444763 2644.99998092651 27 10 0
212.307542562485 928.975224494934 2640.00010490417 38 24 15
221.785694360733 938.816606998444 2667.99998283386 22 9 1
227.724388241768 933.526992797852 2653.00011634827 20 15 9
-352.26958990097 884.569108486176 2533.99991989136 192 194 189
-344.320744276047 881.791293621063 2526.00002288818 177 178 173
-337.350159883499 881.456971168518 2525.00009536743 126 127 122
-329.730182886124 879.376828670502 2519.00005340576 120 121 116
-322.655260562897 878.693044185638 2516.99995994568 109 110 105
-315.71638584137 878.35830450058 2516.00003242493 130 131 126
-309.028178453445 878.721654415131 2516.99995994568 113 114 109
-302.574425935745 879.783034324646 2519.99998092651 119 120 115
-296.456277370453 881.89172744751 2526.00002288818 130 131 126
-290.076047182083 883.30215215683 2529.99997138977 142 143 138
-283.561944961548 884.363234043121 2532.99999237061 129 130 125
-277.03133225441 885.424137115479 2536.00001335144 126 127 122
-270.377635955811 886.135756969452 2538.00010681152 132 133 128
-263.712882995605 886.847257614136 2539.99996185303 135 136 131
-257.239252328873 888.256728649139 2543.99991035461 141 142 137
-250.743687152863 889.666199684143 2548.00009727478 173 174 169
-244.608998298645 892.4720287323 2555.99999427795 186 187 182
-238.151773810387 894.230306148529 2561.00010871887 180 181 176
-231.757462024689 896.337389945984 2566.99991226196 157 158 153
-225.242838263512 898.095190525055 2572.00002670288 155 156 151
-218.785718083382 900.201916694641 2578.00006866455 190 191 186
-212.295889854431 902.308523654938 2584.00011062622 179 180 175
-206.249967217445 906.509876251221 2595.99995613098 205 206 201
47.9932799935341 925.879597663879 2651.00002288818 94 85 70
54.9488812685013 922.034859657288 2640.00010490417 96 83 66
61.9623959064484 919.935822486877 2634.0000629425 94 77 59
68.9957812428474 918.535053730011 2630.00011444092 86 68 48
76.0363340377808 917.483031749725 2627.00009346008 90 68 45
83.1238329410553 917.129099369049 2625.99992752075 98 71 50
90.3432592749596 918.171763420105 2628.99994850159 99 71 50
97.430519759655 917.817175388336 2628.00002098084 100 72 51
104.432687163353 916.763722896576 2625 100 73 54
111.46092414856 916.058897972107 2622.99990653992 101 74 57
118.568599224091 916.052341461182 2622.99990653992 100 74 57
125.676110386848 916.045427322388 2622.99990653992 99 73 56
132.783472537994 916.038036346436 2622.99990653992 98 72 55
140.103995800018 917.42730140686 2627.00009346008 93 66 47
147.502020001411 919.165313243866 2631.99996948242 94 67 48
154.868230223656 920.553624629974 2635.99991798401 101 72 54
162.133008241653 921.24330997467 2638.00001144409 110 79 61
169.536754488945 922.631084918976 2641.99995994568 105 74 56
177.162572741508 925.065934658051 2648.9999294281 113 81 66
185.174092650414 929.246604442596 2661.00001335144 107 75 62
192.888915538788 931.680738925934 2667.99998283386 85 56 42
199.966341257095 930.971741676331 2665.99988937378 54 30 18
205.245286226273 922.230780124664 2641.00003242493 20 10 1
-346.380412578583 880.182504653931 2540.99988937378 190 191 186
-338.567495346069 877.772927284241 2533.99991989136 176 177 172
-331.053972244263 876.056015491486 2529.00004386902 102 103 98
-323.695480823517 874.685287475586 2525.00009536743 121 122 117
-316.734790802002 874.353647232056 2523.9999294281 119 120 115
-309.6564412117 873.675465583801 2522.0000743866 126 127 122
-303.068935871124 874.382674694061 2523.9999294281 120 121 116
-296.587705612183 875.436365604401 2526.99995040894 123 124 119
-290.204614400864 876.836240291595 2530.99989891052 134 135 130
-283.687680959702 877.889692783356 2533.99991989136 135 136 131
-277.044922113419 878.596425056458 2536.00001335144 128 129 124
-270.604133605957 879.996001720428 2539.99996185303 126 127 122
-263.726085424423 880.009412765503 2539.99996185303 133 134 129
-257.252275943756 881.40857219696 2543.99991035461 135 136 131
-250.658065080643 882.46101140976 2546.99993133545 157 158 153
-244.430184364319 884.899199008942 2553.99990081787 177 178 173
-238.071143627167 886.990785598755 2559.99994277954 170 171 166
-231.589049100876 888.735592365265 2565.00005722046 153 154 149
-225.079551339149 890.480101108551 2569.9999332428 154 155 150
-218.457877635956 891.878008842468 2573.99988174438 195 196 191
-211.732119321823 892.929136753082 2576.99990272522 168 169 164
-204.830944538116 893.286943435669 2578.00006866455 171 172 167
-198.077604174614 894.33753490448 2581.00008964539 213 214 209
-191.159695386887 894.694745540619 2582.00001716614 232 234 231
55.2227310836315 919.439435005188 2653.00011634827 184 178 164
62.2483640909195 917.009949684143 2645.99990844727 98 85 69
69.3146735429764 915.619671344757 2641.99995994568 87 70 52
76.4171034097672 914.922297000885 2640.00010490417 96 74 53
83.4452733397484 913.531363010406 2635.99991798401 95 70 48
90.7265767455101 914.912462234497 2640.00010490417 99 71 50
97.8069826960564 914.213716983795 2638.00001144409 99 71 50
104.836612939835 913.168013095856 2634.99999046326 98 71 52
111.84985935688 912.122130393982 2631.99996948242 97 72 52
118.84668469429 911.07565164566 2628.99994850159 94 71 53
125.970840454102 911.068558692932 2628.99994850159 94 72 51
133.09483230114 911.060988903046 2628.99994850159 95 70 50
140.591993927956 913.478851318359 2635.99991798401 92 64 43
147.958770394325 914.856731891632 2640.00010490417 93 65 44
155.229508876801 915.541112422943 2641.99995994568 104 73 53
162.572354078293 916.57167673111 2644.99998092651 106 75 55
169.931277632713 917.601943016052 2648.00000190735 114 83 63
177.373081445694 918.978095054626 2651.99995040894 120 93 76
185.323521494865 922.779738903046 2663.00010681152 123 95 81
193.188726902008 925.887823104858 2671.99993133545 99 73 60
200.502336025238 926.223456859589 2673.00009727478 29 9 0
205.33412694931 915.470480918884 2641.99995994568 24 21 14
-340.854287147522 876.790642738342 2551.00011825562 187 188 183
-332.640051841736 873.369157314301 2540.99988937378 171 172 167
-324.736148118973 870.634794235229 2532.99999237061 103 104 99
-317.75364279747 870.306372642517 2532.00006484985 94 95 90
-310.530722141266 869.290173053741 2529.00004386902 114 115 110
-303.924113512039 869.99249458313 2530.99989891052 118 119 114
-297.306418418884 870.694756507874 2532.99999237061 113 114 109
-290.906935930252 872.084259986877 2536.99994087219 117 118 113
-284.261614084244 872.786283493042 2539.00003433228 138 139 134
-277.714371681213 873.831808567047 2542.00005531311 134 135 130
-271.044075489044 874.533355236053 2543.99991035461 125 126 121
-264.258861541748 874.891042709351 2545.00007629395 126 125 121
-257.56898522377 875.592112541199 2546.99993133545 129 128 124
-250.966429710388 876.636803150177 2549.99995231628 131 130 126
-244.730219244957 879.056453704834 2556.99992179871 151 150 146
-238.269805908203 880.788326263428 2562.00003623962 145 144 140
-231.601446866989 881.832420825958 2565.00005722046 149 148 144
-224.828973412514 882.532358169556 2566.99991226196 145 144 140
-218.215152621269 883.919835090637 2571.00009918213 191 190 186
-211.497232317925 884.963035583496 2573.99988174438 174 173 169
-204.68333363533 885.662198066711 2575.99997520447 147 146 142
-197.935104370117 886.705040931702 2578.9999961853 176 177 172
-191.46654009819 889.122664928436 2585.99996566772 214 216 213
-185.031160712242 891.884028911591 2594.00010108948 229 231 228
-178.620755672455 894.988834857941 2602.9999256134 241 243 240
55.9754557907581 924.683392047882 2688.99989128113 209 205 194
62.5814944505692 914.707481861115 2660.00008583069 103 91 77
69.7386413812637 914.015710353851 2657.99999237061 103 87 71
76.8558979034424 912.979543209076 2654.99997138977 105 83 62
83.7984979152679 910.223722457886 2647.0000743866 100 75 53
90.9725651144981 910.21853685379 2647.0000743866 100 72 50
98.0352684855461 909.181296825409 2644.00005340576 99 71 49
105.121359229088 908.487379550934 2641.99995994568 97 70 49
112.068958580494 906.761527061462 2637.00008392334 96 71 49
119.079738855362 905.723094940186 2634.0000629425 96 71 51
126.074075698853 904.684245586395 2631.00004196167 96 71 51
133.457005023956 906.395792961121 2635.99991798401 97 70 51
140.866860747337 908.107042312622 2641.00003242493 95 67 46
148.247569799423 909.473896026611 2644.99998092651 98 67 46
155.356004834175 909.12127494812 2644.00005340576 105 74 53
162.643179297447 909.799575805664 2645.99990844727 109 78 57
170.261859893799 912.19687461853 2653.00011634827 114 83 63
177.717611193657 913.5622382164 2657.00006484985 124 97 80
185.612380504608 916.990160942078 2667.00005531311 123 97 82
192.548826336861 915.603995323181 2663.00010681152 94 71 57
200.213462114334 917.655825614929 2668.99991035461 23 5 0
201.303884387016 890.482902526855 2589.99991416931 21 21 13
-334.88130569458 872.323215007782 2558.00008773804 197 198 193
-327.059388160706 869.951963424683 2551.00011825562 165 166 161
-319.274991750717 867.580473423004 2543.99991035461 113 114 109
-311.773836612701 865.890800952911 2539.00003433228 115 116 111
-304.779767990112 865.565121173859 2538.00010681152 115 116 111
-298.260301351547 866.603314876556 2540.99988937378 116 117 112
-291.609644889832 867.300450801849 2542.99998283386 114 115 110
-284.835904836655 867.656290531158 2543.99991035461 130 131 126
-278.384238481522 869.035303592682 2548.00009727478 135 136 131
-271.910578012466 870.413899421692 2552.00004577637 133 134 129
-265.103429555893 870.769202709198 2552.99997329712 124 123 118
-258.088290691376 870.442032814026 2552.00004577637 130 129 124
-251.373529434204 871.137857437134 2553.99990081787 132 131 126
-244.934856891632 872.856855392456 2559.00001525879 140 139 134
-238.468781113625 874.575555324554 2563.99989128113 136 135 130
-231.614142656326 874.929666519165 2565.00005722046 140 139 134
-224.928990006447 875.965654850006 2568.00007820129 139 138 133
-218.227282166481 877.001345157623 2571.00009918213 145 144 139
-211.591258645058 878.377974033356 2575.00004768372 174 173 168
-204.85383272171 879.41312789917 2578.00006866455 149 148 143
-198.253333568573 881.130218505859 2582.99994468689 141 140 136
-191.699624061584 883.188307285309 2588.99998664856 160 160 158
-184.827759861946 883.881390094757 2591.00008010864 173 173 171
-178.219318389893 885.938763618469 2596.99988365173 181 181 179
-171.709984540939 888.678252696991 2605.00001907349 195 195 193
-165.9155189991 895.511031150818 2625 213 213 211
-160.133421421051 903.025925159454 2647.0000743866 247 247 245
70.3201666474342 914.372861385345 2680.0000667572 119 106 90
77.4106457829475 912.321209907532 2674.00002479553 117 95 74
84.3418315052986 908.904373645782 2664.00003433228 113 88 66
91.3218110799789 906.510829925537 2657.00006484985 106 78 56
98.3007699251175 904.457807540894 2651.00002288818 102 74 50
105.366468429565 903.428137302399 2648.00000190735 99 73 48
112.373232841492 902.056813240051 2644.00005340576 97 73 49
119.403369724751 901.026248931885 2641.00003242493 93 68 46
126.417070627213 899.995267391205 2638.00001144409 96 71 49
133.616879582405 900.328636169434 2638.99993896484 98 71 50
140.875235199928 901.002705097198 2641.00003242493 101 70 49
148.368448019028 903.041005134583 2647.0000743866 102 72 48
155.54141998291 903.031945228577 2647.0000743866 106 76 52
162.837103009224 903.704762458801 2648.9999294281 111 81 57
170.271784067154 905.059576034546 2653.00011634827 113 85 63
178.062364459038 908.119559288025 2661.99994087219 127 102 82
185.971081256866 911.520302295685 2671.99993133545 122 99 81
193.138346076012 911.168217658997 2671.0000038147 87 65 51
198.574468493462 902.969837188721 2647.0000743866 23 7 0
-329.511404037476 869.51071023941 2569.9999332428 195 196 191
-320.294857025146 863.436877727509 2552.00004577637 199 200 195
-312.771797180176 861.761093139648 2546.99993133545 100 101 96
-305.755943059921 861.438572406769 2546.0000038147 111 112 107
-299.332022666931 862.80745267868 2549.99995231628 118 119 114
-292.771518230438 863.837957382202 2552.99997329712 113 114 109
-285.746574401855 863.514840602875 2552.00004577637 121 122 117
-279.491513967514 865.559995174408 2558.00008773804 131 132 127
-272.77746796608 866.251587867737 2559.99994277954 137 138 133
-265.948444604874 866.604566574097 2561.00010871887 125 124 119
-258.810251951218 865.942060947418 2559.00001525879 130 129 124
-252.174735069275 866.9713139534 2562.00003623962 131 130 125
-245.809853076935 869.015514850616 2568.00007820129 132 131 126
-239.226117730141 870.382606983185 2572.00002670288 131 130 125
-232.168912887573 870.057463645935 2571.00009918213 134 133 128
-225.292026996613 870.408833026886 2572.00002670288 138 137 132
-218.664079904556 871.775209903717 2575.99997520447 138 137 132
-212.014228105545 873.141288757324 2579.99992370605 148 147 142
-205.183461308479 873.830258846283 2582.00001716614 144 143 138
-198.495104908943 875.195741653442 2585.99996566772 137 136 131
-191.710785031319 876.222491264343 2588.99998664856 180 180 178
-184.767246246338 876.572012901306 2589.99991416931 161 161 159
-177.955314517021 877.598166465759 2592.99993515015 157 157 155
-171.258702874184 879.300832748413 2598.00004959106 171 171 169
-164.787635207176 882.357001304626 2607.00011253357 179 179 177
-158.328026533127 885.751307010651 2617.00010299683 217 217 215
-152.045145630836 890.499174594879 2631.00004196167 229 229 227
-146.071761846542 897.616028785706 2651.99995040894 230 230 228
70.7444101572037 912.580907344818 2696.00009918213 126 113 97
77.6760205626488 908.175766468048 2683.00008773804 132 110 89
84.5370441675186 903.770267963409 2670.00007629395 119 94 72
91.464951634407 900.71827173233 2661.00001335144 110 82 58
98.4551832079887 898.68152141571 2654.99997138977 106 78 54
105.571933090687 897.998213768005 2653.00011634827 103 79 51
112.592644989491 896.637439727783 2648.9999294281 101 80 53
119.681969285011 895.953238010406 2647.0000743866 102 78 52
126.712337136269 894.930303096771 2644.00005340576 102 76 53
134.030073881149 895.937740802765 2647.0000743866 103 75 53
141.203835606575 895.929336547852 2647.0000743866 107 75 50
148.657664656639 897.612750530243 2651.99995040894 108 77 49
155.668273568153 896.588087081909 2648.9999294281 109 78 50
162.908330559731 896.917045116425 2650.00009536743 112 82 56
170.15352845192 897.245347499847 2651.00002288818 118 91 64
178.072884678841 900.957942008972 2661.99994087219 131 109 86
185.982003808022 904.331624507904 2671.99993133545 128 107 86
193.511202931404 905.674278736115 2676.00011825562 54 38 22
-322.570323944092 862.607061862946 2569.9999332428 200 201 196
-314.507126808167 859.602630138397 2561.00010871887 172 173 168
-306.972712278366 857.940495014191 2555.99999427795 107 108 103
-300.169408321381 858.292043209076 2556.99992179871 109 110 105
-293.245732784271 858.307898044586 2556.99992179871 111 112 107
-286.321669816971 858.323454856873 2556.99992179871 115 116 111
-279.834389686584 859.68154668808 2561.00010871887 120 121 116
-273.218512535095 860.703587532043 2563.99989128113 126 127 122
-266.378432512283 861.054241657257 2565.00005722046 141 140 135
-259.330272674561 860.733151435852 2563.99989128113 129 128 123
-252.877861261368 862.426102161407 2569.00000572205 121 120 115
-246.589452028275 864.790141582489 2575.99997520447 129 128 123
-239.890798926353 865.811109542847 2578.9999961853 135 134 129
-232.633724808693 864.817559719086 2575.99997520447 132 131 126
-225.655376911163 864.830791950226 2575.99997520447 123 122 117
-219.016283750534 866.186559200287 2579.99992370605 134 133 128
-212.437495589256 867.877960205078 2585.00003814697 129 128 123
-205.592855811119 868.561744689941 2586.99989318848 138 137 132
-198.660358786583 868.909537792206 2588.00005912781 137 136 131
-191.870272159576 869.928479194641 2591.00008010864 133 132 128
-184.99231338501 870.611190795898 2592.99993515015 147 147 145
-178.377777338028 872.636675834656 2598.99997711182 146 147 142
-171.532720327377 873.654663562775 2601.99999809265 142 143 138
-164.797618985176 875.34373998642 2607.00011253357 150 150 148
-157.974645495415 876.696765422821 2611.00006103516 171 171 169
-151.534304022789 880.399644374847 2621.99997901917 213 214 209
-144.979074597359 883.76659154892 2631.99996948242 200 200 198
-138.47416639328 887.804746627808 2644.00005340576 207 207 205
71.0900500416756 909.695386886597 2709.00011062622 151 137 124
77.9415220022202 903.981864452362 2691.99991226196 149 127 106
84.7956910729408 899.275481700897 2677.99997329712 129 104 82
91.7113348841667 895.911812782288 2667.99998283386 117 89 65
98.646804690361 893.219470977783 2660.00008583069 112 85 58
105.658136308193 891.534030437469 2654.99997138977 108 85 54
112.684696912766 890.183925628662 2651.00002288818 105 84 55
119.734644889832 889.169275760651 2648.00000190735 106 82 54
126.911908388138 889.161467552185 2648.00000190735 106 78 56
134.190291166306 889.824986457825 2650.00009536743 108 77 56
141.265884041786 889.144718647003 2648.00000190735 109 77 52
148.666799068451 890.478909015656 2651.99995040894 110 79 51
155.795350670815 890.133738517761 2651.00002288818 110 79 50
163.287103176117 891.802728176117 2655.99989891052 113 83 55
170.356407761574 891.121029853821 2654.00004386902 119 92 65
178.21741104126 894.467949867249 2664.00003433228 131 109 86
185.85392832756 896.471560001373 2670.00007629395 134 116 94
192.148700356483 892.095386981964 2657.00006484985 35 19 3
-316.979825496674 859.366714954376 2581.00008964539 200 202 199
-309.150844812393 857.052624225616 2573.99988174438 181 181 179
-301.946431398392 856.403112411499 2572.00002670288 94 94 92
-294.752478599548 855.753242969513 2569.9999332428 110 110 108
-287.56907582283 855.103313922882 2568.00007820129 111 111 109
-280.505388975143 854.785978794098 2566.99991226196 120 120 118
-273.446828126907 854.468464851379 2565.99998474121 119 120 115
-266.704916954041 855.149626731873 2568.00007820129 126 127 121
-259.85062122345 855.497539043427 2569.00000572205 135 136 130
-253.384381532669 857.177197933197 2573.99988174438 124 125 119
-247.177973389626 859.855830669403 2582.00001716614 126 127 121
-240.648820996284 861.53507232666 2586.99989318848 124 123 118
-233.550369739532 861.215889453888 2585.99996566772 127 127 119
-226.369440555573 860.563457012177 2584.00011062622 128 128 120
-219.538599252701 861.242651939392 2585.99996566772 127 127 119
-212.778836488724 862.254679203033 2588.99998664856 130 127 120
-206.002503633499 863.266408443451 2592.00000762939 137 134 127
-198.902577161789 862.945556640625 2591.00008010864 138 137 132
-192.104056477547 863.95674943924 2594.00010108948 135 134 129
-185.217574238777 864.634275436401 2595.99995613098 148 147 143
-178.594589233398 866.643846035004 2601.99999809265 143 142 137
-171.543255448341 866.654753684998 2601.99999809265 142 141 136
-164.618119597435 867.331266403198 2604.00009155273 145 144 140
-157.742410898209 868.340611457825 2607.00011253357 141 140 136
-151.196956634521 871.347904205322 2615.9999370575 174 173 168
-144.657611846924 874.68808889389 2625.99992752075 176 175 171
-137.8543227911 876.695573329926 2631.99996948242 171 170 166
-131.067991256714 879.035830497742 2638.99993896484 196 195 190
-124.337397515774 882.041752338409 2648.00000190735 233 234 229
-118.177242577076 889.71072435379 2671.0000038147 240 242 237
64.3622279167175 911.074817180634 2734.99989509583 212 204 191
71.0946321487427 902.409493923187 2709.00011062622 168 155 138
78.0334025621414 897.741079330444 2694.9999332428 154 129 107
84.9278047680855 893.405258655548 2681.99992179871 143 115 93
91.8547287583351 890.068471431732 2671.99993133545 128 98 72
98.6901968717575 886.398136615753 2661.00001335144 120 93 66
105.625070631504 884.05978679657 2654.00004386902 109 85 59
112.606830894947 882.387220859528 2648.9999294281 105 84 57
119.832664728165 882.712960243225 2650.00009536743 107 83 57
127.015799283981 882.70515203476 2650.00009536743 111 84 55
134.299993515015 883.362889289856 2651.99995040894 110 83 54
141.434788703918 883.021116256714 2651.00002288818 106 80 53
148.563951253891 882.678925991058 2650.00009536743 107 81 54
155.805021524429 883.002400398254 2651.00002288818 111 84 55
163.420170545578 885.324060916901 2657.99999237061 116 89 60
171.137183904648 887.978196144104 2665.99988937378 126 99 72
178.964257240295 890.964984893799 2674.99995231628 138 116 93
187.11830675602 895.283699035645 2687.99996376038 138 121 101
-311.329543590546 856.068015098572 2592.00000762939 197 197 195
-303.606539964676 854.103088378906 2585.99996566772 177 177 175
-295.686274766922 851.477384567261 2578.00006866455 119 119 117
-288.480937480927 850.833117961884 2575.99997520447 94 94 92
-281.176745891571 849.858224391937 2572.99995422363 120 120 118
-274.421393871307 850.534677505493 2575.00004768372 108 108 106
-267.34322309494 850.219786167145 2573.99988174438 125 126 121
-260.371327400208 850.235044956207 2573.99988174438 131 132 126
-253.694415092468 851.240992546082 2576.99990272522 129 130 124
-247.288107872009 853.237628936768 2582.99994468689 121 122 116
-240.849032998085 855.234146118164 2588.99998664856 113 112 107
-234.0157777071 855.908870697021 2591.00008010864 134 133 128
-227.083802223206 856.253087520599 2592.00000762939 130 129 124
-220.061182975769 856.266558170319 2592.00000762939 125 125 117
-213.284850120544 857.270836830139 2595.00002861023 126 126 118
-206.491932272911 858.274638652802 2598.00004959106 130 127 120
-199.452146887779 858.287155628204 2598.00004959106 129 126 119
-192.634269595146 859.290301799774 2601.0000705719 130 129 124
-185.728490352631 859.962701797485 2602.9999256134 142 141 136
-179.017543792725 861.626088619232 2608.00004005432 139 138 133
-171.949550509453 861.637115478516 2608.00004005432 135 134 129
-165.007755160332 862.308382987976 2609.99989509583 137 136 131
-158.175930380821 863.640367984772 2614.00008201599 141 140 135
-151.495531201363 865.96292257309 2621.00005149841 137 136 131
-144.721895456314 867.954671382904 2627.00009346008 156 155 150
-137.810736894608 869.285345077515 2631.00004196167 136 135 130
-130.877688527107 870.615601539612 2634.99999046326 157 156 151
-123.969726264477 872.27588891983 2640.00010490417 197 198 192
-117.255672812462 875.58788061142 2650.00009536743 225 226 221
-110.611841082573 879.890620708466 2663.00010681152 230 232 227
-103.897340595722 884.193003177643 2676.00011825562 246 248 243
-97.2566604614258 889.816701412201 2693.00007820129 250 252 247
64.2487853765488 902.067005634308 2730.00001907349 213 204 189
71.046806871891 894.462704658508 2707.00001716614 172 157 138
78.06745916605 890.823185443878 2696.00009918213 154 130 106
85.028350353241 887.1830701828 2684.99994277954 145 117 93
92.0326113700867 884.533941745758 2677.00004577637 127 97 71
98.8449677824974 880.562663078308 2664.99996185303 117 90 63
105.751320719719 877.912700176239 2657.00006484985 106 80 55
112.699143588543 875.923037528992 2651.00002288818 105 81 57
119.840383529663 875.58501958847 2650.00009536743 107 83 57
127.119794487953 876.237809658051 2651.99995040894 108 81 51
134.359240531921 876.559913158417 2653.00011634827 108 83 53
141.497150063515 876.220524311066 2651.99995040894 106 82 54
148.517310619354 875.220060348511 2648.9999294281 108 84 56
155.873641371727 876.201570034027 2651.99995040894 114 89 59
163.553416728973 878.83460521698 2660.00008583069 122 95 66
171.59728705883 883.118987083435 2673.00009727478 126 99 70
179.309949278831 885.420620441437 2680.0000667572 124 102 78
188.104510307312 892.677366733551 2701.99990272522 144 126 106
-306.089013814926 854.021072387695 2607.00011253357 199 199 197
-297.423362731934 849.451720714569 2592.99993515015 191 191 189
-289.953172206879 848.158001899719 2588.99998664856 149 149 147
-282.504290342331 846.864104270935 2585.00003814697 103 103 101
-275.502979755402 846.880197525024 2585.00003814697 109 109 107
-268.293589353561 846.240818500519 2582.99994468689 120 121 116
-261.296987533569 846.25631570816 2582.99994468689 121 122 116
-254.595458507538 847.254514694214 2585.99996566772 132 133 127
-247.781544923782 847.924768924713 2588.00005912781 133 134 128
-241.235554218292 849.577605724335 2592.99993515015 120 119 114
-234.481498599052 850.574910640717 2595.99995613098 135 134 129
-227.623268961906 851.244330406189 2598.00004959106 132 131 126
-220.584020018578 851.258039474487 2598.00004959106 127 127 119
-213.626697659492 851.599097251892 2598.99997711182 126 126 118
-206.822618842125 852.595210075378 2601.99999809265 127 124 117
-199.771627783775 852.607905864716 2601.99999809265 127 124 117
-193.016648292542 853.930950164795 2605.99994659424 128 127 122
-186.025604605675 854.27063703537 2607.00011253357 139 138 133
-179.166123270988 855.265200138092 2609.99989509583 137 136 131
-172.224208712578 855.931758880615 2611.99998855591 134 133 128
-165.207967162132 856.270313262939 2612.99991607666 135 134 129
-158.367574214935 857.591450214386 2617.00010299683 145 144 139
-151.38965845108 858.256876468658 2618.99995803833 134 133 128
-144.565939903259 859.905064105988 2624.00007247925 150 149 144
-137.662529945374 861.225128173828 2628.00002098084 132 131 126
-130.786865949631 862.872421741486 2632.99989700317 149 148 143
-123.789951205254 863.863825798035 2635.99991798401 175 174 169
-116.86509847641 865.5104637146 2641.00003242493 178 179 174
-110.037542879581 868.139684200287 2648.9999294281 184 186 181
-103.282928466797 871.751666069031 2660.00008583069 202 204 199
-96.5046212077141 875.691115856171 2671.99993133545 212 214 209
-89.4940420985222 877.991378307343 2678.99990081787 221 223 218
-82.5988501310349 881.929874420166 2690.99998474121 243 245 240
-75.5824819207191 885.212540626526 2700.99997520447 231 233 228
-68.7897428870201 892.099857330322 2721.99988365173 240 242 237
63.4999200701714 884.236991405487 2697.99995422363 200 187 171
70.7890540361404 883.904755115509 2697.00002670288 169 151 131
77.8988972306252 881.605565547943 2690.00005722046 157 131 106
85.0023105740547 879.633784294128 2684.00001525879 153 123 97
92.1074524521828 877.989172935486 2678.99990081787 130 100 72
98.9998504519463 874.70555305481 2668.99991035461 119 89 61
105.99709302187 872.732400894165 2663.00010681152 103 77 50
112.876586616039 870.103359222412 2654.99997138977 103 77 50
120.029121637344 869.768083095551 2654.00004386902 106 80 53
127.176031470299 869.432210922241 2653.00011634827 107 83 49
134.36795771122 869.423627853394 2653.00011634827 107 82 52
141.559675335884 869.414567947388 2653.00011634827 107 83 55
148.639023303986 868.749737739563 2651.00002288818 109 85 57
156.059980392456 870.050668716431 2654.99997138977 117 92 62
163.440883159637 871.02347612381 2657.99999237061 131 104 74
171.479806303978 875.272750854492 2671.0000038147 126 99 69
179.05367910862 876.90007686615 2676.00011825562 135 111 85
188.186019659042 885.735929012299 2703.00006866455 134 114 90
-291.201829910278 844.763159751892 2599.99990463257 200 200 198
-283.613562583923 843.155443668365 2595.00002861023 160 160 158
-276.798069477081 843.821704387665 2596.99988365173 113 113 111
-269.555896520615 843.188047409058 2595.00002861023 105 106 101
-262.425392866135 842.879056930542 2594.00010108948 119 120 115
-255.398362874985 842.894613742828 2594.00010108948 123 124 118
-248.275220394135 842.584908008575 2592.99993515015 131 132 126
-241.436317563057 843.249797821045 2595.00002861023 122 123 117
-234.766826033592 844.564199447632 2598.99997711182 128 127 122
-228.16301882267 846.203446388245 2604.00009155273 133 132 127
-221.36190533638 847.192287445068 2607.00011253357 131 130 125
-214.133232831955 846.555888652802 2605.00001907349 126 126 118
-207.153558731079 846.894204616547 2605.99994659424 124 124 116
-200.168162584305 847.232222557068 2607.00011253357 126 126 118
-193.399235606194 848.544657230377 2611.00006103516 126 125 120
-186.465620994568 849.206745624542 2612.99991607666 136 135 130
-179.589509963989 850.193500518799 2615.9999370575 136 135 130
-172.630935907364 850.854873657227 2618.00003051758 134 133 128
-165.598019957542 851.190865039825 2618.99995803833 135 134 129
-158.680468797684 852.176427841187 2621.99997901917 135 134 129
-151.630759239197 852.511703968048 2622.99990653992 136 135 130
-144.685611128807 853.496491909027 2625.99992752075 146 145 140
-137.776359915733 854.805946350098 2630.00011444092 139 138 133
-130.9445053339 856.764912605286 2635.99991798401 141 140 135
-124.032981693745 858.398675918579 2641.00003242493 154 153 148
-116.961352527142 859.056711196899 2642.99988746643 158 159 154
-110.044866800308 861.014366149902 2648.9999294281 170 171 166
-103.212170302868 863.946974277496 2657.99999237061 195 196 191
-96.3304862380028 866.879045963287 2667.00005531311 187 188 183
-89.199386537075 867.860376834869 2670.00007629395 193 194 189
-82.1132585406303 869.491338729858 2674.99995231628 218 219 214
-74.9718993902206 870.796859264374 2678.99990081787 222 223 218
-67.8592696785927 872.752010822296 2684.99994277954 219 220 215
-60.6914162635803 874.381601810455 2690.00005722046 234 235 230
-53.6154545843601 877.961099147797 2700.99997520447 252 253 248
-46.5997159481049 883.815407752991 2719.00010108948 255 255 251
63.3865222334862 875.355303287506 2693.00007820129 194 178 162
70.6363394856453 874.700605869293 2690.99998474121 168 147 126
77.7883008122444 873.070418834686 2686.00010871887 155 127 103
84.9130153656006 871.439635753632 2680.99999427795 153 123 95
92.1136289834976 870.783507823944 2678.99990081787 135 104 75
99.1177558898926 868.501782417297 2671.99993133545 124 95 65
106.163389980793 866.869807243347 2667.00005531311 105 80 50
113.054163753986 864.262104034424 2658.99991989136 104 79 49
120.037086308002 862.629175186157 2654.00004386902 106 81 51
127.13648378849 861.970841884613 2651.99995040894 107 83 49
134.275510907173 861.63717508316 2651.00002288818 107 82 52
141.515582799911 861.95296049118 2651.99995040894 108 84 56
148.816972970963 862.593591213226 2654.00004386902 111 87 59
156.246483325958 863.883495330811 2657.99999237061 120 95 65
163.697466254234 865.173041820526 2661.99994087219 133 106 76
171.23407125473 866.787314414978 2667.00005531311 132 105 75
178.730592131615 868.075847625732 2671.0000038147 135 109 82
187.432155013084 874.888956546783 2691.99991226196 148 126 102
-285.160481929779 840.681850910187 2608.99996757507 204 204 202
-277.667284011841 839.409708976746 2605.00001907349 178 178 176
-270.19539475441 838.137328624725 2601.0000705719 94 96 91
-263.149440288544 838.153481483459 2601.0000705719 103 105 100
-255.906194448471 837.524831295013 2598.99997711182 118 119 114
-248.769223690033 837.218165397644 2598.00004959106 128 129 124
-241.82340502739 837.555646896362 2598.99997711182 129 130 124
-235.142782330513 838.859558105469 2602.9999256134 124 125 119
-228.790655732155 841.452300548553 2611.00006103516 128 129 123
-221.885338425636 842.111051082611 2612.99991607666 135 134 129
-214.640036225319 841.480374336243 2611.00006103516 131 130 125
-207.64371752739 841.816186904907 2611.99998855591 126 126 118
-200.641661882401 842.151641845703 2612.99991607666 127 127 119
-193.85614991188 843.453645706177 2617.00010299683 125 124 119
-186.977222561836 844.432711601257 2619.99988555908 130 129 124
-180.081769824028 845.411658287048 2622.99990653992 131 130 125
-172.971934080124 845.423221588135 2622.99990653992 130 129 124
-165.861845016479 845.434427261353 2622.99990653992 131 130 125
-158.811971545219 845.767498016357 2624.00007247925 135 134 129
-151.929870247841 847.06711769104 2628.00002098084 137 136 131
