ply
format ascii 1.0
comment KinectMotionCapture
element vertex 755
property float x
property float y
property float z
property uchar red
property uchar green
property uchar blue
end_header
-295.222987436289 905.024659799119 2628.20676885434 177 179 176
-299.237714309186 905.317373975401 2621.59248595606 172 174 171
-302.002808581236 906.112423744201 2613.41655956901 169 171 168
-307.307943609978 905.898124945518 2608.33433739761 169 171 168
-310.736268473419 906.437700055779 2600.91136360051 166 168 165
-317.30767304141 905.718115162393 2597.37900397831 167 169 166
-320.138151632126 906.505956270109 2589.15564259 167 169 166
-323.611602618602 907.040382065763 2581.69992982099 163 165 162
-324.629245649658 908.576535246254 2571.08882312424 140 142 139
-331.228354059892 907.852674742968 2567.53635873876 128 130 125
-339.665449193695 906.376851559126 2566.3533885552 127 128 120
64.0718385761434 928.106332050484 2871.49247846564 16 19 10
79.5444657977908 934.918118403705 2848.15974327085 6 9 0
121.511829657232 952.399639658031 2790.97754362142 22 18 9
116.134403779217 952.191254025939 2785.84294622196 27 20 10
100.180555562893 948.360521505569 2790.31491185022 48 36 20
92.5653118992553 947.378357073141 2787.25985208004 90 73 55
82.7063327469775 945.62167474842 2786.27944737224 137 105 82
77.359807596395 945.416041753503 2781.16755898922 140 99 77
70.5158965796251 944.694036513887 2777.43764136719 166 120 97
65.9080144662401 944.745984591026 2771.62747915498 169 121 98
60.5491463530052 944.539580295365 2766.50634471111 169 123 99
57.4043976276428 945.105414145177 2759.28907431402 168 128 102
54.2413984467665 945.669829248372 2752.05856658601 176 139 112
51.0603862369612 946.232904582967 2744.81499404272 182 140 115
50.060640458172 947.565785224027 2735.45116293682 180 140 114
46.1057327827783 947.868602878166 2728.88029542751 163 122 100
42.8658319922151 948.427027068606 2721.59400973632 160 119 99
38.8812567694816 948.727620551994 2715.00162432295 156 118 99
35.6073092870441 949.283335966131 2707.69034926072 147 110 92
30.8706246866217 949.325088580634 2701.78676373485 147 110 92
29.0044444396491 950.390274593818 2693.02851649547 145 110 90
27.8290057322526 951.709101379722 2683.53725065061 142 110 87
25.1911338453241 952.513969271643 2675.45330573931 139 107 84
16.1103343822862 951.017125386053 2673.80359407616 139 107 84
9.18011067560753 950.287470674001 2670.01106779712 141 109 88
2.25366969378982 949.558062661033 2666.22128494564 112 88 76
-8.20282411193451 947.55333079354 2666.04180380035 75 58 50
-142.896338181124 910.722303927467 2731.24965867265 255 255 253
-152.948349337632 908.746635548938 2731.36354284417 255 255 253
-163.661435451814 906.519132283521 2732.23196070667 246 248 247
-172.290010172172 905.053715575143 2730.90994111827 246 248 247
-174.758934654826 905.867919150834 2722.94881154994 254 255 255
-177.250355169526 906.679991219592 2714.97106885438 254 255 255
-182.476941593078 906.478697655792 2709.94614859428 251 253 252
-188.384387484567 906.023906695315 2705.66141139052 254 255 255
-199.008327080858 903.801355027061 2706.59447854715 248 250 249
-207.587472041476 902.337612671686 2705.30830012739 242 244 243
-216.149714384067 900.874831768545 2704.03467412313 251 253 252
-221.359087244315 900.673070278696 2699.02193549527 247 249 248
-227.23842757773 900.218584635963 2694.75757415686 249 251 250
-231.792989393397 900.267025812072 2688.98604720323 210 211 213
-234.375267274294 901.068809973954 2680.94238795363 194 195 197
-238.296719913492 901.365734749739 2674.39574286544 231 232 234
-242.888098482423 901.410058225752 2668.5975058047 207 208 210
-250.104076828825 900.449355004011 2665.83169621197 188 189 191
-256.008468531686 899.990509912181 2661.54915251976 183 184 186
-263.212373947753 899.029779445957 2658.7923891909 194 195 197
-268.465908245611 898.820736270617 2653.74760011129 214 215 217
-271.789349155032 899.361638893029 2646.40066565491 184 185 187
-275.130857638636 899.900659633731 2639.04062409632 176 177 179
-280.412365013097 899.687926834033 2633.97583252485 175 177 176
-286.975487070809 898.974867810239 2630.44951012592 174 176 173
-290.98973122786 899.259973883543 2623.83553862211 174 176 173
-295.017619004962 899.543436977128 2617.21166824494 174 176 173
-298.427368696149 900.07465915399 2609.80211767737 168 170 167
-303.743950444861 899.85669518621 2604.71187344659 164 166 163
-308.437797412584 899.88679258308 2598.83898832186 157 159 156
-314.391242151165 899.418178498228 2594.52083555534 158 160 157
-318.476095179557 899.694577274741 2587.85563406965 151 153 150
-323.195377680613 899.721011385113 2581.96458610574 145 147 144
-328.542144934299 899.498082456177 2576.85214013268 125 127 124
-335.742850713331 898.530023731707 2574.09765916992 114 116 111
97.5502905541825 933.441709637254 2832.79716778789 12 15 8
123.475521825603 945.340324466116 2789.89494142296 19 16 0
110.519218021022 942.567224890393 2791.6048070916 39 31 12
97.6021483166423 939.79729335596 2793.34283596651 74 50 26
91.5016118028329 939.333013514632 2788.91807518683 121 90 62
80.89536984094 937.334730702976 2788.63007107308 161 115 89
76.304212349338 937.382477486184 2782.83201161574 169 122 96
66.4786988234964 935.642366815549 2781.87595079343 182 132 107
63.3729776206575 936.200369467937 2774.68693261374 189 139 114
59.5071165591037 936.502096500562 2768.18061137094 191 144 118
59.3268745072706 938.07688413208 2758.17704468319 194 147 119
55.4225385681106 938.375613758164 2751.64281699807 199 150 120
53.7109499298918 939.436834122719 2742.99661642824 200 149 118
52.7056579467526 940.750266926141 2733.62866625331 186 137 107
50.9380147117353 941.807185218477 2724.94180871915 171 126 103
44.7698587716761 941.337845656216 2720.46800354583 152 111 91
40.7813031028317 941.629991520212 2713.87268983326 142 105 87
39.6768662768556 942.93563146093 2704.43282797353 133 104 90
37.096518171543 943.731836549898 2696.39053940033 136 108 96
33.7733902080424 944.272764524419 2689.04383193354 133 107 94
29.7141153631566 944.559061858843 2682.39722275709 125 98 87
24.2095741036734 944.338058812806 2677.17070727217 123 97 84
14.4189162452455 942.599587322026 2676.24021684681 113 91 80
-1.04051707619268 938.841338455286 2681.07066705068 78 71 65
-30.6256151072044 930.037262235742 2700.33835726279 118 113 109
-72.7904925151486 916.702033628754 2732.69617194635 253 252 248
-92.1810318176788 911.452816229908 2742.08043068727 247 247 245
-122.309387403283 903.994703762408 2752.31527411769 254 254 252
-132.401808058251 902.033375830948 2752.39964274156 254 254 252
-138.989163162135 901.331149194987 2748.8561026355 255 255 253
-145.572564933458 900.62905323323 2745.31513456945 255 255 253
-150.077671222994 900.680355367633 2739.57917899644 255 255 253
-158.038799768484 899.475713563732 2737.50728963131 255 255 255
-165.987249535326 898.271800163222 2735.44459507291 249 250 252
-173.92308283867 897.068430886437 2733.39104921424 251 252 255
-176.384878701557 897.86965011378 2725.43502156623 251 252 255
-180.230148364162 898.168086542701 2718.94361080042 249 250 252
-185.445685782653 897.964989241472 2713.92639658658 254 255 255
-193.370617020604 896.761248533448 2711.8807519864 242 243 247
-201.956881021307 895.308231395881 2710.58976162492 243 244 248
-209.854323094618 894.105881203348 2708.56405155008 242 243 245
-217.73891578158 892.904143389327 2706.54736489441 249 250 254
-221.607560420661 893.198605509313 2700.03928345566 243 244 248
-228.150028342734 892.495285115897 2696.52798300852 209 210 212
-232.037270191671 892.787513370323 2690.00611426348 193 194 196
-235.938217010371 893.07833265028 2683.47430335664 197 198 200
-237.877623584169 894.113569500641 2674.66282109181 211 212 214
-243.125220205249 893.903942313042 2669.6226278797 194 195 197
-249.031681200302 893.445347792173 2665.33858538261 183 184 186
-254.938645387773 892.986234556584 2661.0541754832 181 182 184
-260.846116068708 892.52666208267 2656.76939608974 199 200 202
-266.10666439707 892.3142530917 2651.71979981823 197 199 198
-268.79116550859 893.091386226513 2643.6019119049 188 189 191
-271.498315551938 893.86627669693 2635.46788841501 174 175 177
-275.509464132903 894.144404544781 2628.85612561428 175 177 176
-282.088577916901 893.432798228311 2625.31821782993 172 174 171
-285.48187627328 893.955375929626 2617.92054940008 173 175 172
-290.795617066093 893.736018669571 2612.83206310454 175 177 174
-293.586483802684 894.501797145407 2604.63730544307 171 173 170
-298.28890682506 894.526300793362 2598.75817501986 166 168 165
-304.25569351108 894.05714355631 2594.43034763973 158 160 157
-310.22281157913 893.587421779281 2590.10227717419 157 159 154
-316.813511848462 892.871183070118 2586.5562411124 139 141 136
-322.158065934083 892.64628265513 2581.44538952614 132 134 129
-332.457144447517 890.456381201951 2582.61412079438 121 123 118
117.104774484662 933.915092289997 2806.21587474512 15 16 8
118.601686509312 935.986870550674 2794.96026245975 37 32 13
110.20513664523 934.760337378613 2792.57261600432 50 37 18
102.576664859073 933.788213670362 2789.50801774408 115 85 59
93.4501615718046 932.310479044333 2787.82497671852 140 103 76
83.5897054816201 930.58127871379 2786.84364054863 167 120 92
75.2483237885859 929.359334266467 2784.49600992054 182 135 109
67.6661646976826 928.391022146841 2781.46500402789 180 134 110
64.5589192800369 928.938147434096 2774.27482581636 186 140 116
62.1759284055559 929.736241119365 2766.37561527772 193 147 123
61.2503658482821 931.036955130774 2757.06539824193 195 149 123
55.8663204464049 930.823323840403 2751.92627011509 193 146 118
52.684285220137 931.364748781971 2744.68184630182 191 140 109
53.1514289858515 933.163008789256 2733.91338423453 184 137 109
52.1158373957507 934.455107941003 2724.52336116874 179 138 116
44.4874890372065 933.483282592464 2721.45855941803 156 119 101
33.9597576687951 931.507311613111 2721.22758232283 136 104 89
31.4289447260285 932.293798883559 2713.22144810045 136 112 102
29.5980794377373 933.329165935329 2704.48865038937 127 105 94
22.6984010784017 932.608139350027 2700.71831078765 136 113 105
11.4941525890733 930.384519183531 2701.23069423115 134 111 105
-1.82762251122437 927.412029714052 2703.90964863807 98 75 67
-20.1016140518844 922.691935052943 2711.63562905544 74 57 50
-48.9734940492248 914.227977438935 2730.18703237958 248 248 246
-84.7977699450719 903.276753039309 2756.03714677184 255 255 253
-100.640049564853 899.328590442571 2761.82443267943 255 255 253
-108.667945988985 898.128815632096 2759.70416650646 255 255 253
-118.791266926469 896.181902291219 2759.76650234585 252 252 250
-128.188205014492 894.485950533458 2759.12134867827 255 255 253
-136.16733195136 893.289290181931 2757.03645232275 255 255 253
-142.741881154711 892.590729694597 2753.50221405705 255 255 253
-147.924664075525 892.389568947186 2748.50875408662 254 254 252
-152.421036697956 892.436092533405 2742.77940000801 254 254 252
-160.374047583121 891.240293253202 2740.71344009722 254 254 254
-166.939851603874 890.541355476137 2737.18524501294 249 250 254
-175.556968932749 889.098673436791 2735.87164628772 252 253 255
-177.328693795318 890.134589711719 2727.18172351528 245 246 250
-182.530700308769 889.930029939023 2722.17460521259 239 240 244
-187.73770075277 889.724826626998 2717.16386344341 249 250 254
-195.654607320402 888.52986116563 2715.12408054635 246 247 251
-202.210697374128 887.829738782326 2711.60292132382 227 228 232
-208.76300566843 887.129444813189 2708.08450271028 233 234 238
-215.981159044795 886.182316825637 2705.31747963017 253 254 255
-219.853936371345 886.46836837842 2698.80606523988 224 225 229
-225.070925237152 886.260145371673 2693.78806735522 198 199 201
-228.966841721014 886.543545725061 2687.25986546714 201 201 201
-235.519625429194 885.841361183828 2683.74109263981 208 208 208
-238.116988433231 886.614321639882 2675.68635186477 189 189 189
-243.362558831697 886.402170127229 2670.64761471847 186 186 186
-248.613068413094 886.189260022783 2665.60529321064 187 189 188
-255.172324954223 885.484758795438 2662.0818163541 223 225 224
-260.428246236112 885.270454381856 2657.03556472664 224 226 225
-264.393809848592 885.545464325601 2650.45683164959 162 164 161
-265.791681452234 886.798357026483 2640.80398548215 170 172 169
-269.15039198238 887.314237460841 2633.4313565827 183 185 182
-272.527021418527 887.828297442708 2626.04543418791 168 170 167
-277.838110264367 887.607432807669 2620.95915718719 136 137 139
-281.244453785962 888.118020586938 2613.55197130736 142 144 143
-288.47480769398 887.162854450064 2610.77606308667 160 162 161
-291.903861566882 887.670815409629 2603.35210620613 164 166 163
-296.610980222945 887.689392842452 2597.46983627743 155 157 152
-301.954782213888 887.463358479216 2592.35952415698 145 148 141
-307.928944866206 886.993125756113 2588.02634433392 138 141 134
-312.656993217293 887.00845431103 2582.12888556642 118 121 112
77.1520751364578 913.074664594855 2842.60940245981 11 2 0
109.1658233331 925.165288879532 2804.12184451511 27 13 0
107.61752843473 926.206042346349 2795.59391539328 101 82 67
100.753137838351 925.490633037263 2791.84947957364 131 99 78
93.1394689453566 924.525314088696 2788.79535223698 136 100 78
84.7827962837271 923.310495036514 2786.43667295097 172 134 113
77.9368277160013 922.596806734081 2782.70530589326 184 148 126
69.6010053683063 921.383617046042 2780.36174969783 194 163 143
64.2562059819185 921.170416905111 2775.25107402903 201 172 154
61.1336667289444 921.705549334408 2768.04974824369 205 178 159
59.4734703541446 922.738312922347 2759.44065888319 196 169 148
53.3582197453963 922.273378769569 2755.00522822786 188 160 138
47.9781197850913 922.057498119914 2749.86894884236 193 158 138
46.9948113698191 923.334714771039 2740.51675158299 186 155 137
43.0544357934668 923.614453698299 2733.95630180411 160 134 121
27.432762631165 919.91572043275 2738.66973682024 125 103 92
8.23271409188298 914.979200496336 2746.95833914878 255 251 244
-2.19117553411974 913.02747396722 2746.80276195167 255 251 248
-1.02737898253169 915.046934781928 2735.30540215266 255 250 246
-10.7144241662191 913.344149638489 2734.44990904779 78 67 65
-32.5899535119432 907.431181657198 2745.73478781115 154 143 141
-47.9251141733799 903.753508322151 2750.65602852634 255 245 242
-67.486671390012 898.595525935941 2759.91677485495 190 177 171
-87.6768483404477 893.19652280061 2769.95563713471 255 255 255
-100.685464288336 890.274734092568 2772.8618641037 248 248 248
-111.529023590146 888.096763321959 2773.63595005991 246 246 246
-117.407284603752 887.648100522427 2769.37240063731 252 252 252
-126.097404500948 886.212827331688 2768.00591831964 255 255 255
-131.968080258554 885.764301071963 2763.7478683026 255 255 255
-137.839437621059 885.315420875564 2759.48932238285 253 253 253
-142.319070486645 885.358341832114 2753.7720850632 252 252 252
-148.196058540119 884.908527536429 2749.50945260401 250 250 250
-154.073655980203 884.458365154558 2745.24637662434 250 250 250
-161.331052961746 883.51677023597 2742.4506385664 250 250 250
-165.830754539537 883.557049758159 2736.7188396296 248 249 251
-172.395393973982 882.860655821996 2733.19150166384 250 251 253
-176.907203018717 882.899406451623 2727.4506235447 234 235 237
-182.790038013297 882.447326174047 2723.18374103548 228 229 231
-189.352206248858 881.750067402256 2719.658484591 242 243 245
-196.58676630641 880.808291239479 2716.87930058859 242 243 245
-202.464772174005 880.355467042556 2712.61591504848 218 219 221
-206.999501148325 880.390758177643 2706.85869873724 235 236 238
-212.88310042994 879.936763926023 2702.59125248539 252 253 255
-217.432017997413 879.970118598854 2696.82344627459 200 201 203
-223.986485677599 879.271262778389 2693.30346956065 189 190 192
-227.884411942038 879.546434902086 2686.77376906212 201 201 201
-233.779022940259 879.089995239419 2682.49832779541 206 206 206
-237.039194620352 879.605852748333 2675.19713169516 181 181 181
-242.943680683388 879.147836425688 2670.91452379712 185 185 185
-246.231345389875 879.66063027944 2663.5933818973 206 208 207
-253.449978695357 878.715614189624 2660.82602160351 232 234 233
-258.06046794485 878.740814447339 2655.01353946269 196 198 197
-262.680250246357 878.764843657497 2649.19431465856 144 146 145
-264.727440389868 879.756110344087 2640.3047695433 154 156 153
-267.444699333727 880.50304783035 2632.1629818313 183 185 182
-270.184621379039 881.247562272875 2624.00504735723 192 194 191
-274.224744038846 881.506614628958 2617.37218400728 147 149 148
-278.915174824251 881.522650259048 2611.5017041204 139 141 140
-285.518302606051 880.813698814714 2607.94640152402 150 152 151
-291.485166181576 880.345491249798 2603.61852321532 143 145 142
-294.932205333181 880.840594490886 2596.18175777257 129 131 126
-299.025080510726 881.092923808296 2589.5106189432 131 134 127
111.888153632832 918.38494978812 2802.35557172796 18 1 0
105.786644305358 917.920770369482 2797.93010624355 101 79 66
97.4174348732708 916.71312060176 2795.56237509891 147 116 98
88.3072899180299 915.258696907049 2793.89131065181 161 126 107
81.4681551072174 914.548320789015 2790.16520878422 179 146 127
73.8839364532087 913.590884069242 2787.13247047935 180 148 133
66.3077593047796 912.634168903294 2784.10585976531 190 167 153
58.7400064207655 911.678066094523 2781.08506460503 187 168 154
55.6356859198139 912.203860815365 2773.89689868451 183 165 151
51.7728983220427 912.481580843864 2767.39268386099 179 166 149
46.4199150056461 912.265088985464 2762.27605881347 180 163 147
38.8540476019377 911.309089536187 2759.25692547865 177 154 140
32.030218564755 910.599942998133 2755.54163084405 179 157 144
17.1627855369341 907.184489563878 2759.56822886894 139 122 114
-5.6755944829332 901.068425670778 2771.38912453873 236 223 217
-26.2318755847786 895.696938847412 2781.16272948163 255 252 250
-35.8262130373559 894.015106422518 2780.37454831917 253 248 245
-40.339891548105 894.052341855177 2774.63260178647 255 253 255
-47.74507735679 893.108034684757 2771.72971471567 253 247 249
-59.4526525550514 890.693821591279 2773.11159160181 255 253 253
-75.422503456279 886.813051001594 2778.80673971878 255 248 246
-87.0475494874494 884.404856150698 2780.24817976597 255 254 255
-98.6381986038758 881.999159472802 2781.71486200148 242 242 244
-105.936618002213 881.062127464564 2778.88940903018 251 251 253
-114.641873169623 879.636930087592 2777.51230034514 249 249 251
-120.509253294285 879.189148761411 2773.25664317598 253 253 255
-127.080277896374 878.497136548305 2769.72469866023 252 252 254
-132.946740920429 878.04895156698 2765.46970427228 250 250 252
-136.01965982563 878.574482207965 2758.30430070105 244 244 246
-141.8962310746 878.12500039717 2754.04197207644 240 240 242
-149.161688818799 877.188786592245 2751.24041785603 235 235 237
-156.419109323904 876.252935532621 2748.44498631616 234 234 236
-162.288794392443 875.80311542201 2744.18764791715 234 234 236
-165.408836494584 876.323753169836 2736.98805895133 244 245 247
-171.288571739372 875.872461700899 2732.72342751236 233 234 236
-177.851971068173 875.178557979731 2729.19700113908 215 216 218
-183.730734464735 874.726747803186 2724.93307158627 225 226 228
-190.967632332158 873.790587760189 2722.15251577937 224 225 227
-195.489989825589 873.822031515791 2716.40395385389 232 233 235
-200.696216952075 873.610737238144 2711.39374182714 219 220 222
-204.563098196973 873.881613559716 2704.88652476674 239 240 242
-210.453585589895 873.427121038076 2700.61408265215 208 209 211
-215.009163091743 873.454559238582 2694.8414185447 183 184 186
-220.239741546666 873.239798636378 2689.81353616267 189 190 192
-224.14857461091 873.505842541158 2683.27588285597 180 181 183
-230.715600145222 872.808000684176 2679.7468078215 172 173 175
-235.302186025072 872.831324135616 2673.95193871409 181 182 184
-241.8680754683 872.132618413639 2670.42368288064 186 187 189
-245.812113376116 872.394256994279 2663.8604865177 223 225 224
-251.726808221604 871.934577232992 2659.57046962975 183 185 184
-255.041678109963 872.433457375834 2652.22953563731 156 158 157
-258.374703128221 872.930508287791 2644.87543133834 143 145 144
-260.434435793732 873.904557957926 2635.97641219661 138 140 137
-263.808088831729 874.39754087759 2628.5928351739 140 142 139
-267.199726391925 874.888578541489 2621.19591645712 154 156 153
-271.887769018924 874.899799516944 2615.32743788708 177 179 176
-277.22170229839 874.671099488116 2610.22426630406 160 162 159
-285.099131962843 873.48721827977 2608.21315720053 142 144 141
-291.698949144119 872.780576679093 2604.66056070595 121 123 118
108.52915697366 909.623782525628 2806.05195842582 84 67 59
98.6482822011885 907.933972055142 2805.05601983479 126 106 97
87.2770491493569 905.755492703338 2805.44758125242 156 128 114
81.2118863931928 905.294317506139 2801.0484793902 170 141 125
73.6431602792762 904.343642644266 2798.02730068543 161 133 119
69.0799971166975 904.372258636112 2792.24914353638 167 143 131
58.5305050958462 902.444171911655 2792.00263422302 253 239 230
48.0068223781376 900.51811628477 2791.77484491221 255 252 244
38.9943997002971 899.082303327278 2790.17471569654 255 250 238
34.4419807948637 899.111740338337 2784.40464592443 255 252 240
27.6653335639923 898.409044780651 2780.72358706362 255 254 243
19.4201511813601 897.219209283099 2778.4458560068 182 165 157
7.51798735070874 894.812820788907 2779.68641659671 165 150 143
-10.9352791209778 890.219019031462 2787.28307648912 255 249 244
-31.5031942257455 884.901265673393 2797.04881434263 250 242 240
-43.2555693518155 882.505996089905 2798.39801628061 255 253 254
-49.8974459812647 881.813143065264 2794.8147053593 255 254 255
-57.2586928113452 880.877603512431 2791.94400947853 247 247 249
-63.170136400442 880.427746149602 2787.65639924811 252 252 254
-71.9563828250109 879.008284445113 2786.2203128476 242 240 241
-82.8746935962448 876.863569402225 2786.94037831516 255 254 255
-93.7628421606904 874.72087962776 2787.68231926851 245 245 247
-101.773114143512 873.547744483596 2785.57496436432 255 255 255
-107.641642193274 873.100168881756 2781.3184760818 255 255 255
-115.633420657342 871.92799422452 2779.22453238909 249 249 251
-121.496629591886 871.480431323627 2774.97190011103 251 251 253
-128.063548464078 870.791559679745 2771.44294783411 247 247 249
-133.224943572609 870.584614221316 2766.46525752156 245 245 247
-136.295188128691 871.099428396224 2759.30173836206 238 238 240
-141.473294001332 870.890770716646 2754.31192538725 234 234 236
-149.43370951677 869.719463981193 2752.24072176152 229 229 231
-156.689340590436 868.789184214278 2749.44632116136 229 229 231
-161.867225136993 868.579588563539 2744.45666387954 229 229 231
-164.299059091232 869.329276016131 2736.52180076291 239 240 242
-169.495721358484 869.117740953894 2731.51852128712 220 221 223
-175.380715334217 868.665784493843 2727.25007431355 211 212 214
-181.26631869656 868.213479947604 2722.98118381949 222 223 225
-187.83141576226 867.521410236714 2719.45353601013 219 220 222
-192.362712297785 867.54670350141 2713.69875730584 235 236 238
-198.252351912074 867.093056328892 2709.42693404595 202 203 205
-204.142594310881 866.638942117399 2705.15467144905 213 214 216
-210.703447563443 865.945782351137 2701.63009454905 185 186 188
-213.921115807907 866.444770215183 2694.35962464828 183 184 186
-216.491223869655 867.180208988416 2686.32445150783 182 183 185
-219.747513359182 867.675351175113 2679.02596476319 176 177 179
-226.989646694248 866.741156753456 2676.24162361032 169 170 172
-231.587130517475 866.758150304385 2670.43852781196 182 183 185
-237.507748632868 866.298886849405 2666.14421912793 199 200 202
-241.464938709554 866.551334798823 2659.57144192473 196 198 197
-246.088395436801 866.564979993127 2653.7497953309 162 164 163
-249.4205376308 867.051696641474 2646.39598418797 149 151 150
-252.122966022779 867.773319672266 2638.26511371384 135 137 136
-254.847770082989 868.492820946938 2630.11771741616 139 141 138
-260.169746327086 868.263785565766 2625.02350652166 134 136 133
-265.496582933732 868.033878490503 2619.92576783132 133 135 132
-271.467432124094 867.566901385531 2615.59500649789 143 145 142
-279.349721683167 866.391289324724 2613.58041623789 141 143 140
-293.567059207632 862.857463613243 2619.31271941717 122 124 119
128.025797499014 906.696661799584 2799.17356769652 227 227 225
108.210585673231 901.860323496416 2807.01673247017 150 143 137
96.8146502310483 899.699080483997 2807.39047390333 168 158 149
86.2049318329912 897.782604044316 2807.10036401222 222 204 194
77.8826297228554 896.595064354345 2804.76673884783 255 247 235
69.5729450416565 895.408487073017 2802.44226520173 255 251 244
61.275964177308 894.22305843016 2800.12700664167 255 252 248
51.4970410769964 892.554949540535 2799.20508491633 255 251 250
37.2689279910641 889.438678010358 2802.46161839698 249 247 248
23.8315465229024 886.567647912986 2805.05728119239 255 255 255
13.4002872530892 884.664961112582 2804.89631550207 255 255 253
5.21017432206428 883.487592525998 2802.65856861332 255 253 250
-2.96741086898367 882.31105959462 2800.42990758339 255 254 251
-15.536980459957 879.690748979469 2802.42089904301 252 248 245
-31.7269166070251 875.870353684499 2807.95680848118 251 251 251
-44.9373023825286 873.016159430565 2810.71711057539 254 254 254
-50.1019143036208 872.808355936292 2805.73708398065 253 254 255
-55.2715782039281 872.600083431545 2800.75339272273 231 235 238
-63.3386132943292 871.431490646351 2798.60491203842 248 252 255
-72.1140084761747 870.023900875535 2797.17675206902 252 255 255
-80.1537252468854 868.857162716007 2795.0480844117 243 244 246
-88.8974175651007 867.451723023999 2793.64291741529 255 255 255
-96.9098783312712 866.28665521047 2791.53401667797 241 240 245
-104.197549380031 865.361606288042 2788.71641611136 255 254 255
-110.057432006776 864.914671318068 2784.46619832541 240 239 244
-115.210289412627 864.706386219055 2779.4946903902 241 240 245
-121.073670157559 864.258869143419 2775.24193379524 244 243 248
-125.531226743609 864.287865901417 2769.54062951294 236 235 240
-131.400289626084 863.839470302565 2765.28374936532 230 229 234
-136.571039529566 863.628888939911 2760.29896466868 224 223 228
-143.140439434014 862.941678721395 2756.76851673099 221 220 225
-149.705930850381 862.254535800365 2753.24060800358 221 220 225
-155.575370924803 861.805093999901 2748.98344912225 222 221 226
-160.755534972305 861.592565468664 2743.99212452593 224 223 228
-163.876852889804 862.091223266481 2736.79120488452 212 213 215
-169.073628109318 861.876930838352 2731.78782956063 186 187 189
-175.64228682255 861.188037735573 2728.25761592711 207 208 210
-181.52600920832 860.735825825598 2723.99008946233 203 204 206
-187.410292835174 860.283269729761 2719.72215439855 226 227 229
-190.587805843025 860.775891861551 2712.48076164207 213 214 216
-197.15674642259 860.08554207289 2708.95033629923 189 190 192
-203.722048476625 859.395079197047 2705.4228425054 174 175 177
-208.942796294976 859.176504353893 2700.40177276471 180 181 183
-210.160420428231 860.371410374593 2690.87929812126 166 167 169
-211.4095185315 861.563527677454 2681.33399319984 166 167 169
-215.344538870716 861.811259546996 2674.77726342459 174 175 177
-222.600570411137 860.881316159075 2671.98286869839 182 183 185
-227.870650246733 860.656783684834 2666.92630142604 207 208 210
-233.802627405286 860.196540276863 2662.62375336555 211 213 212
-236.461025239009 860.90941268961 2654.52446278213 169 171 170
-240.447301318163 861.150901239064 2647.9305450035 150 152 149
-241.845780010455 862.328467551851 2638.27687720153 160 162 159
-245.868371783697 862.566177711668 2631.65661426295 125 125 123
-249.258735712198 863.036538064627 2624.26080857133 131 131 129
-257.817391227124 861.634079910421 2622.98979380459 126 127 122
-263.792599923224 861.167227587387 2618.65587280446 128 129 124
-275.522541417728 858.598267687411 2621.25578869125 119 122 115
143.01199965908 902.239684855712 2796.42822916757 216 218 217
124.656429600939 897.927952685399 2802.86210338398 212 214 211
106.370542624586 893.621566902763 2809.34651943398 207 206 201
94.2217636473668 891.239888205133 2810.40842860111 252 247 241
84.3761679825215 889.580249017728 2809.43851188861 255 253 244
76.8141098499453 888.64091760888 2806.42192992562 255 250 240
67.7565134231615 887.22356064393 2804.78944125555 254 245 240
56.4670952571187 885.089766020578 2805.24053836687 251 246 243
42.9655579779009 882.241020742013 2807.7898061227 250 250 252
28.0168839609516 878.917802151943 2811.75797800847 248 247 252
11.6343153243612 875.121053163604 2817.15436381721 255 254 255
-0.983232371369436 872.521709214021 2819.11068112507 255 254 255
-9.12974229082697 871.355928014322 2816.90430720532 253 252 250
-16.527528615857 870.429138142677 2814.00716738373 246 245 243
-27.5881895110472 868.312680533134 2814.62418333801 250 250 250
-40.0829680455899 865.722445841355 2816.66954477103 247 247 247
-47.429659965718 864.799486108874 2813.80916929736 254 255 255
-52.5854505428958 864.589589282522 2808.83552687993 232 233 235
-58.4716002600147 864.141900493038 2804.56626370136 216 217 219
-67.2515059230729 862.744997928752 2803.13488812068 254 255 255
-76.0145462450534 861.349292772112 2801.7160391278 252 254 253
-83.3227411456885 860.428495826498 2798.88358192006 253 253 253
-90.6229360841779 859.508297581598 2796.05722156517 246 246 246
-96.4860434957464 859.061519574796 2791.80466685893 242 242 244
-104.486618046354 857.905360604707 2789.70442781798 241 240 245
-110.344388872034 857.458716201801 2785.45574239347 238 237 242
-115.494929083756 857.247800503663 2780.48560644021 236 235 240
-118.533652616128 857.744078666261 2773.34484365493 234 233 238
-123.701091670332 857.531445868906 2768.36274314969 228 227 232
-130.275997716722 856.847065142945 2764.82802354712 223 222 227
-137.546305712663 855.927316527799 2762.02333115216 223 222 227
-143.414688921115 855.478438295786 2757.76694127012 210 209 214
-148.589149249896 855.264221052029 2752.77974286756 219 218 223
-153.076149305356 855.284250382593 2747.05675448712 213 212 217
-158.262953324978 855.068495467881 2742.06060009104 238 237 242
-162.766657542457 855.08669362451 2736.32549323181 191 191 191
-169.337310838007 854.400626129078 2732.79384799526 188 188 188
-174.537047163364 854.183046883778 2727.78830945417 196 196 196
-179.741815661658 853.964641769644 2722.77911880033 195 195 195
-184.272267615311 853.979418441224 2717.02460460583 227 227 227
-187.458255264426 854.460480658194 2709.77700984779 187 187 187
-193.361730115434 854.005593189576 2705.4951508472 179 179 179
-199.265769508572 853.550421011489 2701.21288115585 177 177 177
-203.159181151707 853.794354391623 2694.68629517227 173 173 173
-205.061828375486 854.73584392249 2685.90098569609 164 164 164
-208.32358347408 855.209214791874 2678.59842653878 165 167 166
-213.594926522645 854.982608437393 2673.54093303178 174 178 179
-218.871096195105 854.755301995095 2668.47964257901 183 187 186
-224.152365755057 854.527174556706 2663.41494542748 202 204 203
-226.809978107221 855.226857833623 2655.31645192786 170 172 171
-228.180049776493 856.388313978622 2645.68300090492 156 158 157
-230.234528507401 857.315064326092 2636.78784534913 148 148 146
-234.918063179654 857.312719828839 2630.92227150287 145 146 141
-242.852724434712 856.151624634562 2628.86978941358 131 132 127
-248.836210097217 855.685117429801 2624.52987001196 128 129 124
-257.395866904224 854.293511277949 2623.25818435475 128 127 122
146.539113329197 894.15810758314 2803.88461535106 217 219 218
133.5112745679 891.551573784974 2805.54346749145 227 229 228
119.759562299066 888.710641135361 2807.91141763081 234 238 237
103.768881721102 885.161006624174 2812.3581065109 242 248 244
93.9032752071594 883.513367924689 2811.37374429168 246 251 245
84.8156051230564 882.104497417908 2809.71920309417 255 255 250
76.4990393077918 880.933851980973 2807.38982186508 255 255 250
60.6752608334009 877.397200707184 2811.95756740457 251 250 248
42.6586025227356 873.155342276855 2818.63747990372 254 254 255
29.944958332508 870.573355227338 2820.52392825103 250 251 255
18.0153872656139 868.23041525263 2821.74523660677 246 246 254
4.63408630914453 865.418115942514 2824.38185084493 226 223 230
-6.48084823268436 863.316678302253 2824.95959875361 233 226 233
-15.3492107732753 861.924618251241 2823.46412342293 245 243 244
-24.2006194865161 860.533812161689 2821.98094463507 242 242 242
-33.0352591497314 859.144195679134 2820.51022259205 245 245 245
-41.8528465961847 857.75571128267 2819.0515733221 252 252 252
-46.2733219290219 857.778740105064 2813.37682532582 250 250 250
-54.3423820574245 856.626592049832 2811.22695994404 217 217 217
-60.9476497435559 855.944650685295 2807.67024289672 252 252 252
-69.7196299351686 854.559273905326 2806.24496551682 251 251 249
-77.0319867762688 853.643755714747 2803.40951796755 247 246 244
-82.8982708271346 853.197138571441 2799.1546612625 245 244 242
-91.6324764193983 851.814214158764 2797.75648544052 239 238 236
-96.0621832172888 851.835489843055 2792.07533095524 234 234 236
-104.063351146785 850.687407961525 2789.97470267332 231 231 233
-109.921338627333 850.240746007158 2785.72586010217 224 224 226
-114.363902448872 850.26049182025 2780.03508305994 220 220 222
-118.816098439467 850.279168959527 2774.33761251679 216 216 218
-125.388470087658 849.59792099503 2770.80474602161 209 209 211
-131.95710055442 848.916796876505 2767.27459221599 208 208 210
-137.123690615797 848.701066434832 2762.29309147359 202 202 204
-141.598232565206 848.717086530447 2756.57911393253 212 212 214
-146.082389213003 848.732158855198 2750.8584561678 210 210 212
-151.268463875424 848.514062915567 2745.86252416354 235 235 237
-155.078881880871 848.759223274928 2739.39610825398 205 205 207
-161.656078308289 848.075683005796 2735.86002703942 181 181 181
-166.857320742372 847.855521894093 2730.85308913329 190 190 190
-174.798851655821 846.708626903227 2728.79569900885 184 184 184
-179.320029473003 846.71890778593 2723.04817953876 212 212 212
-183.850442530783 846.728191177512 2717.29366571616 187 187 187
-185.681697321031 847.660349106442 2708.56006287224 175 175 175
-190.239973197104 847.666788219232 2702.78563076823 169 169 169
-194.807570701688 847.672043611072 2697.00414074397 167 167 167
-198.043557138331 848.137285837057 2689.72022066645 165 165 165
-203.302854462889 847.909743518472 2684.67145462102 169 169 169
-207.900920113359 847.911515005847 2678.86785994092 174 176 175
-215.164291852467 846.992268561044 2676.06819833016 180 184 183
-217.125414123962 847.911635510692 2667.24038698875 192 196 195
-221.751654405725 847.909989406231 2661.41635060637 164 169 165
-221.786016971085 849.513363276912 2650.28334876031 143 148 144
-220.550470261502 851.571785192202 2637.60316289851 143 145 142
-219.364036255231 853.625869967912 2624.8873522215 144 145 140
-225.384418098479 853.157329662076 2620.52067569299 142 143 137
-238.538746369388 850.171828535264 2624.55598660261 129 130 122
137.774527834242 883.748285113139 2812.29986993567 223 225 224
129.363670843817 882.578245685947 2809.90213809099 234 236 235
117.149976005409 880.23516003995 2810.91718384638 239 243 242
101.926957076013 876.956151574884 2814.6867011833 244 253 250
92.8260206270033 875.557139462775 2813.02259284948 251 255 252
83.7422239853565 874.159515866212 2811.37091656089 255 255 251
71.6577279040229 871.826548655889 2812.47996698142 252 251 247
49.0779680287652 866.220429726243 2823.25588825584 252 252 252
29.5941559494484 861.557071870376 2831.34016795819 253 254 255
17.6661691400994 859.236126474558 2832.56273618291 244 245 250
7.26402720512898 857.38478843146 2832.42313836159 229 230 235
-2.36920993887724 855.768699675033 2831.60738546432 238 236 241
-10.4987479479162 854.620494321649 2829.41369834678 252 246 250
-17.1376890072334 853.939230435814 2825.83257418417 242 240 241
-25.9831988648669 852.559775593717 2824.35372909893 240 240 240
-33.3427707830036 851.646775658128 2821.48436156518 255 255 255
-42.1587990733097 850.269410432697 2820.02689888159 255 255 255
-46.5768008601488 850.287083465089 2814.35391688345 248 248 248
-55.3723911372914 848.91102584214 2812.91157125206 226 226 226
-61.9734983459068 848.232109994365 2809.35788554851 252 252 250
-70.0180996742898 847.089769814497 2807.22580055167 244 243 241
-76.6073914226833 846.411452687879 2803.68068316004 242 241 239
-81.7546463840342 846.196332703896 2798.71320193636 237 236 234
-89.7749219828889 845.055305997441 2796.598757833 234 233 231
-94.9235741299408 844.839654619129 2791.63026106798 225 225 225
-102.214863285555 843.930562907428 2788.81011848491 223 223 225
-106.65674364602 843.945057247313 2783.12010477548 219 219 221
-112.524415944886 843.497311995579 2778.86423598573 211 211 213
-117.686589249815 843.279897712342 2773.88563403832 207 207 209
-124.965375466405 842.370873335473 2771.07484992067 200 200 202
-130.832887788899 841.922424117827 2766.81909353548 203 203 205
-136.001750749126 841.70364184287 2761.83592966206 198 198 200
-139.78125923391 841.943897985033 2755.39189588284 205 205 207
-144.269549378638 841.953188404875 2749.66791789446 214 214 216
-148.767379905105 841.961407228322 2743.9370184519 221 221 223
-151.203189805752 842.656475815281 2735.99929090857 186 186 188
-158.479945770493 841.745634007175 2733.18967488114 184 184 184
-163.690275793757 841.521998842279 2728.17642606793 186 186 186
-172.325276251689 840.153623227706 2726.8502398575 196 196 196
-176.171144002046 840.386591727212 2720.35806391714 215 215 215
-181.389967039486 840.161312632407 2715.33865000987 172 172 172
-182.549876992685 841.304914190503 2705.85775374 176 176 176
-186.441767194967 841.533198457103 2699.33219141551 168 168 168
-191.020473591375 841.532187319825 2693.54291105432 164 164 164
-195.608528990104 841.530049987828 2687.7465532204 163 163 163
-201.543073806076 841.071629860688 2683.44215304552 174 174 174
-206.145557322901 841.067606764436 2677.63532640911 179 181 180
-213.413992563289 840.153327062927 2674.83201931575 182 187 183
-213.393208011688 841.737270939023 2663.73889637491 183 188 184
-216.711226111349 842.183082509009 2656.39541137413 138 143 139
-212.815045052137 845.121219380109 2640.70769659197 132 137 131
-210.296193920809 847.600634774575 2626.48957017212 136 138 133
-201.957773104979 852.112621358595 2605.38455076928 135 136 130
145.872512382153 877.122766802884 2815.66634446215 214 215 217
132.077103288239 874.332840326389 2818.00287619679 247 248 250
124.448859839022 873.404527332514 2814.93866537277 253 254 255
113.012445476154 871.316477159532 2815.28343350862 250 251 253
97.8009090396399 868.071078771356 2819.06144499135 246 247 251
83.4003549881643 865.061569491982 2822.19321863083 248 248 250
74.3444214652564 863.676897261694 2820.56180651287 255 255 253
55.4967439544636 859.284812231081 2827.8738656379 255 255 251
34.4664955245788 854.204714628175 2837.30535749358 252 254 253
20.2744611176779 851.211201608261 2840.58837249766 252 255 255
12.8612619972879 850.299831652741 2837.68013771671 248 253 255
4.71051442096559 849.158212478184 2835.4711086915 251 255 255
-4.17109268418026 847.786945706096 2833.96613741537 242 242 240
-10.811777695046 847.108348500051 2830.38376253233 238 234 231
-18.1880326915318 846.199672711504 2827.5023229817 249 249 249
-25.5559082680827 845.291545903415 2824.62666615509 253 254 255
-35.1200091825876 843.694141848134 2823.86112622772 241 241 243
-42.4650057310068 842.787689265032 2821.00206337715 232 232 234
-48.3413370618071 842.340855618153 2816.73992208782 231 231 231
-55.6746580828495 841.435000778463 2813.88962058091 242 242 242
-62.2738709547313 840.758986608589 2810.33732282006 235 233 234
-70.3168717395095 839.624841505653 2808.20643960112 232 232 232
-76.182725781685 839.178318941662 2803.9518950976 232 232 232
-81.3300181759606 838.960387965881 2798.98437249978 216 216 216
-88.6337316292054 838.056095255964 2796.15554206312 214 214 216
-95.2143589577656 837.380690565142 2792.61672044639 205 205 205
-101.0785638133 836.933644421694 2788.36336882144 202 202 202
-105.522359675441 836.942476795206 2782.67164336796 199 199 199
-110.68404621191 836.722483576152 2777.69367570361 195 195 195
-117.96928458251 835.818612165295 2774.8782403826 193 193 193
-125.246205848326 834.915105455227 2772.06854167861 189 189 189
-130.410040092639 834.694161578288 2767.08901227973 188 188 188
-134.179790077867 834.927202596509 2760.65201609907 192 192 192
-138.66073641091 834.931830491261 2754.9333381799 191 191 191
-141.760995908115 835.389248811225 2747.74776982771 213 213 213
-145.572496597615 835.618190631 2741.28048690727 176 176 176
-148.016557073103 836.29896923952 2733.3367059646 177 177 177
-154.614210603279 835.619257789541 2729.78551987638 180 180 180
-159.149244729342 835.618129862105 2724.02760340738 178 178 178
-169.850695398578 833.581375298359 2724.90542223202 210 210 210
-173.703156420401 833.805575381226 2718.40871675173 207 207 207
-180.967691237748 832.899786201787 2715.60798568742 170 170 170
-181.449281201188 834.249840279395 2705.3848271477 170 170 170
-185.343177883003 834.46983683991 2698.85776830451 168 168 168
-189.250920670114 834.688353248588 2692.32066462685 162 162 162
-193.843342488626 834.680365756895 2686.52111184983 165 165 165
-201.788662509855 833.546845139721 2684.46104266414 179 179 179
-205.722557816155 833.762107770195 2677.90496398616 183 185 184
-209.006023996362 834.200561982408 2670.58648914269 175 182 175
-207.011214693503 836.432074443867 2657.22225456975 163 168 162
-207.049667620481 837.98637635482 2646.08633345112 134 139 133
-203.182358029335 840.881369289246 2630.37747059307 127 132 125
167.106708373732 874.397387323031 2807.57849337238 213 214 216
152.476735847104 871.399881422001 2810.54401746267 228 229 231
137.126592491718 868.17629265741 2814.22166030193 249 250 252
128.719308548527 867.022912492254 2811.82660301789 250 251 253
116.507585189146 864.723599543136 2812.84329965784 251 252 254
98.2403687267923 860.593178220717 2819.34214165658 255 254 255
75.4885575539363 855.093863467699 2829.99388025782 253 249 250
58.8876388789772 851.432967296189 2835.23266758523 254 250 249
40.838234147774 847.319294995871 2841.88949079331 255 253 252
28.1259219694299 844.810900746859 2843.77727750649 252 254 253
16.9527826870985 842.762291525908 2844.31339362001 252 255 255
8.80239023554052 841.628995152352 2842.10436971193 249 255 255
-0.827486186417703 840.040362087803 2841.29119214228 248 254 254
-9.69216580938714 838.681280261103 2839.79855367839 231 233 228
-14.0912320607143 838.689863242319 2834.13954688817 240 240 232
-19.9781270680526 838.242532282722 2829.86974524529 255 255 255
-25.1285714566492 838.022483543601 2824.89963249561 245 246 250
-33.9584735043981 836.665920369268 2823.43221779565 234 235 237
-42.7716961910811 835.310420048495 2821.97719418107 215 216 218
-49.3763908948921 834.636889236044 2818.42093510196 212 213 215
-55.9773203445124 833.963484219727 2814.86740617315 243 243 245
-62.5747481376493 833.290253747384 2811.31671103098 228 228 230
-69.1682499720336 832.617211475476 2807.76856837634 222 222 224
-75.0364390722349 832.170499745744 2803.51233018127 219 220 222
-80.1858391570662 831.949590064208 2798.54326458585 206 207 209
-85.3402235065572 831.728206499457 2793.57028891327 205 206 210
-91.2148617716744 831.280494364921 2789.30937051367 195 195 195
-99.2289347554567 830.155802250487 2787.19950555627 193 193 191
-105.098422414698 829.708089165762 2782.94232093598 190 190 188
-110.968594979886 829.260081620757 2778.68463832125 187 187 185
-116.133242622199 829.036801584531 2773.70450743969 186 186 184
-121.302966316491 828.81305058767 2768.72069443422 183 183 181
-125.775784339803 828.813258741867 2763.00788651338 183 183 181
-130.957923943226 828.587964223564 2758.01506513217 186 186 184
-136.842639353671 828.137523925787 2753.74682777618 196 196 194
-139.94675602535 828.58374603886 2746.55811208789 192 192 190
-143.069318798445 829.028245195117 2739.35631017692 169 169 167
-146.901104762239 829.247119803505 2732.87427103582 177 177 175
-152.812776996196 828.79353980135 2728.58647619996 175 175 175
-158.725148305723 828.339484959571 2724.29817218414 183 183 183
-166.690949918711 827.215118735596 2722.22330182429 192 192 192
-171.91598211012 826.984079174337 2717.19935759091 175 175 175
-177.146118692755 826.752207893756 2712.17170886256 169 169 169
-180.348213036599 827.188341945358 2704.91191597075 162 162 162
-184.244294373178 827.399867492538 2698.38352499437 165 165 165
-188.154061110492 827.609975292182 2691.84491152074 173 173 173
-193.419688346059 827.373963894414 2686.79121941315 179 179 179
-198.690490988454 827.137185126461 2681.73406613284 174 174 174
-199.966592293926 828.231584508302 2672.16869105334 164 166 163
-197.951990698132 830.432378962199 2658.81864874316 130 137 130
-192.679995100492 833.73682071039 2641.66007342927 121 128 120
165.236639515384 866.100995018696 2809.88622204972 241 242 244
153.692330159451 864.04255967735 2810.15292480746 251 252 254
139.874209087831 861.305458868272 2812.47325971718 239 240 242
129.162615076141 859.479187175175 2812.10975492444 241 241 243
113.895349525405 856.294981945574 2815.84738266135 247 247 249
91.8272860249725 851.075984563768 2825.76116777578 252 252 254
66.0549217557405 844.732310384557 2839.15940712253 255 255 255
48.723426636518 840.885462277429 2845.1026787402 255 255 255
32.9667490242396 837.495660532363 2849.71981094846 249 250 252
22.5348884926144 835.69103472597 2849.55920056591 242 243 245
16.6313285310835 835.242473206861 2845.27731190906 230 231 233
9.23086042730148 834.342997621655 2842.37807188405 220 221 223
-0.399816778760886 832.767921274527 2841.56438247636 231 232 234
-10.0089774383008 831.194577649251 2840.766005172 238 238 238
-15.147132802402 830.972786601043 2835.80508665031 237 237 237
-20.2902953012383 830.750589919081 2830.84053629518 228 228 230
-26.1756911951685 830.303260916758 2826.57182140152 255 255 255
-35.0019987704797 828.957742821514 2825.10706835684 211 211 213
-42.3457587745626 828.06221440122 2822.2492517137 208 206 209
-49.6812771931967 827.167104307623 2819.39711721363 210 210 212
-56.2804215640722 826.496482988838 2815.8451909035 225 225 227
-63.6018956586506 825.60233141067 2813.00324228872 224 224 226
-70.1914907100871 824.932184974181 2809.45824088941 213 213 215
-75.3333870881334 824.709303834149 2804.49431042833 207 208 210
-79.0412392116524 824.932423315675 2798.10213507405 200 201 205
-83.4805564003567 824.931233446216 2792.41390001891 201 202 206
-89.359765189426 824.483091304454 2788.14966617089 190 190 190
-98.0918010839029 823.143417952249 2786.75328228428 188 188 186
-103.96366864565 822.695452325064 2782.4943711427 185 185 183
-109.127596596653 822.469661607808 2777.51474926364 182 182 180
-113.590123062598 822.465685012451 2771.80938071578 182 182 180
-118.766476825871 822.238529202932 2766.82074418577 179 179 177
-123.947784178947 822.010782507573 2761.82821922282 181 181 179
-129.134366530951 821.782320117773 2756.83216115246 181 181 179
-133.628330655401 821.774900564247 2751.10398533578 202 202 200
-136.045670802138 822.430839612922 2743.17944871239 171 171 169
-139.178871464135 822.863543863361 2735.96987542521 169 169 167
-146.476498139377 821.967560331756 2733.14520503443 174 174 172
-152.388428571636 821.513839925029 2728.85722231393 173 173 173
-156.927861237211 821.501432907034 2723.09635459598 195 195 195
-161.476646206153 821.487959170714 2717.32840731356 174 174 174
-166.717270136527 821.252908289216 2712.29313997773 164 164 164
-174.002816146422 820.356230599407 2709.47722360302 163 163 163
-177.891456570801 820.560472759853 2702.95418981091 164 164 164
-181.793806468677 820.7632952226 2696.4209160608 168 168 168
-185.036541897277 821.184486849132 2689.13158589299 176 176 176
-188.968990079373 821.384224191602 2682.57677210461 180 180 180
-191.577146475125 822.021408727851 2674.51351923777 158 158 158
-188.207051205991 824.630056620527 2659.67809581875 140 142 139
175.709493605769 860.086514085694 2811.27198084992 216 217 219
