ply
format ascii 1.0
comment KinectMotionCapture
element vertex 791
property float x
property float y
property float z
property uchar red
property uchar green
property uchar blue
end_header
155.721218205596 -139.655318368582 2834.62707332927 16 19 10
142.369667909145 -140.732177595543 2833.87441276612 16 19 10
126.553835746659 -142.330331883374 2831.39480191191 15 18 9
107.445597474819 -144.622740739275 2826.61923440409 14 17 10
115.089966778502 -141.132928648706 2841.18470827154 12 15 8
117.095003557693 -138.874066841133 2851.6126778647 11 14 7
130.567506067842 -134.177181208781 2870.13136526818 12 15 8
99.1140273039743 -139.073309985636 2856.7446415986 15 17 12
38.8225160318365 -150.042003400927 2823.29615269166 15 17 12
-6.10286392663673 -157.676647326555 2801.01973910918 4 6 1
-36.3765123517847 -162.165044393203 2789.23464469689 7 9 4
-34.5420919713786 -159.883168268207 2799.82897523214 7 9 4
-15.2803227226679 -153.973675443345 2822.33865327768 8 10 5
-19.9743765044809 -153.087720348024 2828.28622145743 8 11 4
-18.0075116607501 -150.822645851829 2838.75117811412 7 10 3
-30.6841781767422 -149.745123115861 2848.34621933482 10 13 6
-12.729244278499 -144.22610132248 2869.37715917245 11 14 5
-8.10141687596388 -141.464406849917 2881.37774409351 15 18 9
7.51606759680001 -136.483082143608 2900.55821136399 18 21 12
-11.358667317348 -138.523499528216 2896.93077450047 22 25 16
-81.8759821762871 -150.969190740624 2859.68485264659 19 22 15
-100.143158527556 -152.807973019178 2856.84120888587 22 25 18
182.408203281131 -171.584663109524 2706.56967665692 12 15 8
154.470936292715 -176.177055603911 2693.89713857841 16 19 10
140.419347412592 -177.475911433637 2692.45552836054 15 18 9
158.289010823248 -171.310768170843 2716.30980305929 16 19 10
177.839315801894 -164.797118317506 2741.27782319213 14 16 11
178.71111679248 -162.653203692848 2751.4311925014 13 16 9
180.400340305834 -160.33198606683 2762.16389101537 14 17 10
160.078766500675 -163.080698021284 2755.82646854979 15 18 11
162.574422283983 -160.580557726904 2767.14883252391 14 17 10
182.517625861378 -154.116173625121 2791.73397999665 15 18 9
174.823732791207 -153.973401881457 2795.10196215546 15 18 9
168.709374015425 -153.46921520461 2799.68218291827 16 19 8
170.56268685878 -151.167786075604 2810.25452519109 17 20 9
190.030896333784 -144.923635938931 2833.92698999535 16 19 8
187.192892840748 -143.711465920227 2840.8170770131 15 18 7
176.338108692982 -144.289877333121 2841.76248618123 17 20 11
155.798633248388 -147.008657375104 2835.63701934119 17 20 11
149.708774976479 -146.506394741745 2840.19319511427 15 18 9
146.850720499467 -145.29096157188 2847.1023729212 14 17 8
142.384103483337 -144.432720251263 2852.82818911429 13 16 9
135.484150435668 -144.107976772289 2856.79779106887 14 17 10
135.908508561939 -142.18545485763 2866.01129018495 14 17 10
116.764774088487 -144.518234645845 2861.27693773623 10 13 6
95.9190073411622 -147.196323151217 2855.44960849628 14 16 11
76.6412948527089 -149.5115052559 2850.84569726707 17 19 14
8.78135706004679 -162.226392305776 2812.41799489005 10 12 7
-14.8621764304302 -165.39054570386 2805.18966376837 9 11 6
7.99013681576177 -156.754646417913 2839.31827072502 9 11 6
-6.61076926380044 -157.97747237561 2838.41056558272 9 12 5
-40.3895668058003 -163.223451263071 2824.55046905048 12 15 8
-42.6088981024026 -161.805887416094 2832.21275763111 9 12 5
-36.4528125373935 -158.643674593719 2845.47071964527 8 11 4
-42.8091728940014 -158.10470623674 2850.28577299616 9 12 3
-19.7765196899158 -151.469654060558 2874.61198312971 13 16 7
-12.6037437295738 -148.155925926289 2888.25453413066 16 19 10
-66.9569847923923 -157.526654441106 2861.42661183511 20 23 14
-95.8215703160743 -159.731356427949 2860.65796538188 23 26 19
141.477830685299 -188.969658629148 2674.68203714112 19 22 15
149.895107125535 -184.926581803982 2691.23204914559 22 25 16
157.6058197678 -181.07715357058 2707.09573914795 16 19 10
152.130602395992 -180.374502485266 2712.42885941319 11 14 5
146.65616970676 -179.671743930767 2717.76118459313 14 17 10
151.367305107143 -176.575322613637 2731.0461424351 13 16 9
155.34460195513 -173.669111472098 2743.67135431287 14 17 10
170.392215720589 -168.198137075072 2764.7625887692 15 18 11
165.809349428043 -167.324151467046 2770.60117737145 14 17 10
171.517426974686 -164.070019850687 2784.29043241302 17 20 11
177.280587810932 -160.822804578104 2797.92567332432 16 19 10
181.508837315059 -157.947699286907 2810.30628293589 16 19 8
177.813691097638 -156.902163899678 2816.6549067159 17 20 9
180.519339359727 -154.400589496759 2827.76853309371 16 19 8
174.454295514107 -153.904403557442 2832.30096590738 15 18 7
148.313798639982 -157.948049054988 2822.0141697729 18 21 12
142.194136393958 -157.444417394598 2826.59973899125 17 20 11
124.776450311304 -159.475871633082 2822.94067782557 16 19 10
161.485604985491 -149.381806995944 2858.68073622125 14 17 8
150.568629637124 -149.969921445703 2859.68933627555 12 15 8
131.499422464846 -152.358077526869 2854.88916170696 13 16 9
111.550418636157 -154.917840463137 2849.57075448249 13 16 9
117.659869038492 -151.712894725252 2862.86837215434 9 12 5
92.7246848225902 -155.340209047764 2854.15730564403 11 13 8
64.415953582619 -159.672836583129 2843.23249107078 15 17 12
22.8425828142274 -166.857250781171 2823.2285763245 10 12 7
-13.9548499811246 -172.946382184306 2806.8226716832 9 11 6
-26.9397105676155 -173.83679437751 2807.09523534494 9 11 6
-12.6307795444709 -168.836775741975 2826.15544326257 9 11 6
-16.4888441449578 -167.767132585595 2832.66262212958 10 13 6
-31.1543246120261 -169.010756867298 2831.82211429185 14 17 10
-50.0306993406139 -171.136781911976 2828.20895856309 16 19 12
-66.4607121663252 -172.722787459192 2826.33744260816 13 16 9
-46.9148812987075 -166.686645997993 2848.54632465378 11 14 5
-43.206863582872 -164.025852313997 2860.0579601238 11 14 5
-31.8802522003976 -159.781101234225 2876.52330863343 14 17 8
-94.7122230368018 -171.065725428665 2844.22765658416 17 20 11
-110.456538603517 -172.45443290877 2843.06298186414 19 22 15
-108.449233920844 -170.144183867965 2853.48144222698 24 27 20
97.4558348920755 -207.392666998405 2640.3498678959 13 15 14
116.620883501665 -200.656979617275 2665.66729840671 24 27 20
173.235997175008 -184.933736453827 2720.48495659834 16 19 10
155.327251018153 -187.232888874018 2715.93618170217 22 25 14
146.734903468255 -187.279065754114 2718.80735964729 14 17 8
142.828170742592 -186.202212730465 2725.36146322482 15 18 9
172.831973526887 -175.107655477066 2767.61216279874 17 20 11
184.829717531616 -170.323962808337 2786.16556783926 19 22 13
178.715854890958 -169.825000153819 2790.74573019879 16 19 10
190.841552655752 -165.057261183168 2809.17443321366 14 17 8
197.487981399344 -161.597642709902 2823.31843009529 14 17 8
185.861426407706 -162.402056291539 2823.64637498238 13 16 7
168.611972688938 -164.496024851246 2819.82983402379 14 17 8
142.494819453069 -168.612638666755 2809.53064199697 14 17 8
130.729011357516 -169.398465227539 2809.99412012123 16 19 8
127.785999548397 -168.155425562962 2816.98391942898 16 19 10
160.352285981581 -158.825911694194 2849.86568522792 15 18 9
131.641808451973 -163.470799477704 2837.96905326976 15 18 9
140.108401059025 -159.66858929281 2853.08878425808 14 17 8
121.827075977878 -161.915995744615 2848.90233770992 14 17 8
91.2670159603346 -166.897512701378 2836.0579656715 13 16 7
96.5110582101221 -163.830680133276 2848.81811233838 11 14 7
109.172229388207 -159.129473109055 2866.72491573074 12 15 8
75.9812004726039 -164.63471168628 2852.31947473259 16 19 12
48.4150830899415 -168.850190318889 2842.05682838223 17 20 13
-19.6409779586637 -181.948653070634 2803.88057161882 9 12 5
-39.2483363341762 -184.311647034224 2799.6107323584 7 10 3
-29.937382989671 -180.328940071604 2815.28257046727 9 12 5
-26.3661189007602 -177.620950256156 2826.92302874279 12 15 8
-55.1974463930769 -181.960227886772 2816.51814285469 14 17 10
-46.6111179531459 -178.171608601062 2831.5209831199 17 20 13
-61.3613712831342 -179.433175281664 2830.76730786695 14 17 10
-48.5067971096664 -174.755524214488 2848.48554078603 14 17 10
-23.8102865945442 -167.575121422534 2873.91273206598 13 16 9
-46.1051926625968 -170.453921309294 2868.13717533053 14 17 10
-87.8788208403454 -177.440989803476 2849.72019870296 16 19 12
-123.053861321539 -182.97609574171 2835.87207774173 16 18 13
-110.05898080844 -178.316103033607 2853.45359428921 15 17 12
144.730574722129 -203.611984541315 2679.28411871625 34 36 31
167.116278728277 -196.042586010636 2706.9484816193 24 27 20
185.754916660094 -189.442369601158 2731.39175894766 22 25 16
167.098470571252 -191.978503056079 2726.2035775127 27 30 21
161.661362558338 -191.279860181829 2731.49944703305 17 20 11
107.654097343162 -202.331424503062 2698.9080794496 17 20 11
173.068622235391 -180.55530560039 2778.10136835004 18 21 12
197.781971573952 -172.702557508172 2806.24662256506 15 18 9
204.401820449621 -169.19900462969 2820.41018232056 14 17 8
198.359954940091 -168.711106851136 2824.92082369039 14 17 8
183.54773040769 -170.288111292623 2822.85839900313 14 17 8
155.90667377667 -174.859260724672 2811.3058271053 16 19 10
139.369878792575 -176.794580460002 2808.17472873692 16 19 10
141.245105301673 -174.421272400343 2818.71502458314 15 18 7
168.104089986738 -166.262599755304 2847.51823430091 15 18 9
128.161578086755 -173.604845322173 2827.33542715688 15 18 9
117.973432478745 -174.033561578419 2829.01363883924 15 18 9
95.6039694476485 -177.249416824177 2821.94502558739 14 17 8
111.343252862895 -171.723700411346 2842.34133101069 15 18 9
83.2022332611837 -176.228801118795 2831.27512991893 15 18 9
96.591052599134 -171.271249615399 2849.83838964757 12 15 8
84.7008633336381 -172.060603344306 2850.42623926817 12 15 8
80.1631507474574 -171.183051972673 2856.21946255421 13 16 9
89.6084871041687 -167.169226530418 2871.75325704771 14 17 10
-30.9028261315727 -190.266430552153 2806.37373846445 7 10 3
-44.758520611742 -191.382487574378 2806.12749394537 8 11 4
-32.9222519245453 -186.804714356619 2823.45477185045 9 12 5
-31.8189051751299 -184.61986107708 2833.37216208301 11 14 7
-32.3512026615287 -182.804988957982 2842.13463563949 13 16 9
-62.9482315141448 -187.572375540738 2830.71223514275 16 19 12
-42.5585765273264 -181.191870699096 2853.44919992448 17 20 13
-39.6810270107726 -178.654251441782 2864.3867984017 17 20 13
-39.2885944759054 -176.667704018106 2873.62253715972 17 20 13
-84.4196141730968 -184.499357584626 2852.9963541343 18 21 14
-103.521708496211 -186.680885658876 2849.61520678119 26 28 23
-78.6191964309189 -179.429330978338 2874.8273192585 15 17 12
193.54949314097 -199.113621983789 2719.41306104279 27 29 24
202.096445549276 -194.940368378971 2735.81540066482 23 25 20
183.500241401675 -197.530121456858 2730.57532304853 31 34 25
166.39746857223 -199.725743965168 2726.62781236571 16 19 10
152.362956069224 -201.143776179713 2725.18685927056 21 24 15
110.084789767427 -209.476235579382 2701.80143169202 20 23 14
103.70894280387 -206.897653991568 2716.25376033691 16 19 10
162.097947539159 -190.675391905064 2770.65307301992 16 19 10
192.321210325312 -181.377568974691 2803.03236120803 17 20 11
202.099536974643 -177.067510398765 2819.60827976641 17 20 11
186.511477951429 -178.8699293064 2816.93267703939 17 20 11
162.106982471653 -182.760880123744 2807.73359412789 16 19 10
151.990570929242 -183.215770042859 2809.34444127863 16 19 10
148.258736453686 -182.147710774607 2815.72650586353 16 19 10
155.774781767343 -178.424436022736 2830.38490167067 15 18 7
160.134656614652 -175.467020437571 2842.62230210318 15 18 9
162.122072575489 -173.083118218211 2853.04962635319 16 19 10
112.392810279554 -182.797660584 2825.93156827735 16 19 10
124.05456673859 -178.14195539508 2843.42062109345 16 19 10
110.61066343233 -179.339232744629 2842.77746618019 16 19 10
98.7577072299399 -180.154967782984 2843.33190412275 15 18 9
86.0584196616605 -181.154544859862 2843.33736191999 12 15 8
98.693140253078 -176.330460469723 2861.2519320729 11 14 7
108.133205297653 -172.267173790903 2876.78365070812 12 15 8
94.6220718696904 -173.454825823252 2876.20583368188 12 15 8
14.3169251055575 -189.781331651977 2829.41487449003 11 14 7
33.6164366459495 -183.470124721752 2851.82770071266 6 9 2
-1.29945997225622 -187.465358166351 2845.99678517286 9 12 5
0.709301472292978 -185.082024006625 2856.40299700097 9 12 5
-48.9438604339285 -194.217019826123 2831.95786986415 11 14 7
-23.5819532632098 -186.634378740955 2858.08177110237 13 16 9
-42.4743777728294 -188.8861823492 2854.5028052182 15 18 11
-42.9555955631065 -187.060943521875 2863.21302368639 16 19 12
-48.4621306259743 -186.346943756262 2868.57556555182 16 19 12
-90.2388806944989 -193.564422673352 2850.19574356783 17 20 13
-92.4449810588248 -192.10285543951 2857.83838995576 18 20 15
-72.6026898734866 -185.860693680622 2879.72243281337 21 23 18
206.005130819847 -203.494053054658 2730.36409279223 27 29 26
186.662557195149 -206.3292989812 2724.48454551816 28 30 25
177.358114332327 -206.611625191699 2726.68050024392 25 28 21
159.461002419238 -209.040914272558 2722.13940651331 24 27 18
158.693284338468 -207.168088094564 2731.12709061557 23 26 17
195.550299966494 -195.941580038526 2769.38710273298 21 24 15
139.953676081765 -207.713826695037 2735.64635186043 19 22 13
174.641076589292 -197.094823188838 2771.89954697732 17 20 11
180.327825614647 -193.685732225592 2785.58674079003 15 18 9
171.829675520613 -193.774123652959 2788.37061856064 15 18 9
185.522528093977 -188.43750642267 2807.99285236091 15 18 9
168.304134640621 -190.656322647561 2804.163582688 15 18 9
180.515588275425 -185.720011396775 2822.48221394687 15 18 9
156.06418622303 -189.669118525296 2813.33830543278 14 17 8
158.748743370782 -187.05518849283 2824.45626948594 14 17 8
159.064681703734 -185.023439557192 2833.76128735353 16 19 8
153.775589342354 -184.34027209106 2838.91246240239 17 20 11
130.740753748714 -187.879248948711 2831.13508401457 18 21 12
123.793642151388 -187.573679401017 2835.15468684675 18 21 12
114.407759808756 -187.84131620908 2837.42934109259 17 20 11
121.253165210935 -184.283006338455 2851.3611646654 15 18 9
104.539206478631 -186.268729815771 2848.413442169 14 17 8
103.282897472158 -184.62468408307 2856.50320861536 13 16 9
98.7735534835394 -183.744782656856 2862.2679141276 13 16 9
100.830972724511 -181.343965570505 2872.62322407564 13 16 9
72.503450270403 -185.974391948037 2861.76074615264 13 16 9
61.3748230304187 -186.60782525098 2862.98621777081 11 14 7
12.2213477144255 -195.950553489465 2838.07559722398 7 10 3
38.2110345498723 -188.0531721742 2864.94683266599 9 12 5
2.93373169608024 -194.154030518604 2849.8669683933 10 13 6
-12.5173100738123 -195.709028457199 2848.4356461148 11 14 7
4.50465584415483 -189.910165835077 2868.93476727865 13 16 9
-43.555757463472 -198.800873556654 2845.70606804152 13 16 9
-37.3637426676057 -195.45226557108 2858.9004648326 14 17 10
-50.4277831463429 -196.426721674574 2859.26407695107 15 18 11
-71.0994180458275 -199.08318474807 2854.67788314241 15 18 11
-75.8138031771209 -198.174869483901 2860.64199798755 17 20 13
183.648424973409 -216.736691462212 2713.42847757212 26 28 27
164.250147138129 -219.613063034728 2707.61032375513 26 28 25
172.771717116743 -215.338590343816 2724.02257052635 21 23 18
189.158471666408 -209.091625234193 2746.50348377682 24 27 20
193.15277776136 -206.024584988612 2759.08769690759 26 29 20
177.611878686437 -207.903990146475 2756.37698003092 24 27 18
195.787186021618 -201.289543797584 2779.86133899447 20 23 14
174.719684117357 -204.546303974481 2772.92281414583 19 22 13
171.725446529507 -203.264743891448 2779.95745026609 18 21 12
180.61033524382 -199.035083867928 2796.01587729659 13 16 7
174.498232779241 -198.545466833175 2800.59601089576 14 17 8
190.642409864702 -192.563678684373 2821.93975303343 15 18 9
175.812290430022 -194.234398954187 2819.90894940716 15 18 9
174.51724419487 -192.573381168872 2828.03467403228 14 17 8
158.026840602255 -194.62685540626 2824.87497151017 14 17 8
147.102341562966 -195.307339543136 2825.90469490018 16 19 8
151.440611126059 -192.281581002638 2838.15378648235 16 19 10
142.920238329754 -192.375662416293 2840.96057270231 17 20 11
110.127851174112 -198.298784232302 2826.22069966172 17 20 11
123.403716231611 -193.139943929489 2844.86637426397 17 20 11
126.207850033302 -190.512842366363 2855.86365018562 15 18 9
124.165429815033 -189.052374487634 2863.34426009508 15 18 9
110.710591540256 -190.300932472699 2862.71954302275 15 18 11
99.6726596828568 -190.965111660379 2863.85949701362 15 18 11
109.113683559549 -186.804133020955 2879.37548684327 16 19 12
93.1388046244881 -188.623095107714 2877.08644708162 16 19 12
40.0303025870161 -199.091680538798 2849.18440546406 11 14 7
7.34866843400273 -204.728348288707 2835.70946242847 7 10 3
-0.620991077643129 -204.592694412354 2839.35233675792 10 13 6
-27.6889529238313 -208.862364461666 2830.02027122318 12 15 8
-44.0429772477478 -210.631347401208 2828.10034154133 14 17 10
-28.7630001254389 -205.131905687245 2847.53938113262 16 19 12
-26.7565631284237 -202.698597257664 2857.94051499623 16 19 12
-58.7386059066515 -206.030636358324 2854.76619450147 14 17 10
-96.2593954046396 -212.534706593108 2839.13992153717 14 17 10
-4.87780198902676 -189.97301914767 2908.01843686341 16 19 12
158.900801390713 -228.623293908921 2704.33497044042 29 31 28
189.954638910655 -218.466779216264 2738.59639000771 33 35 30
222.750934375491 -207.931914016092 2773.90575951511 17 20 13
197.91905603949 -212.264442069032 2763.77909186058 23 26 17
205.888804332868 -208.170355450925 2779.34905738773 23 26 17
194.294714427307 -209.086581371988 2779.66162762135 23 26 17
193.110772872083 -205.318310878089 2797.28461353484 21 24 15
180.688900212044 -206.42835705649 2797.03058367022 21 24 15
211.848341844523 -196.584464312278 2829.81643286238 18 21 12
187.540853788012 -200.681357051697 2820.55145827168 17 20 11
175.094165098638 -201.787478696132 2820.32149104663 16 19 10
169.004122856733 -201.302293830111 2824.88037359118 14 17 8
190.137419928011 -194.081989248542 2849.58892523261 12 15 6
162.433715099782 -198.945349684357 2838.14141473748 15 18 7
150.715491503465 -199.843066593212 2838.57451593714 15 18 9
145.419799828551 -199.158064708701 2843.73197307566 15 18 9
127.996718448924 -201.429092525561 2840.11367838988 16 19 10
117.810699843282 -201.921055630934 2841.79912578413 17 20 11
136.849547094219 -195.333476056287 2864.42994774337 14 17 8
133.20355626871 -194.257781501434 2870.72563982275 16 19 10
109.974777146001 -197.888536252603 2863.15441495888 20 23 16
107.936056396267 -196.416947376261 2870.62970756281 21 24 17
93.6107176114569 -197.880859636108 2869.48399247335 19 22 15
116.23937326415 -190.550097258372 2894.10855248365 18 21 14
31.8726082090519 -208.594160816033 2844.51947230615 12 15 8
4.95465643953441 -212.953344150873 2835.05133673024 7 10 3
4.43085503400464 -211.073556980934 2843.79577913666 11 14 7
-28.4339301719871 -216.774674853375 2830.51223350411 15 18 11
-20.6668621370802 -212.950513066591 2844.90644897855 16 19 12
-30.3455013637239 -213.204254097946 2847.47009919022 16 19 12
-9.12258821774703 -206.294100614505 2870.71825378184 12 15 8
-33.00593862516 -209.838133021343 2863.78454819741 12 15 8
-82.1604305373889 -219.1625875943 2840.28914562361 12 15 8
-55.7811797313517 -211.109239875448 2866.75014867568 12 15 8
-27.9393503952461 -200.828622659487 2902.76588823526 15 17 12
-97.7657285516513 -214.717877781945 2866.46446129702 15 17 12
166.735192106043 -234.20175657087 2711.5499056949 13 15 14
172.152325525697 -230.645367676428 2725.48306121982 20 22 19
185.418358110007 -225.060463814895 2745.49243692311 26 28 23
212.061030758695 -216.031503701881 2775.79906674269 24 27 18
196.567710396849 -217.986683480752 2773.0519651145 24 27 18
189.661775983099 -217.704572269626 2777.03380768459 23 26 17
189.833217852492 -215.598527904819 2786.47133184456 23 26 17
217.650944501039 -206.415945940948 2817.00531974704 23 26 17
191.842184970312 -210.992298197755 2806.46783735297 21 24 15
201.617284293573 -206.475366458087 2823.01672277257 17 20 11
185.234607437389 -208.618238826659 2819.76359685543 15 18 9
150.470225209227 -215.383324064506 2802.85532010419 15 18 9
145.118925135418 -214.69175412393 2808.06702644904 15 18 9
151.779756729508 -210.988375680944 2822.16069347014 15 18 9
174.553518235485 -203.281981847483 2848.00255237568 15 18 7
162.060056493198 -204.405027941254 2847.82153290983 15 18 9
160.017910667023 -202.923146447673 2855.29836757896 15 18 9
141.821949300114 -205.438536373138 2851.06676144104 15 18 9
106.545181228534 -212.135708533159 2834.65759172551 16 19 10
121.494266231331 -206.459556519555 2854.39943221985 17 20 11
132.469451926632 -201.791038249588 2871.15111902622 18 21 12
140.258053329279 -197.927516828265 2885.51813421138 20 23 16
81.8341066494654 -210.151514882339 2853.23481601141 19 22 15
69.0875383909253 -211.2401172185 2853.30004428547 15 18 11
30.000217440024 -218.660411271319 2835.11371189652 14 17 10
12.1794076562258 -220.918361010633 2831.88843446144 15 18 11
3.38717354439133 -220.996067024604 2834.96276270965 9 12 5
4.51511507330737 -218.704750228215 2844.83999470129 12 15 8
9.82425179535751 -215.432315925742 2857.50545159038 14 17 10
-4.77805330303704 -216.888480363451 2856.63396086189 13 16 9
-4.41511311903264 -214.802036804345 2865.88422135511 13 16 9
-13.2163888574826 -214.877865867285 2868.96725065967 11 14 7
-29.5705500516723 -216.715648172656 2867.05762540825 11 14 7
-54.3693411446991 -220.504337945178 2859.65187904942 12 15 8
-80.0976346062971 -224.47692711183 2851.77941321557 13 16 9
-110.978632281038 -229.608988659611 2840.69255891561 14 17 10
-126.758458194475 -231.216046245042 2839.59575638703 17 19 14
-26.5085926972235 -206.137773936188 2913.46610299845 14 16 13
183.115184676719 -235.307309146149 2735.12389475132 15 17 14
170.689872131105 -236.466527493296 2734.88088621098 30 32 27
179.324833227634 -232.059458207745 2751.1609362071 23 26 17
179.415022561485 -229.924300645309 2760.6748424181 20 23 14
191.31092955556 -224.710152574128 2779.26575199513 17 20 11
204.867267573158 -219.096479381071 2798.98259801703 16 19 10
206.681804905106 -216.569307281061 2809.56041807534 17 20 11
185.592850187947 -219.983669744809 2802.66648973621 16 19 10
214.38278302378 -210.505666183194 2833.60830865746 15 18 9
153.517790720784 -224.126799836292 2796.87059644739 15 18 9
138.597921046945 -225.882030005418 2794.94140666157 17 20 11
143.601757783444 -222.53790833944 2807.89943558845 17 20 11
150.258244904246 -218.793280678383 2821.99098227734 17 20 11
164.198076047213 -213.226963455094 2841.33435099032 18 21 10
156.507421508585 -213.152900623059 2844.70927238656 17 20 11
174.615463384194 -206.590076221646 2866.8511473294 17 20 11
162.114392542349 -207.735603176039 2866.68100647327 18 21 12
117.162221094937 -216.965174979291 2843.24967971942 18 21 12
88.2680210040441 -222.130699094613 2831.61209896101 20 23 14
102.420457050263 -216.590669824596 2850.74789536821 20 23 14
84.7524826469286 -214.913456802876 2865.2107451438 12 15 8
40.7709096902664 -223.653073009655 2843.57734099479 11 14 7
19.6799433059027 -226.756167686651 2838.0563143457 10 13 6
-7.26533010236086 -231.251102609711 2828.6353735864 6 9 2
8.73915583014195 -225.335334560705 2848.71067952818 9 12 5
25.6750299392627 -219.232897443486 2869.25042295308 13 16 9
-26.3188396622698 -229.698369278361 2843.07523113861 12 15 8
-30.1746968513354 -228.582065215387 2849.57332155183 13 16 9
-36.5290434544052 -228.063665484761 2854.38941524967 13 16 9
-28.6477185683438 -224.166899086059 2868.65944105196 14 17 10
-45.0489307300854 -226.03304024196 2866.80072953258 15 18 11
-77.4866895272206 -231.658277051286 2854.49883449315 15 18 11
-123.541165781331 -240.434405511761 2833.51234113909 16 19 12
-75.563759053233 -225.139878670968 2882.80028955622 18 20 15
181.679823846258 -241.079343186815 2744.48755565753 20 22 17
169.247757418407 -242.261402530126 2744.25429186936 22 25 16
184.193619931883 -236.143567948708 2765.35096117031 19 22 13
190.604717711119 -232.328538470652 2779.67611558708 14 17 8
202.584373521573 -227.065376715834 2798.17627930838 13 16 7
209.127272594075 -223.266756494138 2812.37297837348 13 16 7
147.062515480621 -235.373673798889 2783.68773427156 12 15 6
169.495301849384 -227.434768823202 2809.83382148362 16 19 10
159.39568320969 -227.987069378126 2811.44239028315 18 21 12
148.474862572777 -228.742583317154 2812.47955033722 17 20 11
151.139400136066 -225.989439758187 2823.59681843528 16 19 10
138.593548367193 -227.153793428178 2823.47392828201 17 20 9
150.955462420766 -221.937625575706 2841.60178743732 17 20 11
148.886241389455 -220.42995215266 2849.10169614949 17 20 11
145.216649147957 -219.334505633177 2855.41790545209 18 21 12
124.537186943099 -222.543227035869 2849.50386065353 19 22 13
105.409617748841 -225.332944984059 2844.82099110409 17 20 11
110.645159056661 -221.981590626165 2857.54786497773 17 20 11
113.483368693988 -219.24919129955 2868.4957401274 17 20 13
106.543304339027 -218.96867434968 2872.51170986477 16 19 12
65.9725788899634 -227.037031395615 2853.06004702117 15 18 11
62.2273787902738 -225.930418623609 2859.44934783541 15 18 11
23.8841604583908 -233.357202693978 2841.94197908539 8 11 4
-25.3499964942008 -243.401513465811 2817.21517018844 6 9 2
0.545430283866999 -234.97783461478 2844.1022207149 8 11 4
-35.6447965516473 -241.753180080962 2828.61168303588 10 13 6
-32.0550673142797 -238.806807341183 2840.19857225391 10 13 6
-44.2612292673674 -239.70199714013 2841.11549210716 12 15 8
-46.4701103174963 -238.17331019858 2848.75131733571 16 19 12
-40.2875329297419 -234.632777808508 2861.92671926939 16 19 12
-42.4444552972227 -233.110657530999 2869.51158146606 17 20 13
-69.8269395102074 -237.617227796706 2860.52651719758 18 21 14
-120.079218724503 -247.527821916945 2836.7909554944 18 21 14
-151.094472634999 -252.802953797116 2825.85890319585 18 20 15
-154.267079348421 -251.458556327821 2833.06171299834 21 23 18
-85.2503920579188 -233.125842833065 2886.51469690956 12 14 11
189.552052678745 -246.462140903447 2751.63599790885 2 4 1
188.858454654662 -244.499944920789 2760.53687088102 15 18 9
175.658110004666 -245.918720347025 2759.68459594064 14 17 8
187.543236945191 -240.583994758166 2778.26805112376 12 15 6
177.477004052032 -241.157870436317 2779.84665617724 11 14 5
186.324522377949 -236.679309371092 2795.90540509058 10 13 4
207.897733751101 -228.847571925279 2821.50365513453 10 13 4
175.68735639991 -235.304447991136 2806.26506424145 10 13 4
130.628278247698 -245.098095785398 2781.60635829325 11 14 5
165.053369246044 -233.928896429187 2816.62146476433 14 17 8
178.108088808566 -228.431057694364 2835.43663629203 17 20 11
170.435756019698 -228.375255677571 2838.79606286043 17 20 11
161.147497498505 -228.735115317296 2840.98774354467 15 18 7
140.576885675765 -232.009481091931 2834.97531091707 14 17 8
149.773207223362 -227.573788253854 2850.69369113828 13 16 7
127.51185535039 -231.25379446322 2843.58632321795 13 16 7
132.72218299084 -227.864234038996 2856.33258779609 14 17 8
111.541111106052 -229.181754404192 2859.13926172774 14 17 8
119.278285157909 -225.181074828674 2873.53707311717 14 17 10
120.53316830194 -222.841308112545 2883.28108933148 15 18 11
59.4951874388423 -236.188516889208 2849.50848997716 16 19 12
37.650603058649 -239.608427436337 2843.36573306798 17 20 13
19.0252734322107 -242.194715620357 2839.57131253264 10 13 6
-4.61668426255279 -246.006515902871 2832.43713854919 8 11 4
-58.1442785681041 -257.199713102781 2805.05835905214 9 12 5
17.545789193075 -236.368557914058 2865.68541561721 8 11 4
-7.84973007054557 -240.577813620968 2857.51747929675 8 11 4
-19.1656049637521 -241.296822164208 2858.94153858574 10 13 6
-39.6990919767117 -244.260136420751 2854.26317651241 11 14 7
-45.2262745155023 -243.540614755812 2859.64540549235 12 15 8
-44.876577929212 -241.394358367872 2868.89997676389 15 18 11
-87.4085355291236 -249.634339106266 2850.0043030275 17 20 13
-112.400634186087 -253.582199861243 2842.81403933896 18 21 14
-139.171395647977 -257.92463343719 2834.61417532238 17 19 14
-122.831970285675 -251.91024278323 2854.3423050811 21 23 18
177.219724897197 -255.165864251935 2752.4153908256 10 13 6
165.557070192353 -256.179885222396 2752.81050098408 11 14 7
138.162080685118 -261.461422137216 2741.11823791252 11 14 7
152.37192009583 -255.422058214146 2761.54047764626 10 13 4
163.523658010583 -250.247394393784 2779.45894671521 9 12 3
173.176061409433 -245.50875141267 2796.09690217688 12 15 6
160.91234046314 -244.552591844815 2805.29948192367 8 11 2
163.540053037331 -241.740702012551 2816.44463510673 11 14 5
174.194342043373 -236.81540247612 2833.47702491023 17 20 11
184.126504278102 -232.111585275255 2849.84232294738 19 22 13
173.266351511823 -232.911543911073 2850.82580781585 17 20 11
159.966240215001 -234.341005368297 2850.0741820213 16 19 10
143.402384562103 -236.608577274585 2847.01939986483 13 16 7
133.25210420284 -237.184476763041 2848.68176441288 13 16 7
142.527378766756 -232.709704627965 2864.31596721872 12 15 6
129.129679023111 -234.12559568108 2863.65924249469 13 16 7
114.879958293987 -235.74612208952 2862.46192290286 13 16 7
98.9559223822174 -237.780184424142 2860.15418699017 11 14 7
112.433770172487 -232.27256159691 2878.54773984814 10 13 6
57.938950577257 -244.127928868332 2849.39347917391 12 15 8
-9.11727222125824 -259.084987615823 2811.91597724204 13 16 9
-7.25482789216336 -256.485957134234 2822.43560430658 10 13 6
-38.3906760396817 -262.223385822459 2810.27438397473 10 13 6
-21.6338972318142 -255.878400727534 2830.9564610381 12 15 8
-14.7285258524938 -252.040547751519 2844.78708331826 11 14 7
13.8591753327191 -242.814080925962 2873.13307964241 12 15 8
0.0931174409646296 -244.180025936363 2872.83475800148 14 17 10
-26.2438879474334 -248.646547666242 2864.22250796679 14 17 10
-42.6271013412385 -250.618919893915 2862.36162431079 13 16 9
-78.3660704154321 -257.335031358483 2847.83113556211 11 14 7
-99.940690158173 -260.52619755365 2842.80340077952 11 14 7
-120.744591165832 -263.501725396156 2838.39570680504 10 13 6
-83.2980116865771 -252.269620691069 2871.8180424834 13 15 10
-101.564399630379 -254.627826073518 2869.05038633033 9 11 6
124.132349897841 -275.171584540031 2721.65122616053 7 9 6
124.112542633934 -272.945222542744 2731.26088064351 14 16 11
136.712829036341 -267.265641579157 2750.50044959492 9 11 6
165.182205331316 -257.281815309135 2781.68582552454 8 11 4
174.047094380128 -252.707660747326 2797.71285853422 12 15 6
164.747714272541 -253.093686260751 2799.91945042286 12 15 6
152.250530774064 -254.337149262302 2799.7599242823 12 15 6
151.669922169377 -252.35428784601 2808.54554274866 12 15 8
159.898673249709 -248.01454926801 2823.8220074272 12 15 8
172.197349076224 -242.611822141207 2841.98508969753 13 16 9
189.397368126588 -235.935941841986 2863.59468795686 15 18 11
152.002066660534 -243.810122054716 2845.21214870074 16 19 12
140.257919313349 -244.831560230689 2845.68927851749 17 20 13
136.56706278074 -243.716230558606 2852.02332701224 17 20 13
139.367390004714 -240.897619602491 2862.99607791719 18 21 14
125.15018967569 -242.551936528224 2861.77145931101 17 20 13
113.333585047787 -243.563077382638 2862.318680497 16 19 12
108.015881847717 -242.871998341348 2867.49709720428 12 15 8
117.424293205258 -238.364784282363 2882.99463614573 10 13 6
-27.1136694047849 -271.465742820613 2800.44216600949 11 14 7
-14.5835261644325 -266.090308836742 2818.37943163078 9 11 6
-47.3872921011842 -272.330664159523 2805.11499202151 9 11 6
-33.9636809323318 -266.752694518257 2823.55200541792 10 12 7
-19.6204298340268 -260.975783460306 2842.46330863282 11 14 7
-13.4994418757506 -257.313336133877 2855.68218864806 11 14 7
-20.6605431599107 -257.017661749055 2859.91541106138 12 15 8
-27.8285333000681 -256.721000976823 2864.15532842292 13 16 9
-60.9639117935394 -262.917221999076 2851.21366195426 14 17 8
-70.7235605836729 -263.238323978999 2853.86771177879 14 17 8
-93.1213512510016 -266.691542107823 2848.27921973666 14 17 8
-65.0011421468535 -257.611233611173 2875.69379758558 13 16 9
-50.2481047927099 -251.886631279097 2894.20590819751 13 15 10
-59.9674072267846 -252.212554198559 2896.82060602681 17 19 14
51.3872664134492 -303.217637988259 2666.2509999162 4 6 3
77.8778731607765 -293.503366203814 2696.60734465804 12 14 11
122.628906656927 -278.778735971364 2740.68122826858 4 6 1
161.318210690338 -265.833829814754 2779.70159105988 14 17 10
176.500083070763 -259.463759098877 2800.52661868357 13 16 7
174.341992077184 -257.901982383738 2808.10678013907 14 17 8
167.431940622139 -257.648348370265 2812.0972577514 14 17 8
155.734496367264 -258.69845262663 2812.53190969925 14 17 10
159.979586304643 -255.399862834505 2824.83320568735 13 16 9
171.477092749065 -250.15447756121 2842.39786889509 12 15 8
175.834427165791 -246.869949515958 2854.58978277597 11 14 7
177.021226546347 -244.457235285535 2864.39062556312 13 16 9
150.016138180973 -249.615736905869 2853.71024749081 17 20 13
160.898855935134 -244.610407473453 2870.50397578695 18 21 14
150.792741919148 -245.223482122247 2872.12797697569 18 21 14
139.851982469986 -246.048837207267 2873.19525905595 16 19 12
81.6640662168502 -259.352366733909 2840.8374512753 16 19 12
125.236563843345 -245.754018239397 2880.5801272625 15 18 11
105.23580760878 -248.932473945353 2875.40455346328 16 19 12
15.713147500382 -268.113588847734 2831.10374682601 18 21 14
-16.1444887811593 -274.244643082218 2818.30054114735 10 12 7
-28.3062303749979 -275.230744218673 2819.18712542519 9 11 6
-37.1871643574995 -275.359126503542 2822.35702388691 9 11 6
-36.1269261842971 -272.927154967673 2832.28069760254 11 14 7
-48.3401840418045 -273.906024550202 2833.21736947124 15 18 11
-32.2433780318634 -267.649733082121 2853.15067099875 16 19 12
-44.4511925889488 -268.629128419182 2854.08167745396 14 17 10
-45.8026026547516 -266.846133803446 2862.24534407386 15 18 9
-63.5879147763023 -267.097777464662 2868.60732668128 15 18 9
-59.8541335196661 -264.049222433867 2880.03640545871 15 18 9
-64.5285954621428 -263.117959413836 2885.95748431889 17 19 14
160.275663524978 -282.532940808844 2742.11156632707 1 3 2
56.1707290605056 -309.793366020484 2670.97497211682 13 15 12
105.398698257344 -291.27357874157 2728.46378018157 5 7 2
129.843743509424 -282.152982470821 2756.68773907165 15 18 11
143.365603673056 -276.144264836594 2776.38043471633 15 18 9
145.882685367521 -273.236815368239 2787.62132232591 15 18 9
169.102102256031 -264.603256217666 2814.30051353736 16 19 10
194.852091825094 -255.327116051693 2842.62290126998 15 18 11
173.636914002646 -259.045619393139 2835.89926622921 14 17 10
163.552342820971 -259.678569787005 2837.50481269146 13 16 9
139.000666157923 -264.257766431779 2828.55360530341 11 14 7
132.85840729614 -263.784013807624 2833.16602940376 12 15 8
151.710369607049 -256.523303308711 2855.88294241447 14 17 10
163.404761384482 -251.245597767162 2873.2473186545 15 18 11
173.561083451841 -246.415098883375 2889.37129916675 17 20 13
158.614015657164 -248.356868371717 2887.49668794689 15 18 11
96.4020425981524 -262.930812731999 2852.23737254599 15 18 11
78.802855259704 -265.498572492562 2848.83781053234 15 18 11
138.856945593723 -247.405842782357 2899.89030498569 16 19 12
98.3690044075973 -256.06232420864 2880.44336067179 18 21 14
39.6337840761403 -269.468620513534 2848.64388497451 19 22 15
-27.5907544420955 -285.008448595353 2811.4196560936 10 12 7
-34.824680319316 -284.713985064812 2815.7257112101 8 10 5
-33.5503400199966 -280.020096911329 2835.02150896924 9 12 5
-42.4312255118489 -280.15845104089 2838.19283311332 13 16 9
-63.8293568009689 -283.525480202903 2833.01583515701 15 18 11
-37.6798992336727 -274.620679241203 2859.57951971666 15 18 11
-47.3898552555312 -274.974627686986 2862.18874073902 15 18 9
-51.2428865872754 -273.823593416472 2868.67889192464 16 19 10
-72.7536129938757 -277.175366735988 2863.61144777759 16 19 10
-58.923309494332 -271.524685167406 2881.6338628865 16 19 10
-64.4408156234641 -270.804466880796 2887.00638008823 21 23 18
-99.6042937858341 -277.560594217892 2873.32724400299 22 24 19
160.398806698359 -287.807609681788 2752.6882558414 9 11 8
110.230098500593 -299.895602567281 2723.52321251513 14 16 13
155.057695978011 -284.835345515676 2767.47179930514 13 15 10
103.104994028621 -297.343670243776 2737.30659437384 13 16 9
129.213181201886 -287.683380927281 2766.63341883139 16 19 10
153.099272494768 -278.71317047701 2794.01774490668 17 20 11
162.825663247558 -273.777493369202 2810.55310827428 17 20 11
218.034490462435 -256.147728913444 2860.81713373865 17 20 13
178.509187275651 -265.047395750741 2840.45021835854 17 20 13
153.226830255107 -269.922699350922 2830.85110468591 17 20 13
137.477807545881 -272.119878313511 2828.3936866423 17 20 13
135.353914719072 -270.538661421518 2835.937353405 13 16 9
141.309552893379 -266.743285834883 2849.30044361925 10 13 6
151.361852968162 -261.848046118508 2865.51815084108 11 14 7
172.021273485787 -254.087936206753 2889.2002387537 15 18 11
145.700708064829 -259.153189635355 2879.24324655418 15 18 11
100.556130675538 -269.278904094045 2856.13576908 16 19 12
74.8069005680456 -274.091547434001 2846.99100612525 16 19 12
-9.77613225463703 -292.472236669891 2806.16890559851 17 20 13
-38.8653472617682 -293.582119830381 2813.96363738887 11 13 8
-24.5965390942668 -287.600784664568 2832.91864974066 10 12 7
-27.6553933084127 -286.221606472801 2840.0033610542 11 14 7
-26.5439843893405 -283.752285022354 2849.87103900367 12 15 8
-42.9036931258291 -285.866491971917 2848.00777798545 13 16 9
-51.7941804440216 -286.013719308029 2851.18994834108 16 19 12
-48.1392174026585 -282.895361592041 2862.68664012304 18 21 12
-64.5834575115658 -284.998115939806 2860.90562731769 19 22 13
-64.2528387273882 -282.75304046048 2870.1645377102 20 23 14
-41.1292016902705 -274.657627521882 2894.18422102764 19 22 13
-64.3527895672373 -278.490032401753 2888.05489214069 20 22 17
-96.1269110411562 -284.47487630858 2876.56439236062 21 23 18
147.952147534772 -298.974851908756 2744.026247617 11 13 10
160.549907677971 -293.046251444373 2763.23152020767 10 12 7
111.073704889223 -305.048089281671 2734.78332225435 12 14 9
141.841282122437 -293.911143252988 2767.76718587705 17 20 13
160.136023430009 -286.418198826384 2791.00310350823 15 18 9
154.766592469991 -285.722308775001 2796.23217558061 15 18 9
153.371142807325 -283.897129589166 2804.43300146819 15 18 9
163.944938392452 -278.690720820363 2821.50377460679 17 20 13
173.000257468129 -273.944839007657 2837.31666441402 17 20 13
157.311143770376 -276.184745358053 2834.80607092567 18 21 14
164.040144304848 -272.123397429849 2848.77879960567 18 21 14
141.871188863789 -276.153326350681 2841.63139908652 17 20 13
131.715979362161 -276.808064936104 2843.3103107299 14 17 10
128.812645603297 -275.443037952394 2850.24267947471 14 17 10
138.074591047823 -270.722438081895 2865.8541229032 14 17 10
145.782648903111 -266.457963415646 2880.24152046505 13 16 9
99.0115085211412 -277.162125225766 2856.0005818761 13 16 9
90.3955287066398 -277.357432971314 2858.91726848612 14 17 10
36.7778905058369 -289.804084175534 2830.39625454485 15 18 11
35.6956059539946 -285.710636295292 2847.86989463353 16 19 12
15.4205948959478 -288.997029030118 2842.98295081598 11 13 8
-24.7402194147766 -297.597026058121 2824.6197256273 11 13 8
-57.6140576486539 -304.181947831544 2811.47579561586 11 13 8
-39.7603743537189 -294.978433512991 2841.98209116321 12 15 8
-36.1480308828495 -291.824864696747 2853.51590062346 12 15 8
-35.8336984225853 -289.558866043039 2862.78789114034 13 16 9
-56.4241674035304 -292.802954634725 2858.20794916967 14 17 8
-65.3339935148844 -292.95776870918 2861.4104445494 16 19 10
-55.7524369138509 -288.275914675972 2876.7098981506 16 19 10
-68.0213744174525 -289.310242426054 2877.71005742391 16 19 10
-49.8985899716375 -282.447444176892 2898.3757096132 14 19 13
-86.7207345373648 -289.833798752574 2883.60298246128 13 18 12
132.3748149027 -311.147439245344 2732.95365888194 1 3 0
129.234949304647 -309.746962142039 2740.11566772744 13 15 10
141.057675241314 -303.986900108064 2758.69822348901 12 14 9
178.404794886976 -288.605962218051 2805.77657306473 16 19 10
164.360608185557 -290.432034948447 2804.40519695965 15 18 9
140.739024106042 -294.994465290484 2795.94482515236 14 17 8
166.416290693942 -285.392848451973 2824.29132257026 14 17 10
172.283057626611 -281.510920110892 2837.7302086239 14 17 10
179.005204340266 -277.408196565879 2851.70362795119 15 18 11
163.319382139575 -279.683044109683 2849.19493025072 16 19 12
149.192647804609 -281.496600559399 2847.90401310722 17 20 13
117.285900963858 -288.298467833248 2833.83181149638 18 21 14
110.306524608605 -288.054361612875 2837.89220012109 17 20 13
128.435134813302 -280.787683634924 2859.90962115787 15 18 11
129.622912152764 -278.286639452039 2869.69643768897 11 14 7
124.330388519392 -277.597437381036 2874.85012812968 12 15 8
66.8163624047384 -291.355378056342 2843.30720856664 13 16 9
67.944607650694 -288.845944374747 2853.15190138239 15 18 11
90.4210389369426 -280.484263540949 2877.77525314128 18 21 14
59.6135712123287 -286.763499260745 2865.36802503778 19 22 15
13.0360557407734 -297.296782705228 2842.3264676204 8 10 5
10.8515424971101 -295.683025763787 2849.92518410608 9 11 6
1.2351079869517 -296.089170766164 2852.44958935508 10 12 7
-67.2973058289541 -312.39466106057 2815.22035520162 11 14 7
-31.3571832540509 -300.473278612302 2848.61984058839 11 14 7
-37.7265208389019 -299.973818063883 2853.45395759761 12 15 8
-44.9344196531221 -299.69704049835 2857.73644359171 13 16 9
-64.7082939564951 -302.763576007867 2853.73627808444 14 17 8
-60.2098317997859 -299.36299656706 2865.77055984569 16 19 10
-73.3281077389565 -300.639978930626 2866.23307966923 17 20 11
-75.5204142767707 -299.023853753205 2873.83918498697 17 20 11
-72.6262031936158 -296.078059340865 2884.69991017261 20 25 19
-82.3968210324946 -296.462719622361 2887.37390847192 12 17 11
128.542811629215 -319.935971369557 2730.97261371718 0 1 0
135.596939559205 -315.503773076111 2745.98492172485 7 9 4
144.287493522629 -310.615037489723 2762.13857711342 19 21 16
177.500809177034 -298.544094640826 2796.80680780224 20 23 16
182.439480297755 -294.839360106493 2809.77624872446 16 19 10
173.954296298557 -295.075864681115 2812.56914202971 15 18 9
163.865082480323 -295.772505817738 2814.18871216266 14 17 8
160.125730892179 -294.618288943737 2820.56550729498 14 17 10
185.938688531465 -284.928754638334 2848.76426732976 14 17 10
179.886770634813 -284.476874341496 2853.28987639469 14 17 10
176.23910190464 -283.333625860259 2859.57725021738 14 17 10
129.167293847601 -294.60861848365 2834.30200045967 15 18 11
118.175578357479 -295.520749980303 2835.43270815761 15 18 11
110.390279429822 -295.511444678032 2838.91118396588 14 17 10
96.9232128702791 -297.104814495836 2838.34957279938 13 16 9
117.525005883802 -289.077488687896 2862.0497291247 8 11 4
58.4792346129221 -303.477545670334 2829.28860317748 9 12 5
66.0857015344765 -299.112501792368 2843.76235579474 11 14 7
90.9305194133547 -289.963651392105 2870.16824929096 13 16 9
34.2244882905609 -301.319561631881 2848.80390993302 18 21 14
6.53362812681246 -306.748726033731 2838.84451723497 11 13 8
-3.92275014064492 -307.393596156664 2840.82103536047 9 11 6
-15.2289790341191 -308.262215783277 2842.25762848192 10 12 7
-20.7550338037854 -307.540624960563 2847.63843174983 8 11 4
-41.2462712338915 -310.89433188526 2842.97581508202 7 10 3
-40.138226904451 -308.358777064476 2852.83704485553 9 12 5
-49.0223881189436 -308.538130799842 2856.01734372245 10 13 6
-62.9445811961808 -310.069289244657 2855.89848510227 11 14 5
-70.1910043243794 -309.792179230356 2860.21951501585 10 13 4
-81.6499715295063 -310.639715732253 2861.80466346203 11 14 5
-86.3908165565137 -309.684604752681 2867.78813698847 13 16 7
-73.3820219497323 -304.012603556733 2885.2062622227 17 22 16
-98.3989668272742 -308.449073094837 2878.11288736325 20 25 19
139.604006242441 -321.921829225989 2750.03931559971 27 29 24
167.187311569936 -311.347544322512 2780.6003942527 16 18 13
165.75118323933 -309.476738398342 2788.83520888887 14 17 10
184.340041208225 -299.419724521452 2821.31913689056 15 18 9
163.947078206988 -303.176413114896 2815.20158345905 14 17 8
171.35896972503 -298.745414315039 2829.8588042197 14 17 10
171.647623960453 -296.422870693941 2839.14793627195 14 17 10
167.162009664218 -295.502572754122 2844.88344510379 14 17 10
150.645857741587 -298.076119855987 2841.82617759626 15 18 11
151.770336197577 -295.524150090881 2851.66866191756 15 18 11
125.51525084544 -300.877406435417 2841.68921374693 15 18 11
133.910778036828 -296.235396044999 2856.75539163992 14 17 10
123.740797843219 -296.935270704706 2858.45564189086 10 13 6
110.300269664263 -298.558433625737 2857.87208112777 9 12 5
78.1003695965925 -305.498216332248 2844.11136884559 9 12 5
74.3303700909541 -304.331585321432 2850.51676300905 10 13 6
87.7437183036101 -298.317544713826 2868.89951657429 11 14 7
102.88653862419 -291.853743367982 2888.33222296481 13 16 9
30.2022480287265 -310.052179741432 2847.00350884296 14 17 10
-0.791895519018926 -316.472978275207 2834.80291335549 13 15 10
-34.3821950533245 -323.567599120326 2821.0288639891 10 12 7
-26.726534108982 -319.164428819584 2835.44779330388 12 14 9
-45.5510236048422 -322.10867123436 2831.90404694198 11 14 7
-30.3488786731818 -315.651464165976 2851.27881774805 10 13 6
-30.0492714489362 -313.326173525302 2860.55666731219 12 15 8
-35.5687435988084 -312.604586982835 2865.93093457396 12 15 8
-51.9712389219902 -314.851504994912 2864.12977590591 12 15 6
-79.3322716539091 -320.0569950105 2855.22671003342 11 14 5
-79.8780292141799 -317.958378138163 2863.96061229162 10 13 4
-71.9694377859308 -313.586929875247 2878.13340424221 11 14 5
-77.5175734983393 -312.860963240534 2883.53548746958 9 14 8
135.762920043967 -330.690270863382 2748.06465839056 10 12 7
168.842867387062 -318.338010148531 2782.82374712632 20 22 17
180.029900949369 -312.656359273302 2800.63223463019 23 26 19
162.045087611445 -315.757922957299 2796.27759160366 16 19 10
193.932631767638 -303.929261809808 2829.46432348293 15 18 9
168.796482818018 -309.159620806444 2819.77250006705 14 17 8
158.697139590868 -309.886444839051 2821.40658987164 14 17 10
174.923164668103 -302.818803414677 2842.50856710363 14 17 10
192.055298848141 -295.528709370034 2864.09513336136 14 17 10
180.413924181901 -296.733995334571 2864.49738100953 14 17 10
152.657191024029 -302.641849007691 2853.25690407395 15 18 11
155.427684034056 -299.602058911628 2864.22659061409 15 18 11
155.005324104616 -297.506437911324 2872.8383999893 16 19 12
136.785483990893 -300.574598730915 2868.7122050967 15 18 11
95.7683756465313 -310.195718112791 2848.5163953443 16 19 12
86.3251148347408 -310.665460787116 2850.87789841699 16 19 12
111.946347280262 -301.078050809837 2877.86522901678 14 17 10
113.998690371607 -298.2834061057 2888.16703426453 14 17 10
93.9534279848 -301.792769750213 2883.0849016232 14 17 10
44.2580060527207 -313.683210611086 2857.67174573083 14 17 10
-8.94029667759932 -326.477481838121 2830.20295071573 12 14 9
-26.0372844514731 -329.009691040459 2827.71668991331 9 11 6
-39.8777302043993 -330.605583261256 2827.52622261546 11 13 8
-31.3610213079341 -325.930819641093 2842.46722437086 10 13 6
-23.6089473268359 -321.496445201607 2856.78613999881 12 15 8
-20.7939647047235 -318.459433224387 2867.71205830122 13 16 9
-32.1387666890693 -319.359337990627 2869.19157900209 15 18 11
-49.3703328062582 -321.873035227029 2866.83588258154 17 20 11
-59.1028755413312 -322.302459898199 2869.47902573916 18 21 12
-62.1254706558969 -320.885070858456 2876.52208368417 18 21 12
-62.6069173105495 -318.778390901265 2885.19059469999 20 23 14
-72.3582141494363 -319.20500905346 2887.85194615766 15 20 14
-87.2091954841059 -321.007666655958 2887.27860614633 16 23 16
119.36548744904 -343.333545687866 2736.45909912935 17 19 14
123.29394028079 -339.73506164797 2749.03015836326 12 14 9
150.930383570864 -328.940740491186 2779.50594897173 5 8 1
181.893147277915 -317.208107733167 2812.20794730208 16 19 10
138.53400505741 -328.016300220102 2788.84494774196 15 18 9
167.289526160158 -317.023796350999 2819.59709553883 14 17 8
