ply
format ascii 1.0
comment KinectMotionCapture
element vertex 765
property float x
property float y
property float z
property uchar red
property uchar green
property uchar blue
end_header
187.8036140763 548.21421750306 2778.93545530934 141 143 142
175.423864145073 546.830229596641 2779.83527668031 143 145 142
162.312438588364 545.336732535928 2781.43917271939 142 144 141
149.239773929208 543.846215822277 2783.07088797932 140 142 139
135.444057848036 542.246869097463 2785.4132276935 139 141 138
120.172526978845 540.427474865034 2789.15497092382 137 139 136
109.495410081251 539.28095337263 2788.81990239564 136 138 135
96.5791086069778 537.802476510706 2790.56502964947 132 134 131
88.2173113162104 536.99367948117 2788.20469199202 129 131 128
77.6162409624921 535.852870528301 2787.92478016155 128 130 127
67.7887427452752 534.824785582915 2786.97118162179 128 130 127
59.4744848952447 534.019481315362 2784.645324011 128 130 127
51.1724161159832 533.21501513894 2782.32830676283 134 134 134
45.1076546857103 532.742252281559 2777.92943713653 138 138 138
36.8234068011084 531.939010334619 2775.62505035915 187 187 187
32.2377069180826 531.68626964786 2769.82942521046 144 144 144
26.9070481958851 531.322854102639 2764.72823954027 145 145 145
20.8381212121491 530.849335582266 2760.32634638778 152 152 152
11.8453417678408 529.937932072511 2758.74311320855 161 161 161
3.59763230846477 529.136943578096 2756.46551980659 184 184 184
-2.45897203650003 528.664034994091 2752.07256268738 166 166 166
-4.8960540991545 528.735384220379 2744.13045918811 181 181 181
-8.80008722141823 528.587314384181 2737.59418789406 196 196 196
-13.4381664163661 528.329404359871 2731.76056568061 186 186 186
-19.5209803637466 527.853834811435 2727.34859518296 169 169 169
-24.8893767584653 527.486246474919 2722.21973705556 169 169 169
-31.6896133677707 526.901944444771 2718.52247191448 175 175 175
-35.6428854741693 526.749198647855 2711.95048254535 184 184 184
-37.4843323278253 526.918259567937 2703.20562602037 190 190 190
-40.0596612485571 526.977483227812 2695.16324300496 188 188 188
-44.7710099622709 526.712621910498 2689.27647094404 185 185 185
-46.6838127523883 526.875543741052 2680.4798558822 185 185 185
-49.3238983714317 526.92910317947 2672.39050066382 184 184 184
-51.987225523328 526.980640793369 2664.28458139835 183 183 183
-56.064368096634 526.816844462333 2657.6227397111 178 180 179
-54.6099698524749 527.503504010776 2645.09425575041 177 179 178
-49.0588848418156 528.823999336846 2628.12794922832 183 185 184
350.318139931873 561.856400818014 2679.43274966058 210 214 213
293.195681387508 554.172115882417 2718.26780842839 186 188 187
225.510077062673 544.968396411716 2766.72941187264 134 136 135
199.118681518872 541.618670539249 2779.69406717609 138 140 139
187.478479705284 540.363459258746 2779.89532393306 137 139 138
178.172728555559 539.439367239314 2778.08514661561 138 140 137
168.883589262931 538.516591093659 2776.28701825306 138 140 137
153.500281737202 536.720941060022 2779.94785246867 138 140 137
136.645421747404 534.711134630982 2785.01091541262 137 139 136
123.648190093917 533.250547100774 2786.69775974242 136 138 135
112.961333040097 532.119188145747 2786.35570716837 135 137 134
101.544815061345 530.881231465139 2786.7192045088 132 134 131
92.416524740162 529.970709210412 2785.0377410667 126 128 125
82.5542934937751 528.953152886628 2784.05872266539 125 127 124
71.2158021797338 527.721049643896 2784.47910732608 129 131 128
63.6386209861803 527.030670324572 2781.45282332486 130 132 129
58.3012309523792 526.663931380634 2776.34674114956 137 137 137
50.7330645259061 525.974073254626 2773.32699478533 184 184 184
39.473950049671 524.74780298284 2773.80495095488 134 134 134
31.9322320223683 524.059788753049 2770.80438693934 139 139 139
25.8686689983301 523.586346310341 2766.40638262106 158 158 158
20.5371326321058 523.21957375633 2761.30454372407 170 170 170
11.5458424612633 522.318805805809 2759.72244402216 171 171 171
4.7571648233049 521.738760540569 2756.03328531043 169 169 169
-2.02832245356821 521.158834728996 2752.34673444161 162 162 162
-5.1889381144794 521.109908391343 2745.11455340575 199 199 199
-9.81254149793331 520.847360983175 2739.29140152772 205 205 205
-14.4457984368362 520.58394649121 2733.46095271235 168 168 168
-20.5243250967682 520.108246310349 2729.05208949919 156 156 156
-25.1730398134109 519.843291205298 2723.21072168437 178 178 178
-30.5446921041386 519.472063579336 2718.07948485475 184 184 184
-32.3667928467379 519.625943968383 2709.34887032317 189 189 189
-37.7603140749836 519.252705739332 2704.20177004994 185 185 185
-39.6261704005378 519.402792104545 2695.43912246799 185 185 185
-45.0417196203396 519.027451129908 2690.27633745978 186 186 186
-46.2493290060884 519.27817066003 2680.7563402298 186 186 186
-49.5889406990091 519.213364962238 2673.3946151953 187 187 187
-50.1558342707826 519.563316954094 2663.10425805819 187 187 187
-54.2370960901228 519.390524064986 2656.43938467224 178 180 179
-52.0921616724805 520.150232067786 2643.1768184961 178 180 179
-46.5452191119924 521.423373426637 2626.2072691663 183 185 184
357.804905481673 554.6069341095 2673.70713271118 207 211 210
208.838018226214 535.147855281707 2771.88542836271 138 140 139
192.546914570124 533.2668436419 2776.12278604593 133 135 134
180.922196745583 532.031526807532 2776.33536824629 136 138 135
172.392053080249 531.225312290029 2773.85300579015 137 139 136
156.234047591439 529.354649943464 2778.1869015965 136 138 135
140.13223783496 527.488360846486 2782.56155703986 136 138 135
127.124997733955 526.051163343141 2784.24097003053 135 137 134
117.185659548013 525.040992445573 2783.20638704885 134 136 133
108.022695433213 524.138280690021 2781.49982739551 131 133 130
96.6171880358697 522.919781379872 2781.8714050968 125 127 124
83.7397392929633 521.492481472326 2783.64525122314 124 126 123
71.6493607328186 520.173457825684 2784.75517313328 129 131 128
65.5646095509006 519.69837358566 2780.34180075115 131 133 130
62.4557792918976 519.643097659707 2773.14712789637 180 180 180
54.8759793875777 518.957296059199 2770.1192631999 151 151 151
41.3855103854397 517.434878910524 2772.68327269944 137 137 137
31.6261527232129 516.438098143849 2771.77893478701 154 154 154
23.3584489357708 515.651426548581 2769.48691958786 159 159 159
18.0358059915733 515.282133358963 2764.39151495477 166 166 166
10.5145408637415 514.600386674274 2761.40610390592 176 176 176
4.45877713461007 514.126709776113 2757.0137522754 172 172 172
-0.871291466640667 513.756491012053 2751.91266545981 200 200 200
-4.75807497636804 513.592582496161 2745.38881855197 183 183 183
-9.38142294925726 513.324126205439 2739.56582189686 162 162 162
-14.7346227628615 512.951640642836 2734.44824976703 171 171 171
-21.5287585805166 512.372781223133 2730.75514031089 181 181 181
-26.1727672786223 512.102237554124 2724.91686120513 197 197 197
-31.5400514493691 511.728207730767 2719.78907120225 198 198 198
-31.2231715143323 512.17286680945 2708.90482342175 192 192 192
-37.3279295138356 511.694025952685 2704.47692864258 188 188 188
-38.4862740382037 511.929349617966 2694.99256657889 191 191 191
-46.7222995954859 511.14309353528 2692.72351770948 193 193 193
-48.6246433179471 511.273107411372 2683.93431796371 190 190 190
-50.5545404510759 511.40070992247 2675.1251319485 188 188 188
-49.7200916590115 511.931498994079 2663.38148051412 189 189 189
-52.4095801612354 511.952494126764 2655.2564416238 180 182 181
-50.9606956010003 512.577638467815 2642.7233546123 178 180 179
-45.4134644517408 513.803754951111 2625.75377629639 183 185 184
360.616973429333 546.677672584832 2672.00009314149 194 198 197
333.76315307295 543.433153376118 2684.63005972215 171 175 174
278.342968929403 536.324784386255 2722.23168292383 192 197 193
227.835715326894 529.8649021484 2755.98756478287 136 141 137
201.470597813047 526.658544046113 2768.97170130003 134 136 133
184.44075801 524.710805767333 2773.90852650755 136 136 134
174.368736512331 523.703631696859 2772.7774792641 137 137 135
160.49681563068 522.17897478721 2775.06495481076 138 138 136
143.619866757792 520.243099620477 2780.11267400541 140 140 138
130.602432606683 518.829242658632 2781.78481533605 133 133 131
121.411247024052 517.934849176648 2780.0578394721 135 135 133
112.991922573642 517.144796445221 2777.65589409249 135 135 133
100.065704485664 515.737906217478 2779.39448965885 125 125 123
87.9289696177943 514.436769389984 2780.4708974925 134 134 132
75.8265181135322 513.138250179366 2781.57187684979 134 134 132
71.223964612849 512.866673673253 2775.76364426982 127 127 125
65.8669938926009 512.491985759026 2770.64332737394 154 156 153
57.5359581539323 511.708398343999 2768.30541711376 133 135 132
43.2972827660412 510.110292100334 2771.56168908576 145 147 144
31.319192903807 508.821036450559 2772.75316225015 158 160 157
22.3176770267663 507.94069396605 2771.1637531746 162 164 161
17.7330185268048 507.669969716415 2765.3684973794 177 177 175
11.6759738494796 507.195845520227 2760.97521489655 165 165 163
7.07582854744571 506.923667921934 2755.16901950355 202 202 200
0.285629950345534 506.34793542032 2751.47878006107 203 203 201
-5.05221654791477 505.973736328633 2746.37232919783 156 156 154
-10.395310460706 505.599012163748 2741.26177723518 161 161 159
-15.0239090836986 505.324081450522 2735.43494147753 178 178 176
-21.0981959166234 504.847798713798 2731.02914885468 192 192 190
-25.7419267819241 504.571377850594 2725.19104138671 194 194 192
-31.1092269287943 504.19415043888 2720.06322360598 190 190 188
-32.2137792617865 504.414415131632 2710.61778037313 192 192 190
-38.3142283768627 503.9354901999 2706.19300877038 198 198 196
-40.8809778837385 503.952975843237 2698.15663374389 197 197 195
-46.9945036009514 503.472648033961 2693.72237552734 197 197 195
-49.596546017141 503.486971261393 2685.66069437646 196 196 194
-50.8209020304147 503.696977889663 2676.12835093992 188 188 186
-49.9828181445525 504.200176018669 2664.38719490905 186 186 184
-50.5815852887619 504.502693226437 2654.07349167252 182 184 183
-49.8293341478915 504.998743778464 2642.27007744916 181 183 182
-44.2818376573624 506.177818566944 2625.30045320934 184 186 185
335.787780611375 535.454567679621 2683.58697458753 174 178 177
298.960034323063 530.963602090059 2705.03696999705 119 124 120
246.067542568161 524.348748264557 2740.76836121889 132 137 133
211.938779127753 520.192758203772 2760.47119924647 131 136 132
191.035057983691 517.773320893243 2768.77255909457 131 131 129
177.878571274722 516.372838869643 2770.34426048222 131 131 129
166.289259069309 515.177521066422 2770.58271157445 140 140 138
150.919031206073 513.479939651236 2774.25352425342 137 137 135
134.080823926003 511.584861102682 2779.32924022138 134 134 132
123.364696607456 510.499015597658 2778.96619954237 126 126 124
115.696146853443 509.816708054101 2775.8737214069 130 130 128
105.021918521701 508.734032794972 2775.54107025552 131 131 129
91.3685394197952 507.253053830384 2777.98719263964 128 128 126
78.5069619348149 505.875267866545 2779.77279497744 192 192 190
71.6578176895291 505.298090827744 2776.03981725977 165 165 163
66.3010268763094 504.920161450064 2770.91961436368 136 138 135
57.2271684230685 504.044921400183 2769.27778845561 134 136 133
45.9494925708102 502.873281341887 2769.74227132335 142 144 141
33.9634747834543 501.604876279278 2770.92810297796 160 162 159
24.218938673966 500.635568566401 2770.03464868185 166 168 165
18.8964588354121 500.259851194072 2764.93932974778 180 180 178
10.6432235585037 499.489586382389 2762.65788618427 192 192 190
5.31858955019038 499.113470458977 2757.56100362783 178 178 176
-0.738368194312944 498.63865131549 2753.16778064439 173 173 171
-3.89733143274951 498.555595764472 2745.93662461365 204 204 202
-9.24267475964147 498.17748850027 2740.82471934367 210 210 208
-14.5935722927282 497.798811795793 2735.70878482677 212 212 210
-19.949877119646 497.41953274472 2730.58892739616 209 209 207
-24.5955913413547 497.13702163387 2724.7493513025 200 200 198
-29.9649801977637 496.756473527138 2719.62000255167 198 198 196
-33.9167710069914 496.569196319001 2713.04891209807 199 199 197
-39.30131535321 496.18714124303 2707.90827469913 198 198 196
-42.5701856532394 496.094236451639 2700.59768928259 200 200 198
-47.9724240683859 495.710414790195 2695.44451060439 199 199 197
-50.5691646113653 495.711027757815 2687.38630897236 195 195 193
-52.4887650319226 495.805689648349 2678.58471489011 185 185 183
-51.6426423871299 496.281683452645 2666.84924853188 182 182 180
-51.5376516340549 496.658215670173 2655.81105268545 184 186 185
-49.3918169137491 497.317960166565 2642.54833834604 180 182 181
-43.8417465724723 498.450225083102 2625.58034284433 182 184 183
-37.6783873572122 499.671460452641 2607.82234755929 183 185 182
343.255768144588 528.160126475169 2677.8478117255 202 206 205
320.360096700024 525.559273971565 2687.17461312215 127 132 128
268.945570598153 519.30085779637 2721.50885087877 126 131 127
224.724023785102 513.952150892514 2749.94582759058 132 137 133
198.400123373399 510.890301892892 2762.96086970882 129 129 127
185.222604541912 509.512286983634 2764.51714378535 132 132 130
172.083468800713 508.137272403496 2766.10155225744 145 145 143
156.695998706914 506.47064545127 2769.76002246596 138 138 136
139.840194878701 504.612033900861 2774.82316703318 132 132 130
126.834159780566 503.247324006671 2776.5041151972 133 133 131
116.133811533091 502.178578535025 2776.15230524157 128 128 126
105.458608006694 501.111731065049 2775.81902732164 134 134 132
94.0575688522953 499.949528879384 2776.19412930363 130 130 128
82.6860091668649 498.789545986401 2776.59090729998 179 179 177
72.838200437551 497.825822220437 2775.6226167616 129 129 127
65.245288259288 497.154073564751 2772.58531787886 132 134 131
56.9175878609149 496.386200125713 2770.24990507242 138 140 137
47.1216059999633 495.426271643323 2769.31920416081 145 147 144
36.6083205497292 494.371585442234 2769.10336570902 145 147 144
26.1203670736831 493.318816989981 2768.9059006597 171 173 170
20.0599502786409 492.843583201239 2764.51016803644 201 201 199
12.5355377981218 492.176626628933 2761.52225584227 193 193 191
7.20665018210953 491.796984757702 2756.42227189521 193 193 191
0.418199570086486 491.225919456374 2752.73332324471 206 206 204
-3.46740700802384 491.036013173783 2746.2101978359 223 223 221
-8.09012988475044 490.749759058033 2740.38756417684 223 223 221
-14.1635561553868 490.272784302807 2735.98239188875 215 215 213
-18.801367255203 489.985118282895 2730.14851882618 215 215 213
-24.1652884493067 489.601906439397 2725.02312020809 212 212 210
-29.5346426605279 489.218120037337 2719.8937801697 210 210 208
-34.1976132390591 488.928042420218 2714.04165624886 209 209 207
-40.2895126772627 488.448869142572 2709.62308123142 203 203 201
-43.5534675255904 488.344951488886 2702.3160033484 198 198 196
-48.2460236702098 488.052043968306 2696.4424178853 191 191 189
-50.1371393371817 488.132244943012 2687.66110528441 195 195 193
-51.3551827466674 488.303451532193 2678.13314145923 194 194 192
-50.5098327995182 488.751542121482 2666.39697362069 188 188 186
-50.4057632911745 489.102847561717 2655.3579821657 186 188 187
-48.2605624031138 489.729228956082 2642.09493383411 179 181 180
-43.4019711896414 490.721784546414 2625.85999932967 182 184 183
-39.3046208619339 491.616012648653 2610.30776364255 181 183 180
348.392965019281 520.52603993978 2674.12239849062 201 205 204
331.685532170466 518.752729538843 2678.05849578513 118 123 119
294.152512445557 514.383227414876 2700.23287529477 123 128 124
239.827460543879 507.912119845187 2737.39657445539 146 151 147
208.843745476182 504.341488572759 2754.44184913085 145 145 143
191.035419524088 502.41042621276 2760.0491597342 149 149 147
177.114935976147 500.962578951788 2762.30182022371 153 153 151
161.712388549944 499.327111715325 2765.94951838231 139 139 137
142.560583826343 497.219253048275 2773.05238478021 132 132 130
129.546522877309 495.878029471993 2774.72763379647 130 130 128
117.326967538266 494.63475596854 2775.7440019152 132 132 130
106.648620618008 493.583590511307 2775.40852471446 207 207 205
95.2441924063461 492.439753844548 2775.7812629215 176 176 174
85.3678720787458 491.487053550318 2774.79265403013 122 122 120
73.2715533267068 490.253181082588 2775.89840659889 132 132 130
64.188638689346 489.398207331837 2774.25011832248 139 141 138
55.1221054620155 488.544436592781 2772.61400585032 140 142 139
47.5532398376117 487.879375251063 2769.59387822318 170 172 169
37.0389758916767 486.84057631552 2769.3774109111 200 202 199
28.022241266346 485.990456061374 2767.77712252169 180 182 179
21.9573243749411 485.514394700073 2763.37812349072 192 192 190
13.6963958117589 484.759010166446 2761.09117827136 176 176 174
6.1770164581092 484.097310940956 2758.10723580479 131 131 129
0.119966268507632 483.621543343295 2753.71394100182 122 122 120
-3.0379020037643 483.515709551483 2746.48346335914 128 128 126
-7.6603669941413 483.223501945884 2740.6609864918 129 129 127
-14.4544359024099 482.653893301989 2736.9679723967 123 123 121
-19.8083894780225 482.268412140268 2731.84978802344 126 126 124
-22.3027408852321 482.249733063096 2723.86571274301 141 141 139
-26.2483804509965 482.045733019551 2717.29899675261 157 157 155
-30.9201640711518 481.748977424632 2711.44074472157 176 176 174
-37.0209473243959 481.268666252187 2707.01572387335 193 193 191
-41.0005337526869 481.061557671299 2700.42438333248 203 203 201
-46.4048295332309 480.671236495903 2695.26968030488 207 207 205
-50.4085693357539 480.461887439215 2688.66081911913 200 200 198
-50.9224891981639 480.704350214083 2678.40831930037 188 188 186
-49.3771983980442 481.215064112256 2665.94483409384 183 183 181
-48.5777269045888 481.631477929634 2654.17524753603 187 189 188
-47.12929747603 482.134210552898 2641.6415050274 178 180 179
-42.962513984655 482.992541564175 2626.13942109656 182 184 183
-38.8629134489231 483.845355327031 2610.58860686146 177 179 176
354.309432217089 512.952549535214 2669.72716524555 206 210 209
339.912003299089 511.494233589084 2671.63402483183 114 119 115
318.595364604088 509.196928605081 2679.6369650365 130 135 131
271.906355231567 503.823153022766 2709.99020839049 158 163 159
217.752861441402 497.534704915346 2747.27919889356 161 161 159
195.316011317177 495.083619633718 2756.93966273458 160 160 158
179.853550317236 493.475818878602 2760.54377392412 153 153 151
165.205113585506 491.96476218275 2763.50373655338 135 135 133
147.56265113938 490.08717990863 2769.23155603909 133 133 131
133.017553688106 488.58415132003 2772.26647218207 137 137 135
117.763985943287 486.992586194349 2776.02209678691 129 129 127
106.33097948623 485.865238736831 2776.37420153506 192 192 190
96.4307666776567 484.923895884066 2775.36833000203 132 132 130
87.3009916516949 484.075849934062 2773.68610672056 139 139 137
75.1990111153162 482.86295189236 2774.78786118062 133 133 131
64.6209662758452 481.835325926591 2774.52521433096 155 157 154
55.553711754079 480.991936986347 2772.88863156292 169 171 168
47.2439858596174 480.240818676849 2770.56603924897 196 198 195
38.2076514941363 479.399740446696 2768.9518828663 176 178 175
29.1879808801601 478.559822576432 2767.34951779314 124 126 123
22.3869351528618 477.992620987193 2763.65145824525 123 123 121
14.8571613486994 477.335217663396 2760.66000237926 124 124 122
7.3354756155295 476.678384525404 2757.67411813962 129 129 127
1.27606945600878 476.201933181429 2753.27911198047 139 139 137
-4.05916474372647 475.815085858836 2748.17449076239 155 155 153
-8.67680500227408 475.517329178287 2742.35518886194 152 152 150
-16.1875988808502 474.860836130072 2739.37749655978 155 155 153
-21.5348521316672 474.472701475271 2734.26415595448 143 143 141
-24.0219414912863 474.440376740973 2726.28527596939 128 128 126
-26.5323246555929 474.406100627324 2718.28979440106 128 128 126
-29.0655781475793 474.369901659883 2710.27742942747 131 131 129
-34.4611646954085 473.977328710612 2705.12902850284 141 141 139
-37.7395083158467 473.849468076375 2697.81139861593 158 158 156
-44.5631871275212 473.278775064019 2694.09691417741 190 190 188
-46.4614641642009 473.324625696376 2685.31023615554 197 197 195
-48.3872746650931 473.368141259393 2676.50358671028 198 198 196
-45.449459052803 474.023285565297 2662.57993629111 190 190 188
-47.445882983381 474.06088190803 2653.72236215871 187 189 188
-46.6923364386225 474.445585314977 2641.91932300602 177 179 178
-43.215351729827 475.175321052795 2627.15157448544 183 185 184
-38.4215499370428 476.073923347892 2610.86919685531 176 178 175
349.693015628737 504.362674476126 2663.8667491954 170 175 171
334.536666891458 502.841418539699 2666.4584639113 133 138 134
235.89662675551 491.753562726936 2731.99481514125 109 111 108
198.063610415743 487.548253970693 2755.18788348053 152 154 151
181.062809182361 485.791737853257 2760.14643346784 134 136 133
168.698788088142 484.5799856628 2761.05823493926 143 145 142
151.805516823953 482.831892311379 2766.09507283603 134 136 133
136.489680053079 481.267828143469 2769.80569659277 205 207 204
119.712894273811 479.528783080611 2774.92702313485 196 198 195
108.274426026075 478.419678035338 2775.27526091579 115 117 114
97.6172924914893 477.401940128837 2774.95533106818 135 137 134
89.9838181097725 476.742055117037 2771.88839339318 154 156 153
79.3685337659427 475.727513294303 2771.59881710584 172 174 171
67.2883442983552 474.537634434448 2772.71648497341 158 160 157
57.4709633308159 473.615682509348 2771.77075822853 132 134 131
48.4154560032382 472.783615352354 2770.1424541223 119 121 118
39.3764202224856 471.952778022673 2768.52609682121 126 128 125
31.0902145275298 471.211043446915 2766.22089680931 141 143 140
23.5502878257479 470.557940657335 2763.22210267422 152 152 150
16.0181619723234 469.905354913416 2760.22867168249 156 156 154
7.76394471310971 469.165853294808 2757.9466720807 164 164 162
2.4320132775193 468.776136982646 2752.84443057484 165 165 163
-4.35593960696457 468.211788374147 2749.15587675902 167 167 165
-10.4175208481383 467.734443898519 2744.75928931287 168 168 166
-17.2011934951022 467.170183548203 2741.07413325665 175 175 173
-21.8251104546907 466.865705028089 2735.25024719421 174 174 172
-22.1598449382976 467.078558431876 2725.12778718028 183 183 181
-24.6737343849222 467.029813691724 2717.1293960696 188 188 186
-27.2109168109724 466.979102703122 2709.11440389863 187 187 185
-32.6106203347023 466.583064260169 2703.96270645989 174 174 172
-35.8928325862038 466.443434347108 2696.64221250604 151 151 149
-40.6046991835953 466.131173743524 2690.75453045644 136 136 134
-43.2165554611135 466.073980197506 2682.68537278149 149 149 147
-46.5526476482909 465.929641881832 2675.32579626343 203 203 201
-46.4128594290039 466.208563728857 2664.3123314271 194 194 192
-49.797300593164 466.060069631583 2656.91768465395 189 191 190
-48.3388961586841 466.502362572621 2644.39057262406 175 177 176
-44.1612268147686 467.27836268317 2628.89625753482 185 187 186
-37.2904005704475 468.386008886349 2610.41521373949 181 183 180
359.477118877299 497.165060485584 2656.10167412809 188 193 189
343.519111505196 495.583057183852 2659.34668384616 169 174 170
317.580865560322 492.861466101242 2671.4079819619 113 118 114
264.050404547894 486.987803679873 2707.91539208679 118 120 117
207.717279013603 480.784527073546 2747.33015679796 148 150 147
184.567192187306 478.363987239444 2757.70877148033 134 136 133
169.141654794357 476.823730900595 2761.33999150636 128 130 127
154.528327787991 475.374560309416 2764.32571939013 137 139 136
138.445358446871 473.755240024963 2768.71528359839 199 201 198
121.662144678874 472.053496635924 2773.83184481756 137 139 136
112.480458998815 471.222334910778 2772.11207591703 135 137 134
101.811416283536 470.219628634344 2771.78358898835 145 147 144
92.667198551339 469.391308063429 2770.09099579383 167 169 166
79.8017951892209 468.133864795657 2771.87443423113 124 126 123
68.4656453733439 467.051180932364 2772.29697865541 119 121 118
58.6452712095547 466.142204844098 2771.34914780387 121 123 120
49.5868278933309 465.320340070986 2769.7187670139 136 138 135
39.8062787802433 464.414340922331 2768.79952679328 141 143 140
30.7829994061377 463.595096203806 2767.1949448435 148 150 147
22.5107646616585 462.862085472952 2764.89962238273 152 152 150
14.2504321427404 462.129944761806 2762.61322698312 155 155 153
7.4620603711919 461.56800713763 2758.92467619627 164 164 162
2.13261284837385 461.17527046166 2753.82392555602 167 167 165
-4.65357999556693 460.613285315613 2750.13695407958 171 171 169
-11.436233695489 460.051486905601 2746.45225467301 173 173 171
-17.4944839576472 459.573814838269 2742.05808026531 172 172 170
-22.1160005549659 459.26355639275 2736.23590500026 178 178 176
-23.8808045361676 459.286952884449 2727.54616518713 179 179 177
-27.1018393994271 459.141141378149 2720.26969423959 181 181 179
-29.6294977634124 459.076982916774 2712.26153815037 185 185 183
-35.0204951182249 458.678404091046 2707.11643360875 197 197 195
-37.5854135454228 458.611052495146 2699.08095625365 182 182 180
-40.1733148593362 458.541719541479 2691.02880807753 157 157 155
-42.0811776352834 458.55298898103 2682.23530046515 144 144 142
-46.821324264497 458.232238958653 2676.32707461638 173 173 171
-48.7752071136587 458.239560797313 2667.49989159842 183 183 181
-50.7565752815062 458.244551466958 2658.65277207854 188 190 189
-49.2923315659701 458.656664300112 2646.13003467693 176 178 177
-45.1079826256107 459.391608901138 2630.64035381544 180 182 181
-36.8494551246632 460.610346036176 2610.69547923811 178 180 177
351.73046378925 488.178711598445 2652.91051416263 206 211 207
324.222843459708 485.352495794591 2666.30368260838 106 111 107
269.125755908267 479.473014333989 2704.14604445953 112 114 111
215.071946957063 473.700125290021 2741.50961556102 167 169 166
188.072383075959 470.913838398708 2755.27158169354 145 147 144
168.820982605067 468.982325586951 2762.30314223527 197 199 196
155.729982836368 467.731539178789 2763.92278026426 204 206 203
141.918611280403 466.399542737406 2766.25541964958 122 124 121
127.393834702023 464.986884509273 2769.30523009366 134 136 133
115.933372702926 463.913307737447 2769.63770409258 108 110 107
104.502621445126 462.842048251287 2769.99172777943 116 118 115
92.3514963721108 461.689523401381 2771.05845659523 105 107 104
79.4870658687792 460.456285088981 2772.84242840448 154 156 153
67.4063933807112 459.309183901043 2773.96025727455 152 154 151
57.5898125119307 458.41367826485 2773.01495001699 181 183 180
48.5351254352171 457.602558020734 2771.38734662836 212 214 211
39.4968197685333 456.792640788314 2769.77191904397 210 212 209
32.6851892198476 456.231422377338 2766.06621663913 210 212 209
25.1423056175262 455.588027391067 2763.06532815568 209 209 207
17.6072701838272 454.94516821988 2760.06983721413 210 210 208
9.34983964807046 454.220865002218 2757.78558522249 213 213 211
3.28813116063476 453.742763420534 2753.38890169791 214 214 212
-3.50028595719687 453.182857990096 2749.70003385501 215 215 213
-11.0089308031416 452.541669158689 2746.72397695135 215 215 213
-15.6247548464696 452.226002043686 2740.90590094419 213 213 211
-19.5313620803346 451.990557449375 2734.36732105133 208 208 206
-21.3019240935628 451.996579976565 2725.67331911534 189 189 187
-25.9583672811177 451.67733847476 2719.8257793187 184 184 182
-31.3372528909954 451.276634157056 2714.68944407343 187 187 185
-38.1419708508797 450.714601635114 2710.98874862811 196 196 194
-40.6952888041245 450.63395126543 2702.96190782026 191 191 189
-41.1540545172011 450.791505393962 2692.74896034237 175 175 173
-42.352882264703 450.866139449608 2683.23443720172 148 148 146
-45.6879276312423 450.699018992814 2675.87550415024 160 160 158
-47.6431399492725 450.689340565923 2667.04727126223 195 195 193
-48.2318289810311 450.835981121897 2656.74008431852 186 188 187
-47.4673763296183 451.137896831934 2644.9445318993 179 181 180
-43.2852538899189 451.831049494294 2629.45302531556 180 182 181
-35.7184707492069 452.912769582357 2610.2413275768 181 183 180
352.976781646638 479.975053613275 2652.53740680098 197 202 198
322.37495988031 476.89164864354 2668.62666087167 105 110 106
267.274909428365 471.183964048379 2706.46745056098 98 100 97
217.055707846654 465.990895134174 2740.43856413646 156 158 155
193.109341881584 463.605345477552 2751.47515293904 171 173 170
170.789279771824 461.391290097199 2761.22118503028 190 192 189
156.1704630558 460.000855604841 2764.20293633927 122 124 121
142.35751138843 458.695586001742 2766.53456564481 119 121 118
131.614185170157 457.718919067559 2766.1520664369 106 108 105
118.632757711582 456.500752827465 2767.85159547649 110 112 109
106.442066123147 455.366549935551 2768.88944000818 128 130 127
91.2853212889218 453.91184073676 2772.71624128649 170 172 169
79.9194180393346 452.864205885643 2773.11739434185 184 186 183
67.0918950427541 451.657940057117 2774.92855228836 206 208 205
57.27651661803 450.775715701929 2773.98447845748 205 207 204
48.9647487144227 450.055289647464 2771.66056130985 180 182 179
40.664932832426 449.335707774836 2769.34560719072 161 163 160
33.8506835571755 448.77645328948 2765.6383108398 145 147 144
25.5707135351533 448.058299921391 2763.33775064376 156 156 154
18.7676875669354 447.499765059249 2759.63829947564 158 158 156
10.5075193856701 446.782961949883 2757.35210089588 168 168 166
2.98762808719877 446.14607925585 2754.36761853318 173 173 171
-3.07301143569605 445.667451898109 2749.97170726066 180 180 178
-8.41118424205511 445.267327427941 2744.86488853255 181 181 179
-13.0333014916568 444.945235855342 2739.04221790471 177 177 175
-16.9463768217799 444.700510226597 2732.49919661759 170 170 168
-20.156378794002 444.532800242017 2725.23061272812 184 184 182
-26.2444805282582 444.051425380506 2720.81477959585 199 199 197
-32.3336116144988 443.569862578328 2716.39819931241 211 211 209
-38.4237720527236 443.088111835483 2711.98087187779 211 211 209
-41.6823468469019 442.916014254434 2704.67734876607 209 209 207
-42.8416476484366 442.974254462137 2695.19139651403 206 206 204
-43.3291822736759 443.106949992039 2684.95776240107 178 178 176
-44.5543424063068 443.159695141524 2675.42374500383 146 146 144
-44.4130533636635 443.363307427721 2664.41128116564 171 171 169
-46.4038175418842 443.333692044431 2655.55717499084 185 187 186
-46.3371984616499 443.531095513014 2644.49025537745 167 169 168
-41.4621943961016 444.258866838584 2628.26587771525 178 180 179
-34.5875074574196 445.20903780756 2609.78712945357 181 183 180
351.900208301286 471.525560720976 2654.18425071884 195 200 196
312.032071776049 467.568975076155 2678.37364457108 108 113 109
260.802809923647 462.432968371332 2712.8475750841 159 161 158
219.80753843255 458.349662701355 2738.68931614182 212 214 211
194.319950868373 455.867220636223 2751.07822299516 218 220 217
177.337765636604 454.263344961438 2756.05133575028 120 122 119
161.177379201517 452.743170990901 2760.38528085057 106 108 105
147.349842801644 451.463579284321 2762.70617295886 108 110 107
134.32210021715 450.265951440959 2764.37193672927 111 113 110
119.823386508923 448.914456779712 2767.44124498668 151 153 150
106.124468266598 447.644896243485 2769.85542595207 148 150 147
91.7183479311592 446.300638408473 2772.99159930039 173 175 172
81.0992109542372 445.349411642673 2772.69955086035 162 164 161
69.0140495342768 444.244757822352 2773.81404613516 138 140 137
59.1934167240895 443.375296250548 2772.86622793414 136 138 135
48.6524380921076 442.430072591351 2772.63086855325 138 140 137
41.8327595644201 441.872697926415 2768.91935146602 141 143 140
35.0163109133028 441.315510237733 2765.21017673231 155 157 154
28.9379355407977 440.835341526702 2760.80140055664 163 163 161
21.3932554821379 440.20165873694 2757.79925897783 162 162 160
13.8563318047815 439.568514684843 2754.80274289418 160 160 158
5.59908435044543 438.859555164991 2752.518406864 158 158 156
-1.19429410370908 438.303738955497 2748.82625763225 149 149 147
-7.98420645739606 437.74811850065 2745.13632756521 146 146 144
-11.884558729391 437.495825049694 2738.60219668492 145 145 143
-15.7992285186288 437.242267168492 2732.05768032623 152 152 150
-19.0110949283158 437.06293075359 2724.78798045311 160 160 158
-25.1014098464355 436.580913584936 2720.37053968322 157 157 155
-31.9055435664897 436.023603346476 2716.67029168512 153 153 151
-37.2852937721848 435.616257167197 2711.53329603355 146 146 144
-40.5455009062383 435.432616279712 2704.22853113469 160 160 158
-44.5305031969614 435.17277817932 2697.63299743416 209 209 207
-45.0100391618304 435.283692464888 2687.40475691749 206 206 204
-44.1226582495495 435.540004986861 2675.69808682884 157 157 155
-43.9800981796676 435.718538222334 2664.68641735508 142 142 140
-47.3644764446979 435.524379651453 2657.29129040227 187 189 188
-48.6823892276216 435.54966672596 2647.69019002586 165 167 166
-44.4892377014905 436.160429988942 2632.2062613437 172 174 173
-36.2190332128263 437.205810509385 2612.26897357853 178 180 177
293.961679572475 457.551516393259 2694.86623165824 151 156 152
251.24710098213 453.423027806614 2721.93145470591 175 180 176
219.488302606613 450.384693693335 2739.65258776969 142 147 143
195.530364862747 448.123115975192 2750.68141588517 144 149 145
178.544014481985 446.556725289481 2755.65140462673 137 142 138
162.3793328524 445.071243107899 2759.98241176963 145 147 144
148.548097112703 443.81822149442 2762.30075673029 128 130 127
133.245773806113 442.416824638437 2766.02229510471 131 133 130
120.259271825737 441.246520308159 2767.71838794516 126 128 125
107.311481772127 440.079207293717 2769.44226456206 132 134 131
95.9024957575632 439.065507180805 2769.81265236483 140 142 139
85.2716393288415 438.129287184944 2769.5118897793 143 145 142
72.4281111254679 436.970027630756 2771.31168330588 149 151 148
62.5979381527153 436.112996582546 2770.35701220047 171 173 170
51.3056779732777 435.108279191098 2770.8117680744 204 206 203
42.2612053650848 434.32921751224 2769.19173175494 204 206 203
32.4960005135888 433.477091143506 2768.28418227029 198 200 197
25.6914710568994 432.922989947938 2764.58366364869 195 197 194
20.3556827926632 432.516934911218 2759.47854348657 194 196 193
14.2838475040268 432.036564158181 2755.07450733389 194 196 193
7.48275040915214 431.482487110985 2751.37647702693 193 193 191
0.684861593868824 430.928550482585 2747.68077318157 181 181 179
-6.10965125774188 430.374782793215 2743.98751750004 175 177 174
-9.29234182204164 430.186488494189 2736.73892244643 167 169 166
-13.9328533849528 429.850848884781 2730.90314324186 161 161 159
-16.4311251266189 429.73245344427 2722.91572094428 187 187 185
-23.9583900978759 429.104348601916 2719.92623218739 202 204 201
-30.7649353449304 428.549098331898 2716.22424645605 207 207 205
-36.146842352146 428.138351261622 2711.08567006685 208 208 206
-38.7001246240946 428.015140891773 2703.05834507332 215 217 214
-41.2766517299426 427.889968173798 2695.01445394096 176 178 175
-44.580177354457 427.691172539098 2687.6779153051 147 147 145
-45.7968995006242 427.705255379708 2678.15011342914 170 170 168
-48.4450273968731 427.573998416074 2670.05428653788 154 156 153
-51.1160239702786 427.440788860451 2661.94157728723 154 156 153
-52.4197518247391 427.447509613345 2652.3506658261 175 177 176
-46.8249296153742 428.159472753629 2635.41298299726 170 172 169
-39.9245474595828 429.00646129696 2616.95204463048 184 186 183
257.344786424432 445.880503630147 2727.54862927136 183 187 186
236.295133077939 443.964365716709 2735.74704353926 144 150 146
215.32786497956 442.054752567617 2744.00521368093 147 153 149
194.443031925347 440.151638344999 2752.3231756637 151 157 153
176.695276654967 438.549563211236 2757.97606163203 150 156 152
160.53520675325 437.099494378653 2762.31059129047 140 145 141
147.468208351233 435.947014545193 2763.94842084158 141 146 142
132.168432275912 434.578145447369 2767.67197051782 153 158 154
121.449777763385 433.651018337438 2767.3076072849 184 189 185
109.250780598279 432.580287945175 2768.34004690455 176 181 177
98.5869317520782 431.657401960451 2768.01572942792 187 192 188
84.2070590641173 430.374372046786 2771.17124038753 200 205 201
72.112698255467 429.311734609111 2772.27927965042 203 208 202
62.2839174556651 428.467959981779 2771.32568490728 203 208 202
53.9594685368896 427.769593030658 2768.99298123185 175 180 174
43.4287244600604 426.856937386389 2768.76520606182 162 167 161
33.6606663451593 426.017787832233 2767.85535943874 148 153 147
26.118611791226 425.394309890725 2764.8551728339 149 154 148
20.7828606479623 424.984971951382 2759.75006295302 136 141 135
17.6339053471755 424.788258005017 2752.52558618769 49 54 48
11.5521834400618 424.30651875938 2748.11437608259 20 22 17
3.29050527882702 423.612564821738 2745.82719862169 14 16 11
-6.40724445045682 422.778479143283 2744.96864017434 8 13 7
-8.86521049334377 422.649264309443 2737.01038153561 9 14 8
-14.2250793844139 422.237479677083 2731.88777579166 12 14 9
-16.0030440777978 422.175067980049 2723.18776638499 15 17 12
-24.2458933521184 421.482131569804 2720.91424354002 13 18 12
-30.3373998098251 420.998927548528 2716.49593298601 13 15 10
-35.0082562627838 420.654441653961 2710.63781683785 12 14 9
-36.8546130895511 420.586171198785 2701.88849331539 20 25 19
-38.0217304320332 420.584740931711 2692.39627796627 104 109 103
-43.4464382830204 420.167031502572 2687.22663906628 122 124 119
-46.770480610133 419.95502371629 2679.87545498972 156 158 153
-50.1132714934314 419.741422408099 2672.51067161318 175 177 172
-52.7769371020035 419.59463252223 2664.40320794833 167 169 164
-53.3777036736107 419.650510066926 2654.08710048272 183 185 182
-47.7759197685124 420.315899312017 2637.15422842973 167 169 164
-43.6321405719036 420.839339757028 2621.63377190793 186 188 183
232.30136999898 435.544904218547 2750.10092393673 195 199 198
220.566062641668 434.542944735542 2750.2348139027 199 205 201
210.397064903415 433.68583234758 2749.03422660487 181 187 183
193.354776481363 432.190590534581 2753.96402504959 163 169 165
176.372681898274 430.700101028633 2758.93777784117 161 167 163
157.928079143812 429.072903452137 2765.3204135759 156 162 158
143.349580583064 427.803963612687 2768.33230224747 133 138 134
131.090168239128 426.749896076077 2769.32073553829 130 135 131
121.884951329553 425.979349961512 2767.58421537732 101 106 102
111.190464692927 425.069978380599 2767.23775636568 68 73 69
97.5188278429435 423.883102860467 2769.67213301051 32 37 33
79.3993070801782 422.281399559727 2776.29085122916 26 31 27
71.0502076993347 421.588877022013 2773.94030751082 42 47 41
64.945326143548 421.105291458458 2769.51229913019 48 53 47
61.0649219217727 420.829058605088 2762.99250775942 44 49 43
44.5962786322607 419.378705234196 2768.33838117172 39 44 38
30.4003639494166 418.139534207341 2771.62776384603 27 32 26
16.9870773637282 416.972691782594 2774.24952558249 24 29 23
13.8793013765115 416.767808557871 2767.05515367839 25 30 24
9.29116055666057 416.42476609632 2761.25700716919 18 23 17
18.5371209481975 417.37518528751 2742.02687916084 16 21 15
2.2644255440647 415.939914275054 2747.5148757721 22 27 21
-9.60231574912318 414.915984645921 2748.78811734207 24 29 23
-6.99449187745049 415.246682275853 2735.8589365876 30 35 29
-1.5612338010953 415.842672413661 2720.03858167387 32 37 31
-14.1401639508543 414.751642595948 2722.03053357338 40 45 39
-21.6724389870369 414.133113677175 2719.03716694043 42 47 41
-24.2046580726798 413.983391066018 2711.02527128745 42 47 41
-24.6268080016727 414.031921699833 2700.83831514737 26 31 25
-30.7558316583831 413.545021185067 2696.39278885168 27 32 26
-29.819947934977 413.721681378204 2684.72087603117 16 21 15
-37.382016562074 413.100241382247 2681.70619112018 19 24 18
-45.6384480593364 412.413269366618 2679.42285244277 24 29 23
-51.7827107405591 411.924716114209 2674.96627068155 16 21 15
-53.7413987152051 411.829964710658 2666.13508730448 25 27 22
-50.8586630583645 412.191382308691 2652.17002046646 26 28 23
-44.5675398997956 412.87461395233 2634.50162441858 124 126 121
-41.8127227800258 413.225594042503 2620.44377383508 189 191 186
213.306259568427 425.991346942384 2757.27996191736 111 117 113
202.390157421442 425.080515904175 2756.77254722329 43 49 45
192.265317014583 424.240000326648 2755.6043490605 32 38 34
174.521514670871 422.719283331762 2761.26080716176 84 90 86
158.366424439056 421.339731852682 2765.59900939646 88 94 90
139.228676415658 419.693213965967 2772.71469705534 55 60 56
131.52560310127 419.067420301535 2769.59747830813 63 68 64
124.585143288336 418.509651142865 2765.79869676846 71 76 72
100.329357442625 416.40396180178 2777.84743467309 52 57 53
71.6732640918805 413.903698576972 2794.11510589483 62 67 63
58.1198480546341 412.75298625887 2796.63536650352 66 71 67
42.3701066594742 411.40528220561 2801.26787055099 53 58 52
78.5605901343001 414.769044007899 2747.23689204336 20 25 19
-11.3575512379569 406.961226644515 2791.93997515852 25 30 24
-26.1023716081923 405.700374744781 2796.06637119712 26 31 25
-11.6436069107031 407.059222236276 2771.97104521132 25 30 24
11.4096555740955 409.190724227266 2739.28864475311 24 29 23
11.1052437096477 409.226698104117 2729.18727032324 27 32 26
-0.0681323144706703 408.286710388645 2729.72853572705 20 25 19
-65.2102335893141 402.49710006536 2783.75667631381 22 27 21
-28.0679774802763 405.897407387053 2736.59161531085 30 35 29
-41.9966930885831 404.708265354918 2740.07465522631 32 37 31
-7.3692158294234 407.886126184047 2694.79085499631 32 37 31
-17.7970824626157 407.012383235036 2694.63756050414 36 41 35
-18.9834014770383 406.97012621828 2685.13151313473 38 43 37
-29.3893666100846 406.097899046242 2684.99439766214 22 27 21
-46.8153296372644 404.592947707377 2692.11638075234 24 29 23
-34.6736005287247 405.751572192692 2668.81073978654 22 27 21
-49.9527692161521 404.439405856728 2673.78455203791 10 15 9
-51.2171073708589 404.3903803409 2664.22191264491 20 22 17
-53.2090876670057 404.275934772598 2655.36649519866 31 33 28
-44.1324074447644 405.160554009063 2634.77798798701 0 1 0
-39.9931929832498 405.600337203669 2619.25409312788 184 186 181
221.457311391653 418.813429463634 2750.8012260459 170 176 172
212.05525589068 418.048206026167 2748.92204034969 38 44 40
183.511509190993 415.643603641408 2764.03660196819 66 72 68
168.084352094245 414.361697704919 2767.66795643209 56 62 58
142.041698208293 412.169949469407 2780.89128739085 50 56 52
148.02115353916 412.721557726357 2765.46665772036 43 48 44
124.385122691725 410.73515989428 2776.73023685528 50 55 51
108.402505452997 409.404242422302 2781.19400926128 56 61 57
50.2998434824025 404.461147878448 2824.2728233104 21 26 22
43.5394210026438 403.996505830896 2800.84296793062 32 37 31
25.1907426666071 402.615724026783 2767.77256704028 26 31 25
-1.97087731256729 400.438423547854 2753.01194159735 26 31 25
-5.1303541696921 400.206126567928 2745.77995177322 31 36 30
-30.7008836281459 398.046078072434 2760.58073299974 30 35 29
-31.6691304881029 398.001936168677 2751.23276124167 31 36 30
-73.5911794734525 394.433473566817 2782.58074692005 38 43 37
-152.667233774873 387.814938300969 2811.68205146584 28 33 27
-66.3298971870341 395.372786415566 2691.50943869162 18 23 17
-68.2384630209814 395.248156399783 2682.71473305996 22 24 19
-49.2983422236222 396.922079025576 2651.98875167786 28 30 25
-50.6342172863454 396.847427853329 2642.37382937754 36 38 33
-33.3330280316895 398.381318918857 2612.92940999156 11 13 8
131.637200439899 403.638910230169 2770.83556026156 48 53 47
95.9900592851621 400.728643414737 2793.14911360166 50 55 49
105.71096653529 401.542989574168 2774.26259547024 17 19 14
69.3500938733447 398.605684148194 2777.53188530702 29 31 26
53.4451555838484 397.331530253613 2772.17137437214 21 23 18
54.7589315272603 397.455625604243 2760.77313743524 22 24 19
62.6687556850256 398.121696651948 2743.04304873547 25 27 22
-12.7203799429523 391.958937912137 2794.58144636063 22 24 19
-9.17971665089068 392.265697911987 2781.09304845474 22 24 19
-12.25933541832 392.028384579458 2773.91892405528 21 23 18
-9.54238643050087 392.267564996825 2761.0680923966 18 20 15
-19.924011739358 391.429944681041 2760.94879667256 16 18 13
-25.2228350704917 391.010088736101 2755.87040327499 19 24 18
-33.408275706855 390.352825041809 2753.63867786617 19 24 18
-30.810237091119 390.582208097419 2740.70159591553 21 26 20
-35.4251520611386 390.218449066893 2734.884229797 22 27 21
-36.4813518030573 390.147321757844 2725.47206795436 21 26 20
-32.5894159405649 390.483201591496 2711.0034258998 29 34 28
-116.445309719528 383.630713473131 2765.0464415949 26 31 25
-93.6465366131318 385.552559829624 2709.9463626974 32 34 29
-99.6760433426027 385.071540646555 2705.57300813617 48 50 45
-75.8725800304283 387.046333989808 2669.72824614299 40 42 37
204.613065076875 401.690315835611 2766.91164428276 59 66 59
135.212812274951 396.211013179932 2778.33041481901 13 18 12
104.788726356718 393.816912084213 2795.78704148826 34 36 31
110.019575085683 394.220840289202 2781.05431399365 26 28 23
88.7276353480138 392.536808981515 2780.43241999322 23 25 20
86.3592934262773 392.344252447401 2772.53881095438 28 30 25
51.8528106746272 389.630115493306 2794.44550319797 26 29 22
58.4688472091184 390.142403945992 2778.24681455853 24 27 20
59.8116134680176 390.240842922114 2766.86946336542 22 25 18
30.0183077700202 387.896597797154 2784.78390308519 22 25 18
18.8163117735316 387.010883873683 2785.3046961677 22 25 18
-8.54495454951865 384.857573801821 2801.27773589172 21 24 17
0.903199000936716 385.591610989813 2782.19308600178 25 28 21
-10.2229268010037 384.711737211177 2782.76890858896 25 28 21
-8.92200698462142 384.80649490767 2771.36120337021 25 28 21
-11.3013681825949 384.612500526977 2763.45959893989 27 30 23
-19.5027714893135 383.961829861971 2761.21633524566 29 32 25
-24.8015107918405 383.53871721838 2756.13798626641 24 29 22
-27.2238095466575 383.341095057191 2748.20523710938 25 30 23
-23.9233846718601 383.592091230322 2734.5424027931 29 34 27
-7.79286344618013 384.84889747957 2707.95334204502 28 33 26
-26.7775928955329 383.352297519912 2716.41545764984 25 30 23
-44.9726495947036 381.917609776625 2724.21559532913 14 19 13
-49.6145724185708 381.54543909358 2718.37831355727 18 23 17
-49.3160176082363 381.560444645261 2707.47860522297 19 24 18
-80.7834675623149 379.085290128218 2729.11919995543 21 26 20
-92.4147785443257 378.165070452483 2730.56392977069 18 23 17
-114.520676704742 376.423828229676 2742.93797650657 12 17 11
-123.954964333595 375.675733305183 2742.27054844148 33 35 30
-131.27985518809 375.092879285966 2739.42799420505 28 30 25
166.494676418778 390.997383579365 2800.98089766314 13 20 13
92.6564951136726 385.436105566647 2856.11702952984 20 25 19
49.3561279025365 382.136526941978 2875.35099176808 29 34 28
90.737099983988 385.207413508023 2828.78663011571 27 32 26
100.676431090033 385.922916656204 2810.05795143951 29 34 28
108.248609043739 386.460744039786 2793.31748285044 38 43 37
54.5738330834431 382.385450041544 2822.31887082817 27 29 24
67.3652731597421 383.313472213029 2800.71808779143 35 37 32
49.3279163845521 381.934891889999 2807.39749860001 44 46 41
34.3478335498379 380.785237559995 2811.35391109497 30 33 26
16.4402915556305 379.41691230277 2818.12747935261 31 34 27
4.52623960516174 378.467573336516 2809.48592024623 37 40 33
-9.55263223520841 377.385903964918 2812.86065307478 41 44 37
-6.65594072062192 377.572710054553 2800.13985532336 41 44 37
7.92767882666423 378.632187173049 2776.13381738977 41 44 37
5.56002777326325 378.425004564392 2768.24063509218 38 41 34
-23.8189464945302 376.200751802687 2786.45604029295 30 33 26
-26.8786330160875 375.941962219792 2779.29625642245 29 32 25
-29.2319488091213 375.735724355766 2771.41347084635 29 32 25
-24.3805265604657 376.066937286215 2756.4053206816 32 37 30
-25.3610074187014 375.962642979166 2747.0481755533 31 36 29
-17.0343752573627 376.552310716469 2728.38481624341 29 34 27
-22.4043568553995 376.120048236466 2723.25448138101 27 32 25
-34.9198838442799 375.154919436312 2725.29303329841 23 28 21
-51.6674637708723 373.874453425874 2731.67289120888 25 30 23
-51.3201191241031 373.868244416275 2720.80844421231 26 31 24
