ply
format ascii 1.0
comment KinectMotionCapture
element vertex 762
property float x
property float y
property float z
property uchar red
property uchar green
property uchar blue
end_header
231.111831834389 697.031985776152 2824.56351429937 199 198 203
226.099489777928 697.637688976249 2829.45132138901 200 199 204
221.087723857079 698.243083669991 2834.33860196458 203 202 207
215.253589998889 698.987254252015 2838.60508572536 204 203 208
207.766411151828 700.009978175556 2841.63774105693 206 205 210
201.094863965706 700.894480581359 2845.29780048961 206 205 210
194.416301152218 701.779618505249 2848.96507045667 206 207 211
191.053043567339 702.105924404864 2855.09042572252 206 207 211
185.200445698785 702.851361229899 2859.37505736837 206 207 211
181.013440523083 703.316381069733 2864.88099499163 208 209 213
170.13909495784 704.905770992695 2865.52542884577 204 205 209
156.722945930089 706.920859727457 2864.37992721931 198 199 203
139.066941592278 709.645861407294 2860.25485533849 198 199 203
127.249213000301 711.388470567745 2860.39618958784 198 199 203
114.557159673112 713.27621565202 2859.96771872227 207 208 212
105.215168809588 714.600805979098 2861.9634576053 210 211 215
89.9177120391958 716.921926888253 2859.80673447897 189 190 194
76.2745577447688 718.963982116704 2858.88266680209 186 185 190
66.0009772213139 720.44058674622 2860.36411102363 189 188 193
57.4125214180876 721.634534905529 2863.04813446754 196 195 200
49.6648865356364 722.687321915962 2866.33498318139 198 197 202
39.3330572139954 724.171020818809 2867.87355863209 199 198 203
31.5573615482752 725.227286368014 2871.18775799202 200 199 204
23.770526388152 726.284956227488 2874.51281147813 204 203 208
19.4266872777482 726.768450162598 2880.17175705376 208 207 212
12.4907049327629 727.683930068817 2884.08982604723 212 211 216
2.07796600517263 729.177769944268 2885.70724710138 224 223 228
-17.9206789553721 732.26497023612 2881.02042487343 224 223 228
-33.6279454094006 734.636031033628 2879.26360556935 201 202 197
319.068360739292 679.998766097915 2717.06664499662 203 203 201
316.354887128946 680.222487384585 2723.97916429088 215 215 217
316.782373039995 679.918836636767 2733.51858481774 201 200 205
314.885212401925 680.006183448943 2741.0578965107 205 205 207
313.789930217613 679.959532282296 2749.23730736362 204 204 206
313.502731243698 679.777838977538 2758.05148597169 203 203 205
310.86937395308 679.989927139622 2764.88616794686 209 209 211
309.040063194163 680.067495088994 2772.35921117647 210 210 212
304.845228093308 680.541226931575 2777.87163640095 205 205 207
299.063292914808 681.280173323631 2782.08705823416 200 200 202
292.48040231441 682.152306743668 2785.66124633932 187 187 189
288.289062774831 682.624595445158 2791.1704137154 181 181 183
286.507000421409 682.694909668088 2798.5976106775 217 217 219
280.723398200994 683.432709934256 2802.81485730487 198 198 200
270.908943525223 684.841645630266 2803.85038421135 179 179 181
260.264429896991 686.387496285548 2804.27302663925 178 178 180
255.258793703725 686.99365141922 2809.15410791202 182 182 184
249.442296965569 687.734373254575 2813.40324963315 183 183 185
244.43590192562 688.339916427011 2818.2851748995 185 185 187
237.799783360932 689.216047511687 2821.91162830696 187 187 189
230.339263076246 690.228393409502 2824.91934515968 192 192 194
225.324859476313 690.834297531084 2829.80916969636 192 192 194
218.668937907825 691.712112573384 2833.45470104914 194 194 196
213.651773923916 692.318010872268 2838.34726754851 196 196 198
206.160629722762 693.333155962471 2841.38498068357 200 200 202
201.138728845712 693.939238640215 2846.28222373673 201 201 203
192.802603786495 695.093002926512 2848.72161818059 200 201 205
186.943565927824 695.836774923916 2853.01289089263 197 198 202
180.248433593242 696.71829476096 2856.69681154875 198 199 203
176.049922640612 697.18734667725 2862.21391648143 205 206 210
166.836806449704 698.483483757029 2864.08588628696 199 200 204
155.089887031644 700.196278293513 2864.16165041026 192 193 197
137.430001230134 702.881506622946 2860.04597352209 194 195 199
125.60872523295 704.603026330614 2860.19428525116 194 195 199
112.068530942006 706.605978624528 2859.17375616544 204 205 209
99.3362272156642 708.474338886089 2858.78778176757 208 209 213
84.025460058152 710.764822864123 2856.64880417746 188 189 193
71.2188837099794 712.64201565037 2856.33527814773 184 184 186
62.6377113142178 713.824313294021 2859.01379100149 187 187 189
54.8954228729528 714.868288602537 2862.29663298589 194 194 196
45.4305991903601 716.194198401927 2864.41448949863 196 196 198
38.5199226546988 717.100945039099 2868.3087202227 197 197 199
31.6021863589948 718.008509664463 2872.21017833655 197 197 199
24.6769694951028 718.917030372219 2876.11858561464 201 201 203
17.7445241764875 719.826521310374 2880.0340274555 204 204 206
10.8049329865052 720.736959030075 2883.95676316036 207 207 209
0.388348525500959 722.215021337918 2885.57999696165 219 219 221
-18.7442995077172 725.115062239303 2881.47813621896 220 220 222
-34.4533948047849 727.454110681359 2879.72752655322 189 190 185
316.409216403615 673.676974821882 2706.4714659179 189 189 187
316.782869035524 673.399452389361 2716.06048193316 202 202 200
314.843596440093 673.503607004058 2723.63912723643 209 209 211
316.048909136613 673.090559924953 2733.83923231464 199 198 203
314.149271441948 673.189023342627 2741.37902288998 203 203 205
312.265854821708 673.285074985259 2748.90339999992 205 205 207
311.97419525648 673.120114505277 2757.71919709492 202 202 204
310.916656367878 673.081370456274 2765.8602974707 199 199 201
308.295154594505 673.299688958301 2772.68228590047 216 216 218
304.098083830277 673.776415207792 2778.1964885997 197 197 199
298.314005048267 674.512919269112 2782.41440003829 195 195 197
291.72878440388 675.380052271744 2785.99130312909 181 181 183
286.735676769905 675.986161170935 2790.85995019072 180 180 182
282.54486596207 676.460728932537 2796.36859352627 217 217 219
276.751128825599 677.197166306629 2800.59576786797 185 185 187
267.73250280154 678.459690573368 2802.27991186381 176 176 178
258.694814054326 679.724218255378 2803.98235147964 185 185 187
252.875849690513 680.462820414361 2808.23459471876 163 163 165
246.242202289215 681.333699626112 2811.85903260698 183 183 185
242.041202442586 681.807900750809 2817.37784799744 179 179 181
235.398928367046 682.679395741308 2821.01076128888 185 185 187
230.383821080038 683.285624449133 2825.90123662352 186 186 188
223.731070834048 684.157968376764 2829.54442743454 184 184 186
217.07136927493 685.030880745826 2833.19477482886 192 192 194
212.050167238386 685.637170167753 2838.09129336637 195 195 197
205.379864408308 686.510960282764 2841.751700407 196 196 198
199.529223969326 687.251314898928 2846.03513944461 199 199 201
190.360313846489 688.529200803728 2847.86590948675 195 196 200
183.664758760937 689.405571640608 2851.5513488028 194 195 199
177.794355681277 690.14784100129 2855.85379159435 192 193 197
171.920805496777 690.890317160153 2860.15966678484 201 202 206
161.861683546131 692.309398995669 2861.43665231713 200 201 205
149.264877510042 694.137607771341 2860.92239892389 186 187 191
134.112599938394 696.377094016052 2858.63357627482 186 187 191
124.81022174963 697.670213532967 2860.59463055823 187 188 192
113.800834106381 699.237885136594 2861.37637315023 198 199 203
98.5343180295319 701.49093435858 2859.19932426545 202 203 207
78.9814298499412 704.432720090944 2854.0913511729 192 193 197
68.7135400408221 705.876456267154 2855.57234021601 181 181 183
60.9785096971596 706.911555785566 2858.84928664011 179 179 181
52.3784347468546 708.08528123275 2861.54749913486 195 195 197
43.7635613759322 709.26085921808 2864.26047071772 193 193 195
37.7069686622074 710.024759669037 2868.74494334458 193 193 195
31.6469745761454 710.789088917022 2873.23273020844 193 193 195
23.8602880441516 711.83046464345 2876.56004437036 199 199 201
16.0625470520639 712.873233960221 2879.89812980252 196 196 198
9.98460964991077 713.63994318596 2884.40338288484 197 197 199
-0.433783049073266 715.102075992476 2886.03076666652 209 209 211
-19.5680368164162 717.959331047657 2881.93682417093 210 210 212
-36.1498772938429 720.405648243339 2879.62009977817 173 174 169
314.130132065588 667.041000316568 2705.46435869529 210 210 208
317.610803442879 666.281001107209 2717.70768197798 205 205 203
318.793829768442 665.89252307625 2727.92628645741 204 204 206
320.008573594123 665.499797637216 2738.11436059741 208 207 212
318.118276160781 665.607874861785 2745.64345523872 204 202 205
314.671867283173 665.96659970652 2751.84658946152 199 197 200
312.809975319981 666.070375306405 2759.34845067131 201 199 202
310.174047538968 666.298886009275 2766.18325793709 193 191 194
306.758302684175 666.652742696652 2772.35666184346 191 189 192
300.969568017003 667.387533922043 2776.57944980125 219 217 220
297.564774802051 667.739348286203 2782.74261826385 199 197 200
290.977434787002 668.601382305972 2786.32237954848 179 177 180
285.982180575247 669.207702846574 2791.19312691307 181 179 182
278.582731949384 670.198845830141 2794.14333248724 209 207 210
271.172211374404 671.190971827036 2797.1043873816 194 192 195
263.750682626038 672.184072797313 2800.07622945424 160 160 162
257.125535691077 673.04926778384 2803.69340422172 179 179 181
250.493060229014 673.915045872604 2807.31743230071 161 161 163
243.04224631603 674.910836233153 2810.31795748401 177 177 179
238.019927524815 675.518504785107 2815.2153811406 173 173 175
233.813296324475 675.995787622388 2820.73899523078 180 180 182
228.79412864924 676.602528206665 2825.63342693584 183 183 185
222.956514614677 677.339471572776 2829.90443474256 182 182 184
216.294590381471 678.207252051097 2833.55740993432 187 187 189
210.448497944197 678.944851472801 2837.83673995554 190 190 192
203.774394403421 679.81368255784 2841.50199194254 191 191 193
198.746477887558 680.420464633615 2846.40510524325 194 194 196
189.575564148262 681.685217202495 2848.23980600747 190 191 195
181.216698716681 682.820206714739 2850.70455688066 190 191 195
173.675390553744 683.824692747371 2853.79365897538 189 190 194
167.792086195131 684.56568600885 2858.10943937654 197 198 202
156.050364623049 686.235026944143 2858.18612654323 195 196 200
145.954997155038 687.642343738106 2859.50084327807 183 184 188
134.156517577706 689.31829616446 2859.63325264951 184 185 189
124.854176595885 690.598025067238 2861.5962491128 191 192 196
112.15657812867 692.413937547951 2861.18390148068 197 198 202
95.1939017272347 694.902693053617 2857.82183326686 200 201 205
76.4816643025226 697.665821877668 2853.32273412035 190 191 195
63.6580950464971 699.496789414333 2853.03325221301 181 181 183
57.6152195402266 700.256320034051 2857.50441146725 178 178 180
52.4229521694908 700.881580331104 2862.56799652336 193 193 195
44.6641006637987 701.911355243049 2865.86972253 192 192 194
40.3247403443845 702.402009471658 2871.52316231172 193 193 195
32.5512653885975 703.433640939754 2874.83879738029 193 193 195
24.7666084212539 704.466682078082 2878.16532800299 199 199 201
14.3803781519938 705.908661809661 2879.76375263218 196 196 198
6.56770291853537 706.945176126799 2883.11759247301 195 195 197
-4.72551460667603 708.528402689435 2884.17888331742 203 203 205
-24.7382586804075 711.480264839053 2879.52640247759 204 204 206
-41.3314731171823 713.893165326585 2877.22591156948 169 170 165
316.509200857594 659.652138675645 2708.44504453455 211 211 209
319.995172728228 658.920955668118 2720.67884532695 201 201 201
322.744080959401 658.307134267013 2732.20996805524 198 197 202
323.185805509586 658.058062710605 2741.7271826223 209 208 214
319.734666432752 658.423221785933 2747.93406302638 204 202 207
315.506005357847 658.910639904342 2753.47839295954 198 196 199
311.281580421784 659.397183215093 2759.0183077984 203 201 204
307.851623206947 659.758479565711 2765.20506305141 192 190 193
304.429770653478 660.118472388763 2771.38362507469 187 185 188
300.222656364348 660.601876878279 2776.90715194364 211 209 212
296.019800011146 661.08434484344 2782.42625119518 213 211 214
289.428319983594 661.94165255201 2786.01082212016 170 168 171
284.428984125035 662.548487649046 2790.88554656915 176 174 177
277.025485110771 663.532062519202 2793.84089280273 191 189 192
268.807476625228 664.642572329054 2796.16938873558 181 179 182
261.379983139506 665.628464457676 2799.14821934423 149 147 150
253.13404734574 666.741787322558 2801.50403173868 160 160 162
246.491736188033 667.603380225005 2805.13844537754 160 160 162
240.653606305766 668.338678525948 2809.41020856857 161 161 163
238.06489487656 668.565777457075 2816.19833795827 158 158 160
233.043003949426 669.173097225831 2821.09538828951 167 167 169
227.204710999141 669.907649489345 2825.3674236735 170 170 172
219.725068351485 670.897992970691 2828.39738126287 170 170 172
213.055263134714 671.761459777831 2832.05881994652 171 171 173
206.378484807731 672.625556743094 2835.7274277366 173 173 175
201.344062090259 673.233276966615 2840.63686313386 178 178 180
196.310214431385 673.840806757208 2845.54575563534 180 180 182
188.790914587515 674.834911312909 2848.61453752164 178 179 181
181.260604416227 675.830226988847 2851.69407382279 178 179 181
172.88672429876 676.956141139095 2854.17507583556 178 179 181
167.001278787589 677.694704798767 2858.49300368496 191 192 194
153.584896489459 679.602676583253 2857.36356553791 187 188 190
141.807167280456 681.254843287262 2857.47888500622 174 175 177
130.839296760916 682.780130637083 2858.22566485485 178 179 181
122.37138138094 683.916792056536 2860.7981189897 186 187 189
113.044715518287 685.185893691396 2862.78717896679 191 192 194
96.9303714255312 687.505874170911 2860.02489626467 194 195 197
79.0701747784217 690.094348363252 2856.12243122653 188 189 191
64.5525858118603 692.163510822118 2854.64577435106 180 180 182
56.8079676680129 693.183543638978 2857.93446845438 182 182 184
49.9062372834342 694.072991975293 2861.82271004149 189 189 191
42.141467085508 695.09544734112 2865.13105738073 187 187 189
36.0808457956567 695.854325626329 2869.61993487515 192 192 194
29.1574752566013 696.74638411031 2873.52927967686 194 194 196
22.2267102606821 697.639269883329 2877.4455071686 194 194 196
11.8348026924089 699.065807870202 2879.05185172276 190 190 192
2.28574090475808 700.361707699778 2881.25779337951 189 189 191
-9.88441782788252 702.060882727888 2881.75551551421 191 191 193
-30.7776445657106 705.102295945905 2876.54722204923 192 192 194
-45.6415217520929 707.213580347685 2875.40820889036 151 152 147
320.440855533111 652.038312525242 2712.75139577373 208 208 206
320.044719721636 651.936397525453 2721.66195907324 204 204 204
322.793106031789 651.34953170566 2733.18961605368 200 199 204
321.670095644603 651.360686408757 2741.38801773965 209 208 214
319.782981769705 651.489885916866 2748.91082919608 204 202 207
316.340000818032 651.858956874404 2755.10936812879 200 198 201
311.329292954515 652.469407439939 2759.99485078215 202 200 203
306.319183562202 653.07942874571 2764.87980258915 194 192 195
302.101394790018 653.567081433832 2770.41296365369 191 189 192
298.681916951723 653.931833167472 2776.58880202678 192 190 193
294.474890404631 654.417539417852 2782.11156372535 212 210 213
288.677133252822 655.147453250492 2786.34403202028 175 173 176
282.076309169438 656.000218949602 2789.93855303785 172 170 173
275.468513052858 656.85349673341 2793.54025954355 181 179 182
267.246520928914 657.95377641776 2795.8742232963 172 170 173
259.009419100141 659.055679114265 2798.22261348683 145 143 146
249.950262605549 660.282683369372 2799.95225468127 155 155 157
242.490790884696 661.263879476326 2802.96353422008 162 162 164
239.076503651992 661.625264285638 2809.13471587503 155 155 157
235.670364136317 661.985281170706 2815.29767106314 154 154 156
232.272747936125 662.344092580865 2821.45267848364 160 160 162
225.615210020313 663.201236424854 2825.10287008729 162 162 164
217.312627989316 664.309199056798 2827.51572527279 163 163 165
208.995210702546 665.418678095495 2829.94308796232 164 164 166
202.308450859341 666.278562326526 2833.62189234384 167 167 169
196.439471575605 667.013444960368 2837.92435088199 174 174 176
193.87406354828 667.244151667151 2844.68880642146 175 175 177
188.006047659528 667.978454137046 2848.99005620013 169 170 172
180.47374864331 668.966000778088 2852.07271571366 168 169 171
171.265453562151 670.208209223331 2853.94820655656 171 172 174
162.038201512215 671.452466720653 2855.84188125871 189 190 192
148.610308241956 673.335058830028 2854.72762478204 186 187 189
137.659337314019 674.839699506289 2855.46067465572 171 172 174
129.202612314712 675.964440711427 2858.02411622161 175 176 178
121.573195783892 676.962815306483 2861.20161449592 183 184 186
111.400300613901 678.347060062795 2862.59672742199 187 188 190
98.6667506545316 680.118973456146 2862.22658319894 191 192 194
83.3547361200764 682.28082676883 2860.10785582873 190 191 193
65.4469931334822 684.834724380125 2856.25771541214 180 180 182
56.0007287449396 686.104691822334 2858.36541052749 181 181 183
48.2431321488153 687.118223081269 2861.6679533532 188 188 190
42.1861040818117 687.873981748542 2866.15406164437 186 186 188
35.2678875949239 688.759978388227 2870.05884649204 191 191 193
29.2022285456159 689.516825127961 2874.5533646596 193 193 195
23.1330005063075 690.274134833503 2879.05102061885 192 192 194
12.7433628188909 691.684334107115 2880.65786384444 188 188 190
-1.99626533355168 693.750778412732 2879.40175906276 187 187 189
-15.9105039714444 695.691438797951 2878.76186825985 186 186 188
-36.816810126493 698.686205415445 2873.57345719671 185 185 187
323.23425522474 644.767942128614 2706.80100036026 157 158 153
323.595949905387 644.567584190228 2716.39048591936 206 206 206
320.872474050783 644.833313877814 2723.30672876673 204 204 204
320.501661156104 644.74406913632 2732.19027337688 205 204 209
317.808314628841 645.005351886368 2739.07725461223 203 202 208
317.479345075995 644.910124500856 2747.92013239756 202 200 205
314.815960258408 645.166994482145 2754.77767557559 198 196 199
310.589208660933 645.659243199662 2760.31939540899 200 198 201
305.576866579516 646.269604940197 2765.20651399317 194 192 195
302.940572431347 646.521985235367 2772.03815715164 192 190 193
300.316419084734 646.772599114285 2778.85800539023 181 179 182
294.521577090673 647.499799729822 2783.08764206074 170 168 171
286.330644874803 648.586728807001 2785.39273607953 193 191 194
278.924312902796 649.554975108651 2788.35316103775 181 179 182
273.911480001808 650.163275847038 2793.24107162825 178 176 179
265.68541812814 651.253454199241 2795.58056967512 182 180 183
255.833666920959 652.586599267506 2796.66433441031 129 127 130
245.151871632668 654.043389434316 2797.13716117907 150 150 150
238.489824230927 654.896738077499 2800.79239169794 165 165 165
235.06564581133 655.264677022466 2806.97242674931 146 146 146
232.462906057177 655.509583967657 2813.77185445635 149 149 149
227.427090223531 656.118718160962 2818.68246425445 147 147 147
221.574943168024 656.849650791362 2822.96879194992 150 150 150
213.262385030836 657.948151781495 2825.39261414087 153 153 153
205.756020708356 658.925529589608 2828.4510230692 155 155 155
199.061568757827 659.781063300696 2832.13844667395 157 157 157
193.184770907509 660.514101085416 2836.44894183218 163 163 163
190.611212757773 660.753985980594 2843.21979618946 162 162 162
184.735566101665 661.486524826034 2847.52922193783 154 155 157
178.856667960277 662.219355635204 2851.84183330704 157 158 160
168.811820275647 663.572715764775 2853.1143579216 164 165 167
159.578969458768 664.804280114111 2855.01580616581 187 188 190
146.145158673112 666.660800442188 2853.91094142531 181 182 184
136.026824637082 668.02264506135 2855.25552291127 164 165 167
128.406450308819 669.012095858003 2858.42536107829 172 173 175
120.775066191646 670.002698738181 2861.605961851 182 183 185
110.600277210859 671.371083749806 2863.00529942253 183 184 186
97.8646965429242 673.119147934118 2862.64035878378 183 184 186
84.2469053996977 674.997197744544 2861.71534505199 181 182 184
67.1914676399386 677.384414108592 2858.46073552103 177 177 177
57.7488988460453 678.6406017455 2860.56645966347 178 178 178
49.1415189505067 679.772187815861 2863.27849210031 185 185 185
42.2307464631926 680.651925788825 2867.17714781656 183 183 183
32.7396268487479 681.91382124632 2869.33024002813 185 185 185
26.6681677206688 682.668686612124 2873.83081060585 186 186 186
18.8702546806194 683.679103732537 2877.17384852467 183 183 183
7.60752656249908 685.202112422838 2878.21376311237 179 179 179
-7.14348149783151 687.240447964597 2876.97311321047 182 182 182
-21.0690387036436 689.155586481445 2876.34823403383 175 175 175
-35.9018495270833 691.203926679244 2875.18767464317 164 164 164
320.187381787189 638.214093292303 2705.12727160776 196 197 192
322.093304183049 637.804461831235 2716.04806538847 213 213 213
321.700210865953 637.734478193597 2724.95088800471 202 202 202
320.550864963143 637.776183466817 2733.17126372807 205 204 209
317.857146501736 638.045650803128 2740.05740462124 204 203 208
317.527795553428 637.966628957029 2748.89826596626 202 200 203
316.4361139788 638.000134262119 2757.06225426901 196 194 197
313.000839070551 638.378730201554 2763.25173319852 200 198 201
306.414232717099 639.220858205924 2766.83370804673 192 190 193
302.195904916424 639.714062948016 2772.36658378337 187 185 188
298.775838506929 640.089798113306 2778.54138326996 189 187 190
292.181227363046 640.931873809823 2782.13131472448 162 160 163
282.389235948079 642.243024806339 2783.15932565879 188 186 189
274.173322840138 643.321971051599 2785.49006808977 189 187 190
269.14860585604 643.931828936319 2790.38954960492 168 166 169
260.910823298922 645.012634602832 2792.74207174257 186 184 187
249.436652894178 646.567505100907 2792.57033316758 132 130 133
239.546509591853 647.88909676903 2793.69392940829 148 148 148
232.870735636351 648.738809699211 2797.36332795475 164 164 164
230.243898298991 648.995010163367 2804.18501574097 143 143 143
226.816207881154 649.368522139419 2810.36771456695 148 148 148
222.581629397896 649.860119471021 2815.9169650462 142 142 142
215.900572288342 650.709378019014 2819.59167700022 148 148 148
210.031444758028 651.439561835574 2823.89497723255 152 152 152
204.159003043718 652.169927582381 2828.20154160937 153 153 153
199.928876757706 652.659961173727 2833.74660211106 155 155 155
193.229202761272 653.510669105814 2837.43992453262 160 160 160
187.348712959284 654.241354853944 2841.75409564142 157 157 157
180.636670779037 655.093150241511 2845.4595391269 153 154 156
173.917298994673 655.945646804743 2849.17181954217 157 158 160
166.358363337942 656.920217052626 2852.28284753873 166 167 169
157.95401770014 658.017597980051 2854.79831946143 189 190 192
144.516601682084 659.847728950999 2853.70127294745 180 181 183
135.232476626034 661.071912596583 2855.65439029192 162 163 165
127.610134711418 662.053591678359 2858.82733095734 171 172 174
119.977035121357 663.036436991667 2862.01111962698 183 184 186
106.423772540686 664.880064892766 2861.02677777983 182 183 185
91.9866630976021 666.851218077474 2859.48468927576 181 182 184
78.3554689688843 668.704126731137 2858.57670075867 174 175 177
64.6862246796895 670.561537367988 2857.70583122228 176 176 178
56.0899106028177 671.681172996137 2860.40864140774 177 177 177
46.6248050995213 672.926520975616 2862.5383469324 184 184 184
41.419528556613 673.553303347876 2867.61462532675 181 181 181
31.9267860676522 674.801945464142 2869.77162575674 183 183 183
24.1342183917737 675.803668956065 2873.11064056442 184 184 184
13.7460692763618 677.181319723695 2874.72047842898 177 177 177
3.33525851775729 678.561827351528 2876.35239739754 174 174 174
-9.69413683474363 680.321031192618 2876.27791048954 179 179 179
-20.1561366314911 681.70781510559 2877.95973329748 173 173 173
-28.90244285387 682.845724007776 2880.80844927681 160 160 160
317.595419397787 631.683102779126 2694.49629941915 140 140 138
322.560860218968 630.856128444272 2708.10894222487 206 206 206
322.143362534189 630.805745674273 2717.03276389731 204 204 204
323.306331996022 630.527696044228 2727.25530171148 206 206 206
321.38018342932 630.694839038303 2734.81126716326 204 204 204
320.252337412206 630.746983957618 2743.00875020717 206 206 206
317.57629931817 631.021947318961 2749.87652192408 201 199 200
315.698374358971 631.182008491018 2757.38564731094 198 196 197
312.260649601245 631.566410411678 2763.57636301371 195 193 194
305.672112214864 632.403461621139 2767.16134359622 193 191 192
301.451505156646 632.899784203531 2772.69602185387 189 187 188
296.44169876949 633.509177622422 2777.58076557368 183 181 184
290.636889461846 634.232373512743 2781.82122967255 180 178 181
282.435948607267 635.29915865385 2784.13923968249 168 166 169
275.019580250926 636.252630680414 2787.11181455013 171 169 172
269.996585211573 636.862271486638 2792.0096182328 178 176 179
257.743355420629 638.508308468956 2791.18077561865 179 177 180
244.650545088532 640.273590733617 2789.75111517477 159 157 160
233.134060305402 641.811872265894 2789.62350940294 151 149 152
228.870537011391 642.310466736006 2795.20080617513 137 135 138
225.422410910832 642.692170031 2801.40224942079 148 146 149
221.982830461346 643.072547097676 2807.59574056656 139 137 140
216.921504873684 643.684838231982 2812.531215333 142 140 143
211.043832215615 644.413681575787 2816.8431991248 150 148 151
206.800666600999 644.90854329832 2822.40049427687 149 147 150
201.741153915975 645.519957230352 2827.3342984543 146 144 147
197.505007401357 646.013521302016 2832.88481532854 160 158 161
189.974538901577 646.97730861561 2835.96916873041 148 146 149
183.25984373221 647.824308166706 2839.67795549584 147 145 148
176.53777644157 648.67201425343 2843.39362061902 146 146 148
171.469833794575 649.283429477238 2848.33579568238 160 160 162
167.234843320736 649.775963279197 2853.88531686446 177 177 179
160.50134184974 650.624508099862 2857.61255017524 181 181 183
146.233305009554 652.546349841854 2855.90952044485 178 178 180
133.600151349782 654.234313375194 2855.45208896481 163 163 165
124.293404011512 655.447727119988 2857.42926235658 170 170 172
116.652302388662 656.423515525359 2860.62170232899 177 177 179
102.24764553114 658.361329008073 2859.05231552112 176 176 178
85.2628706039411 660.665218540272 2855.73985242219 176 176 178
70.7682552841451 662.613796066182 2854.25786693431 169 169 171
60.4814781509706 663.963204414268 2855.77155298122 170 170 172
54.4308172337757 664.7102716163 2860.25228535129 176 176 178
46.6694862534576 665.700214372496 2863.56202284611 180 180 182
40.6086198453157 666.448437163257 2868.05305646603 182 182 184
31.9715469456852 667.562242886921 2870.79720242236 182 182 182
21.60038055893 668.921772159784 2872.39285453532 182 182 182
10.345095834976 670.406279349511 2873.43106822754 168 168 168
-1.80021412115172 672.016463183155 2873.91726801951 165 165 163
-11.379651166707 673.26229478923 2876.16077281796 172 172 170
-19.2434866977584 674.264688122164 2879.57045865715 156 156 154
-21.0339312284731 674.4065857682 2886.99539924654 156 156 154
322.280641234657 623.97962678642 2699.48450685259 170 170 168
323.385608597397 623.731074559248 2709.75994406334 205 205 205
322.193474711145 623.805784386356 2718.01759298613 205 205 207
322.577868109186 623.658749167701 2727.57699515061 206 206 208
321.429489759691 623.72735322589 2735.79209660856 203 203 203
321.865252254552 623.573206497178 2745.30120173661 205 205 205
317.624897810359 624.076192300116 2750.85484246136 198 196 197
314.17466382971 624.467832214431 2757.05691023511 196 194 195
309.944905069959 624.968787674978 2762.59999153029 189 187 188
304.140067246362 625.6904539707 2766.84071001933 189 187 188
299.123645672173 626.301094120813 2771.73183845133 188 186 187
294.107758793457 626.911313051107 2776.62249817893 179 177 180
288.296871968524 627.632680480685 2780.869267588 181 179 182
280.08994863079 628.689546451259 2783.19468434123 155 153 156
273.467040498394 629.523749480462 2786.81387870043 162 160 163
266.83692786239 630.358624876514 2790.4401278627 172 170 173
254.576071993704 631.981432990337 2789.62262911509 170 168 171
238.254011600509 634.171833699483 2785.66851644368 135 133 136
226.722073531978 635.690644642005 2785.55947159935 138 136 139
223.251997487817 636.080704076767 2791.78181427167 131 129 132
222.223563286343 636.129174919013 2799.88078509806 142 140 143
219.589075735675 636.402320366089 2806.70756519811 138 136 139
214.521733970692 637.01536993514 2811.64890202124 143 141 144
208.638111346796 637.742368738313 2815.96706683936 149 147 150
203.570050559746 638.355096169734 2820.90916527383 140 138 141
200.144227912659 638.738292484364 2827.08824019284 154 152 155
195.081336729399 639.349955423301 2832.02536246585 161 159 162
189.19444943926 640.076363319477 2836.34685648161 144 142 145
180.824326184085 641.148908820186 2838.83201573768 146 144 147
173.267849878295 642.107601257614 2841.94294829585 149 149 151
168.192020299195 642.720010754532 2846.89280824626 166 166 168
165.614225347332 642.984122196274 2853.66462697967 178 178 180
158.876565594715 643.827897077936 2857.39635667848 180 180 182
145.441189879285 645.604286110701 2856.30522714883 175 175 177
132.805941735216 647.268408474946 2855.85306139505 161 161 163
125.177961510773 648.234745796552 2859.03420633292 169 169 171
115.012326891877 649.553976130649 2860.43171852763 172 172 174
101.447901663512 651.345395559676 2859.46651558602 172 172 174
84.4612193460139 653.611916475345 2856.16113177707 172 172 174
69.9649995358298 655.531257790439 2854.68539851304 163 163 165
61.3759807635028 656.628627014347 2857.38425531807 168 167 172
54.475475206925 657.491162132317 2861.27492055279 174 174 176
47.5680799589213 658.354493798629 2865.17264746544 178 178 180
37.2306894997196 659.693902464822 2866.73773339992 181 181 183
28.5859339692727 660.797944379753 2869.49095140888 176 176 176
18.2071334173957 662.142396539628 2871.09641275138 173 173 173
8.66710583751606 663.370005008315 2873.30313889759 154 154 154
-1.75501754046792 664.719682823486 2874.95084809727 158 158 156
-11.3343323447723 665.952113095498 2877.19621221967 164 164 162
-19.1980521216202 666.946472075374 2880.6069705871 145 145 143
-17.5117872273289 666.617325923428 2890.31708250275 149 150 145
323.87622832514 616.731433258832 2701.80516375802 203 203 203
324.210424496155 616.61025791772 2711.41025259039 203 203 205
325.348656545526 616.378727887866 2721.65047944423 205 205 207
324.962114646956 616.356390715192 2730.53975427831 205 205 207
323.819182726396 616.437812025737 2738.74755296752 199 199 201
321.9142046284 616.623573892207 2746.27974396971 204 204 204
316.889435690785 617.236799549602 2751.17877932014 197 195 198
311.079342433805 617.957300342586 2755.42488879301 198 196 199
306.05370889513 618.56986840194 2760.32487989778 188 186 189
301.818443882178 619.073876766253 2765.87297776595 181 179 182
298.379476087009 619.468564991778 2772.0637453539 180 178 181
292.567802437947 620.187731828807 2776.31162133759 183 181 184
284.365695194132 621.233684147493 2778.63353082934 172 170 173
276.148942647802 622.280997950744 2780.97011993816 140 138 141
269.516301046172 623.111166774936 2784.59991387194 156 154 157
262.87631019737 623.941862344634 2788.23659002205 167 165 168
250.605536149505 625.541874559242 2787.43197155494 148 146 149
233.46868425926 627.806042842517 2782.85948459396 102 100 103
222.732092594508 629.194627716232 2783.39646784512 122 120 123
218.442946228039 629.70181854497 2788.99793816899 125 123 126
218.213870943094 629.654499915703 2797.73453857633 135 133 136
214.756230899996 630.047958014264 2803.94369195274 147 145 148
211.307135969466 630.440148921222 2810.14488503841 148 146 149
207.049441028594 630.94256227236 2815.71549189883 139 137 140
201.977341111894 631.555798900253 2820.66152598973 135 133 136
196.905901826607 632.16877533858 2825.60694251978 161 159 162
191.012425197805 632.893596203709 2829.93521440874 159 157 160
185.115718880806 633.618647315874 2834.2666593954 145 143 146
180.042350988588 634.231218228658 2839.21405099714 146 144 147
174.140867712247 634.956471808574 2843.54987180841 155 155 157
168.23640793819 635.681851710107 2847.88896749763 173 173 175
162.328697755867 636.407405501943 2852.23126518939 179 179 181
154.748894378811 637.36042923869 2855.36619970565 179 179 181
143.812935197952 638.769711855733 2856.09843657207 173 173 175
133.688641867519 640.068162693342 2857.45796745671 161 161 163
125.222244233361 641.140579593351 2860.03874760144 168 168 170
114.214354940626 642.558235555911 2860.84083671347 169 169 171
98.1159489030814 644.667339206927 2858.09389479007 167 167 169
85.3518668907483 646.322569369362 2857.77131507753 169 169 171
70.8575774928954 648.212136981152 2856.29772758388 161 161 163
61.4207248230207 649.414047277448 2858.4061355399 167 166 171
52.8167524480008 650.502628282986 2861.12114038829 173 173 175
45.0516143849469 651.476952492823 2864.43696678688 177 177 179
35.5640869492557 652.68491037349 2866.59446386214 179 179 181
26.9156023448263 653.778749039855 2869.35289293238 173 173 173
18.252153317639 654.874297303005 2872.12592921797 168 168 168
8.71220438484066 656.08862787102 2874.33453973439 151 151 151
-2.57313599794262 657.539242973987 2875.40760837575 157 157 155
-13.0196862014369 658.875783751358 2877.08151542271 160 160 158
-20.8872018022688 659.862601494758 2880.49715769093 143 143 141
323.155040837944 609.802718187686 2702.1284653378 205 205 205
324.261038876211 609.597142239643 2712.39652719723 202 202 204
326.174959599667 609.283434175118 2723.29553892627 206 206 208
325.789949577574 609.277061343529 2732.18093306173 205 205 207
324.648573766339 609.371790343032 2740.38521964075 198 198 200
321.181245107104 609.77724810294 2746.6025582535 204 204 204
316.938164451931 610.286074726861 2752.15770503326 195 193 196
310.341984284304 611.108993410758 2755.75236379164 196 194 197
306.101928809172 611.616731036749 2761.30466747632 190 188 191
301.866362663363 612.123489929662 2766.85265784694 181 179 182
298.42715399829 612.523633652702 2773.04285830212 174 172 175
291.821402664543 613.346238782589 2776.6467298711 178 176 179
282.821863440272 614.488006420191 2778.32976816964 174 172 175
273.005863660433 615.738097976102 2779.39030648184 138 136 139
263.167164028309 616.990579458467 2780.47303285283 151 149 152
251.703080331444 618.459263256611 2780.30401638442 162 160 163
241.011887097146 619.824303313308 2780.79973607869 138 136 139
226.267533806193 621.729077978375 2778.15530881396 106 104 107
219.549732563816 622.563037244799 2781.86876946219 115 113 116
215.252546403917 623.074013152091 2787.47766398682 122 120 123
215.015269018088 623.043899024332 2796.21952854179 146 144 147
210.73685902834 623.551977177596 2801.81020633868 154 152 155
208.092807992425 623.842308805922 2808.64394301087 126 124 127
204.644029519979 624.239662112949 2814.84372100652 134 132 135
200.384990940542 624.744767472707 2820.41560208419 154 152 155
194.488540843629 625.467617475588 2824.74678012152 159 157 160
188.589114787507 626.190534763372 2829.08124122765 148 146 149
184.335696846964 626.694295933107 2834.64740175651 144 142 145
178.433702272566 627.417124241646 2838.98442659035 145 143 146
173.356976602181 628.030000518068 2843.93510738284 171 171 173
166.619813924365 628.863511128573 2847.66786053382 182 182 184
159.043164662515 629.808294385059 2850.80088090644 177 177 179
148.952684633299 631.086901710678 2852.13010538752 177 177 179
138.839399294342 632.368102201729 2853.48125476758 169 169 171
132.894581908187 633.095162667496 2857.85983993355 161 161 163
125.266535033564 634.04552783944 2861.04341173278 169 169 171
111.732402515208 635.779951547464 2860.056213783 163 163 165
96.4724824525445 637.742868174342 2857.91549642948 162 162 164
83.7044995153686 639.374425929389 2857.59995132245 167 167 169
70.9022929615939 641.010003270968 2857.31779667949 160 160 162
61.4654339044929 642.198646386517 2859.42817186164 168 167 172
51.1579686959389 643.502439333074 2860.96880556766 171 171 173
42.5353453413324 644.582521326868 2863.70358726472 175 175 177
33.0420733181196 645.777758511632 2865.86866891362 178 178 180
24.3878618719675 646.861586810973 2868.63426435022 169 169 169
16.5781131324136 647.833338238537 2871.99477006613 164 164 164
5.31165046591919 649.262939356243 2873.05219871401 146 146 146
-5.11796006458054 650.581423035523 2874.71195324648 156 156 154
-18.1661568713998 652.246478167633 2874.66971375663 153 153 151
-25.1777874378711 653.111805243864 2878.67065296068 144 144 142
322.902573453025 602.846058525351 2693.48831953515 183 183 183
323.97842899908 602.666159952021 2703.78251823016 204 204 204
325.860280354825 602.381025772673 2714.70915210766 201 201 203
327.77763676538 602.091061804055 2725.60124278162 206 206 208
327.395903197024 602.10056435743 2734.48069913313 205 205 207
323.917997691352 602.513252379538 2740.70747208114 196 196 198
318.884337821938 603.128129599596 2745.61509215804 203 203 205
316.203091740334 603.436300302741 2752.48312745298 194 192 195
311.176389887726 604.049592728305 2757.38407234827 189 187 190
306.938031047476 604.559888001356 2762.93431323031 192 190 193
302.704286098553 605.069234769225 2768.4804504807 183 181 184
297.683184944862 605.680759698822 2773.3760950343 164 162 165
290.281744849172 606.601568053507 2776.33867359487 168 166 169
280.482426408356 607.833988891388 2777.38525881523 174 172 175
269.863012718603 609.172525223327 2777.81361759963 138 136 137
258.417405019239 610.617958932923 2777.62935270351 145 143 144
243.735982636132 612.483651578834 2774.92854826435 150 148 149
232.221825180238 613.936724604401 2774.81122520225 121 119 120
222.287917892494 615.18387168956 2775.98928260428 105 103 104
217.174795102345 615.803931029619 2780.97504462108 113 111 114
213.680697047967 616.213294216571 2787.21838841851 130 128 131
209.383744747605 616.726848308427 2792.82633182062 154 152 155
205.09159820427 617.239370738554 2798.4299933561 144 142 145
203.248672997736 617.433703185837 2805.89929819166 129 127 130
201.421949519492 617.6256983037 2813.35285992779 144 142 145
198.792559594491 617.921965551135 2820.1711606182 166 164 167
192.071357824973 618.74927724886 2823.8889805479 153 151 154
185.343311035212 619.577143988108 2827.61385349099 147 145 148
179.432603715394 620.298665992671 2831.95938543899 142 140 143
174.345395412467 620.913099646793 2836.92024546082 151 149 152
169.258826482375 621.52727579133 2841.88050863576 178 178 180
163.34255234948 622.24889685496 2846.23189171255 184 184 186
156.590431735953 623.078750081244 2849.9800388746 175 175 177
146.494125059176 624.34199345874 2851.31732008766 176 176 178
133.866145311997 625.933257557761 2850.86870512811 168 168 170
127.909848817525 626.659098512426 2855.25920730353 160 160 162
117.74949896098 627.929720962329 2856.65865587516 168 168 170
107.566532670935 629.202899728902 2858.0801850771 161 161 163
91.4529042509882 631.244221250194 2855.35837737363 159 159 161
81.2112685961983 632.524324471799 2856.83714269062 167 167 169
67.5555750787105 634.246344488932 2855.97282771207 161 161 163
57.2610518536409 635.532702247334 2857.50318675037 169 168 173
46.9441648470434 636.821571433702 2859.05572000836 170 170 172
38.311735454863 637.892170345834 2861.80130299902 174 174 176
32.2314931214831 638.632221391076 2866.31278497956 178 178 180
26.1480620015373 639.372674433533 2870.82737405728 170 170 170
18.3422986157273 640.335844714704 2874.1851905477 164 164 164
3.63397549547173 642.192128537396 2872.92906103389 144 144 144
-9.38921762726519 643.830077176374 2872.86633668596 155 155 153
-23.3121588978857 645.58413689204 2872.26266722347 151 151 149
-32.0700074328863 646.669839254035 2875.1305609937 146 146 144
324.494803726446 595.594573141823 2695.81279634441 205 205 205
324.801863960475 595.53378260312 2705.43590671592 201 201 201
325.911036801097 595.370958563869 2715.69483507822 203 203 205
327.827894984972 595.105352561151 2726.58382040192 205 204 209
325.889684709706 595.328444352084 2734.14349410087 203 202 207
322.40737410397 595.747125876996 2740.37341769928 190 190 192
318.151652069427 596.263429992389 2745.94035022764 193 193 195
317.03588651351 596.381230508889 2754.11579548441 193 191 196
312.010841752901 596.99443196933 2759.01510830745 183 181 186
309.349807963373 597.307543632861 2765.86234222578 193 191 196
301.962484408074 598.21949611415 2768.81221174728 183 181 184
295.355930386462 599.032046759532 2772.41870428759 171 169 172
287.9484399806 599.945716029202 2775.38834604925 162 160 163
278.14318806083 601.162845355581 2776.44308338065 157 155 156
267.517822607818 602.483438883854 2776.88000429249 129 127 128
252.868580258468 604.313362534453 2774.15219340399 139 137 138
236.570689215053 606.35163008177 2770.19690326782 135 133 134
225.842445173043 607.683777839025 2770.73427642936 100 99 97
219.114002049571 608.508818107847 2774.45962284678 104 102 103
213.992864237346 609.129946837619 2779.45318584365 141 139 142
209.681449899238 609.648331509276 2785.07477630544 155 153 156
204.563633810118 610.268451794806 2790.06518982978 123 121 124
202.698688935709 610.47645636609 2797.55467762908 132 130 133
200.849690983589 610.682404643518 2805.02829597616 151 149 152
199.016937815422 610.885951194851 2812.48613798669 161 159 162
194.743756630592 611.398395562334 2818.07064033645 157 155 158
187.192070936713 612.325407495456 2821.18149811088 146 144 147
180.45225230527 613.149510036837 2824.91861701358 142 140 143
175.354539572714 613.765562785355 2829.88966878786 154 152 155
171.084067381808 614.276663171059 2835.47167970653 158 156 159
166.818060030602 614.78714172395 2841.04934887999 183 183 185
162.556856282392 615.296824761968 2846.62270342341 182 182 184
154.1380847545 616.332220031805 2849.16166192135 174 174 176
145.704267836019 617.369171237139 2851.71499290597 173 173 175
132.238216029289 619.042340089747 2850.669581086 164 164 166
126.277989133814 619.766081905545 2855.06429645953 162 162 164
116.11378967738 621.021091169051 2856.46987536288 162 162 164
105.926972171922 622.278833859371 2857.89751032399 154 154 156
90.6537790289024 624.179088779238 2855.77923470841 152 152 154
80.4102490248089 625.443391292871 2857.26221648 167 167 169
65.9049010360269 627.246063644609 2855.8127912541 159 159 161
54.7566322467308 628.624216911563 2856.76011776256 166 165 170
46.1373490243129 629.682649051089 2859.49478249799 172 172 174
38.3568263383043 630.634912424723 2862.82914663656 168 168 170
33.1321603575541 631.264316050188 2867.92429160922 171 171 173
23.6205498309943 632.435139178381 2870.11152989193 171 171 171
14.0899807201333 633.608188468794 2872.3169274613 159 159 159
-3.21185652701406 635.762463967201 2869.34142482198 143 143 143
-14.5238096563309 637.160236738091 2870.44873038767 155 155 153
-27.5928665195906 638.779626142881 2870.43395461679 147 147 145
324.546536676339 588.542632900074 2696.80369844842 208 208 208
326.397733171124 588.310248410188 2707.75297667495 200 200 200
327.510133999789 588.168613060155 2718.0052300764 204 204 206
328.654338439894 588.022601508693 2728.2268866642 205 204 209
325.161640402469 588.44841741033 2734.46640852005 202 201 206
322.457048573975 588.776527275755 2741.3543416453 188 188 190
317.418922518593 589.392173920413 2746.26628299027 191 191 193
316.301011090124 589.523794750426 2754.44215433589 196 194 199
310.487972364722 590.234317837459 2758.69266340304 182 180 185
305.459337597121 590.847677031191 2763.59551784318 187 185 190
298.851810580155 591.655439478996 2767.20334643377 181 179 182
291.445452032135 592.561418050211 2770.17300092574 167 165 168
284.82181610188 593.370372681016 2773.79698754323 158 156 159
273.417470448255 594.768795756145 2773.57869697697 155 153 154
261.982961269336 596.170477665568 2773.39021542493 142 140 141
246.520679025752 598.068653916458 2770.04276814812 137 135 136
231.008635838245 599.972513636732 2766.74389420992 118 116 117
220.266702987924 601.287576030134 2767.29738576979 98 97 95
214.329702321006 602.009700162865 2771.66893840587 104 103 101
209.196700607235 602.632501432416 2776.67403523171 125 123 126
204.873694919382 603.154987937169 2782.306867668 129 127 130
200.555030586242 603.676704307783 2787.93516505838 129 127 130
201.118971056737 603.596090293655 2797.30611945871 139 137 140
199.265857225139 603.813289769509 2804.78216201273 152 150 153
196.612104075673 604.129021722265 2811.62177887025 164 162 165
191.514171756746 604.745868747878 2816.59293130324 149 147 150
183.954606976555 605.6660311111 2819.71262549029 143 141 144
178.029550383734 606.384395650192 2824.07321099252 142 140 143
172.101328416955 607.102923359661 2828.43691564137 155 153 156
170.302646235882 607.312199422206 2835.8600778388 160 158 161
166.034594548496 607.825648262174 2841.43933806118 184 184 186
163.432065158442 608.133625331961 2848.22923513669 180 180 182
154.182839887578 609.260756240777 2850.16237867266 173 173 175
144.080492476958 610.492813082715 2851.50992993807 172 172 174
128.938068032181 612.345813840826 2849.2684453745 163 163 165
122.969999157517 613.06794963434 2853.67118531868 161 161 163
112.798080501652 614.307892504786 2855.08665630749 160 160 162
101.761577805005 615.654311162843 2855.92802563708 153 153 155
86.4786040340944 617.523674113742 2853.82369030711 151 151 153
74.5337289358936 618.981617027443 2854.13369430565 166 166 168
63.4063321026583 620.338668772096 2855.06375129098 158 158 160
52.2525773263536 621.69874851015 2856.01953456731 165 164 169
45.3308004182178 622.537429248056 2859.93484823553 171 171 173
36.6948220053072 623.587115817547 2862.68738413335 168 168 170
33.1773002202418 624.006344328548 2868.95219210905 175 175 177
22.808075068423 625.269450721911 2870.5601678065 170 170 170
8.97851843668818 626.958665876192 2869.87335001497 160 160 160
-9.19602181253065 629.182995481472 2866.33719107351 143 143 143
-17.9313574297475 630.244617917021 2869.18662602818 154 154 152
-25.8164792657967 631.201517195691 2872.62417348426 148 148 146
330.760739664314 580.750703057038 2703.12083491421 206 206 208
330.310310727515 580.81844549829 2712.06023679408 196 196 198
329.109439129358 580.97578125543 2720.31435031758 207 206 211
329.480807436501 580.944034022981 2729.86930923387 207 206 211
323.655533194572 581.655067636823 2734.13189289416 202 201 206
321.726842610743 581.898365003402 2741.67912702353 186 185 190
316.68650485558 582.514378921199 2746.59321033626 188 188 190
313.998423875795 582.847883334851 2753.46428847479 205 203 208
308.179307902358 583.556548442784 2757.72110694757 185 183 188
303.144592104689 584.170792184632 2762.62986920463 183 181 186
296.531012341789 584.974010482853 2766.24437988474 189 187 192
289.118625011427 585.872817770714 2769.22108095924 169 167 170
280.108154049687 586.962950552516 2770.92260624383 161 159 162
270.283233543467 588.15045089072 2772.00125392384 155 153 154
257.245795802333 589.723177663522 2770.54506729618 142 140 141
240.17301351765 591.779760968505 2765.93930139689 123 121 122
224.645472745344 593.650664860314 2762.66068764656 100 99 97
213.084662176566 595.045448130928 2762.59864485753 103 102 100
207.935352980125 595.670541093091 2767.61959654356 110 109 107
204.40090554822 596.101633207182 2773.89945850142 117 115 118
203.302404227752 596.240006221599 2782.05505735295 127 125 128
201.412835374334 596.473064478057 2789.5649563617 149 147 150
201.165442029064 596.508783454808 2798.30747395184 151 149 152
198.497220624056 596.834683450013 2805.15995516875 166 164 167
195.024515611502 597.256887989899 2811.38015741305 163 161 164
189.103583761292 597.972622699802 2815.73669783051 140 138 141
181.538075502322 598.885573541388 2818.8633598396 144 142 145
175.607111999336 599.602029143171 2823.23009313104 149 147 150
170.497535365233 600.219754431468 2828.21267873429 161 159 162
168.694736227668 600.440399765867 2835.63824875696 172 170 173
164.422850686404 600.957178874208 2841.2211616827 185 185 187
160.985662064989 601.373592247972 2847.4066137154 176 176 178
