ply
format ascii 1.0
comment KinectMotionCapture
element vertex 762
property float x
property float y
property float z
property uchar red
property uchar green
property uchar blue
end_header
130.2600025245 605.061506225434 2824.94321475501 174 174 176
125.927305376441 605.585227530646 2830.58515060959 183 183 185
125.770788960467 605.60754405521 2839.23940694211 200 200 202
122.293276829426 606.02832018425 2845.46459384462 194 194 196
114.633273399946 606.950942828139 2848.68366146677 180 180 182
104.441942788736 608.177352332023 2850.12040903987 182 182 184
88.3339002817278 610.113771743841 2847.40855892824 176 176 178
75.5520841767696 611.650954202325 2847.12069898893 177 177 179
61.8901916566212 613.293676035881 2846.27425994856 183 183 185
50.7338428952227 614.635507606631 2847.2353161616 184 184 186
35.3021491401497 616.490478594115 2845.28078910029 182 183 185
17.2698047635049 618.657608911821 2841.61188158505 162 163 165
-1.6737355957499 620.934155789625 2837.41438627098 169 170 172
-14.6895069065738 622.499003985582 2837.35475832567 176 177 179
-32.884215140506 624.685600377304 2833.84420344366 185 186 188
-50.277241294086 626.776022563967 2830.96835238604 166 167 169
-63.4164784095885 628.355714922567 2831.02947169118 157 158 160
-71.4102805039749 629.317705625992 2834.57418774002 164 166 165
296.817179239556 577.830355727784 2721.67156439103 204 204 202
298.751814053654 577.634185306954 2732.53263470945 205 205 207
296.802539193693 577.890043380285 2740.09845286233 205 205 207
296.441078404224 577.960427647143 2748.94911759604 204 204 206
295.315826167308 578.119303483725 2757.1282501949 211 211 213
295.789891611304 578.091238854453 2766.58068504901 215 215 217
291.541849298408 578.613251334208 2772.1388099645 200 200 202
286.504846729043 579.226780889914 2777.04994857607 196 196 198
281.468442092376 579.839940222571 2781.96054815043 189 189 191
275.635296560021 580.545597504381 2786.231742738 200 200 202
266.601128580182 581.624342316093 2787.95814480688 215 215 217
256.746920304149 582.798522336605 2789.0678444124 177 177 179
246.066868678879 584.068810164133 2789.5665046623 177 177 179
231.33439464999 585.811649529113 2786.93455292336 147 145 148
207.677118991787 588.595750356295 2777.42380928288 136 134 137
188.785960383889 590.823783737537 2771.76455907125 123 121 124
179.561872058236 591.923728976118 2773.67642143723 103 101 104
174.383980037982 592.551334334095 2778.72538495883 117 115 118
170.836671652815 592.988368946534 2785.01747757673 120 118 121
165.664120920492 593.614711262033 2790.06132379758 125 123 126
162.129638216332 594.049670280887 2796.34064925447 145 143 146
158.603806917625 594.48334870823 2802.61191085072 186 184 187
155.086228282562 594.915793403207 2808.87482193308 175 173 176
148.278977531889 595.732091954148 2812.68005535338 144 142 145
141.464461491337 596.549024604097 2816.49207175238 153 151 154
134.643078364205 597.366603530619 2820.31114959247 166 166 168
130.30571911319 597.893949462551 2825.95717926596 177 177 179
125.972910813198 598.420544768315 2831.59880072003 186 186 188
123.313264654947 598.751466990952 2838.44202430714 202 202 204
120.665991527078 599.080770427684 2845.27320054801 191 191 193
110.487581640774 600.289747423395 2846.69969416738 178 178 180
98.6065255541431 601.697659132191 2846.95371953425 180 180 182
83.3270697477424 603.502597411034 2844.85541275191 175 175 177
73.0655670841407 604.721282976869 2846.36298380504 176 176 178
59.3979671834131 606.337893500385 2845.52607151818 182 182 184
48.2359217616786 607.661750107693 2846.49544129089 184 184 186
32.798778149524 609.485375025567 2844.55129679562 181 182 184
15.6122058032788 611.51356356994 2841.47963216052 159 160 162
-4.18850582266561 613.847474206164 2836.70793292944 167 168 170
-17.2099253281304 615.389034134424 2836.6573557207 175 176 178
-35.4102187013914 617.536117882043 2833.15818691614 185 186 188
-53.6681171366049 619.690122887979 2829.71485998871 158 159 161
-65.9536539644741 621.146018410993 2830.36344872417 157 158 160
-73.9532092874611 622.100891546376 2833.91492978751 165 167 166
300.415466928386 570.318966237466 2716.37477297441 133 134 128
299.987778044788 570.414830052003 2725.2874373186 203 203 201
303.493394848339 570.065335946554 2737.44497910718 203 203 205
299.98784551607 570.507956430924 2743.6947787788 206 206 208
300.419512910631 570.504784915438 2753.18563633141 203 203 205
296.940205037045 570.943461627799 2759.40962289243 208 208 210
295.838513960041 571.112605707348 2767.56384126938 222 222 224
290.798657625521 571.727055229348 2772.47767774131 201 201 203
285.759464076446 572.341008414926 2777.39092941581 199 199 201
281.516313377837 572.864497622316 2782.9439786263 197 197 199
274.885556719357 573.657956600296 2786.57732648291 176 176 178
267.448157285719 574.542609710629 2789.58095692696 200 200 202
254.390529837651 576.063689365255 2788.15245239826 154 154 156
242.901197857961 577.407046591224 2788.02669321857 159 159 161
223.329689852077 579.666260582203 2781.62152221834 159 159 161
198.03891607229 582.57401614124 2770.88043376733 123 121 124
182.360836163209 584.392516118753 2767.75905288084 107 105 108
175.554194424787 585.205183317931 2771.56388041319 109 107 110
171.992398961264 585.649793717369 2777.86923921604 114 112 115
170.06877321652 585.908167772761 2785.4092155573 133 131 134
164.894073213878 586.53501691324 2790.45512112684 158 156 159
159.720034650412 587.161517309082 2795.50042142181 179 177 180
155.367544624953 587.694561166949 2801.16097186903 158 156 159
151.841986728667 588.133466391039 2807.43085161235 150 148 151
145.851400750222 588.85192476794 2811.85649489402 150 148 151
139.03095897669 589.664356225129 2815.6750609078 154 152 155
133.032065202659 590.383390181058 2820.10886888297 170 170 172
128.690683760031 590.91404419341 2825.75840371935 181 181 183
126.018546124656 591.25491473858 2832.61256117017 192 192 194
123.358760799594 591.594110141112 2839.45470017959 200 200 202
119.038833030818 592.121646795205 2845.08339194488 186 186 188
106.342353115046 593.600765234359 2844.7197115869 176 176 178
91.091291133981 595.370369307298 2842.59843169647 179 179 181
78.3204993379378 596.858249804959 2842.30691126371 174 174 176
68.891509609649 597.96635191965 2844.42137601078 175 175 177
56.0602210189916 599.461298795675 2844.18888538175 182 182 184
44.0426777222753 600.863920278693 2844.57922645894 184 184 186
27.7461664688774 602.753189156796 2842.06149742685 180 181 183
12.2516262471657 604.551571043819 2840.17774168029 155 156 158
-5.84949454710371 606.646715405063 2836.58743181539 165 166 168
-18.0190267077194 608.06740657609 2837.12602938925 173 174 176
-36.2212043154479 610.174583128479 2833.63429208141 184 185 187
-54.4805672539992 612.288660918415 2830.19865849452 152 153 155
-66.768117044635 613.723417561267 2830.85203260703 166 168 167
-73.9061100342484 614.572241774187 2834.98089068123 164 166 165
302.8004748609 562.99366137879 2719.34016749469 134 135 130
303.158109289264 563.019606936313 2728.90023738646 204 204 204
304.325346566016 562.956032659642 2739.08649999177 202 202 204
301.605196487774 563.318081440114 2745.98520437418 206 206 208
301.254620992112 563.419585266119 2754.82046039298 202 203 205
298.564813096236 563.777130790881 2761.68970011899 207 207 209
299.045844691788 563.786163891771 2771.1297344533 224 224 226
293.222004517574 564.486638205131 2775.39245472315 201 201 203
288.98182219892 565.012937517692 2780.94214095615 199 199 201
283.155330626154 565.713097424877 2785.20754057305 193 193 195
275.73069122278 566.58862340527 2788.19984910425 166 166 168
266.696255904069 567.640806978552 2789.93044238402 190 190 192
253.636683305062 569.13536000314 2788.50779004329 147 147 149
237.326028971439 570.987568275715 2784.59267352253 159 159 161
212.104654037591 573.820205593315 2773.79377343488 165 165 167
188.401247659132 576.486700176949 2764.34622043299 120 118 121
175.936324611865 577.917079027561 2763.75980437145 105 103 106
171.547024157459 578.458668405348 2769.45530725266 111 109 112
169.60103890453 578.73100634023 2777.0154230608 116 114 117
167.671318347861 579.00108746082 2784.55972134127 159 157 160
163.307595434344 579.538790688166 2790.23073755961 180 178 181
157.31060958732 580.256122936827 2794.66256460465 178 176 179
152.952120322579 580.792724113387 2800.32854661501 147 145 148
148.59801466045 581.328579314202 2805.98994805607 151 149 152
144.248566511484 581.863640970586 2811.64684180323 153 151 154
136.597655146435 582.762561839158 2814.86038398303 163 161 164
132.249781181522 583.297028709347 2820.51614029329 179 179 181
127.906333336377 583.830744243828 2826.16727460628 194 194 196
125.232122811435 584.180043292133 2833.022244738 204 204 206
121.7360491627 584.619759120063 2839.26306422275 188 188 190
116.575991216338 585.242993331901 2844.29496429883 176 176 178
102.197253933703 586.883917006805 2842.74338131188 174 174 176
86.936788538722 588.622614449968 2840.63634497884 177 177 179
74.9983049532057 589.994702117651 2840.95235363668 172 172 174
67.2493463504922 590.903948973923 2844.26173199641 174 174 176
57.7977755108692 592.001423419647 2846.40019088567 181 181 183
45.7840438322594 593.382201225949 2846.78963761363 183 183 185
27.7922095285241 595.424134590158 2843.09900705219 177 178 180
8.89125105472965 597.56717408476 2838.87895962931 149 150 152
-8.36364167864989 599.528688754585 2835.88533036014 160 161 163
-22.2499586757907 601.117972065922 2835.26964633327 169 170 172
-40.4616340780501 603.186247164219 2831.79309009373 180 181 183
-59.5899177741921 605.356411425659 2827.79477094843 143 145 144
-66.720973145193 606.199184822697 2831.91729633075 165 167 166
305.963438521275 555.600693862737 2722.95995030583 192 193 188
304.768481636392 555.810296951294 2731.20046534286 200 202 201
304.375532324141 555.934037238959 2740.07451264861 208 209 211
303.222755121102 556.137749666651 2748.27435111713 205 209 210
302.87570873115 556.255083988914 2757.10376294136 201 205 206
300.977097463057 556.536663637497 2764.61546976098 205 209 210
299.094645406101 556.815911316625 2772.11147490914 211 212 214
294.06207807099 557.429736788565 2777.01816553124 217 218 220
287.442998372502 558.212036366152 2780.64122950646 196 197 199
280.81701041655 558.994839988491 2784.27141682787 193 195 194
271.791515071272 560.033011847486 2785.99520350712 178 178 178
264.34599117897 560.902797076189 2789.00909912514 170 170 170
249.678078614056 562.542144850376 2786.32833291 174 174 174
229.341581461205 564.786317756679 2779.26778334735 148 148 148
200.880396827682 567.897822202814 2765.97687063199 154 154 154
181.185647989308 570.075333064078 2759.70615528715 106 104 105
172.748175189236 571.052154682167 2762.27200374297 99 97 98
169.161979124872 571.511015757669 2768.59948645947 113 111 112
168.023000648106 571.708123708477 2776.78659872762 122 120 121
165.274127554848 572.076695991789 2783.71252347568 162 160 161
160.904384143472 572.61795921781 2789.38899197114 163 163 165
154.082753016548 573.421105599655 2793.2101113605 155 155 157
150.536958480327 573.873753012878 2799.49839313888 148 148 150
146.17687456824 574.413192370762 2805.16520133367 151 151 153
141.821426910737 574.951840864196 2810.82752254855 155 155 157
135.817666563027 575.666652885291 2815.26678710344 158 158 160
129.810783627768 576.381593198445 2819.70913347243 185 185 187
125.461357532663 576.918892889995 2825.36567453916 198 198 200
123.613396605863 577.188072437956 2832.82891755059 199 199 201
120.113297521994 577.633779836809 2839.07284880037 182 182 184
113.276866399076 578.436904990865 2842.90866794199 167 167 169
99.7286523990626 579.959564734801 2841.96708957506 174 174 176
86.9826986513225 581.39659518328 2841.65875805022 176 176 178
75.0442829926436 582.747268603693 2841.9778642721 173 173 175
65.607542637089 583.829782351774 2844.10380745603 177 177 179
53.6144544954147 585.186846872353 2844.47625965991 184 184 186
41.5912633731321 586.547516407566 2844.87840959095 182 182 184
24.4394302948301 588.459284744917 2841.78945520501 179 181 180
3.82775359693266 590.74339618622 2836.41350726018 153 155 154
-11.7315033076957 592.485365774434 2834.60235384957 152 154 153
-23.9143355738736 593.864981235899 2835.1602295968 165 167 166
-42.1295986169752 595.893580326909 2831.6931000342 178 180 179
-62.1208054621381 598.113843186941 2827.12736246352 140 142 139
-69.2574695999069 598.952003425857 2831.2564770989 165 167 164
309.126343947951 548.228077933104 2726.5767829883 213 214 209
307.938976541815 548.450391977107 2734.80822072908 197 199 198
306.771428080791 548.669837268706 2743.02006412274 205 206 208
304.056464469512 549.047596061956 2749.91129633376 201 205 206
302.925270570953 549.261914525958 2758.08813469434 192 196 197
301.026326373092 549.554386409701 2765.59856225055 208 209 211
299.143561837185 549.844612199078 2773.09325513503 213 214 216
293.319214982376 550.540108552914 2777.35721428644 228 229 231
286.698014566957 551.317456739423 2780.98311597837 200 201 203
279.274324617042 552.177354224757 2783.97679157299 194 196 195
271.042299562435 553.120478967095 2786.343945606 184 184 184
261.995925946023 554.147572611751 2788.09010207236 167 167 167
244.918386285773 556.003776860961 2783.51901409627 200 200 200
218.947948833215 558.779076542934 2772.05550932266 186 186 186
191.26698754282 561.732616549135 2759.43007968671 153 153 153
177.198665569834 563.280850709608 2757.58428702024 106 104 105
169.560462869949 564.164636103327 2760.78744632424 108 106 107
166.777175832337 564.546172706309 2767.74596634898 121 119 120
164.81908760539 564.841736941519 2775.31466775218 130 128 129
161.247640929773 565.303839425702 2781.62702502883 146 144 145
157.684700108282 565.7646042521 2787.93113357183 149 149 151
153.311363474057 566.308987096056 2793.61037127054 152 152 154
149.763224842737 566.76748612731 2799.89977806142 156 156 158
144.578514742818 567.395302355473 2804.95548087039 153 153 155
138.570055723537 568.108436418959 2809.39965927702 163 163 165
132.558474655216 568.821639737789 2813.84692768859 174 174 176
126.543685426528 569.535041105316 2818.29735257932 201 201 203
124.677405736716 569.817498226154 2825.77682397375 206 206 208
123.65951581116 570.011295266336 2833.84384502969 187 187 189
120.993382381159 570.375998886658 2840.68851769771 168 168 170
111.650589125291 571.434433078571 2842.72472897074 160 160 162
98.0985791318609 572.930946942637 2841.79078443101 174 174 176
87.0287026836087 574.169591090886 2842.68122341478 175 175 177
72.5644314302944 575.76194555802 2841.22175543283 171 171 173
60.5902406327727 577.095562859139 2841.57924562541 174 174 176
51.1230989989699 578.168388863633 2843.73647173033 181 181 183
39.9419220648869 579.420032252149 2844.73551245981 179 179 181
23.6361582376095 581.206269647816 2842.24219937847 176 178 177
1.31951828722121 583.620037726109 2835.7059854756 149 151 150
-14.2453983400537 585.3306712551 2833.90508370911 154 156 155
-28.1449604900148 586.868198571615 2833.31020182823 156 158 157
-47.2268048005899 588.947255934025 2829.27957108845 163 165 162
-66.3701237726584 591.033781348086 2825.30854397953 139 141 138
-74.3778072365209 591.957894967304 2828.87264264996 165 167 162
311.511318781942 540.952959718357 2729.53479281185 213 213 211
307.989723407246 541.420423997183 2735.79685453884 196 197 199
306.8218172451 541.653477212783 2744.00704188977 203 204 208
304.106523139816 542.039533305761 2750.89737594895 202 206 207
302.974971270881 542.267489212121 2759.07255417138 195 199 200
300.288084817446 542.6492859277 2765.93530854645 202 203 205
296.823777578635 543.107890037496 2772.14145399475 213 214 216
291.784872495008 543.72280932747 2777.05427642899 223 224 226
283.572750634304 544.653547677532 2779.4034969996 214 215 217
277.732000517319 545.347868637746 2783.6839185555 193 195 194
268.698435666119 546.360492329852 2785.41949438133 187 187 187
260.445592603331 547.295243826766 2787.80855856623 166 166 166
238.556511567324 549.591897172915 2779.44783468744 184 184 184
206.145395739053 552.941486630019 2762.95918874795 167 167 167
181.654323437623 555.501730580763 2752.89259413083 124 124 124
172.404943139667 556.539055063974 2754.83882711949 109 107 108
167.182036210784 557.173485158557 2759.93148241771 113 111 112
165.20375413031 557.48275670458 2767.51854852342 123 121 122
162.428496362985 557.871254919948 2774.46772859882 129 127 128
159.665759600652 558.25792575047 2781.40508305983 152 150 151
156.098728491278 558.724808261163 2787.7123491281 158 158 160
150.902681376925 559.354731841637 2792.77899829425 159 159 161
148.169286836072 559.737113930648 2799.6878493697 157 157 159
143.803049746361 560.283019486097 2805.35981205965 154 154 156
138.616978828254 560.911036751428 2810.416836468 168 168 170
133.431632855799 561.538726750534 2815.4731893644 181 181 183
128.247011559742 562.166119001773 2820.52886665344 207 207 209
127.214834690823 562.375532290076 2828.60810462267 206 206 208
124.538166649808 562.749819601212 2835.46182184985 180 180 182
117.702785593948 563.542581286236 2839.29812997556 164 164 166
108.352016435391 564.588766019367 2841.34373406052 161 161 163
95.6305205325187 565.975007387258 2841.01862213811 176 176 178
86.2347090263951 567.026369188968 2843.10818877158 177 177 179
72.6107127940532 568.50453755795 2842.24843908741 171 171 173
58.9487506277808 569.987285745265 2841.42571324172 175 175 177
46.9404883670452 571.30358622079 2841.8195963202 181 181 183
34.901788698134 572.623471493437 2842.24283652151 179 179 181
16.885415644655 574.54814298211 2838.59390455531 173 175 174
-2.89157961032283 576.651827420093 2833.83268194881 147 149 148
-19.3194683908211 578.417931888644 2831.46361638919 155 157 156
-34.0860878383964 580.016765374374 2830.30342703755 153 155 154
-54.8961514770525 582.228322718386 2825.13520372148 156 158 155
-70.6192704908939 583.925877629107 2823.49333227759 141 143 140
-76.9139608784517 584.668756555748 2828.21734638641 165 167 162
306.557067964467 534.258523778515 2717.02269932088 201 202 197
309.228712661253 534.139726631107 2728.55738151248 203 203 201
307.260616341329 534.463973049772 2736.13178188577 205 206 208
307.654082369014 534.561028984822 2745.64576038699 199 200 204
303.373004638317 535.105502886615 2751.23370801434 189 190 192
302.238971661502 535.347347444046 2759.40895943502 197 198 200
297.97467314098 535.889027918281 2764.98065792599 192 193 195
296.083483095641 536.202045889556 2772.48034879136 215 216 218
292.625335703411 536.665092193958 2778.67972086652 180 181 183
285.208544080576 537.508716133932 2781.66928938527 201 202 204
276.98504493237 538.429963092459 2784.03087275209 179 179 179
267.152134223368 539.506400467955 2785.13386987896 176 176 176
254.898886558474 540.816569714439 2784.35502396057 164 164 164
231.394059743664 543.213250590054 2774.75015686464 155 155 155
194.949989395826 546.861498523411 2755.13693051616 125 125 125
174.457411516383 548.971734092338 2748.25116730229 106 106 106
167.611799415415 549.763797069566 2752.09807611773 109 107 108
164.803788054448 550.165092813338 2759.07788952669 112 110 111
162.819411162049 550.486071424558 2766.66927757162 117 115 116
160.038315016804 550.883489289202 2773.62327476432 127 125 126
158.084259075863 551.200245718835 2781.18483985083 165 163 164
154.512971137958 551.673162009175 2787.49510338077 160 160 162
150.131649829765 552.224317355242 2793.18160684789 154 154 156
145.754818955578 552.774654288943 2798.86343436667 153 153 155
142.205259948344 553.244258060552 2805.15294817805 163 163 165
136.190600208519 553.953056573395 2809.60358694234 192 192 194
130.999278960374 554.581676757425 2814.66573589491 204 204 206
127.465498663921 555.048760652388 2820.9399536499 210 210 212
126.431010755738 555.272041151912 2829.01909910554 197 197 199
122.920001087901 555.735959603196 2835.27117314089 169 169 171
115.246532123946 556.605379814211 2838.51147553417 159 159 161
105.890141862854 557.638992152764 2840.56485749347 159 159 161
94.0006885444409 558.920219541393 2840.84560748084 174 174 176
84.6011689384678 559.958797268554 2842.94108363491 174 174 176
68.4476443365196 561.657615558648 2840.30951525793 168 168 170
58.1514729455428 562.784788356575 2841.86503841697 172 172 174
44.4496640086394 564.245522655525 2841.08513464665 179 179 181
31.5576120528536 565.627774344367 2840.92963923689 178 178 180
12.6838950740629 567.596428987707 2836.70831461163 168 170 169
-5.39928458975725 569.488951958508 2833.13047413398 150 152 151
-20.9793466676964 571.137336728996 2831.35381236322 151 153 152
-35.7494852238691 572.707322794023 2830.20171901662 155 157 156
-59.9928472971207 575.207705271439 2822.73181061614 145 147 144
-74.0086254930619 576.705838537678 2822.25815541033 145 147 144
308.160917707743 527.042357086 2719.3307555797 212 213 208
307.72440410581 527.237369070526 2728.23752894342 200 200 198
304.972073460728 527.645119752181 2735.1610965414 199 200 202
305.35949653995 527.761882936706 2744.67850089889 199 200 204
301.855793864332 528.237453623468 2750.92125894565 181 182 184
300.717701204518 528.493418729454 2759.09879252265 183 184 186
297.236623578523 528.965488512122 2765.31960099276 182 183 185
295.343353602872 529.289753339891 2772.82003282119 203 204 206
293.466054231371 529.611693528607 2780.30461134225 180 180 182
286.050846847751 530.447199480804 2783.29346868109 183 183 185
276.23848626955 531.505507900008 2784.37873867611 176 176 176
264.808982764791 532.714585750059 2784.2137532115 166 166 166
249.35264060607 534.299095081149 2780.90676717636 151 151 151
219.424633862622 537.232933782823 2766.26453294179 145 143 144
187.770878430252 540.330761646753 2750.47793650456 104 102 103
171.286517234989 542.0166399352 2746.75989696428 97 95 96
166.85386319715 542.578466412072 2752.49545956032 107 105 106
164.043881980787 542.988253085214 2759.47631195114 113 111 112
161.246253613246 543.396305579004 2766.44515409143 120 118 119
156.835247538245 543.954665875857 2772.15973224024 141 139 140
154.873393917512 544.283301521917 2779.72762263705 159 157 158
152.11076554242 544.68630609135 2786.66211750647 158 158 160
146.904681687134 545.317789806629 2791.73850271749 153 153 155
143.340656860122 545.794966685256 2798.04126199984 160 160 162
140.607538054921 546.193677862755 2804.94742583357 173 173 175
137.062458120409 546.668083139288 2811.23178219919 200 200 202
131.872920707964 547.296684833376 2816.29216250934 208 208 210
127.512439013362 547.847142539792 2821.95773720095 204 204 206
123.986817705167 548.318606550178 2828.22286773885 188 188 190
118.805384926422 548.94562632256 2833.27543383527 166 166 168
110.288095533362 549.886973118475 2835.92612235305 160 160 162
102.592081488179 550.751127281565 2839.18959066485 160 160 162
93.2092200653969 551.774572869394 2841.27076152034 173 173 175
82.1277784429006 552.958860997355 2842.18071868916 173 173 175
70.1779382353567 554.22579419383 2842.52354642547 167 167 169
60.7296065879339 555.25681520225 2844.66861053801 171 171 173
45.3421296224872 556.850257769487 2842.70882933725 179 179 181
30.756772383755 558.368821083165 2841.38084567105 179 179 181
11.0317941225295 560.375460288335 2836.58231266384 167 169 168
-2.79727146897812 561.824610415418 2835.93048876828 153 155 154
-20.0784705247834 563.602198944596 2832.98982842742 146 148 147
-37.4129013545779 565.386249271488 2830.10141081616 156 158 157
-63.3743336889228 567.991008425391 2821.48832612005 140 142 139
-74.8198243930367 569.218419189747 2822.75341590173 144 146 143
309.764619965006 519.835657036587 2721.63722128659 202 203 198
308.553793829692 520.115622012707 2729.88343310963 192 193 195
308.14275087758 520.323403569087 2738.76302640442 197 198 200
308.537357937441 520.458321067567 2748.27027592128 208 209 213
304.257485217006 521.008317103922 2753.85587294456 204 205 207
301.553490856826 521.41730280982 2760.73159720303 204 205 207
297.286506219193 521.965084410289 2766.30472346222 177 178 180
295.392880978182 522.300362226626 2773.80388035949 172 172 174
291.93223012729 522.774810271149 2780.00405323391 211 211 213
285.30649768077 523.531930242946 2783.637782863 181 181 183
275.492071607634 524.574577467455 2784.72741864277 167 167 167
264.060363543661 525.762570075535 2784.56740088561 144 142 143
243.007375403505 527.814565298827 2776.82983192494 144 142 143
209.859666959188 530.954904067821 2759.68665118462 142 140 141
183.001631628184 533.533899438753 2747.71631075715 105 103 104
171.336181993464 534.749134516923 2747.78471325189 109 107 108
167.710463391994 535.241224104098 2754.14653127247 113 111 112
163.284141705115 535.804876400293 2759.8755358951 112 110 111
158.862477262145 536.367764670413 2765.6000287284 135 133 134
154.445450150777 536.929744002655 2771.32005096349 151 149 150
152.477522976697 537.270084033932 2778.89224258553 154 152 153
150.525670814875 537.608292654748 2786.44844866231 150 150 152
146.134117402462 538.166411965385 2792.14374564727 157 157 159
141.747221503211 538.72373773159 2797.83453493833 184 184 186
139.010072673081 539.1312715623 2804.7433966621 200 200 202
135.46092424777 539.611732806433 2811.03089802986 211 211 213
131.093697109656 540.166077777748 2816.70259651054 207 207 209
126.731294833115 540.719624554209 2822.36995964719 187 187 189
121.543183091606 541.347899097757 2827.42897259774 177 177 179
116.355796026495 541.975875893438 2832.48730994091 162 162 164
110.334854812211 542.679598887709 2836.94493646163 160 160 162
102.638785106344 543.535887729377 2840.20962253638 164 164 166
93.2559587364743 544.546178849925 2842.29270280833 177 177 179
80.4945643991513 545.86513782167 2842.01681708791 174 174 176
69.3829381202731 547.034331696295 2842.95897899078 168 168 170
59.9324764096116 548.052395769397 2845.10773547498 172 172 174
45.3890506585442 549.536689774576 2843.7431782105 180 180 182
31.6514210369516 550.948396145555 2843.00609121594 181 181 183
12.7781872742663 552.83148507343 2838.79693332533 167 169 168
-1.04689367143873 554.25350844744 2838.14516193984 155 157 156
-18.3238427246266 555.993220891186 2835.20621719444 143 145 144
-38.2204622185824 557.974883343676 2830.58181802178 157 159 158
-65.0409680691375 560.594418250248 2821.40237501721 136 138 135
-77.349394627114 561.88263205685 2822.0984768775 141 143 140
313.370009075902 512.276698473021 2716.34040874114 199 200 194
312.920482626811 512.50622605446 2725.25500266431 204 204 202
310.16104641381 512.931737590228 2732.18300114978 197 198 200
308.973759641324 513.22203252601 2740.40431127403 198 199 203
307.806333523343 513.509541904496 2748.60597333693 201 202 207
305.875503825236 513.861362667927 2756.13962976973 196 197 201
302.389347221702 514.345512688753 2762.3636962857 199 200 202
298.124204501024 514.895938520911 2767.93494051983 187 188 190
294.652934555794 515.37759266924 2774.1445932529 176 176 178
290.398830960217 515.925978187183 2779.70517703017 203 203 205
283.768854390007 516.678427494974 2783.34347361694 197 197 199
274.745677192381 517.637053011833 2785.07671525593 157 157 157
260.920276945808 519.010336826013 2783.01555530886 159 157 158
235.863395850478 521.354879647298 2772.1254505613 141 139 140
198.692712807735 524.74965997482 2751.85431444389 123 121 122
179.03603505086 526.63404329426 2745.58911807499 117 115 116
168.970799577113 527.689763332986 2746.92587914097 112 110 111
166.145932961373 528.118203178373 2753.91875602271 117 115 116
161.715524230136 528.68528966836 2759.65131156846 119 117 118
158.100791980011 529.181124539286 2766.00166642845 136 134 135
154.494356256957 529.675572726099 2772.34364982372 148 146 147
150.896592659423 530.168796678133 2778.67754045351 153 151 152
148.124010847174 530.589554269978 2785.61963318619 159 159 161
144.545213669971 531.07997442158 2791.9351042807 168 168 170
141.795299990676 531.497445106796 2798.85483518363 194 194 196
138.235425908888 531.985155373 2805.15191588453 206 206 208
136.332928035575 532.327343708524 2812.65852422314 211 211 213
132.794018411111 532.812027774398 2818.93523417909 206 206 208
128.435163370344 533.368059360247 2824.59836976245 184 184 186
122.420552350277 534.068907386118 2829.0504730678 174 174 176
117.234969571682 534.696951566947 2834.1070087683 161 161 163
110.381857090038 535.471191553011 2837.96366196094 160 160 162
100.177502281633 536.540145070053 2839.43661468049 164 164 166
89.9509319632315 537.611650291904 2840.931588431 175 175 177
76.341980107594 538.981571799599 2840.07289829719 171 171 173
66.9042650019369 539.984996849952 2842.21116085536 167 167 169
54.9168029641791 541.213848469977 2842.59731390759 171 171 173
43.7448495206159 542.371512158077 2843.60108573333 177 177 179
29.1556087639742 543.831904106457 2842.28521831821 183 183 185
10.2767707698916 545.672917653135 2838.08784423518 166 168 167
-4.40549431677795 547.144404585822 2836.86304936309 160 162 161
-24.2504264336123 549.074469355303 2832.1949499759 140 142 141
-45.0158317390659 551.08811250158 2827.01129406479 145 147 146
-70.1366484133885 553.490408803448 2819.01029883053 135 137 134
-80.7379802514903 554.606180743835 2820.87087370843 143 145 142
312.648425128248 505.268350050937 2716.67553594452 204 205 200
312.19653781274 505.514598075274 2725.59000296879 200 200 198
309.435004462135 505.948587101944 2732.51916881544 201 202 204
310.584793676437 506.060951040098 2742.69709185537 204 205 209
311.766136301159 506.168996394457 2752.84398233512 213 214 218
309.844477361933 506.530671762062 2760.3667377206 201 200 205
304.011032449497 507.213280489921 2764.64163616322 191 191 193
297.386642332706 507.960868234226 2768.27510385612 198 198 200
292.334227282463 508.578670046687 2773.20091585135 205 205 207
288.865436460516 509.065276334195 2779.40771269634 188 188 190
283.024903838259 509.747392813074 2783.68972209378 195 195 197
273.999700150072 510.693064784137 2785.42689059626 177 175 176
255.388605265352 512.433825112483 2779.56155171184 153 151 152
223.125670614718 515.30981896576 2762.99575689584 145 143 144
191.532519961547 518.135000728098 2747.18927599171 111 109 110
175.873890091467 519.639280533545 2744.09502253317 113 111 112
167.410705031551 520.546015854809 2746.69676236718 119 117 118
164.581702367251 520.983262234956 2753.69244480429 123 121 122
160.956266796242 521.486225374544 2760.05237466514 119 117 118
158.150142399713 521.920145319319 2767.02583028985 142 140 141
154.543442124893 522.420317348841 2773.36723040748 155 153 154
149.315919661493 523.055594664607 2778.46434378079 157 155 156
147.356063364561 523.41667673055 2786.02545523885 172 172 174
144.593654141666 523.844260119512 2792.95643759009 195 195 197
141.843515184235 524.270132777976 2799.87515038957 205 205 207
138.283462662005 524.763438093536 2806.17158133861 211 211 213
136.380757794864 525.116679694472 2813.67676155735 206 206 208
133.667929228106 525.537393481246 2820.55952490831 199 199 201
129.310854779515 526.096090067657 2826.2204984514 179 179 181
123.298072817318 526.794289789835 2830.67117689337 170 170 172
115.617788628444 527.633345174619 2833.9227348138 161 161 163
107.926600943547 528.47353924302 2837.18495177002 161 161 163
96.0445960877534 529.66887000213 2837.47133865022 166 166 168
85.8080545346858 530.725723711308 2838.97804162934 173 173 175
73.8693796974106 531.927608933767 2839.31973389207 170 170 172
64.4259178502003 532.918549435074 2841.46554826045 166 166 168
53.2764106020878 534.05507360296 2842.45015509414 169 169 171
43.7921341439478 535.05067464597 2844.6361479905 175 175 177
29.2030329356692 536.481800464126 2843.32446752306 183 183 185
8.62534162643414 538.424856539153 2837.96517941908 170 172 171
-10.3182809774021 540.230872034292 2833.83731010797 159 161 160
-31.030103918102 542.190025007067 2828.60849974041 137 139 138
-50.9551862753965 544.084227787651 2824.02529111312 144 146 145
-70.9452316132744 545.986266371198 2819.50543355763 135 137 134
313.475117214066 498.132453188449 2718.32654808215 206 207 202
313.800615289615 498.333990360102 2727.89257748345 202 202 200
310.26470655267 498.836825365847 2734.16328697075 193 194 196
312.195742654999 498.909475749129 2744.98819926571 198 199 203
311.817205690025 499.161867660004 2753.82892024383 195 196 200
308.328028932218 499.657913786932 2760.05456542035 167 166 171
300.133460558672 500.524535011129 2762.39549375993 153 153 155
292.711687129473 501.330293381171 2765.39526795874 152 152 154
287.647344132699 501.949805291713 2770.33267182946 169 169 171
284.958013219375 502.380765843041 2777.19058719588 161 159 162
279.900840555924 502.99869567763 2782.12110464975 162 160 163
270.8679326939 503.932028373938 2783.86808509215 207 205 206
250.654612869681 505.755055747813 2776.74746374705 180 178 179
216.781962701596 508.668530628054 2758.94044407901 149 147 148
188.378195431269 511.151471663023 2745.68541647088 107 105 106
174.318016052833 512.493762648052 2743.86197639904 114 110 111
167.460968887082 513.261717248522 2747.72346576841 125 121 122
163.017895633121 513.836490538461 2753.46779910876 125 123 124
159.388117122257 514.345616251048 2759.8307929055 130 128 129
156.577877935745 514.788340050603 2766.8070333716 136 134 135
153.77999213656 515.229270634091 2773.77127177801 150 148 149
149.36503405786 515.799539611729 2779.4880142271 193 191 192
146.588112716001 516.237443994889 2786.43188188857 197 197 199
144.642294018169 516.607636146902 2793.97770733647 211 211 213
143.533026408277 516.909307858595 2802.11952395442 210 210 212
140.799093948129 517.341350543951 2809.02156937723 205 205 207
136.428745518824 517.904993296414 2814.69499313821 189 189 191
132.889457216393 518.400929177694 2820.97041611359 183 183 185
128.530271963352 518.962899274695 2826.63300189326 174 174 176
121.685303693013 519.726281205999 2830.48351042143 165 165 167
112.336658123866 520.693297937111 2832.53870674684 160 160 162
101.301381913999 521.798173085824 2833.41455818212 162 162 164
91.9117333961887 522.769828170688 2835.50978549504 166 166 168
82.503674384431 523.743584762041 2837.62332194085 175 175 177
70.5571181400933 524.925188852642 2837.97550025774 174 174 176
58.580587274371 526.110293322916 2838.35726430417 168 168 170
48.2612899375359 527.160862051265 2839.94707391735 167 167 169
37.9195462358175 528.213965656434 2841.55879844899 170 170 172
25.8601561678908 529.408778735393 2842.02140797997 180 180 182
4.4252733559822 531.374452034606 2836.0927337342 172 174 173
-17.0823517294605 533.348794418199 2830.23501235449 166 168 167
-37.8091283701338 535.261641973316 2825.02823299456 139 141 140
-56.8941471875441 537.041845776275 2821.04458717058 144 146 145
-72.6110485190779 538.546614350325 2819.4250352126 139 141 138
303.966905585178 491.525515097205 2701.82154126272 136 137 129
312.753858644593 491.116368315418 2718.66249562426 199 200 195
313.852969597291 491.279111798247 2728.88329685242 194 194 192
311.872429390534 491.670942567818 2736.46006525174 190 191 195
313.806920823016 491.767511477168 2747.27801120507 191 192 196
311.86841420827 492.153453556314 2754.81390997203 188 189 193
306.0280387554 492.832306936038 2759.09624558257 193 192 197
297.041964167299 493.74830863959 2760.79894356281 176 176 178
288.03728937358 494.666258859324 2762.52016167435 157 157 159
281.382066574014 495.406942257958 2766.18526713631 158 158 160
278.676886405399 495.848156495457 2773.05740555719 159 157 160
275.190734802678 496.347772164892 2779.27951913316 157 155 158
267.736477509813 497.148397020753 2782.31230901995 181 179 180
246.718372073069 498.982114791372 2774.57236233132 195 193 194
212.836464177849 501.800106848616 2756.78864804272 190 188 189
186.826687351069 504.022874598239 2745.44587182756 121 119 120
172.762463917037 505.336233509817 2743.63038586854 114 110 111
168.316491137243 505.914615616515 2749.37706509936 117 113 114
163.87500986847 506.492061237419 2755.11908476354 123 121 122
161.055934064573 506.944449512842 2762.10267171602 125 123 124
156.627615624582 507.519822968245 2767.83192676179 160 158 159
152.204101595348 508.094312353703 2773.5568794638 181 179 180
149.414307765168 508.54231458306 2780.51169939721 207 205 206
145.004020071193 509.114753281429 2786.22382124345 206 206 208
144.691115002698 509.369780481804 2794.99897928351 209 209 211
141.940484048858 509.812344373301 2801.91571368574 204 204 206
140.847458966355 510.125547732928 2810.04003470336 197 197 199
136.476891476709 510.692254995992 2815.71322306116 187 187 189
132.937445453905 511.19384228336 2821.98796737985 183 183 185
127.749917913147 511.823252040064 2827.0462324264 171 171 173
119.242458604085 512.711201670676 2829.69505160317 163 163 165
107.391558529905 513.860608926871 2829.9570006071 160 160 162
95.5106200586093 515.013524602684 2830.24859748252 162 162 164
86.943537710626 515.908194585566 2832.95562995319 166 166 168
80.0375089483603 516.673213410871 2836.86619267828 175 175 177
68.0854045692829 517.834245632156 2837.22725873027 175 175 177
55.2611553238838 519.064950307798 2837.02683280915 168 168 170
44.090474194109 520.166934450397 2838.037570621 166 166 168
35.4302494438561 521.072239143263 2840.83518522654 167 167 169
26.7556108121512 521.979141506111 2843.64721473651 179 179 181
7.87156649921483 523.692554194412 2839.47386995621 171 173 172
-16.182315750608 525.817022281788 2831.87170311471 169 171 170
-42.0276387185829 528.086720439974 2823.19250412823 140 142 141
-63.6879410424229 530.028611001089 2817.49152771042 145 147 146
-77.7055350496032 531.36731508149 2817.04323919605 142 144 141
314.8277560256 483.630111095315 2712.04157530195 149 150 144
315.128477966042 483.873101429687 2721.62608101232 204 205 200
316.233002473748 484.05692194486 2731.83839132416 193 193 193
315.035692958991 484.403393421923 2740.06101346939 192 193 195
313.858622120476 484.746976125812 2748.26430311133 187 188 192
308.793135994629 485.368430695144 2753.202555002 193 194 198
302.161016446761 486.102073743952 2756.84575915412 180 179 184
295.521945585766 486.83628523419 2760.49611988954 159 159 161
287.300512675897 487.684651600732 2762.86642317081 163 163 165
280.643314979979 488.420411156204 2766.53455531791 152 152 154
275.561731277173 489.042096531684 2771.48875822741 157 155 158
272.067325694917 489.548308853989 2777.71775530267 150 148 151
262.21950548626 490.515397564168 2778.85205731008 174 172 173
239.593480603711 492.413171270017 2769.86517448386 178 176 177
208.092056748111 494.961842474666 2754.00847565344 173 171 172
183.673149841849 496.99934086763 2743.94748129726 111 107 106
172.01028789308 498.108089392701 2744.02871500565 131 127 128
168.367112349777 498.630714225898 2750.40335493151 121 119 120
164.732190547134 499.151987253301 2756.76966072518 142 140 141
160.297250687126 499.731337238214 2762.50524105159 160 158 159
156.677533344428 500.250192266827 2768.85680597094 196 194 195
152.253801062615 500.827657607815 2774.58153555607 200 198 199
149.463803212877 501.28405913044 2781.53531667204 202 200 201
145.869854199754 501.799062925494 2787.86220031183 203 203 205
144.740093682643 502.130931951057 2796.02024138179 190 190 192
141.168833522543 502.642705196215 2802.324734287 180 180 182
137.606331330033 503.153154931596 2808.62106385708 177 177 179
134.876649151693 503.601114103984 2815.51653623739 183 183 185
128.854005698106 504.293582255817 2819.9775165677 185 185 187
122.828513298264 504.986160649378 2824.44164749206 165 165 167
113.479232504675 505.92709174817 2826.50166789179 157 157 159
104.11114301384 506.870112175886 2828.57971896204 158 158 160
93.8905093188369 507.877696932365 2830.07790713263 162 162 164
85.3195049541542 508.762364896656 2832.79031251785 165 165 167
77.5716266924817 509.585764369485 2836.11130628874 171 171 173
66.4535767836139 510.663039565097 2837.07343249176 172 172 174
53.6255070426965 511.870284531353 2836.88026771397 167 167 169
42.4509989303563 512.954175945572 2837.89747987343 163 163 165
29.5587334024088 514.16895360696 2837.7669491321 164 164 166
20.0229922952504 515.131209144431 2840.00897563687 179 179 181
2.82287246866941 516.674924036133 2837.0227066863 172 174 173
-19.5397057333269 518.612721086534 2830.60212061443 165 167 166
-45.392224818066 520.819037370806 2821.93977313356 139 141 140
-66.2047260184635 522.646012477769 2816.83081143902 150 152 151
-80.2279439874378 523.958771638346 2816.39194224967 147 149 146
317.196970039088 476.383486269924 2715.01102454273 198 199 194
316.729305009696 476.697326145255 2723.93116902406 197 197 197
315.509653194045 477.0605308674 2732.17350423805 192 192 192
313.532502910997 477.473857648764 2739.74406713385 191 191 193
309.232206521729 478.04441390517 2745.34690637065 183 183 185
305.718192657921 478.56066261922 2751.59422922703 178 177 182
301.428871618024 479.129186601356 2757.18647014891 194 195 199
296.358649945307 479.750677957764 2762.12941907051 195 196 200
289.714020429141 480.480001204203 2765.78568427099 148 149 153
282.272907473885 481.26428576966 2768.80783672401 161 161 163
276.403657794917 481.94035160229 2773.11925686614 144 144 144
271.324434063423 482.561709981474 2778.07116461916 149 149 149
258.293393261336 483.733438377556 2776.66789312142 163 163 163
230.874647074607 485.905371720171 2763.89760113481 183 183 181
196.955047383884 488.534655153957 2746.17954425045 144 144 142
178.116570156337 490.120523720649 2740.56255448652 120 119 115
169.652254819209 490.985609079845 2743.1719103907 121 120 118
166.003012478861 491.514541798895 2749.55164243293 124 123 121
161.555227606902 492.098649487376 2755.29893701758 143 143 145
158.729855945792 492.568490149119 2762.28619639426 166 166 168
156.72763001827 492.979566019778 2769.88165461734 199 199 201
153.116363843498 493.502797222931 2776.22451844732 194 194 196
150.328242863805 493.967322671715 2783.17557293285 198 198 200
145.102796740362 494.603104826582 2788.27054985488 197 197 199
142.333705956731 495.064818434989 2795.20312266318 172 172 174
138.756399719655 495.582955922733 2801.51267877993 169 169 171
136.010228643934 496.041455809233 2808.42296696615 177 177 179
133.276495720597 496.498181278099 2815.32116614133 185 185 187
127.25004508174 497.188728110746 2819.78654887502 182 182 184
120.392165700255 497.938507289023 2823.65155096638 161 161 163
111.867126198735 498.807650795592 2826.32060707106 155 155 157
102.495160451879 499.737980354253 2828.40438302575 160 160 162
91.4366693675142 500.789968112501 2829.31110390779 162 162 164
81.1877814953603 501.784986782908 2830.839206156 165 165 167
73.4304063138183 502.601698117141 2834.17095685467 172 173 175
63.9822802398302 503.540626425124 2836.32909024865 170 171 173
55.3574449122465 504.42090604501 2839.09559917119 166 167 169
44.1868046144909 505.485823132641 2840.11177493077 164 165 167
32.144068454615 506.615040333662 2840.56720408499 169 170 172
18.3761392210031 507.870613510348 2839.88328147101 175 176 178
1.17232114015486 509.3774673586 2836.90613298772 179 181 180
-22.045035029588 511.324135884917 2829.91647139777 161 163 160
-47.9031299465809 513.4669215929 2821.26871275018 137 139 136
-64.4447011940867 514.934498433866 2819.05665781382 153 155 152
-78.4638920001037 516.220125481408 2818.61779970658 169 171 166
317.250494795251 469.300390993036 2716.00475205722 198 198 196
317.556226021141 469.580843689289 2725.57874655236 191 191 193
313.235167488528 470.157571919853 2731.20162853133 187 187 189
310.473790559395 470.632891412383 2738.12419258236 182 182 184
306.165641906669 471.207343490366 2743.73459127411 180 180 182
302.643352804749 471.730191537268 2749.98881834376 164 164 166
299.129758971705 472.25160604091 2756.23496060194 176 177 181
295.624522182747 472.771701646637 2762.47299912434 192 193 197
291.340176983684 473.341780191553 2768.06006919901 195 196 200
284.69213186216 474.066108897283 2771.72046433704 179 179 181
276.454398285599 474.894787171401 2774.11020215476 147 147 147
269.788332891291 475.620621024101 2777.78826922999 143 143 143
251.9821496285 477.080525838198 2772.58239868827 159 159 159
220.562397866368 479.442348311267 2756.67221442263 154 154 152
189.814241583203 481.766604704222 2741.51758748632 117 117 115
175.764785795298 482.990415274381 2739.70067224214 123 122 118
168.900586677639 483.739032146635 2743.57245955526 109 108 104
162.83433971319 484.434625422875 2748.0766147664 126 125 123
158.378555949432 485.022689940088 2753.8312675513 133 133 135
154.736242023154 485.555892548271 2760.20315064619 145 145 147
154.345648697261 485.870630699522 2769.04662902183 167 167 169
150.728357434836 486.400252983637 2775.39453125394 175 175 177
149.563332855055 486.764354959805 2783.58248820141 167 167 169
145.152497234734 487.345649088142 2789.29384531793 163 163 165
142.383159914391 487.815767349779 2796.22542073675 175 175 177
138.805674429111 488.33958844195 2802.53431481536 188 188 190
135.236946372915 488.862145061058 2808.835037368 197 197 199
132.50109615808 489.32751102152 2815.73406198405 178 178 180
123.993729046136 490.184401942078 2818.3873800715 164 164 166
115.471528590865 491.042881035032 2821.05485531497 156 156 158
108.595200531296 491.789636245613 2824.93896199949 155 155 157
101.711690869887 492.537162427061 2828.82974832965 158 158 160
92.319394969917 493.456567509793 2830.93566490168 160 160 162
80.4004381929304 494.550248889477 2831.27343147777 164 164 166
71.803075728222 495.417010933557 2834.01465733314 169 170 172
62.3510306118042 496.343283250803 2836.1785529441 169 170 172
53.7223370432525 497.213552812155 2838.95037263923 166 167 169
42.5478694936769 498.260406689763 2839.97301865099 162 163 165
32.1926742961161 499.251785096837 2841.60722367417 169 170 172
16.7298152226185 500.598291796706 2839.75913287642 178 179 181
-3.87586289591813 502.304207826367 2834.46234744094 182 182 182
-27.9560203095848 504.255301265002 2826.91155908093 159 159 157
-50.4137080314804 506.097575173031 2820.59987428902 151 153 150
-60.973613122572 507.11336170956 2822.43408959376 147 149 144
-68.1271863499529 507.89201473772 2826.58845250286 178 181 174
307.787238947499 462.471959606343 2699.48784009489 149 149 147
314.988466047942 462.356630931861 2715.02619895164 198 198 196
313.74041259588 462.751088957682 2723.29245602779 192 192 194
309.409147538163 463.331976908904 2728.92452059018 187 187 189
306.637935080107 463.816778923932 2735.85578779613 180 180 182
303.09939064071 464.347560059148 2742.1253219912 181 181 183
300.35063534536 464.828924857219 2749.03445907977 167 167 169
297.614358268595 465.308497148764 2755.93180788651 160 161 165
293.319542500789 465.883184891613 2761.52893199528 172 173 177
291.391443209597 466.310744267938 2769.04834511775 210 211 215
283.164559365631 467.1278826383 2771.42901458335 200 200 202
274.131338117814 467.995753513556 2773.18564360905 172 172 172
264.286207267992 468.915046319914 2774.32400141509 156 156 156
246.466324053149 470.333761962883 2769.13748502779 158 158 158
214.236297381059 472.658582923731 2752.62047521543 149 149 147
185.870346895095 474.74824043888 2739.38602211387 115 115 113
173.413474298454 475.843103734064 2738.84120088841 120 119 115
166.543139043743 476.58728846066 2742.71939870353 111 110 106
160.470876722213 477.281222346354 2747.22977251037 122 121 119
156.815882158126 477.821831979828 2753.61315291096 124 124 126
153.169602236714 478.36121201856 2759.98839911811 133 133 135
152.774862862435 478.692836694437 2768.83349876012 151 151 153
149.966073073377 479.176862343841 2775.80219555775 156 156 158
147.984313388976 479.606940709852 2783.37452193835 155 155 157
143.569179512463 480.191826634151 2789.08927857894 165 165 167
139.977352769407 480.723251061236 2795.41162781094 193 193 195
136.393862916544 481.253519591101 2801.72553138685 202 202 204
135.286263305317 481.623460279107 2809.85593937458 199 199 201
132.550209609432 482.097166496121 2816.75393336405 169 169 171
125.695141795113 482.836684468835 2820.61766012936 158 158 160
115.520514064545 483.791648194266 2822.07794106258 160 160 162
105.323607048251 484.749171664451 2823.56030516871 160 160 162
98.4322793712464 485.492464689844 2827.45948056255 159 159 161
88.1980495910799 486.45417560592 2828.97794998027 160 160 162
