ply
format ascii 1.0
comment KinectMotionCapture
element vertex 805
property float x
property float y
property float z
property uchar red
property uchar green
property uchar blue
end_header
148.86936545372 171.817570924759 2638.00001144409 15 18 11
155.708745121956 171.421930193901 2631.99996948242 15 18 11
162.019699811935 170.505076646805 2618.00003051758 17 20 13
169.029027223587 170.36959528923 2615.9999370575 14 17 10
175.353392958641 169.582650065422 2604.00009155273 13 16 9
186.37615442276 173.223838210106 2660.00008583069 14 17 10
195.08296251297 174.520239233971 2680.0000667572 12 15 8
200.046643614769 172.495365142822 2648.9999294281 10 15 9
205.779537558556 171.251818537712 2630.00011444092 10 15 8
214.160993695259 172.221973538399 2644.99998092651 12 15 6
223.209202289581 173.647627234459 2667.00005531311 12 12 0
230.734542012215 173.835903406143 2670.00007629395 19 13 1
236.314222216606 172.591671347618 2651.00002288818 62 46 33
242.891952395439 172.128573060036 2644.00005340576 71 52 38
249.90351498127 171.990796923637 2641.99995994568 69 45 33
257.09792971611 171.983033418655 2641.99995994568 73 51 37
264.691531658173 172.235444188118 2645.99990844727 74 55 40
272.408723831177 172.55274951458 2651.00002288818 86 70 54
279.941111803055 172.739654779434 2654.00004386902 73 56 40
287.597090005875 172.991424798965 2657.99999237061 100 81 67
295.606553554535 173.438221216202 2664.99996185303 93 73 62
304.789483547211 174.535572528839 2681.99992179871 67 47 38
-127.628296613693 168.507486581802 2700.00004768372 22 23 17
-119.594097137451 167.575135827065 2684.99994277954 23 26 17
-112.728424370289 168.265268206596 2696.00009918213 22 25 16
-104.39520329237 166.708275675774 2671.0000038147 16 19 10
-96.6706201434135 165.962383151054 2658.99991989136 15 18 9
-88.7421295046806 164.716944098473 2638.99993896484 16 19 8
-81.0151398181915 163.658499717712 2621.99997901917 15 18 9
-75.0989094376564 166.40730202198 2665.99988937378 14 17 8
-67.8991749882698 166.59677028656 2668.99991035461 13 16 7
-60.4329742491245 166.099414229393 2661.00001335144 13 16 7
-53.070142865181 165.78908264637 2655.99989891052 13 16 7
-45.7688942551613 165.603369474411 2653.00011634827 13 16 7
-38.5709628462791 165.791928768158 2655.99989891052 14 17 8
-31.0263074934483 164.232477545738 2631.00004196167 16 19 10
-16.3460951298475 161.112830042839 2581.00008964539 16 19 10
-9.37996432185173 162.486523389816 2602.9999256134 14 17 8
-2.27097072638571 162.237018346786 2598.99997711182 13 16 7
4.82547516003251 162.299409508705 2599.99990463257 16 19 10
11.9502879679203 162.673681974411 2605.99994659424 17 20 11
19.1517025232315 163.422271609306 2618.00003051758 17 20 11
26.3683255761862 163.858518004417 2625 16 19 10
33.3547852933407 162.983685731888 2611.00006103516 15 18 9
40.3577089309692 162.483155727386 2602.9999256134 14 20 8
47.5902929902077 162.918716669083 2609.99989509583 15 21 11
54.6093471348286 162.605047225952 2605.00001907349 14 20 10
61.3639578223228 161.666929721832 2589.99991416931 15 21 9
68.7762498855591 162.476360797882 2602.9999256134 18 24 14
76.3758271932602 163.535222411156 2619.99988555908 16 22 12
83.9403569698334 164.344161748886 2632.99989700317 18 24 14
90.4334113001823 163.093119859695 2612.99991607666 14 20 10
97.2276628017426 162.528485059738 2604.00009155273 13 19 9
104.974046349525 163.523972034454 2619.99988555908 13 19 9
113.235287368298 165.143340826035 2645.99990844727 11 17 7
121.091686189175 166.01350903511 2660.00008583069 12 15 8
128.782704472542 166.571348905563 2668.99991035461 9 12 5
135.604709386826 166.005626320839 2660.00008583069 10 13 6
142.323359847069 165.377303957939 2650.00009536743 15 18 11
148.817583918571 164.561569690704 2637.00008392334 16 19 12
155.240312218666 163.745671510696 2624.00007247925 16 19 12
162.272289395332 163.616016507149 2621.99997901917 17 20 13
170.261949300766 164.422154426575 2634.99999046326 15 18 11
175.762861967087 162.856951355934 2609.99989509583 14 17 10
184.419974684715 164.224222302437 2631.99996948242 15 18 11
192.468404769897 164.967268705368 2644.00005340576 13 16 9
201.034560799599 166.08439385891 2661.99994087219 12 14 9
207.976698875427 165.828675031662 2657.99999237061 12 15 8
217.001497745514 167.194843292236 2680.0000667572 9 12 3
228.237718343735 170.120283961296 2726.99999809265 11 13 2
232.469946146011 167.805269360542 2690.00005722046 30 26 15
237.658530473709 166.301161050797 2665.99988937378 51 43 32
244.461014866829 165.982156991959 2661.00001335144 70 53 43
251.802831888199 166.037186980247 2661.99994087219 57 39 27
258.857309818268 165.904968976974 2660.00008583069 49 31 19
266.700148582459 166.271463036537 2665.99988937378 73 57 42
274.471998214722 166.575416922569 2671.0000038147 81 69 55
282.059073448181 166.75440967083 2674.00002479553 60 46 33
289.661467075348 166.933208703995 2677.00004577637 84 67 57
300.052255392075 168.670669198036 2704.99992370605 78 61 53
-127.584859728813 161.083847284317 2698.99988174438 22 23 17
-118.305958807468 158.521100878716 2655.99989891052 22 25 18
-111.770085990429 159.539148211479 2673.00009727478 22 25 16
-104.593798518181 159.721419215202 2676.00011825562 17 20 9
-97.2189158201218 159.605026245117 2674.00002479553 15 18 7
-89.6527841687202 159.130290150642 2665.99988937378 15 19 5
-81.9136649370193 158.237487077713 2651.00002288818 16 20 6
-75.2420425415039 159.433633089066 2671.0000038147 15 19 5
-68.4354975819588 160.569906234741 2690.00005722046 14 17 6
-61.2297169864178 160.929992794991 2696.00009918213 14 17 8
-53.2316155731678 159.021526575089 2664.00003433228 13 16 9
-45.6322692334652 157.888859510422 2644.99998092651 13 16 9
-38.2671654224396 157.293155789375 2634.99999046326 15 18 11
-30.8975335210562 156.398788094521 2619.99988555908 16 19 12
-23.5280953347683 154.966920614243 2595.99995613098 14 17 10
-16.4225958287716 154.788449406624 2592.99993515015 13 16 9
-9.40908119082451 155.863344669342 2611.00006103516 14 17 10
-2.29550688527524 156.818643212318 2627.00009346008 14 17 10
4.81448648497462 154.848664999008 2594.00010108948 15 18 11
11.9368946179748 155.385658144951 2602.9999256134 15 18 11
19.0718155354261 155.623987317085 2607.00011253357 15 18 11
26.0175410658121 154.608502984047 2589.99991416931 15 18 11
33.2280546426773 155.264258384705 2601.0000705719 15 18 11
40.4829829931259 155.860096216202 2611.00006103516 14 17 10
47.646451741457 155.978158116341 2612.99991607666 15 18 11
54.7996945679188 156.036347150803 2614.00008201599 15 18 11
61.4842884242535 154.900446534157 2595.00002861023 16 19 12
69.0161436796188 155.91324865818 2611.99998855591 18 21 14
77.1069452166557 157.880872488022 2644.99998092651 17 20 13
84.0704292058945 157.400965690613 2637.00008392334 17 20 13
90.4361605644226 155.965834856033 2612.99991607666 15 18 11
97.2679331898689 155.485540628433 2605.00001907349 13 16 9
105.177573859692 156.676277518272 2625 10 13 6
112.767964601517 157.269909977913 2634.99999046326 10 13 6
120.594568550587 158.102050423622 2648.9999294281 10 13 6
127.821534872055 158.098384737968 2648.9999294281 11 14 7
134.997025132179 158.034846186638 2648.00000190735 12 15 8
142.273902893066 158.090427517891 2648.9999294281 15 18 11
148.370534181595 156.892612576485 2628.99994850159 15 18 9
154.534980654716 155.873671174049 2611.99998855591 15 18 9
162.029564380646 156.227096915245 2618.00003051758 17 20 11
168.328493833542 155.446529388428 2605.00001907349 15 18 9
174.421191215515 154.546469449997 2589.99991416931 15 18 9
181.342348456383 154.421985149384 2588.00005912781 16 19 8
190.071791410446 155.788958072662 2611.00006103516 14 17 6
201.116025447845 158.885926008224 2663.00010681152 16 18 7
211.190968751907 161.027833819389 2698.99988174438 15 15 5
220.246762037277 162.274524569511 2720.00002861023 15 15 5
228.076994419098 162.566408514977 2724.99990463257 16 13 4
233.427360653877 161.12807393074 2700.99997520447 22 19 10
239.091798663139 159.987911581993 2681.99992179871 45 41 30
247.31607735157 160.577535629272 2691.99991226196 56 47 38
255.783081054688 161.286219954491 2703.9999961853 54 44 35
263.049393892288 161.219254136086 2703.00006866455 47 37 28
269.709050655365 160.794287919998 2696.00009918213 47 37 27
276.637852191925 160.54804623127 2691.99991226196 52 43 34
284.809708595276 161.01735830307 2700.00004768372 43 34 27
-125.555828213692 151.272922754288 2655.99989891052 21 22 16
-116.973049938679 149.567678570747 2625.99992752075 22 25 18
-111.355170607567 151.678323745728 2663.00010681152 20 23 14
-104.948602616787 152.934461832047 2684.99994277954 16 19 8
-97.7671071887016 153.16516160965 2688.99989128113 16 19 8
-88.5119885206223 149.921059608459 2631.99996948242 18 22 8
-81.6070511937141 150.436133146286 2641.00003242493 18 22 8
-75.1597210764885 151.976346969604 2667.99998283386 17 21 7
-67.9795444011688 152.206242084503 2671.99993133545 16 19 8
-60.6864131987095 152.20807492733 2671.99993133545 15 18 9
-53.7327267229557 153.178095817566 2688.99989128113 14 17 10
-45.8233840763569 151.299670338631 2655.99989891052 14 17 10
-37.8325916826725 148.395627737045 2605.00001907349 14 17 10
-30.7333301752806 148.453578352928 2605.99994659424 15 18 11
-23.6103571951389 148.397386074066 2605.00001907349 14 17 10
-16.5624152868986 148.967623710632 2615.00000953674 13 16 9
-9.52467508614063 150.563061237335 2642.99988746643 13 16 9
-2.2920782212168 149.423882365227 2622.99990653992 14 17 10
4.8703090287745 149.480819702148 2624.00007247925 14 17 10
11.9601748883724 148.569121956825 2608.00004005432 14 17 10
19.0650578588247 148.454740643501 2605.99994659424 14 17 10
26.0886214673519 147.941395640373 2596.99988365173 12 15 8
33.0629423260689 147.42785692215 2588.00005912781 12 15 8
40.3601191937923 148.281306028366 2602.9999256134 12 15 8
48.0125434696674 149.988994002342 2632.99989700317 14 17 10
55.0318956375122 149.531796574593 2625 14 17 10
62.1969103813171 149.5301425457 2625 15 18 11
69.8637068271637 150.61055123806 2644.00005340576 17 20 13
77.1383419632912 150.72238445282 2645.99990844727 16 19 12
84.3916907906532 150.77705681324 2647.0000743866 15 18 11
90.957947075367 149.692311882973 2628.00002098084 12 15 8
97.8308543562889 149.23395216465 2619.99988555908 10 13 6
103.978551924229 147.807121276855 2595.00002861023 9 12 5
112.771220505238 150.082379579544 2634.99999046326 9 12 5
120.279371738434 150.477781891823 2641.99995994568 10 13 6
127.294421195984 150.24645626545 2638.00001144409 11 14 7
135.00089943409 150.812312960625 2648.00000190735 12 15 8
141.902014613152 150.466695427895 2641.99995994568 14 17 10
147.979736328125 149.323612451553 2621.99997901917 15 18 9
154.125243425369 148.35125207901 2605.00001907349 16 19 10
160.858228802681 148.005172610283 2598.99997711182 17 20 11
169.431805610657 149.310320615768 2621.99997901917 15 18 9
177.38938331604 149.988830089569 2634.0000629425 15 18 9
182.959154248238 148.674160242081 2611.00006103516 16 19 8
187.674805521965 146.789982914925 2578.00006866455 14 17 6
197.572007775307 148.948326706886 2615.9999370575 16 17 9
208.066910505295 151.390999555588 2658.99991989136 13 14 6
217.013955116272 152.580797672272 2680.0000667572 15 16 8
225.823447108269 153.599500656128 2697.99995422363 17 17 9
232.051059603691 152.853175997734 2684.99994277954 17 14 7
241.416335105896 154.156073927879 2707.99994468689 17 14 7
250.997871160507 155.515596270561 2732.00011253357 10 7 0
-127.733886241913 146.522223949432 2701.99990272522 22 23 17
-120.228089392185 146.362870931625 2698.99988174438 25 28 21
-113.156378269196 146.745637059212 2706.00008964539 22 25 16
-106.319591403008 147.507816553116 2720.00002861023 19 22 13
-96.4609012007713 143.877059221268 2653.00011634827 18 21 10
-88.6826068162918 143.011838197708 2637.00008392334 19 23 9
-81.9801390171051 143.881902098656 2653.00011634827 20 24 10
-74.9927759170532 144.37210559845 2661.99994087219 20 24 10
-67.5234794616699 143.940180540085 2654.00004386902 19 22 11
-60.1884201169014 143.724963068962 2650.00009536743 18 21 12
-53.494431078434 145.190894603729 2677.00004577637 16 19 12
-45.824658125639 144.053265452385 2655.99989891052 15 18 11
-38.6905334889889 144.488334655762 2664.00003433228 13 16 9
-30.5219031870365 140.367209911346 2588.00005912781 13 16 9
-23.8829255104065 142.91712641716 2634.99999046326 14 17 10
-16.6895538568497 142.917677760124 2634.99999046326 13 16 9
-9.36637260019779 140.965446829796 2598.99997711182 12 15 8
-2.27117002941668 140.96562564373 2598.99997711182 13 16 9
4.86858887597919 142.267301678658 2622.99990653992 13 16 9
11.9971977546811 141.88739657402 2615.9999370575 12 15 8
19.0875381231308 141.507312655449 2608.99996757507 11 14 7
26.1898096650839 141.398221254349 2607.00011253357 9 12 5
40.8574268221855 142.915055155754 2634.99999046326 10 13 6
48.3968257904053 143.944352865219 2654.00004386902 10 13 6
55.9558942914009 144.756466150284 2668.99991035461 11 14 7
63.3359849452972 144.971787929535 2673.00009727478 14 17 10
70.182740688324 144.047960639 2655.99989891052 15 18 11
77.4611756205559 144.100204110146 2657.00006484985 14 17 10
84.6809819340706 144.043758511543 2655.99989891052 12 15 8
90.7528027892113 142.197474837303 2621.99997901917 8 11 4
98.4310284256935 142.954155802727 2635.99991798401 7 10 3
106.105133891106 143.602162599564 2648.00000190735 9 12 5
113.630302250385 143.978804349899 2654.99997138977 10 13 6
120.510317385197 143.541842699051 2647.0000743866 10 13 6
127.635717391968 143.430039286613 2644.99998092651 11 14 7
134.239852428436 142.775803804398 2632.99989700317 12 15 8
141.529947519302 142.880573868752 2634.99999046326 14 17 10
147.588714957237 141.792237758636 2615.00000953674 14 17 8
154.60279583931 141.679748892784 2612.99991607666 16 19 10
161.543443799019 141.512870788574 2609.99989509583 17 20 11
170.147240161896 142.755478620529 2632.99989700317 15 18 9
178.404405713081 143.618330359459 2648.9999294281 14 17 8
186.818182468414 144.535169005394 2665.99988937378 16 19 10
189.427077770233 141.060560941696 2601.99999809265 14 17 6
196.217864751816 140.838623046875 2598.00004959106 14 15 7
205.724939703941 142.51384139061 2628.99994850159 14 15 7
215.643152594566 144.351378083229 2663.00010681152 16 17 9
222.481399774551 144.074633717537 2657.99999237061 19 19 11
230.847284197807 144.773378968239 2671.0000038147 16 16 8
242.225095629692 147.260457277298 2717.00000762939 16 13 6
-118.939407169819 137.506142258644 2670.00007629395 24 27 20
-112.197540700436 138.178616762161 2683.00008773804 22 25 16
-105.38425296545 138.850942254066 2696.00009918213 20 23 14
-98.8632068037987 140.038132667542 2719.00010108948 19 22 11
-90.1647135615349 138.083413243294 2680.99999427795 18 22 8
-82.3840126395226 137.313053011894 2665.99988937378 19 23 9
-75.3891840577126 137.830168008804 2676.00011825562 19 23 9
-67.805141210556 137.26544380188 2664.99996185303 20 23 12
-60.2127313613892 136.54600083828 2651.00002288818 19 22 13
-52.9163293540478 136.392936110497 2648.00000190735 16 19 12
-46.1882017552853 137.887954711914 2677.00004577637 15 18 11
-38.6044196784496 136.910393834114 2657.99999237061 14 17 10
-31.2893241643906 136.653751134872 2653.00011634827 13 16 9
-23.9016897976398 135.8303129673 2637.00008392334 14 17 10
-16.7216695845127 135.985374450684 2640.00010490417 14 17 10
-9.37022548168898 133.925318717957 2599.99990463257 12 15 8
-2.29220348410308 135.110199451447 2622.99990653992 12 15 8
4.84087644144893 134.337514638901 2608.00004005432 12 15 8
11.974586173892 134.491816163063 2611.00006103516 12 15 8
19.1026777029037 134.491428732872 2611.00006103516 11 14 7
26.2106005102396 134.387820959091 2608.99996757507 9 12 5
33.3841443061829 134.593069553375 2612.99991607666 8 11 4
40.7189577817917 135.261744260788 2625.99992752075 9 12 5
48.5257618129253 137.063384056091 2661.00001335144 9 12 5
55.517103523016 136.392429471016 2648.00000190735 9 12 5
62.6978874206543 136.28788292408 2645.99990844727 12 15 8
69.9467733502388 136.33768260479 2647.0000743866 13 16 9
77.0550593733788 136.129751801491 2642.99988746643 12 15 8
83.0252692103386 134.118989109993 2604.00009155273 11 14 7
92.0358672738075 136.949464678764 2658.99991989136 8 11 4
99.3298441171646 136.998519301414 2660.00008583069 8 11 4
107.390202581882 138.025909662247 2680.0000667572 9 12 5
114.146888256073 137.353554368019 2667.00005531311 11 14 7
121.196411550045 137.093022465706 2661.99994087219 12 15 8
127.542540431023 136.111348867416 2642.99988746643 13 16 9
133.682519197464 135.026559233665 2621.99997901917 13 16 9
140.781655907631 134.971559047699 2621.00005149841 14 17 10
148.100525140762 135.122373700142 2624.00007247925 15 18 9
155.67184984684 135.478973388672 2631.00004196167 15 18 9
162.909358739853 135.526433587074 2631.99996948242 16 19 10
167.695999145508 133.617073297501 2595.00002861023 14 17 8
178.004905581474 136.08418405056 2642.99988746643 14 17 8
186.472624540329 137.006387114525 2661.00001335144 17 20 11
193.80010664463 137.053102254868 2661.99994087219 17 20 9
196.525022387505 133.959174156189 2601.99999809265 19 22 13
205.025911331177 134.88082587719 2619.99988555908 20 23 14
214.757859706879 136.522963643074 2651.99995040894 17 20 11
222.654461860657 136.929363012314 2660.00008583069 15 16 8
230.420976877213 137.232601642609 2665.99988937378 16 17 9
242.052912712097 139.748990535736 2714.99991416931 16 17 9
-127.456784248352 131.486549973488 2696.00009918213 20 21 15
-118.452347815037 129.68498468399 2658.99991989136 20 23 16
-111.656703054905 130.224302411079 2670.00007629395 18 21 12
-105.074167251587 131.104856729507 2687.99996376038 20 23 12
-98.3566269278526 131.936505436897 2704.99992370605 20 23 12
-90.1333540678024 130.719423294067 2680.0000667572 18 22 8
-83.0350443720818 131.062969565392 2687.00003623962 16 20 6
-75.3347277641296 130.430817604065 2674.00002479553 17 21 7
-67.7305161952972 129.847228527069 2661.99994087219 19 22 11
-60.1461045444012 129.165887832642 2648.00000190735 18 21 12
-52.697841078043 128.630727529526 2637.00008392334 16 19 12
-45.7580126821995 129.363611340523 2651.99995040894 15 18 11
-38.6344417929649 129.754886031151 2660.00008583069 14 17 10
-31.1249885708094 128.731369972229 2638.99993896484 14 17 10
-23.8388460129499 128.29302251339 2630.00011444092 16 19 12
-16.6144091635942 127.952054142952 2622.99990653992 16 19 12
-9.47858393192291 128.293856978416 2630.00011444092 12 15 8
-2.30711791664362 128.781795501709 2640.00010490417 12 15 8
4.86141676083207 127.757355570793 2618.99995803833 13 16 9
11.965717189014 127.269342541695 2608.99996757507 13 16 9
19.1982742398977 128.000676631927 2624.00007247925 12 15 8
26.3820514082909 128.097668290138 2625.99992752075 10 13 6
33.6277447640896 128.389611840248 2631.99996948242 9 12 5
41.1541685461998 129.461869597435 2654.00004386902 9 12 5
48.9646531641483 130.972906947136 2684.99994277954 8 11 4
53.9460331201553 125.508368015289 2572.99995422363 10 13 6
61.9648918509483 127.555668354034 2615.00000953674 11 14 7
69.6050003170967 128.480836749077 2634.0000629425 11 14 7
76.1531889438629 127.405941486359 2611.99998855591 10 13 6
83.05923640728 127.062574028969 2605.00001907349 10 13 6
91.5189757943153 128.962695598602 2644.00005340576 9 12 5
99.4817018508911 129.935875535011 2664.00003433228 9 12 5
106.871947646141 130.079671740532 2667.00005531311 12 15 8
114.192552864552 130.125746130943 2667.99998283386 13 16 9
121.290490031242 129.927799105644 2664.00003433228 13 16 9
128.028303384781 129.388302564621 2653.00011634827 13 16 9
133.940786123276 128.117099404335 2627.00009346008 14 17 10
139.710873365402 126.845806837082 2601.0000705719 15 18 11
148.273527622223 128.110274672508 2627.00009346008 15 18 9
156.681582331657 129.130691289902 2648.00000190735 14 17 8
163.408562541008 128.736734390259 2640.00010490417 15 18 9
170.155853033066 128.39138507843 2632.99989700317 13 16 7
175.382614135742 126.973167061806 2604.00009155273 14 17 8
188.369289040565 131.064653396606 2687.99996376038 18 21 12
190.674245357513 127.695798873901 2618.99995803833 19 22 11
197.436168789864 127.447411417961 2614.00008201599 19 25 15
206.126511096954 128.417730331421 2634.0000629425 19 25 15
214.925050735474 129.387810826302 2654.00004386902 16 22 12
224.166557192802 130.552649497986 2677.99997329712 17 20 11
232.673734426498 131.229773163795 2691.99991226196 17 20 11
241.523817181587 132.052928209305 2709.00011062622 15 18 9
-127.885267138481 124.544963240623 2704.99992370605 23 24 18
-119.03427541256 123.028367757797 2671.99993133545 22 25 18
-112.453907728195 123.813785612583 2688.99989128113 21 24 15
-105.15483468771 123.862341046333 2690.00005722046 20 23 12
-97.7044478058815 123.726554214954 2687.00003623962 19 22 11
-90.2700126171112 123.59057366848 2684.00001525879 17 21 7
-83.0061212182045 123.684674501419 2686.00010871887 17 21 7
-75.5337476730347 123.45627695322 2680.99999427795 17 21 7
-67.7830204367638 122.675098478794 2664.00003433228 17 20 9
-60.1021163165569 121.847689151764 2645.99990844727 17 20 11
-52.579190582037 121.158249676228 2631.00004196167 17 20 13
-45.4312711954117 121.251478791237 2632.99989700317 17 20 13
-38.4029746055603 121.75901979208 2644.00005340576 15 18 11
-30.984204262495 120.976969599724 2627.00009346008 15 18 11
-23.7125121057034 120.471015572548 2615.9999370575 14 17 10
-16.6591480374336 121.116228401661 2630.00011444092 13 16 9
-9.54728852957487 121.991515159607 2648.9999294281 12 15 8
-2.29056854732335 120.702192187309 2621.00005149841 13 16 9
4.86895814538002 120.794259011745 2622.99990653992 12 15 8
12.1219418942928 121.715106070042 2642.99988746643 13 16 9
19.3450655788183 121.760793030262 2644.00005340576 14 17 10
26.6941301524639 122.358925640583 2657.00006484985 12 15 8
33.884085714817 122.12797254324 2651.99995040894 11 14 7
41.4032600820065 122.956015169621 2670.00007629395 13 16 9
48.8564074039459 123.369425535202 2678.99990081787 11 14 7
55.582731962204 122.0787987113 2651.00002288818 7 10 3
62.8194436430931 122.077420353889 2651.00002288818 9 12 5
69.8444992303848 121.707499027252 2642.99988746643 10 13 6
77.4378627538681 122.304417192936 2655.99989891052 8 11 4
85.8352333307266 123.960264027119 2691.99991226196 8 11 4
93.9095616340637 124.925173819065 2713.00005912781 8 11 4
99.0732759237289 122.160159051418 2653.00011634827 9 12 5
105.552077293396 121.282927691936 2634.0000629425 11 14 7
113.510422408581 122.109219431877 2651.99995040894 11 14 7
121.429949998856 122.797161340714 2667.00005531311 11 14 7
128.031328320503 122.149713337421 2653.00011634827 13 16 9
134.351849555969 121.317960321903 2634.99999046326 14 17 10
139.76788520813 119.795493781567 2601.99999809265 15 18 11
147.994786500931 120.712980628014 2621.99997901917 14 17 8
156.448572874069 121.722348034382 2644.00005340576 14 17 8
162.85528242588 121.120244264603 2631.00004196167 14 17 8
169.772073626518 120.932325720787 2627.00009346008 14 17 8
178.013429045677 121.664926409721 2642.99988746643 15 18 9
181.57596886158 119.267195463181 2591.00008010864 16 19 8
190.969884395599 120.735973119736 2622.99990653992 17 20 9
199.857756495476 121.790237724781 2645.99990844727 17 23 13
208.870261907578 122.84429371357 2668.99991035461 19 25 15
216.630607843399 123.115688562393 2674.99995231628 19 25 15
223.836854100227 123.064756393433 2674.00002479553 19 25 15
230.863973498344 122.921645641327 2671.0000038147 18 24 14
241.618469357491 124.711185693741 2710.00003814697 17 23 13
-119.393348693848 116.083778440952 2680.0000667572 23 26 19
-112.581886351109 116.606056690216 2691.99991226196 20 23 14
-105.079017579556 116.435155272484 2687.99996376038 19 22 11
-97.5611880421638 116.220779716969 2683.00008773804 20 23 12
-89.5993784070015 115.399777889252 2664.00003433228 19 23 9
-82.6062336564064 115.791529417038 2673.00009727478 16 20 6
-75.0846415758133 115.446679294109 2664.99996185303 16 20 6
-67.6827654242516 115.231648087502 2660.00008583069 17 20 9
-60.1261891424656 114.669874310493 2647.0000743866 17 20 11
-52.4005107581615 113.588079810143 2621.99997901917 17 20 13
-45.3977882862091 113.979041576385 2631.00004196167 18 21 14
-38.200493901968 113.936647772789 2630.00011444092 17 20 13
-31.0084894299507 113.894067704678 2628.99994850159 16 19 12
-23.8943416625261 114.197932183743 2635.99991798401 14 17 10
-16.9319044798613 115.801312029362 2673.00009727478 13 16 9
-9.51506663113832 114.371955394745 2640.00010490417 11 14 7
-2.28100689128041 113.072387874126 2609.99989509583 11 14 7
4.86906850710511 113.635569810867 2622.99990653992 11 14 7
12.1772531419992 115.021698176861 2654.99997138977 11 14 7
19.5576902478933 115.801177918911 2673.00009727478 13 16 9
26.8956739455462 115.973941981792 2677.00004577637 13 16 9
34.5492623746395 117.142982780933 2703.9999961853 13 16 9
41.2491261959076 115.23599177599 2660.00008583069 13 16 9
48.4745241701603 115.148350596428 2657.99999237061 12 15 8
55.7726845145226 115.233860909939 2660.00008583069 8 11 4
62.9867389798164 115.145906805992 2657.99999237061 10 13 6
70.374608039856 115.361057221889 2663.00010681152 10 13 6
78.7224918603897 116.962261497974 2700.00004768372 8 11 4
86.2516760826111 117.177046835423 2704.99992370605 9 12 5
92.7693694829941 116.092152893543 2680.0000667572 11 14 7
98.9634618163109 114.790543913841 2650.00009536743 12 15 8
105.554446578026 114.095248281956 2634.0000629425 13 16 9
112.186074256897 113.529779016972 2621.00005149841 14 17 10
119.884595274925 114.047035574913 2632.99989700317 14 17 10
128.371998667717 115.213833749294 2660.00008583069 14 17 10
135.119676589966 114.777877926826 2650.00009536743 15 18 11
141.86592400074 114.385068416595 2641.00003242493 15 18 11
148.336723446846 113.818913698196 2628.00002098084 14 17 8
155.741959810257 113.988883793354 2631.99996948242 13 16 7
163.787364959717 114.591762423515 2645.99990844727 13 16 7
170.486718416214 114.241741597652 2638.00001144409 15 18 9
177.613213658333 114.194720983505 2637.00008392334 16 19 10
185.784801840782 114.797115325928 2651.00002288818 18 21 12
192.284598946571 114.360079169273 2641.00003242493 19 22 11
200.390860438347 114.87553268671 2653.00011634827 17 23 13
208.718284964561 115.477405488491 2667.00005531311 18 24 14
216.392353177071 115.689411759377 2671.99993133545 19 25 15
224.511384963989 116.117745637894 2681.99992179871 18 24 14
231.30114376545 115.85322022438 2676.00011825562 17 23 13
237.611442804337 115.372098982334 2664.99996185303 19 22 13
-118.950344622135 108.364462852478 2670.00007629395 22 25 18
-111.705996096134 108.407378196716 2671.0000038147 19 22 13
-104.494839906693 108.490772545338 2673.00009727478 18 21 10
-97.526878118515 108.858115971088 2681.99992179871 19 22 11
-89.6349027752876 108.17002505064 2664.99996185303 20 24 10
-82.0207893848419 107.72529989481 2654.00004386902 17 21 7
-74.9453604221344 107.97043889761 2660.00008583069 17 21 7
-67.9640918970108 108.418397605419 2671.0000038147 16 19 8
-60.3773333132267 107.892043888569 2657.99999237061 16 19 10
-53.0811212956905 107.812002301216 2655.99989891052 16 19 12
-45.4505160450935 106.919996440411 2634.0000629425 16 19 12
-38.2739305496216 106.961451470852 2634.99999046326 19 22 15
-31.0209468007088 106.759205460548 2630.00011444092 19 22 15
-23.9401739090681 107.206284999847 2641.00003242493 16 19 12
-16.8499164283276 107.977986335754 2660.00008583069 15 18 11
-9.4503927975893 106.43570125103 2621.99997901917 13 16 9
-2.26619769819081 105.258606374264 2592.99993515015 11 14 7
4.87474072724581 106.598161160946 2625.99992752075 10 13 6
12.1362311765552 107.409849762917 2645.99990844727 9 12 5
19.4337163120508 107.815466821194 2655.99989891052 10 13 6
27.1574687212706 109.72286760807 2703.00006866455 12 15 8
41.0018786787987 107.326492667198 2644.00005340576 12 15 8
48.238467425108 107.366167008877 2644.99998092651 12 15 8
55.0190359354019 106.512680649757 2624.00007247925 11 14 7
63.0117729306221 107.932165265083 2658.99991989136 11 14 7
70.6139430403709 108.45847427845 2671.99993133545 10 13 6
78.6658376455307 109.51229929924 2697.99995422363 10 13 6
85.4882225394249 108.820587396622 2680.99999427795 11 14 7
91.6289910674095 107.438765466213 2647.0000743866 15 18 11
98.5920876264572 107.152692973614 2640.00010490417 16 19 12
105.075769126415 106.420040130615 2621.99997901917 15 18 11
113.301321864128 107.43248462677 2647.0000743866 14 17 10
120.661161839962 107.551872730255 2650.00009536743 16 19 12
128.229916095734 107.833437621593 2657.00006484985 14 17 10
135.989308357239 108.236603438854 2667.00005531311 14 17 10
141.922608017921 107.219211757183 2641.99995994568 14 17 10
148.396253585815 106.688715517521 2628.99994850159 15 18 9
156.63281083107 107.416100800037 2647.0000743866 14 17 8
164.59546983242 107.899822294712 2658.99991989136 14 17 8
171.912088990211 107.937037944794 2660.00008583069 14 17 8
177.95367538929 107.203140854836 2641.99995994568 14 17 8
186.629623174667 108.051598072052 2663.00010681152 14 17 8
192.798227071762 107.439190149307 2648.00000190735 13 16 5
197.902277112007 106.299258768559 2619.99988555908 15 20 13
207.392126321793 107.512407004833 2650.00009536743 16 21 14
217.935517430305 109.171561896801 2690.99998474121 17 22 15
227.948158979416 110.465362668037 2723.00004959106 20 23 16
232.343062758446 109.040997922421 2687.99996376038 19 22 15
-117.081515491009 99.4878858327866 2628.00002098084 21 24 17
-110.537171363831 100.057907402515 2642.99988746643 18 21 12
-104.027770459652 100.741393864155 2661.00001335144 16 19 8
-97.1287935972214 101.121887564659 2671.0000038147 18 21 10
-89.973010122776 101.275108754635 2674.99995231628 19 23 9
-81.4661160111427 99.8001992702484 2635.99991798401 19 23 9
-74.1579309105873 99.6502488851547 2631.99996948242 18 21 10
-67.9399967193604 101.090349256992 2670.00007629395 17 20 9
-60.8328394591808 101.394459605217 2677.99997329712 16 19 10
-53.302027285099 100.979089736938 2667.00005531311 15 18 11
-45.9518395364285 100.8285805583 2663.00010681152 14 17 10
-38.5506711900234 100.488618016243 2654.00004386902 18 21 14
-31.127717345953 99.9213308095932 2638.99993896484 18 21 14
-23.9497162401676 100.035466253757 2641.99995994568 18 21 14
-16.710888594389 99.8844057321548 2638.00001144409 17 20 13
-9.50825028121471 99.8846516013145 2638.00001144409 16 19 12
-2.27061286568642 98.3702093362808 2598.00004959106 14 17 10
4.8284288495779 98.4837785363197 2601.0000705719 10 13 6
11.9484178721905 98.6350700259209 2605.00001907349 10 13 6
19.2292276769876 99.5056331157684 2628.00002098084 10 13 6
26.2035112828016 98.7479314208031 2608.00004005432 12 15 8
33.6945839226246 99.8453944921494 2637.00008392334 12 15 8
40.8321022987366 99.6932163834572 2632.99989700317 12 15 8
48.0570495128632 99.7681021690369 2634.99999046326 12 15 8
55.5023886263371 100.221455097198 2647.0000743866 12 15 8
63.0130246281624 100.674666464329 2658.99991989136 11 14 7
70.8796158432961 101.544186472893 2681.99992179871 10 13 6
78.3758163452148 101.769931614399 2687.99996376038 11 14 7
84.2144191265106 99.9889373779297 2641.00003242493 12 15 8
91.7346477508545 100.327990949154 2650.00009536743 14 17 10
98.1085300445557 99.4554236531258 2627.00009346008 15 18 11
105.919420719147 100.0592187047 2642.99988746643 13 16 9
113.217934966087 100.132845342159 2644.99998092651 12 15 8
120.526932179928 100.206360220909 2647.0000743866 13 16 9
127.749800682068 100.203990936279 2647.0000743866 12 15 8
134.972155094147 100.20150244236 2647.0000743866 12 15 8
143.107190728188 100.842401385307 2664.00003433228 13 16 9
149.076521396637 99.9690368771553 2641.00003242493 15 18 9
157.050088047981 100.458234548569 2654.00004386902 14 17 8
165.217697620392 101.022951304913 2668.99991035461 14 17 8
172.690957784653 101.133346557617 2671.99993133545 15 18 9
179.641038179398 100.940816104412 2667.00005531311 14 17 8
184.390544891357 99.5749160647392 2631.00004196167 13 16 5
190.617620944977 99.0794226527214 2618.00003051758 13 16 5
199.114665389061 99.7569933533669 2635.99991798401 16 19 12
208.648279309273 100.888527929783 2665.99988937378 18 21 14
217.048823833466 101.414397358894 2680.0000667572 19 22 15
225.52478313446 101.940080523491 2694.00000572205 19 22 15
232.693195343018 101.860195398331 2691.99991226196 19 22 15
-115.568876266479 91.1211594939232 2594.00010108948 22 25 18
-111.584775149822 93.7226265668869 2667.99998283386 19 22 13
-104.733370244503 94.1109582781792 2678.99990081787 17 20 9
-97.639687359333 94.32353079319 2684.99994277954 17 20 9
-89.9746716022491 93.9738973975182 2674.99995231628 17 21 7
-81.869401037693 93.0620282888412 2648.9999294281 19 23 9
-74.807345867157 93.2741984724998 2654.99997138977 19 23 9
-67.8903609514236 93.7321782112122 2667.99998283386 18 21 10
-60.9248280525208 94.22517567873 2681.99992179871 18 21 12
-53.3829554915428 93.8397347927094 2671.0000038147 17 20 13
-46.1079888045788 93.8757508993149 2671.99993133545 17 20 13
-38.6094897985458 93.3846458792686 2657.99999237061 17 20 13
-31.1518870294094 92.7879959344864 2641.00003242493 18 21 14
-23.8504428416491 92.4371480941772 2631.00004196167 19 22 15
-16.6795216500759 92.5077795982361 2632.99989700317 18 21 14
-9.52284317463636 92.824213206768 2641.99995994568 18 21 14
-2.32134712859988 93.3162048459053 2655.99989891052 17 20 13
4.83223097398877 91.4540663361549 2602.9999256134 15 18 11
11.9624016806483 91.6295945644379 2608.00004005432 14 17 10
19.1344600170851 91.8752625584602 2615.00000953674 14 17 10
26.4551863074303 92.5072580575943 2632.99989700317 13 16 9
33.516313880682 92.1553820371628 2622.99990653992 11 14 7
41.0344675183296 92.9627865552902 2645.99990844727 10 13 6
48.7327538430691 93.875452876091 2671.99993133545 10 13 6
56.0905300080776 93.9799100160599 2674.99995231628 11 14 7
63.2748752832413 93.803197145462 2670.00007629395 9 12 5
70.5109313130379 93.7317311763763 2667.99998283386 10 13 6
78.1439989805222 94.1520035266876 2680.0000667572 11 14 7
85.3001624345779 93.9748957753181 2674.99995231628 11 14 7
91.805562376976 93.1653156876564 2651.99995040894 12 15 8
99.1560593247414 93.2690128684044 2654.99997138977 12 15 8
106.161817908287 93.0564180016518 2648.9999294281 12 15 8
113.391235470772 93.054473400116 2648.9999294281 12 15 8
120.164848864079 92.701144516468 2638.99993896484 11 14 7
127.752140164375 92.9799824953079 2647.0000743866 11 14 7
134.923622012138 92.9425358772278 2645.99990844727 12 15 8
141.551926732063 92.5537422299385 2634.99999046326 12 15 8
149.756610393524 93.1834205985069 2653.00011634827 12 15 6
157.763034105301 93.6373397707939 2665.99988937378 12 15 6
164.477854967117 93.3184251189232 2657.00006484985 13 16 7
172.629445791245 93.807190656662 2671.0000038147 17 20 11
179.846346378326 93.7690064311028 2670.00007629395 18 21 12
185.515224933624 92.958115041256 2647.0000743866 18 21 10
192.368507385254 92.7792489528656 2641.99995994568 18 21 10
201.988697052002 93.8995853066444 2674.00002479553 17 18 12
211.626037955284 94.9494689702988 2703.9999961853 19 20 14
216.890677809715 94.0328389406204 2677.99997329712 20 21 15
229.128539562225 96.1006581783295 2736.99998855591 20 23 16
236.58712208271 96.0966795682907 2736.99998855591 19 22 15
243.688136339188 95.9521681070328 2733.00004005432 19 22 15
-120.60534954071 87.702214717865 2707.00001716614 23 26 19
-113.259635865688 87.7365171909332 2707.99994468689 20 23 14
-106.064394116402 87.9003033041954 2713.00005912781 18 21 12
-97.3867997527123 86.7679715156555 2677.99997329712 18 21 10
-89.2362222075462 85.9594792127609 2653.00011634827 16 20 6
-82.4271067976952 86.4145010709763 2667.00005531311 18 21 10
-75.5975693464279 86.9342237710953 2683.00008773804 18 21 10
-67.9933056235313 86.5789726376534 2671.99993133545 18 21 10
-60.721430927515 86.6124480962753 2673.00009727478 18 21 12
-53.5437576472759 86.8077948689461 2678.99990081787 19 22 15
-45.9017083048821 86.1929506063461 2660.00008583069 19 22 15
-38.4794175624847 85.8372151851654 2648.9999294281 17 20 13
-31.1878100037575 85.6757685542107 2644.00005340576 18 21 14
-23.9687003195286 85.6762155890465 2644.00005340576 18 21 14
-16.8128423392773 86.0005915164948 2654.00004386902 18 21 14
-9.57707408815622 86.0980153083801 2657.00006484985 18 21 14
-2.31177289970219 85.709273815155 2644.99998092651 17 20 13
4.87501220777631 85.0935652852058 2625.99992752075 16 19 12
12.077278457582 85.3202566504478 2632.99989700317 16 19 12
19.44943331182 86.1301049590111 2657.99999237061 16 19 12
26.3953562825918 85.125207901001 2627.00009346008 14 17 10
33.5552245378494 85.0922986865044 2625.99992752075 12 15 8
41.128221899271 85.9341844916344 2651.99995040894 10 13 6
49.0071699023247 87.0675593614578 2687.00003623962 9 12 5
56.2592446804047 86.9370847940445 2683.00008773804 11 14 7
63.1574615836143 86.3528400659561 2664.99996185303 9 12 5
70.5121457576752 86.4489674568176 2667.99998283386 10 13 6
77.3580521345139 85.96171438694 2653.00011634827 11 14 7
84.791399538517 86.1547887325287 2658.99991989136 11 14 7
91.7725190520287 85.8941376209259 2651.00002288818 11 14 7
98.56016933918 85.5037793517113 2638.99993896484 12 15 8
106.364019215107 85.9881117939949 2654.00004386902 14 17 10
113.09352517128 85.5975225567818 2641.99995994568 14 17 10
120.030283927917 85.4012370109558 2635.99991798401 12 15 8
126.9820779562 85.2372422814369 2631.00004196167 13 16 9
134.364992380142 85.3647068142891 2634.99999046326 13 16 9
141.608014702797 85.3948593139648 2635.99991798401 12 15 8
148.912400007248 85.4573100805283 2638.00001144409 11 14 5
157.528981566429 86.2322971224785 2661.99994087219 13 16 7
165.409177541733 86.5536257624626 2671.99993133545 14 17 8
172.373816370964 86.3889530301094 2667.00005531311 16 19 10
179.579898715019 86.3537266850472 2665.99988937378 17 20 11
185.938820242882 85.9297439455986 2653.00011634827 16 19 10
193.318292498589 85.9914869070053 2654.99997138977 15 18 9
199.650317430496 85.5997055768967 2642.99988746643 17 18 10
207.481473684311 85.8555659651756 2651.00002288818 19 20 14
218.109130859375 87.2123837471008 2693.00007820129 20 21 15
224.946469068527 87.0145782828331 2687.00003623962 21 22 16
234.343528747559 87.7881571650505 2710.99996566772 21 22 16
-121.67651951313 81.0255259275436 2730.99994659424 22 25 16
-114.432498812675 81.1756402254105 2736.00006103516 19 22 13
-105.675093829632 80.1981762051582 2703.00006866455 19 22 13
-97.4610522389412 79.5172825455666 2680.0000667572 20 23 14
-89.2376229166985 78.7175744771957 2653.00011634827 19 22 13
-82.2120606899261 78.9265632629395 2660.00008583069 17 20 11
-75.2606317400932 79.2541280388832 2671.0000038147 17 20 11
-67.5872266292572 78.8101181387901 2655.99989891052 17 20 11
-60.1317398250103 78.5440281033516 2647.0000743866 16 19 10
-52.9449991881847 78.6042287945747 2648.9999294281 16 19 10
-45.6953495740891 78.5752981901169 2648.00000190735 16 19 10
-38.4654961526394 78.5759314894676 2648.00000190735 18 21 12
-31.1411172151566 78.3390700817108 2640.00010490417 18 21 12
-23.9056218415499 78.2504677772522 2637.00008392334 18 21 12
-16.9271379709244 79.2893692851067 2671.99993133545 17 20 11
-9.63850226253271 79.3489143252373 2674.00002479553 16 19 12
-2.3118092212826 78.4884467720985 2644.99998092651 13 16 9
4.93820896372199 78.9335444569588 2660.00008583069 13 16 9
12.1692093089223 78.725703060627 2653.00011634827 13 16 9
19.3985179066658 78.6661058664322 2651.00002288818 13 15 10
26.5665855258703 78.4580484032631 2644.00005340576 12 14 9
33.4918610751629 77.7750909328461 2621.00005149841 12 14 9
41.097853332758 78.6350667476654 2650.00009536743 13 15 10
48.8985069096088 79.5542672276497 2680.99999427795 13 15 10
56.1133436858654 79.4051066040993 2676.00011825562 11 13 8
63.1584525108337 79.0778025984764 2664.99996185303 8 10 5
70.592537522316 79.2548358440399 2671.0000038147 10 12 7
77.7674913406372 79.1350305080414 2667.00005531311 12 15 8
84.7289636731148 78.8370966911316 2657.00006484985 11 14 7
91.3239121437073 78.2720074057579 2638.00001144409 11 14 7
98.8978520035744 78.5672962665558 2648.00000190735 11 14 7
106.606140732765 78.921802341938 2660.00008583069 12 15 8
115.663692355156 80.166257917881 2701.99990272522 13 16 9
121.125020086765 78.9183974266052 2660.00008583069 14 17 10
128.528520464897 79.0055394172668 2663.00010681152 15 18 11
134.061127901077 77.9948979616165 2628.99994850159 13 16 9
140.750676393509 77.725850045681 2619.99988555908 12 15 8
148.858249187469 78.2280266284943 2637.00008392334 13 16 9
157.531395554543 78.9673775434494 2661.99994087219 11 14 7
166.154608130455 79.6176046133041 2684.00001525879 13 16 9
173.281326889992 79.5261189341545 2680.99999427795 17 20 13
178.302824497223 78.5150080919266 2647.0000743866 17 20 13
184.680089354515 78.1564116477966 2634.99999046326 16 19 12
193.394050002098 78.7765085697174 2655.99989891052 15 18 9
200.031086802483 78.5363763570786 2648.00000190735 17 18 10
206.388905644417 78.2071724534035 2637.00008392334 20 21 13
214.30578827858 78.4710198640823 2645.99990844727 20 21 13
224.112689495087 79.3871879577637 2677.00004577637 20 21 13
-114.183187484741 73.5456123948097 2730.00001907349 19 22 13
-104.972869157791 72.3347961902618 2684.99994277954 18 21 12
-96.6260209679604 71.5818330645561 2657.00006484985 19 22 13
-89.676171541214 71.8255788087845 2665.99988937378 19 22 13
-82.1205154061317 71.5842768549919 2657.00006484985 17 20 11
-74.4163990020752 71.1542740464211 2641.00003242493 16 19 10
-67.0283585786819 70.9666460752487 2634.0000629425 16 19 10
-60.1098835468292 71.2908133864403 2645.99990844727 15 18 9
-53.1056635081768 71.5879797935486 2657.00006484985 14 17 8
-45.7995496690273 71.5078189969063 2654.00004386902 14 17 8
-38.4369976818562 71.2928548455238 2645.99990844727 15 18 9
-31.2241390347481 71.3202729821205 2647.0000743866 15 18 9
-23.9875540137291 71.2937116622925 2645.99990844727 15 18 9
-16.8196856975555 71.5364888310432 2654.99997138977 14 17 8
-9.61340963840485 71.8600004911423 2667.00005531311 13 16 9
-2.35379673540592 72.5606232881546 2693.00007820129 12 15 8
5.0088269636035 72.6953223347664 2697.99995422363 12 15 8
12.2565375640988 71.9946622848511 2671.99993133545 12 15 8
19.4353852421045 71.563333272934 2655.99989891052 12 14 9
26.617206633091 71.3744163513184 2648.9999294281 11 13 8
33.7990261614323 71.2662190198898 2644.99998092651 11 13 8
41.0209000110626 71.2657123804092 2644.99998092651 12 14 9
48.6620999872684 71.8847960233688 2667.99998283386 12 14 9
56.05124309659 72.0187947154045 2673.00009727478 10 12 7
63.1119683384895 71.7485547065735 2663.00010681152 8 10 5
70.7521289587021 72.1248313784599 2677.00004577637 10 12 7
78.8183584809303 72.8243067860603 2703.00006866455 12 15 8
85.559293627739 72.2843483090401 2683.00008773804 12 15 8
91.3598462939262 71.0977166891098 2638.99993896484 11 14 7
98.9366099238396 71.3658258318901 2648.9999294281 11 14 7
107.248917222023 72.0918253064156 2676.00011825562 12 15 8
114.937603473663 72.3327621817589 2684.99994277954 13 16 9
122.219622135162 72.3042264580727 2684.00001525879 11 14 7
129.447385668755 72.248637676239 2681.99992179871 14 17 10
135.082915425301 71.3578909635544 2648.9999294281 14 17 10
140.591502189636 70.494033396244 2617.00010299683 14 17 10
148.747459053993 70.9769427776337 2634.99999046326 15 18 11
158.421322703362 72.1061900258064 2677.00004577637 14 17 10
166.714116930962 72.5349709391594 2693.00007820129 15 18 11
172.831326723099 72.0209404826164 2674.00002479553 17 20 13
178.574770689011 71.3991224765778 2651.00002288818 17 20 13
186.224609613419 71.5582892298698 2657.00006484985 16 19 12
193.760812282562 71.6634914278984 2661.00001335144 15 18 9
200.487092137337 71.4723542332649 2654.00004386902 18 19 11
208.19191634655 71.6312304139137 2660.00008583069 20 22 11
216.252624988556 71.8977227807045 2670.00007629395 21 23 12
224.199518561363 72.1102431416512 2677.99997329712 21 22 14
-121.189706027508 65.8497661352158 2720.00002861023 22 25 16
-113.055355846882 65.4396340250969 2703.00006866455 20 23 14
-103.996820747852 64.399927854538 2660.00008583069 17 20 11
-97.0636755228043 64.6190494298935 2668.99991035461 17 20 11
-89.9800658226013 64.765453338623 2674.99995231628 20 23 14
-82.8015431761742 64.8633688688278 2678.99990081787 19 22 13
-74.3610113859177 63.8958588242531 2638.99993896484 18 21 12
-67.2328099608421 63.9693662524223 2641.99995994568 17 20 11
-60.0198023021221 63.970148563385 2641.99995994568 16 19 10
-53.4861125051975 64.794085919857 2676.00011825562 15 18 9
-45.972716063261 64.5041391253471 2664.00003433228 15 18 9
-38.6408753693104 64.4078105688095 2660.00008583069 15 18 9
-31.5430425107479 64.747229218483 2674.00002479553 15 18 9
-24.4502201676369 65.3044879436493 2697.00002670288 15 18 9
-16.6235137730837 63.5371431708336 2624.00007247925 14 17 8
-9.49097704142332 63.755214214325 2632.99989700317 12 15 8
-2.32498371042311 64.409077167511 2660.00008583069 10 13 6
4.99218376353383 65.1112571358681 2688.99989128113 10 13 6
12.1878916397691 64.3363147974014 2657.00006484985 11 14 7
19.516134634614 64.5782575011253 2667.00005531311 10 12 7
26.8788039684296 64.7716671228409 2674.99995231628 10 12 7
34.4256237149239 65.2313604950905 2694.00000572205 10 12 7
41.3005985319614 64.4802749156952 2663.00010681152 11 13 8
48.1885075569153 63.9712437987328 2641.99995994568 11 13 8
55.632583796978 64.2369464039803 2653.00011634827 8 10 5
63.3023828268051 64.6720379590988 2671.0000038147 8 10 5
70.7794800400734 64.840704202652 2677.99997329712 10 12 7
78.0612230300903 64.8155808448792 2677.00004577637 11 14 7
85.0820541381836 64.5966678857803 2667.99998283386 11 14 7
91.5341153740883 64.0145093202591 2644.00005340576 11 14 7
98.4523445367813 63.8196542859077 2635.99991798401 11 14 7
107.330456376076 64.8352354764938 2677.99997329712 13 16 9
113.226786255836 64.0349611639977 2644.99998092651 13 16 9
122.403338551521 65.0745332241058 2687.99996376038 12 15 8
129.497319459915 64.9519562721252 2683.00008773804 14 17 10
135.849565267563 64.4903779029846 2664.00003433228 14 17 10
141.23797416687 63.6414214968681 2628.99994850159 14 17 10
149.765476584435 64.220629632473 2653.00011634827 15 18 11
158.423349261284 64.7997260093689 2677.00004577637 14 17 10
165.973350405693 64.8945942521095 2680.99999427795 15 18 11
172.122538089752 64.4568651914597 2663.00010681152 16 19 12
180.395796895027 64.817801117897 2677.99997329712 17 20 13
189.661338925362 65.4932782053947 2706.00008964539 16 19 12
197.331264615059 65.5877813696861 2710.00003814697 14 17 10
202.151566743851 64.7625401616097 2676.00011825562 19 20 12
211.794883012772 65.4860958456993 2706.00008964539 21 23 12
217.632234096527 65.0237575173378 2687.00003623962 21 23 12
225.45813024044 65.1663243770599 2693.00007820129 22 23 15
234.698966145515 65.6959563493729 2714.99991416931 22 23 15
-117.938548326492 56.856632232666 2647.0000743866 20 23 14
-111.550912261009 57.287473231554 2667.00005531311 20 23 14
-103.724345564842 56.9879226386547 2653.00011634827 18 21 12
-97.1738919615746 57.3971457779408 2671.99993133545 17 20 11
-90.317502617836 57.6774254441261 2684.99994277954 19 22 13
-83.2042992115021 57.8287355601788 2691.99991226196 19 22 13
-75.0099569559097 57.1851432323456 2661.99994087219 19 22 13
-67.2081410884857 56.7347928881645 2641.00003242493 18 21 12
-60.4066960513592 57.1221709251404 2658.99991989136 18 21 12
-53.3268265426159 57.316143065691 2667.99998283386 17 20 11
-45.9214821457863 57.1663081645966 2661.00001335144 16 19 10
-38.3072085678577 56.6511750221252 2637.00008392334 14 17 8
-31.8972989916801 58.0909326672554 2703.9999961853 14 17 8
-24.7406102716923 58.6283355951309 2729.00009155273 14 17 8
-17.1431992202997 58.1344440579414 2706.00008964539 13 16 7
-9.62806586176157 57.3826618492603 2671.0000038147 12 15 8
-2.33375164680183 57.3612488806248 2670.00007629395 11 14 7
4.98110335320234 57.6405227184296 2683.00008773804 11 14 7
12.3990420252085 58.0700971186161 2703.00006866455 11 14 7
19.4065924733877 56.9742545485497 2651.99995040894 10 12 7
27.0398929715157 57.8118562698364 2690.99998474121 10 12 7
34.5026962459087 58.0048710107803 2700.00004768372 10 12 7
48.0978786945343 56.6505305469036 2637.00008392334 10 12 7
55.7380765676498 57.1011006832123 2657.99999237061 7 9 4
