ply
format ascii 1.0
comment KinectMotionCapture
element vertex 762
property float x
property float y
property float z
property uchar red
property uchar green
property uchar blue
end_header
331.235534551018 552.836299988263 2735.11530656208 200 201 206
325.413075107301 553.536718176257 2739.37666404144 187 188 193
320.367159258068 554.154349318254 2744.29604745902 178 179 184
315.321841880039 554.771551200488 2749.21490003024 172 173 178
311.844615669099 555.221788735906 2755.43511078489 196 194 197
306.018684358445 555.921052449579 2759.70008651024 178 176 179
298.613977998719 556.78790331073 2762.67388341326 158 156 157
286.46043915092 558.159610044892 2761.78659210974 154 152 153
274.272528953497 559.535237052028 2760.93285264986 142 141 139
254.115323638001 561.759182572964 2753.69759108302 132 131 129
232.293804979675 564.161098958579 2745.25421893318 133 132 130
213.581228554556 566.232818950843 2739.44073702475 93 91 92
205.994064417341 567.11984101031 2742.59273590374 99 97 98
203.203633458239 567.495408349823 2749.55923220266 103 101 102
203.638405225655 567.526696055263 2759.04191400933 111 109 112
202.49078499643 567.72607281281 2767.23727233678 117 115 118
201.363089197443 567.922655973116 2775.41292046093 141 141 143
197.828568425956 568.375474307475 2781.6899819622 169 169 171
193.491365192447 568.913650834994 2787.3342559507 164 164 166
189.971771980895 569.364145047036 2793.59683766855 146 146 148
185.645627515542 569.9004556905 2799.23040591365 135 135 137
182.957828132605 570.261286139882 2806.09716564619 141 141 143
178.644740203147 570.795538017751 2811.71807284279 148 148 150
173.515660837716 571.416665436441 2816.71952211316 151 151 153
168.38726363153 572.037500467226 2821.72033720413 164 164 166
164.908816806082 572.481598662568 2827.94300528079 189 189 191
161.438747475536 572.924463835084 2834.15753662142 185 185 187
155.491706923984 573.63219743137 2838.54118592636 160 161 163
148.711431779475 574.428967304487 2842.32251850102 154 155 157
136.930101658124 575.761518208488 2842.4883149622 163 164 166
126.787031046373 576.918658675046 2843.88737757589 158 159 161
119.129971425135 577.809538789444 2847.10821348493 154 155 157
112.300214390744 578.611662108618 2850.93789107073 156 157 159
101.26320198735 579.864974277471 2851.79352764509 157 158 160
85.9898538277442 581.572993918812 2849.70348041149 142 143 145
74.0465470531406 582.924182450954 2850.02770529249 151 152 154
65.456118008 583.915716550056 2852.74326706251 159 160 162
51.7643779425518 585.455172720893 2851.9417296957 155 156 158
41.4337154384077 586.63403260143 2853.52420155375 156 156 158
29.3768991983998 587.99857085755 2853.95883208651 155 155 157
23.2650193555406 588.724506883832 2858.50381677528 159 159 161
17.1499507261155 589.450844907329 2863.05190856124 160 160 160
10.1741222790359 590.26974475982 2867.02381981288 159 159 159
-5.40243695332432 592.013659706061 2865.22956034642 151 151 151
-22.7472454598496 593.948386341474 2862.32917802897 143 145 142
-30.6500321535914 594.867826535918 2865.78980338616 152 154 149
335.062258509671 544.95193722753 2692.80411700048 205 207 202
333.03337820724 545.264403166773 2700.44095575866 197 199 196
334.101157930088 545.258684638238 2710.71743013094 196 197 199
337.516946667969 545.011297296142 2722.9490811816 199 200 202
337.105787002189 545.155053420577 2731.83825330566 209 210 214
332.838312120924 545.693727171528 2737.41321252021 204 205 210
327.797408718572 546.311227649976 2742.32763781595 188 189 194
321.977186553751 547.00847432092 2746.58724239312 182 183 188
316.153673348288 547.70569361363 2750.8501190688 175 176 180
310.326911080827 548.402939204858 2755.11621822416 198 196 199
304.496625571566 549.100288181648 2759.38546288838 188 186 189
297.087868015678 549.959659484458 2762.36438816454 147 145 146
284.140771322334 551.389172521129 2760.83965846859 148 146 147
267.197757271789 553.230599526292 2756.13716864363 150 149 147
243.05541114275 555.814619737098 2745.72043181935 144 143 141
222.798039186748 557.999565647068 2738.59040133274 115 114 112
210.441210088435 559.370688704087 2737.90506652038 94 92 93
205.24405509231 560.003346579027 2742.97241170198 101 99 100
202.451401087332 560.38750877333 2749.93984520254 109 107 108
201.277403763294 560.603934072859 2758.15853876601 120 118 121
200.928793587655 560.734409192568 2766.98756124842 127 125 128
198.989892970455 561.028527510328 2774.53742277746 164 164 166
196.258217449989 561.404029412112 2781.44558372893 166 166 168
190.295128260579 562.113330890094 2785.84527567827 137 137 139
186.767576507873 562.570341987981 2792.11479715225 139 139 141
183.248256429489 563.026092515126 2798.37599292175 142 142 144
183.004738170629 563.142139752354 2807.10279001198 145 145 147
178.691475313507 563.679273670719 2812.72344495001 154 154 156
173.562224263937 564.300599639402 2817.72503535967 162 162 164
167.61118089186 565.006908330047 2822.11320796699 178 178 180
164.130557319723 565.456853492998 2828.33717340604 189 189 191
160.658229466894 565.905500526908 2834.55275509409 177 177 179
153.880954229996 566.696968316992 2838.33189236171 157 158 160
145.435736112869 567.661586822646 2840.90723564655 155 156 158
136.143723943372 568.714238424422 2842.89387521442 164 165 167
126.832838762389 569.76904643178 2844.8985994039 159 160 162
120.012034575707 570.565058236408 2848.72028995876 154 155 157
108.993663351715 571.797681083365 2849.56047343916 154 155 157
96.2688066117749 573.208123613152 2849.23478411448 157 158 160
80.9839313622418 574.885546870144 2847.16070558382 141 142 144
69.8729020782705 576.128966205441 2848.09130417125 149 150 152
62.1187739591096 577.022972662665 2851.40806846156 158 159 161
49.2671412969692 578.448276904128 2851.20607294722 155 156 158
39.7802714066922 579.523341055604 2853.3828965473 156 156 158
31.1263354873548 580.511782027993 2856.16231658697 154 154 156
24.1646265299811 581.32383057538 2860.12121959651 158 158 160
19.7623419190571 581.868855361614 2865.82910818522 159 159 159
8.50532111321423 583.129322964943 2866.90215878545 158 158 158
-9.65282048726568 585.110903994705 2863.38559387682 151 151 151
-24.4234057578296 586.739456488957 2862.22495018956 141 143 140
-29.7402944078482 587.380810575787 2867.40990736314 145 147 142
-26.4051258703195 587.117716267259 2878.30702762959 178 180 175
335.881662006201 537.815455502458 2694.46245325745 200 202 197
333.086016249705 538.214501185891 2701.4306578383 198 200 197
334.153311080177 538.230514829476 2711.70440171033 194 195 197
337.568616362907 538.012849754303 2723.93213990103 195 196 198
337.931056264026 538.096273799713 2733.47894259191 208 209 213
332.889254347104 538.714506722878 2738.39415187089 206 207 212
327.848051439895 539.332251349565 2743.30883849438 188 189 194
320.4679200425 540.18175013673 2746.26113456748 185 186 191
315.422069046013 540.799255165354 2751.18047222482 178 179 183
309.592908907547 541.494280424695 2755.44894282362 175 173 176
302.189129665687 542.345623544196 2758.42411112235 190 188 191
293.986734270904 543.276226641971 2760.76369315874 152 150 151
280.242260752202 544.758543323374 2758.60605676443 153 151 152
259.331792739819 546.955237127855 2750.70557682294 147 145 146
231.202930533733 549.872619026067 2737.11335425231 133 132 130
214.097988807384 551.692958571757 2732.57443987846 105 104 102
206.503971687323 552.565394726063 2735.73539966113 97 95 96
203.694850312796 552.96006543614 2742.71763234904 105 103 104
202.500592115975 553.192889576929 2750.95435935912 116 114 115
200.523109272975 553.503282265221 2758.54012826388 129 127 130
199.367141543072 553.730866502459 2766.73960672972 137 135 138
195.002883911838 554.278586424641 2772.40933562554 154 154 156
192.2612908176 554.663535261064 2779.32594862155 146 146 148
186.288129680104 555.371554362097 2783.73549385699 139 139 141
182.750642338574 555.8353315841 2790.01388148736 147 147 149
179.221639323339 556.297803346658 2796.28403700264 141 141 143
177.334519703484 556.595241640959 2803.78198854477 143 143 145
173.826121931462 557.054775010156 2810.0317792002 156 156 158
169.505860385012 557.595343330558 2815.65921417906 168 168 170
166.01249646581 558.052539177531 2821.89442148116 184 184 186
163.35229547518 558.425664572126 2828.73195841463 185 185 187
159.878021999803 558.880145883278 2834.948947673 171 171 173
152.270205126364 559.74998750702 2838.12399428526 155 156 158
142.160519797506 560.871636265752 2839.49515047843 156 157 159
133.692927998848 561.828212027483 2842.09423771581 165 166 168
125.210563373879 562.786443747809 2844.70774983814 159 160 162
118.385621625646 563.577741970166 2848.5339078762 154 155 157
104.849139685387 565.045673851244 2847.58876815473 154 155 157
92.9548142432961 566.348613250448 2847.87148504924 158 159 161
78.5042040703989 567.909879045743 2846.40304630461 140 141 143
68.2314371807871 569.050245754936 2847.93371623549 148 149 151
57.0900136441228 570.278551328926 2848.89639273048 158 159 161
45.0746946128038 571.595623484858 2849.29716923244 155 156 158
35.5780421100382 572.658636457615 2851.48515042829 157 157 159
26.0628940790171 573.723761656789 2853.69152361297 154 154 156
19.9432365836856 574.445695313909 2858.24482317403 157 157 159
13.8202240303933 575.167917545239 2862.80107386412 158 158 158
1.6924557423188 576.498222215506 2863.3115583805 157 157 157
-13.9031180017386 578.180376159865 2861.54530885435 150 150 150
-25.2378985439989 579.431570198154 2862.6969466512 140 142 139
-27.1040289351738 579.723266603284 2870.1749042277 142 144 139
338.74296139838 530.346822554905 2688.47393555604 143 146 139
333.635962913304 530.97522051269 2693.4523836033 194 196 191
333.138739736598 531.163379572438 2702.42045533152 201 203 202
334.975691835887 531.127577886713 2713.35448575876 201 202 204
336.076313513199 531.160782797814 2723.59293255938 198 199 201
334.886266865776 531.41172319296 2731.82246202217 206 207 211
329.060536061902 532.105300622225 2736.08807907167 208 209 214
324.009297490777 532.724487310288 2741.01251812174 191 192 196
317.398883827506 533.492544348133 2744.62908163704 187 188 192
313.126922526087 534.036252276534 2750.20808972589 181 182 186
305.724296669901 534.879872499242 2753.18325413636 166 164 167
295.953503241465 535.950837757579 2754.22537666189 189 187 190
285.37244747263 537.099818615155 2754.6436616801 161 159 160
270.027355017806 538.707158669933 2751.22282867344 146 144 145
246.71719163479 541.081775817608 2741.42791892144 144 142 143
224.111752527005 543.390502739562 2732.3598554107 112 111 109
210.171156423529 544.866290311 2730.39793664189 106 105 103
205.75658348489 545.424599032665 2736.11606436182 110 108 109
202.945218344417 545.827808240799 2743.0992631562 114 112 113
200.947332051579 546.151888731932 2750.70326993698 125 123 124
198.965732252088 546.473650692078 2758.29144666698 138 136 139
196.195274806802 546.871024693732 2765.23488595628 143 141 144
192.630178998274 547.344562581701 2771.53924658034 140 140 142
189.882494335636 547.73853499282 2778.46057491343 144 144 146
184.71439013375 548.366262723779 2783.49980090003 151 151 153
180.359828824483 548.914824179436 2789.15977682651 144 144 146
175.195066796518 549.541629341242 2794.19582034032 149 149 151
174.114922425171 549.771949839671 2802.31960067203 149 149 151
171.417375180483 550.158540193729 2809.19223287273 172 172 174
167.911479702765 550.623094787767 2815.43879657808 184 184 186
163.5915362424 551.166319127878 2821.06518529221 192 192 194
160.100927000221 551.628520829342 2827.29725513819 177 177 179
157.445095545903 552.00914461927 2834.12934479795 164 164 166
150.659669478653 552.791244991068 2837.91762261894 155 156 158
139.715885108222 553.978258120539 2838.69048134747 160 161 163
132.074577409631 554.843948221579 2841.89939843744 165 166 168
126.09083192131 555.548099353572 2846.32036361584 160 161 163
119.267744271555 556.334004065038 2850.14547766525 155 156 158
104.057319022298 557.938637190158 2848.00856537544 153 154 156
87.1211617680934 559.7126955442 2844.72613302528 160 161 163
73.4991516060526 561.16401859672 2843.86837886999 140 141 143
63.214586859667 562.2897871615 2845.41258400443 146 147 149
52.0618083531894 563.500935991607 2846.38940975354 159 160 162
40.8824617688235 564.715152343858 2847.39182677633 157 158 160
33.92530755427 565.516441533063 2851.34813492935 157 157 159
27.8126449510445 566.235075651003 2855.8949761296 153 153 155
21.6966264820968 566.954086898224 2860.44475617259 155 155 157
13.8666704520194 567.841200365887 2863.83783748023 156 156 156
-0.833189671532786 569.402592077523 2862.6172268528 156 156 156
-14.7156405339715 570.884624940808 2862.01355526641 149 149 149
-24.3298935256329 571.948281321017 2864.31822039084 138 140 137
-24.4676906194798 572.081015858233 2872.93756842572 147 149 144
338.03211889336 523.348117689441 2688.79697103464 173 176 169
333.689249442191 523.906602630623 2694.44420792836 195 197 192
332.423282686734 524.181708746261 2702.7455554978 199 201 200
333.487915224622 524.241387063681 2713.01582728799 197 198 200
335.356036171111 524.225685846305 2723.91593574875 198 199 201
333.389909808202 524.561818460932 2731.48696099303 199 200 204
327.559804085652 525.253424796582 2735.75687588624 205 206 210
320.170696029398 526.088647924014 2738.71985800856 195 196 200
315.890074666259 526.636631907427 2744.30683366765 189 190 194
310.832018553976 527.255970428962 2749.23802019595 183 184 188
303.423342656871 528.092422048297 2752.22025190293 157 155 158
289.718091283279 529.511870320987 2750.03262142007 167 165 168
275.183403394565 531.009025798376 2747.24057709141 178 176 177
255.86514337953 532.950858805081 2740.63049802144 159 157 158
231.728784291828 535.341489544588 2730.23673669801 149 147 148
213.053938775512 537.22721226809 2724.41327775447 96 95 93
204.653796490539 538.15942233257 2726.94898786709 106 105 103
203.414665892704 538.425631738854 2735.22500166505 111 109 110
201.396396870098 538.763456389561 2742.84721741702 114 112 113
199.394539172093 539.098963218821 2750.45381689606 126 124 125
197.408736574039 539.432193725818 2758.04447202094 139 137 140
193.828921216745 539.913467682938 2764.36196814489 143 141 144
189.450790824193 540.468643425372 2770.04470877279 148 148 150
185.077086820662 541.023038313742 2775.72283149885 151 151 153
180.707998351648 541.576585980929 2781.39649614983 148 148 150
176.343714024137 542.129279096529 2787.06585436163 144 144 146
172.798561994691 542.604885876214 2793.34976689495 150 150 152
170.078765316735 543.002684182638 2800.24283658133 155 155 157
167.371343284683 543.398686593015 2807.12388349405 181 181 183
165.496825042184 543.716030420724 2814.60637965304 191 191 193
161.993556420772 544.185636467499 2820.84992609073 192 192 194
158.498647025146 544.653965863644 2827.08502254006 171 171 173
154.186033964183 545.198729743237 2832.70424235795 161 161 163
148.221057416304 545.898729240763 2837.10684546881 157 158 160
139.762308221003 546.833344771677 2839.70039758286 162 163 165
128.792123490168 548.004757092761 2840.50177805221 165 166 168
120.298068644867 548.943292742403 2843.12980980679 160 161 163
112.625289147443 549.804635759218 2846.37062135539 156 157 159
99.9133746904488 551.141740615595 2846.04291942853 153 154 156
83.8075703961851 552.800193661236 2843.36993004608 161 162 164
71.861809115239 554.066629090706 2843.70911875973 140 141 143
62.4171789111849 555.097196511285 2845.85023648237 146 147 149
50.416787933651 556.369988162601 2846.24273384549 159 160 162
38.3861696827603 557.646325082296 2846.66472334877 158 159 161
28.0245025878467 558.765243382973 2848.28650472112 157 157 159
22.749781530917 559.402313529142 2853.43022201597 152 152 154
15.7687426907143 560.201142691968 2857.41027370418 155 155 157
6.21446771889111 561.244487585335 2859.65871963916 156 156 156
-8.50280783600166 562.778603413482 2858.45909631418 155 155 155
-21.5433128757656 564.154449252301 2858.45196379318 149 149 149
-26.005284109667 564.715211599126 2864.21713391825 138 140 137
-25.2839258511206 564.782577851712 2873.40989870918 152 154 149
337.321610073246 516.342812180042 2689.12098857348 199 201 196
336.041301881715 516.63368883554 2697.43458436403 188 190 187
334.012685627434 516.98965351917 2705.06439398107 188 190 189
334.31050560431 517.138748023031 2714.66565914691 184 185 187
332.319917046526 517.489181600952 2722.25852419419 193 194 196
329.57151566033 517.905858911418 2729.17720847015 173 174 178
323.731652235699 518.596087694184 2733.45735434948 170 171 175
317.888287097099 519.286387664173 2737.74062911911 193 194 196
314.381292777229 519.768699425932 2743.98599733132 175 176 178
306.973727210136 520.59749254515 2746.96825838716 175 176 178
299.555153738912 521.427231119394 2749.9613107167 158 156 159
285.054767944445 522.888484466185 2747.14051022059 144 142 145
268.932914670403 524.495623881816 2743.07379468471 137 135 136
245.65157292492 526.743775538564 2733.2689561649 129 127 128
220.69873925081 529.143887174099 2722.26765558548 122 120 121
206.757190889779 530.561399208013 2720.3149576795 103 102 100
199.136854132849 531.41375919314 2723.50535834169 106 105 103
199.478491562391 531.552287976197 2733.06467373821 109 107 108
197.450216149673 531.902312808685 2740.69502280195 113 111 112
197.040589469566 532.10614181658 2749.57379390264 127 125 126
195.048692059588 532.451079388775 2757.16877096674 142 140 143
190.657823217226 533.010969916513 2762.86312637841 156 154 157
187.078659014836 533.497396972858 2769.17955211208 150 150 152
181.890013642391 534.128303933016 2774.23870589601 146 146 148
179.134803625369 534.539500430737 2781.16496130477 145 145 147
175.579012320023 535.022197920781 2787.45839079244 145 145 147
172.031914668029 535.503638977708 2793.74371089608 157 157 159
169.309937461352 535.910026778959 2800.63767635613 170 170 172
167.418906627132 536.240508936194 2808.13462792344 198 198 200
165.544160939989 536.568820154227 2815.61572896283 193 193 195
162.863196375114 536.969506940876 2822.46981087076 180 180 182
160.194648973299 537.368392471515 2829.31182857707 163 163 165
153.406317800751 538.140745924254 2833.10443180094 157 157 159
145.782940284488 538.988919161358 2836.29847078162 156 157 159
136.487925585194 539.989244186759 2838.29548790912 160 161 163
127.17448021039 540.991555325205 2840.3108512652 165 166 168
119.510529252735 541.84411941686 2843.5441934646 160 161 163
109.327520660937 542.926391940511 2844.99398053213 155 156 158
96.6079591645466 544.240519484158 2844.67726826522 151 152 154
79.6546716660331 545.941787999227 2841.4226048073 162 163 165
68.5411323844694 547.111193553824 2842.36663506391 141 142 144
60.7764480693276 547.975247824835 2845.69830873292 146 147 149
52.155206181395 548.917846750344 2848.4520385506 160 161 163
38.4330519961726 550.327690649913 2847.69985949142 158 159 161
25.5225618462132 551.664148203693 2847.5694418342 157 157 159
19.3903053496136 552.380164677647 2852.13578910487 152 152 154
13.2551129876752 553.096508741753 2856.70534115753 155 155 157
6.26140672534437 553.891703055362 2860.69884685429 155 155 155
-6.74095653276519 555.23903504831 2860.65805331424 155 155 155
-23.2145315879988 556.906317783954 2858.34896070976 149 149 149
-28.5418014242445 557.549747179002 2863.54391982509 138 140 137
-29.5526929876031 557.795733908262 2871.59627779065 156 158 153
340.200811835229 508.829730158972 2683.12126310786 174 175 170
340.432430746794 509.007160791184 2692.78407884278 207 209 204
338.393366888827 509.375692569213 2700.42274351566 186 188 185
335.601940543614 509.807123971896 2707.38163372158 183 185 184
333.59312347367 510.171135035774 2714.9909310464 170 171 173
332.372205788261 510.467097972249 2723.24446159431 175 176 178
330.397379197608 510.826158892532 2730.82039965779 185 186 190
326.11110813135 511.381282712879 2736.41193029082 161 162 166
318.717680363226 512.20121727872 2739.38146159361 176 177 179
312.87270497032 512.888801289939 2743.66673678709 172 173 175
303.89767302461 513.84399789208 2745.3530141133 165 166 168
297.254734633475 514.599761854908 2749.00369207529 149 147 150
283.534096103885 515.962227027539 2746.84010118509 139 137 140
264.258270038932 517.802784726409 2740.20319086367 137 135 136
237.017815632226 520.329789468753 2727.20337310605 131 129 130
214.418048935511 522.461278111091 2718.15587254759 122 120 121
202.841356921812 523.646365403118 2718.1405932422 103 102 100
194.415621845589 524.560573068054 2720.70437812165 103 102 100
191.556154600716 524.994790124359 2727.73076007036 110 108 109
191.1064559816 525.220195146208 2736.64579643142 115 113 114
190.681013371293 525.442263915106 2745.53757715589 134 132 133
191.885861899039 525.522123765665 2755.6656295736 148 146 149
187.486994703385 526.085912085422 2761.36735137637 157 155 158
184.706769214787 526.508930598307 2768.31670022951 146 146 148
179.512105780244 527.140802621708 2773.38168740214 143 143 145
178.372464916747 527.420121205672 2781.55696889244 145 145 147
174.001963366628 527.979318077138 2787.23153964592 149 149 151
171.265410534509 528.396005394173 2794.13845665356 169 169 171
167.72447383378 528.882048966419 2800.41664074978 177 177 179
165.829345955376 529.224045307311 2807.91595895121 195 195 197
164.771195113836 529.492163724464 2816.01231286682 189 189 191
163.732924031348 529.757730051195 2824.08896524367 170 170 172
159.417364876111 530.308880153085 2829.71016669586 164 164 166
152.627019010263 531.076298333197 2833.5054999711 158 158 160
145.001440898729 531.916919174288 2836.70250257426 157 158 160
136.534784702059 532.831450152895 2839.30687494562 161 162 164
127.221289345859 533.820617543985 2841.32423057408 165 166 168
115.386623487091 535.031635067562 2841.56095279151 159 160 162
104.357918670446 536.172655241947 2842.42493651717 155 156 158
91.6267993642332 537.464210034378 2842.12303756904 153 154 156
78.8617521490567 538.759675127958 2841.85458943725 163 164 166
66.9042650019369 539.984996849952 2842.21116085536 140 141 143
59.1356982129798 540.841697714556 2845.54777670852 142 143 145
48.8190884368045 541.923534924174 2847.13029606635 154 155 157
36.784692038117 543.157802131125 2847.56225521142 164 165 167
21.3216139982766 544.696204550044 2845.68568190502 157 157 159
15.1798110390979 545.410964263084 2850.26203254485 151 151 153
9.03490486616976 546.126056216699 2854.84141561681 151 151 153
3.74223968538745 546.765594895693 2860.00258684384 155 155 155
-10.9805380287358 548.241789344914 2858.81698799882 153 153 153
-29.1820000359806 550.028131199355 2855.37229715935 147 147 147
-36.2452530013098 550.826474494909 2859.43406050013 135 137 134
-23.4633506008759 549.859962490232 2876.6417530835 172 174 169
339.492897738358 501.80534545666 2683.44552394454 208 208 206
338.957955572913 502.064127773447 2692.44061309962 197 199 196
338.446868762023 502.319548930787 2701.41251031288 195 197 196
337.959469418774 502.571672615817 2710.36103504358 202 203 205
338.266147560568 502.757626331493 2719.94805614529 190 191 195
334.740661037157 503.25477072055 2726.20959513314 172 173 177
331.223521467051 503.750538514971 2732.46304893306 201 202 206
324.610972903736 504.498903743125 2736.08464287654 196 197 201
317.991243249422 505.247702511291 2739.71330367251 158 159 161
309.804878173298 506.124922884823 2742.04485730883 152 153 155
300.040061434461 507.131949588897 2743.09049498364 150 152 151
293.387367507753 507.883770581766 2746.7517809479 135 133 136
280.442514583636 509.153431111217 2745.2484492867 131 129 132
258.008624029431 511.206307433417 2736.04785013321 137 135 136
229.174007435388 513.790372526502 2721.78880686331 134 132 133
209.720934078665 515.603652795359 2715.33193731505 124 122 123
201.305838600218 516.506360085281 2717.88651882504 109 108 106
192.080830364735 517.476411477227 2719.81883077088 105 104 102
188.417775743565 517.98578126088 2726.21483216346 112 110 111
186.361917584731 518.361088764676 2733.86917237606 114 112 113
186.725576007972 518.534404594046 2743.40147909004 143 141 142
187.117148558475 518.704024497659 2752.90661291923 151 149 152
184.316521786546 519.13816539631 2759.87457666455 149 147 150
182.335186007537 519.503147706702 2767.45610326942 151 151 153
177.943397097819 520.068461417934 2773.15057077742 146 146 148
176.799781316379 520.361919348884 2781.32804747269 151 151 153
173.237679651545 520.856675405867 2787.62596098969 156 156 158
169.684293706403 521.35008379468 2793.91575669496 177 177 179
166.956086033767 521.773738832164 2800.81335700983 185 185 187
166.696071402777 521.989606529107 2809.54178182109 190 190 192
164.818914229492 522.340187641149 2817.02198602126 181 181 183
162.135566193354 522.757745142463 2823.87594126713 167 167 169
157.815752645349 523.312334088568 2829.50052129256 163 163 165
151.021603107009 524.075117940635 2833.30065446447 159 159 161
141.73539525022 525.04809159582 2835.29296878774 157 158 160
131.600395419077 526.093294249633 2836.70056135682 162 163 165
125.603898873211 526.789293514253 2841.1353933663 164 165 167
115.433614650645 527.838413606813 2842.57744486192 159 160 162
106.077132910884 528.819201409179 2844.63872510427 156 157 159
93.349888444811 530.086355857304 2844.33658474284 155 156 158
81.4284772153346 531.286166218843 2844.66110280936 162 163 165
66.1096836961232 532.775555031605 2842.64883487263 142 143 145
55.8078005468929 533.839850008056 2844.21932320662 141 142 144
47.1749316758525 534.762803859651 2846.98750232375 159 160 162
36.8319379388034 535.831898181545 2848.598104738 167 168 170
25.6170455003581 536.975987050096 2849.64652197281 158 158 160
18.6332552364208 537.75986066313 2853.63151628918 149 149 151
10.7890450949615 538.61737018792 2857.04312758996 148 148 150
3.7895231870464 539.402978111428 2861.04382517303 154 154 154
-12.6475787761495 540.996551369652 2858.70940847756 155 155 155
-30.8528821532246 542.74338017894 2855.27403434394 146 146 146
-41.364698854701 543.832371550564 2857.04933968227 141 143 140
332.503427655675 495.025466792403 2668.7159958722 137 136 131
341.834187530193 494.537916282184 2686.44577722394 201 201 199
340.540304065594 494.87170707976 2694.76617292787 196 198 195
337.734212815857 495.321780304311 2701.73720818963 192 194 193
338.01268489321 495.530631617671 2711.34885407536 187 188 190
336.778969905494 495.855821714739 2719.61111061407 192 193 197
334.793151838807 496.238470048393 2727.19447716634 185 186 190
330.501597608731 496.80040569135 2732.78990943273 184 185 189
325.438741622861 497.422177346838 2737.72550269032 190 191 193
319.598674266015 498.104500531338 2742.00701952132 156 157 159
309.856404887213 499.093264434292 2743.03296656834 148 149 151
299.30977801149 500.145884129115 2743.43130532451 151 153 152
287.95296825021 501.263152967432 2743.20770322985 133 131 134
272.637623122427 502.693757846491 2739.78345206947 132 130 133
244.671746191168 505.125476242217 2726.10116356515 135 133 134
219.751720987347 507.320823454576 2715.09720994005 132 130 131
204.232523068131 508.775269699049 2711.87186387167 120 118 119
199.770744677126 509.354464977651 2717.63411812162 110 109 107
192.132216923477 510.185425796621 2720.84540765789 110 109 107
186.874524757136 510.827248533252 2725.97151258186 113 111 112
184.015121469905 511.277732922789 2732.99542671494 114 112 113
181.168114625665 511.726359699583 2740.00730555123 145 143 144
183.954993023316 511.724388574179 2751.41029213937 153 151 154
181.951339445513 512.103417959169 2759.01190449687 150 148 151
180.770777825392 512.415610603155 2767.2229621317 158 158 160
176.375047961149 512.984356537738 2772.92117362668 161 161 163
173.605538592844 513.422122603016 2779.85770153216 165 165 167
171.661098229891 513.792802689018 2787.40174831473 171 171 173
169.732943283269 514.161282317461 2794.9299486648 184 184 186
166.187904933373 514.659063491292 2801.21080878887 191 191 193
164.288409241226 515.023635321199 2808.7111276465 178 178 180
160.764061976612 515.518378826673 2814.97155234108 170 170 172
158.070816817518 515.945469137716 2821.83392663124 164 164 166
153.741365554831 516.504149505481 2827.46781018148 161 161 163
147.763510397946 517.196013215522 2831.8844044073 158 158 160
140.95455065692 517.955238996926 2835.6997702107 156 157 159
134.138431380394 518.715144514144 2839.52180723203 161 162 164
125.651136448702 519.610960102464 2842.14944029888 164 165 167
113.812585610743 520.779980349918 2842.39622753714 160 161 163
103.616213404192 521.816218751015 2843.86642653688 158 159 161
91.721141664046 522.991745183593 2844.16837825523 157 158 160
78.9562338277996 524.239339503554 2843.90686699753 162 163 165
63.6316135067849 525.697367389159 2841.90468245047 146 147 149
51.6362943946325 526.884647063446 2842.30444416716 141 142 144
42.9937854881595 527.798260774741 2845.08357645064 152 153 155
33.4888826307633 528.783105663919 2847.29164142121 166 167 169
26.5140667423656 529.560835564069 2851.26863208809 164 164 166
17.8293000926715 530.479304784733 2854.08900929311 147 147 149
8.27623286633372 531.469674391975 2856.34374780113 147 147 149
-2.15054059415198 532.532717716649 2858.03877689599 152 152 152
-20.315641097266 534.234585903763 2854.57012587454 160 160 160
-35.9603940491557 535.730612841128 2852.88022151912 145 145 145
-46.4837581094639 536.805197326489 2854.66912288697 155 157 154
341.682297434683 487.216739751216 2677.75963212008 200 201 195
340.364158127997 487.567534510559 2686.10160105566 206 206 204
339.066183361789 487.915420358306 2694.42431408231 200 202 199
337.787995114319 488.260500510334 2702.72745564196 215 217 216
336.529992665905 488.602669070784 2711.0113205787 214 215 217
333.751872281126 489.056793617571 2717.95398157441 191 192 196
328.670056465406 489.681810508855 2722.90792257889 193 194 198
325.136555833826 490.190681083502 2729.17534872753 192 193 197
320.05977386443 490.814385236968 2734.12448507027 188 189 191
315.76154386249 491.379272306885 2739.72644809918 175 177 176
306.789128577075 492.294642961587 2741.41567545868 152 154 153
297.798049041055 493.211999690771 2743.123480996 149 151 150
284.086143711156 494.485631328924 2740.96400962502 138 136 139
265.618821326792 496.119725156188 2734.97166778466 139 137 140
235.273171660244 498.654323673794 2719.38625735375 139 137 138
211.90911519089 500.665882421642 2709.69852410611 135 133 134
200.327561762022 501.787984692937 2709.6973814164 121 119 120
197.442437162108 502.250851830736 2716.74500702842 115 114 112
192.183762523905 502.893299658581 2721.87199517327 114 113 111
188.520201673306 503.413937337529 2728.26683386916 115 113 114
184.865292766665 503.933235388251 2734.65361689525 118 116 117
182.82101613966 504.328796421991 2742.29312517066 147 145 146
183.202186045717 504.537762637307 2751.80277361187 155 153 156
182.001405262206 504.866437317661 2760.03181097906 154 152 155
179.20685862524 505.316087114799 2766.99144485207 162 162 164
175.61563291664 505.826131579078 2773.31601935514 162 162 164
172.033164906377 506.334882051938 2779.63242642766 167 167 169
170.084606240664 506.717079001579 2787.17886055833 177 177 179
168.96712598613 507.0342203722 2795.32688388698 190 190 192
166.23653403447 507.474834679421 2802.22434525351 187 187 189
164.336810897678 507.850373899651 2809.72326899154 175 175 177
159.991770112565 508.414393835445 2815.37150614019 170 170 172
157.29643026682 508.849974366317 2822.23470563437 165 165 167
152.140296797874 509.475957120875 2827.26230241295 161 161 163
146.158656252804 510.165837795036 2831.68328651902 158 158 160
140.173724425506 510.855999003461 2836.10715961217 156 157 159
132.52563519345 511.675709738413 2839.32994443733 159 160 162
123.202151507591 512.626492819266 2841.3625539671 165 166 168
111.357989028415 513.774919718992 2841.61829517784 162 163 165
101.155620941116 514.796005450887 2843.0963498917 159 160 162
90.9307637025267 515.819660937922 2844.59635685655 155 156 158
74.8043083033214 517.307113158315 2841.96914817388 162 163 165
60.3120767915923 518.668165555338 2840.57196932881 146 147 149
48.3091286550965 519.835148727418 2840.98230659361 142 143 145
42.1958321389773 520.53947436649 2845.53189206566 149 150 152
32.6888845219049 521.511322082067 2847.74357064741 160 161 163
27.4112176649113 522.150090391736 2852.88996217745 165 165 167
16.1739188858396 523.259735637209 2853.96571999217 149 149 151
4.91034639024512 524.37248671123 2855.0671089557 149 149 151
-6.37958458692767 525.488324815366 2856.19421601937 149 149 149
-26.2686350541825 527.287350117387 2851.5892943824 161 161 161
-38.4898065109791 528.479956803969 2852.21254348593 143 143 143
-49.0187260008366 529.539424956091 2854.00953350689 162 164 161
337.369997286104 480.692559662377 2684.42299020074 201 201 199
336.063663146192 481.055104694417 2692.75149974602 198 200 199
335.543530279462 481.36061037681 2701.72497735553 191 193 192
333.511308894575 481.771651124261 2709.35056454437 163 164 166
328.415021501312 482.39905259169 2714.31852359996 135 136 140
323.319343747051 483.02596442265 2719.28594964307 167 168 172
318.998039857275 483.597282005844 2724.90953711466 175 176 178
316.233002473748 484.05692194486 2731.83839132416 160 161 163
312.702306064614 484.570303930895 2738.10236605382 198 200 199
305.281471049466 485.361644058514 2741.10333940354 179 181 180
295.504737086882 486.322365846226 2742.16799274611 154 156 155
280.219849412323 487.679960645896 2738.72428774228 139 137 138
258.600493136214 489.496098946199 2730.16674310358 143 141 142
228.237939026809 491.946838950509 2714.61085112795 145 143 144
205.645978180665 493.841792563976 2705.59055901845 139 137 138
197.214329405796 494.715261175162 2708.16623750243 122 120 121
196.700931393435 495.014830056569 2717.13356691658 116 115 113
193.825916414906 495.48444247636 2724.17015657539 120 119 117
190.96334039652 495.952191923445 2731.19466950944 119 117 118
186.514909405188 496.534687416075 2736.94318182401 127 125 126
182.871922793462 497.057832188792 2743.31721944919 142 140 141
180.843640900921 497.462109158526 2750.9395565053 146 144 147
178.026715663701 497.923160098061 2757.9197275753 149 147 150
177.642922295374 498.204755574116 2766.76135196547 157 157 159
175.665411270034 498.602042381059 2774.33430594293 163 163 165
172.893475374804 499.05674355768 2781.27074042345 178 178 180
171.75945668018 499.389857020097 2789.4328259994 184 184 186
168.201370106537 499.900706635692 2795.72437385057 177 177 179
165.468576367579 500.34991311772 2802.62275170475 171 171 173
163.566857796277 500.736747511232 2810.12232535906 169 169 171
160.040174987586 501.243107463832 2816.38335237762 170 170 172
155.699680294449 501.809237374103 2822.02676333643 163 163 165
148.066558484376 502.619925999687 2825.23601875413 156 156 158
143.72761862916 503.185535569386 2830.87796264201 151 151 153
137.736988680245 503.873895903545 2835.30809806457 155 156 158
131.743067987609 504.562477735255 2839.74113066507 156 157 159
120.753450823686 505.624829772424 2840.57792689008 167 168 170
108.903551064276 506.752751169953 2840.84239600917 165 166 168
97.0233002772676 507.884099052892 2841.1361598723 161 162 164
86.7887239174769 508.893117175261 2842.64798146429 152 153 155
71.4927865727719 510.283829745439 2840.62760131395 163 164 166
56.9926621259746 511.616553219077 2839.24210943059 146 147 149
43.294637675495 512.890527900529 2838.48605059921 142 143 145
38.0153939142418 513.529907785821 2843.63391762788 145 146 148
30.1940129168292 514.361541491937 2847.02668368585 147 148 150
24.0610559989212 515.065603586614 2851.59583117926 163 163 165
13.6674802913559 516.093044460438 2853.26281859941 151 151 153
2.39816781050983 517.187914486049 2854.37255026428 150 150 150
-8.89750395967548 518.285960096847 2855.50798774303 144 144 144
-29.6492928178953 520.105517323705 2850.33983415466 159 159 159
-41.0190221731885 521.212381388304 2851.54717070458 140 140 138
-43.803569764763 521.664603620614 2858.4964951729 172 174 169
341.032230875424 473.059311978046 2679.08037230551 202 202 200
334.376117905446 473.794875817752 2682.74745623042 195 195 195
333.061623628106 474.172071363691 2691.08190357324 185 185 187
334.065584312047 474.391862233203 2701.38875884602 194 194 196
332.796897562662 474.7626343553 2709.67866801566 187 187 189
326.928483943846 475.442486731811 2713.98869828818 162 162 164
318.740897391031 476.279025179551 2716.32747763978 140 140 142
313.633837284254 476.907195030425 2721.30602059241 156 156 156
309.303178261805 477.482168667451 2726.93835748587 152 152 152
307.31025737326 477.897408168892 2734.52396028488 167 167 167
301.435122017749 478.57622092467 2738.84081899679 198 198 198
293.211710736184 479.415388646254 2741.2147842281 193 193 193
277.137268248725 480.792617060349 2737.1349698259 140 138 139
252.368408447016 482.768901658935 2726.01362192252 141 140 138
222.777894133418 485.081503498626 2711.12807125294 132 131 129
201.75144486901 486.810335644527 2703.41191215805 122 121 119
194.101242511753 487.61988832811 2706.63795886134 126 125 123
193.579911704076 487.936837560265 2715.61093469225 124 123 121
192.287416422638 488.305556253556 2723.92512742405 123 121 122
191.014951325815 488.671526986414 2732.21949819178 125 123 124
187.36533951204 489.201390815858 2738.59945950888 134 132 133
183.724276069545 489.729911627555 2744.97113066436 151 149 150
180.894456546919 490.201122129983 2751.96226652943 151 149 150
178.882399705222 490.614190900415 2759.56753028789 162 162 164
176.886355177067 491.025018226904 2767.15688702474 166 166 168
175.715411902338 491.376863722376 2775.35253282628 171 171 173
172.132479641292 491.896935767281 2781.66772758329 181 181 183
170.183400695036 492.301252647655 2789.21140904412 182 182 184
166.621390643414 492.818274333837 2795.50627857957 179 179 181
164.70107805228 493.218581460697 2803.02198726435 170 170 172
163.61566339065 493.5587766296 2811.13476164391 173 173 175
160.909181298288 494.012639939984 2818.00598552487 173 173 175
156.570633468722 494.581548273821 2823.64739041158 162 162 164
148.939201382987 495.384194066791 2826.85581879319 154 154 156
142.123133583858 496.129144496953 2830.68001505205 148 148 150
135.30032678812 496.874666087086 2834.51115665896 153 154 156
125.979845276201 497.79894750608 2836.54470191967 155 156 158
117.473046441597 498.665703033512 2839.19599771473 166 167 169
105.615223565732 499.773260104073 2839.47100660223 166 167 169
97.0712905742435 500.644195746993 2842.15855934478 156 157 159
85.9988996114995 501.697581992813 2843.07887631569 157 157 159
71.5409165179319 502.996026147566 2841.65694175596 161 161 163
56.1991461525988 504.360155850423 2839.68566556683 153 153 155
42.4992809592881 505.607797130427 2838.93532668553 145 145 147
34.681030933728 506.431399664763 2842.32617064584 146 146 148
26.8519411878754 507.256132842771 2845.72761150001 148 148 150
20.7111831924092 507.958760665343 2850.30471756354 152 154 153
10.3098866698903 508.971312256247 2851.98157249659 158 160 159
0.73978854595147 509.924277242676 2854.2590891663 141 143 142
-13.9810990612599 511.253784333324 2853.09329374471 147 149 146
-33.0297865533864 512.901327704334 2849.09317753155 156 158 155
-46.9845240461635 514.179124231753 2848.59147367892 139 141 136
339.567243581619 466.046855930031 2678.73774565073 195 197 194
335.955498503157 466.584460484935 2685.07862282205 193 193 195
333.880597040524 467.023378341646 2692.74247173445 183 183 185
334.885892352876 467.264744010509 2703.04447511358 182 182 184
332.850806219661 467.697977408713 2710.66928913378 182 182 184
326.982139395175 468.375326046283 2714.97994089479 155 155 157
318.794394132315 469.201329082006 2717.32043497711 158 158 160
311.365466136249 469.979006220668 2720.33146416032 146 146 146
306.252923201356 470.607660878252 2725.3153799881 147 147 147
305.029599769838 470.984625936288 2733.55932739927 152 152 152
301.487471002735 471.51028637886 2739.83317772088 156 156 156
290.918969988963 472.491068090852 2740.26385544198 162 162 162
270.13744564319 474.137278413826 2732.31669375157 161 160 158
236.710447266097 476.611893605252 2714.13199853748 144 143 141
211.018877458542 478.588745099584 2702.5095843634 141 140 138
197.068143770024 479.802455895634 2700.59646719935 147 146 144
192.571416512794 480.397952290585 2706.39067905023 146 145 143
192.045897678084 480.731734370614 2715.36532576634 127 126 124
192.339567238095 481.009933626609 2724.95163073149 121 119 120
191.066764621712 481.389627676914 2733.24430836081 146 144 145
187.416888525425 481.92518583071 2739.62369049569 165 163 164
182.97436176691 482.512493108577 2745.36529079805 182 180 181
180.142529333228 482.992258937052 2752.3574988821 177 175 176
178.128057056636 483.416672419894 2759.96314661758 165 165 167
178.550459148181 483.677345580631 2769.42420862513 169 169 171
176.574571969126 484.096527947968 2776.99265178694 174 174 176
172.993164135505 484.622022891 2783.30519342101 178 178 180
171.045770208784 485.037154518439 2790.84560321765 175 175 177
168.300045782527 485.504885687848 2797.75408349477 166 166 168
164.750316162915 486.025784362483 2804.03618536249 167 167 169
162.027533510906 486.490210574933 2810.92237258984 175 175 177
160.137565193781 486.897424650323 2818.40692811797 172 172 174
155.796696963454 487.469586986779 2824.04981841477 154 154 156
148.163462755 488.264663042948 2827.26149297667 152 152 154
138.866502984885 489.173271390536 2829.27399727317 153 153 155
130.379353587528 490.027525093685 2831.90762865074 152 153 155
122.707608288915 490.82670252785 2835.1566012706 156 157 159
113.360761638937 491.74083331457 2837.21782776217 166 167 169
103.995590337082 492.656966332784 2839.29729281699 165 166 168
93.775714855687 493.632641822504 2840.79944424596 155 156 158
82.6956278493442 494.668423096563 2841.73000550906 157 157 159
66.5502248880849 496.054183979479 2839.13664197088 161 161 163
54.5642236470685 497.155478777666 2839.54019727291 153 153 155
40.0167628538393 498.435259892261 2838.20953593887 145 145 147
32.1926742961161 499.251785096837 2841.60722367417 144 144 146
24.3577029624387 500.069505341764 2845.01554154044 145 145 147
18.211099947762 500.770422815581 2849.59870458326 141 143 142
8.65566116225924 501.708566617648 2851.86385487777 147 149 148
-2.62534223166933 502.767802630254 2852.99012464173 139 141 140
-17.3535329742025 504.068939336895 2851.83611231384 143 145 142
-34.6951815069576 505.55480968202 2848.9989328594 154 156 151
-46.935414569921 506.68616253875 2849.65016370894 138 140 135
339.622770447404 458.931665089113 2679.73422875111 190 192 189
336.773024754242 459.429139001113 2686.74160771962 188 188 190
333.171234986136 459.970618818866 2693.07202635843 173 173 175
333.408136212143 460.280122359818 2702.7100763588 176 176 178
332.136922745731 460.678532027908 2710.99874762056 186 186 188
328.5759030029 461.213856628207 2717.28992860203 161 161 163
319.619849159611 462.075625908812 2718.97083106732 160 160 162
310.644931560189 462.939419452651 2720.67016633608 153 153 153
303.202981220753 463.710469590995 2723.69544420851 145 145 145
300.416019146525 464.197211164476 2730.64172650825 144 144 144
298.421346298567 464.634300049648 2738.22617754148 158 158 158
286.281678587936 465.693492391015 2737.37130148447 166 166 166
257.653053188289 467.770197006007 2722.9826935705 148 147 145
224.195433829593 470.15184564563 2704.84214585956 134 133 131
205.560076290661 471.624024767875 2699.0405963344 134 133 131
196.331874604694 472.516122212513 2700.98726314115 152 151 149
192.62443320597 473.065600864749 2707.42175102874 139 138 136
190.51193029811 473.514815088692 2715.12107909152 110 109 107
187.620553078557 474.011345589311 2722.16993821695 119 117 118
185.538645571212 474.456231026267 2729.83952438757 149 147 148
183.473024826466 474.898768413879 2737.49328460283 168 166 167
183.025829772318 475.238185338219 2746.38932181947 188 186 187
180.996714043268 475.675678422363 2754.00757756035 186 184 185
179.788927861496 476.060018284279 2762.23534410205 182 182 184
178.60112961644 476.441586027368 2770.44333420307 180 180 182
177.43365265865 476.820519942568 2778.63187208604 177 177 179
173.043299551694 477.403018967446 2784.32237383882 170 170 172
169.470384864645 477.932943761768 2790.6261647647 168 168 170
168.349749196005 478.305307484599 2798.76882178467 169 169 171
164.799776013951 478.831956840319 2805.05031556535 175 175 177
162.076789880892 479.304723309322 2811.93547216611 178 178 180
158.545846356392 479.82861986138 2818.19847607871 172 172 174
154.200912340284 480.404213711647 2823.84489658465 153 153 155
148.21221561305 481.085489948624 2828.27415931598 150 150 152
139.74138212281 481.92749820336 2830.89306078653 149 149 151
131.256156817458 482.771012893026 2833.5263687338 151 152 154
122.756179944372 483.616180861304 2836.17408085204 155 156 158
114.241516087046 484.46290551318 2838.8361472856 164 165 167
104.044062029746 485.420157171527 2840.31875694321 163 164 166
92.1522967006965 486.48927031285 2840.63315318444 154 155 157
79.3927313272449 487.616749772452 2840.38408970612 159 159 161
65.7591210588819 488.803379404373 2839.57697619985 162 162 164
54.6128817684748 489.828394325175 2840.57481892125 154 154 156
40.9092113352609 491.023250019316 2839.83572254397 147 147 149
29.7046005694424 492.055122357054 2840.89051548011 144 144 146
19.3214035774494 493.033919307708 2842.55472407487 144 144 146
11.4640981327923 493.846523815036 2845.98597614728 141 143 142
2.74435470706846 494.716844743179 2848.84786426256 143 145 144
-8.54991746711997 495.759224246945 2849.9901393481 138 140 139
-26.7125980243548 497.260693095271 2846.54904206137 143 145 142
-39.7893154921571 498.425602509663 2846.60904532815 157 159 154
-43.4494166947772 498.962420216169 2852.99839498344 139 141 136
335.716470017097 451.689725046858 2667.67933521909 188 190 187
335.877412760156 452.028765309279 2677.38844760136 183 185 184
336.066090009586 452.364014352357 2687.07057954937 183 183 185
333.990456488402 452.824990384545 2694.73189521803 170 170 172
331.930761952756 453.283616279297 2702.37739274572 162 162 164
330.655111050862 453.696220193464 2710.66803470115 175 175 177
327.859767096091 454.193705770217 2717.62139021519 194 194 196
322.761052724739 454.821796494169 2722.59165742409 186 186 188
314.567700425645 455.626982764236 2724.94079608515 160 160 160
305.583511468933 456.478264342234 2726.65118721184 148 148 148
298.136173066261 457.241738095854 2729.68293529707 147 147 147
293.016574707055 457.871016842059 2734.67376502546 154 154 154
276.955188008146 459.134529111834 2730.5977932287 151 151 151
245.169478444874 461.315797618297 2713.66078694913 143 142 140
216.394168222911 463.329587720912 2699.42713796958 134 133 131
201.67646941677 464.52838859713 2696.86058502508 127 126 124
195.596023350817 465.223265720603 2701.37894600098 134 133 131
192.677629660901 465.73216533821 2708.45280473077 116 115 113
189.771654480314 466.239116108022 2715.51461973607 118 117 115
187.673168989993 466.69732502459 2723.19869888438 123 121 122
184.793898621057 467.200466962373 2730.23455856065 132 130 131
182.726029520574 467.654373930329 2737.88887100738 138 136 137
181.475618739828 468.058180849751 2746.15608718337 156 154 155
179.442299135201 468.507260554174 2753.77680493743 169 167 168
176.620478326975 469.002187076356 2760.75683058549 185 185 187
176.231577973456 469.350147126154 2769.59371763244 192 192 194
176.675507803365 469.646141266488 2779.02818185219 201 201 203
173.09365643903 470.183014138299 2785.33948226592 208 208 210
170.333152098519 470.669473635116 2792.25987117776 205 205 207
166.770519537232 471.203527336146 2798.55284155016 201 201 203
164.032956701716 471.686711394361 2805.4509333168 197 197 199
158.852358636854 472.317665302408 2810.50208906646 167 167 169
154.492897460998 472.898245364205 2816.1621982969 155 155 157
150.138114787628 473.478058719946 2821.81777502403 151 151 153
144.963835905243 474.10762630637 2826.8628606298 150 150 152
138.137956383829 474.838498211646 2830.69921871576 149 149 151
130.476895620718 475.620967311042 2833.94005091849 151 152 154
121.14467904785 476.507189522777 2835.99087440242 155 156 158
