ply
format ascii 1.0
comment KinectMotionCapture
element vertex 758
property float x
property float y
property float z
property uchar red
property uchar green
property uchar blue
end_header
-140.584632754326 566.612124443054 2674.99995231628 156 155 150
-133.559718728065 567.681968212128 2680.0000667572 154 153 148
-126.365885138512 568.115770816803 2681.99992179871 144 143 138
-119.205169379711 568.760871887207 2684.99994277954 146 142 139
-112.152844667435 570.041000843048 2690.99998474121 158 154 151
-105.301253497601 572.591602802277 2703.00006866455 137 136 132
-98.4928086400032 575.777173042297 2717.99993515015 140 139 135
-92.3063084483147 583.410978317261 2753.99994850159 130 131 126
-54.5884743332863 580.686092376709 2740.9999370575 213 215 210
-46.8907319009304 577.724158763886 2726.99999809265 123 125 120
-39.0374362468719 571.371972560883 2697.00002670288 134 135 130
-31.3590057194233 565.231025218964 2667.99998283386 153 154 149
-23.9647403359413 562.05540895462 2653.00011634827 151 152 147
-16.6520234197378 558.879137039185 2638.00001144409 193 194 189
-9.44601837545633 557.185351848602 2630.00011444092 173 174 169
-2.28438503108919 555.702805519104 2622.99990653992 157 158 153
4.85211238265038 555.702686309814 2622.99990653992 154 155 150
11.9794541969895 555.278301239014 2621.00005149841 153 154 149
19.059419631958 553.794085979462 2614.00008201599 155 156 151
26.0912254452705 552.097380161285 2605.99994659424 167 168 163
33.079419285059 550.400197505951 2598.00004959106 159 160 155
40.132150053978 550.18538236618 2596.99988365173 160 159 155
47.1247993409634 549.334526062012 2592.99993515015 165 164 160
54.1164353489876 548.694908618927 2589.99991416931 165 164 160
61.0679686069489 547.842979431152 2585.99996566772 188 187 183
67.9448768496513 546.566724777222 2579.99992370605 184 183 179
74.8180001974106 545.501887798309 2575.00004768372 160 159 155
81.8543285131454 545.70746421814 2575.99997520447 161 160 156
88.9648646116257 546.33629322052 2578.9999961853 162 161 157
96.0169956088066 546.540796756744 2579.99992370605 162 161 157
102.874621748924 545.685589313507 2575.99997520447 162 161 157
109.795458614826 545.253455638886 2573.99988174438 161 160 156
116.977378726006 546.091973781586 2578.00006866455 161 160 156
124.036386609077 546.294331550598 2578.9999961853 161 160 156
130.998864769936 546.072542667389 2578.00006866455 159 158 154
137.901946902275 545.6383228302 2575.99997520447 162 161 157
145.243763923645 546.898126602173 2582.00001716614 164 163 159
152.617812156677 548.157453536987 2588.00005912781 163 162 158
159.777253866196 548.568904399872 2589.99991416931 157 156 152
166.818290948868 548.556268215179 2589.99991416931 154 153 149
174.060225486755 549.178540706635 2592.99993515015 161 160 156
181.667193770409 550.859153270721 2601.0000705719 163 162 158
189.026892185211 551.692068576813 2605.00001907349 157 156 152
196.483016014099 552.736163139343 2609.99989509583 146 145 140
203.653827309608 552.932739257813 2611.00006103516 144 143 138
211.233049631119 554.187595844269 2617.00010299683 151 150 145
219.094529747963 556.077063083649 2625.99992752075 152 151 146
226.918235421181 557.754337787628 2634.0000629425 141 140 135
234.873577952385 559.642672538757 2642.99988746643 139 138 133
243.151947855949 562.165677547455 2654.99997138977 140 139 134
251.683413982391 565.111517906189 2668.99991035461 126 127 121
260.387271642685 568.268418312073 2684.00001525879 131 132 126
268.374055624008 569.730937480927 2690.99998474121 103 104 98
276.603072881699 571.616291999817 2700.00004768372 213 214 208
281.409859657288 566.514909267426 2676.00011825562 219 220 214
286.517053842545 562.260091304779 2655.99989891052 122 123 118
292.289078235626 559.487164020538 2642.99988746643 144 145 140
298.66960644722 557.983994483948 2635.99991798401 145 146 141
305.359423160553 557.115614414215 2631.99996948242 143 144 139
312.026768922806 556.246876716614 2628.00002098084 139 140 135
318.914473056793 555.801153182983 2625.99992752075 142 143 138
325.790554285049 555.355072021484 2624.00007247925 170 171 166
332.908689975739 555.331885814667 2624.00007247925 153 154 149
339.766830205917 554.88508939743 2621.99997901917 164 165 160
347.010165452957 555.072784423828 2622.99990653992 160 161 156
353.988170623779 554.836988449097 2621.99997901917 170 172 169
361.786156892776 555.870413780212 2627.00009346008 182 184 181
370.593398809433 558.384537696838 2638.99993896484 192 194 191
-198.924392461777 559.692800045013 2677.00004577637 212 212 210
-190.502792596817 556.362390518188 2661.00001335144 215 215 213
-182.787492871284 554.913103580475 2654.00004386902 202 202 200
-175.638899207115 555.135905742645 2654.99997138977 163 163 161
-168.674692511559 555.985510349274 2658.99991989136 158 159 154
-161.627531051636 556.625545024872 2661.99994087219 158 157 153
-154.621556401253 557.474195957184 2665.99988937378 152 151 147
-147.593408823013 558.322429656982 2670.00007629395 145 144 140
-140.753269195557 560.006499290466 2677.99997329712 148 147 142
-133.520320057869 560.226321220398 2678.99990081787 151 150 145
-126.375779509544 560.863792896271 2681.99992179871 149 148 143
-119.214534759521 561.500787734985 2684.99994277954 154 149 146
-112.370066344738 563.810288906097 2696.00009918213 140 136 133
-105.582274496555 566.746592521667 2710.00003814697 144 143 139
-99.0804210305214 571.773886680603 2733.99996757507 132 131 127
-54.5728951692581 573.065102100372 2740.00000953674 210 215 209
-46.8256808817387 569.51367855072 2723.00004959106 125 130 124
-38.9392115175724 562.615096569061 2690.00005722046 139 140 135
-31.3497483730316 557.807445526123 2667.00005531311 153 154 149
-23.9395461976528 554.254055023193 2650.00009536743 153 154 149
-16.6280977427959 550.909221172333 2634.0000629425 183 184 179
-9.43599455058575 549.446165561676 2627.00009346008 161 162 157
-2.28369631804526 548.40087890625 2621.99997901917 155 156 151
4.85064880922437 548.400700092316 2621.99997901917 154 155 150
11.9712660089135 547.772645950317 2618.99995803833 155 156 151
19.0317686647177 545.888960361481 2609.99989509583 168 169 164
26.0732751339674 544.632315635681 2604.00009155273 167 168 163
33.0438539385796 542.747557163239 2595.00002861023 164 165 160
40.0580726563931 542.117238044739 2592.00000762939 169 168 164
47.0376722514629 541.277170181274 2588.00005912781 169 168 164
54.0162548422813 540.645778179169 2585.00003814697 175 174 170
60.9311126172543 539.595425128937 2579.99992370605 186 185 181
67.8449124097824 538.753747940063 2575.99997520447 170 169 165
74.7367441654205 537.911534309387 2572.00002670288 162 161 157
81.8925872445107 538.951098918915 2576.99990272522 162 161 157
88.971883058548 539.362609386444 2578.9999961853 162 161 157
96.0245728492737 539.564490318298 2579.99992370605 162 161 157
102.882720530033 538.72013092041 2575.99997520447 161 160 156
109.76143181324 538.084387779236 2572.99995422363 160 159 155
116.805024445057 538.284599781036 2573.99988174438 163 162 158
123.901791870594 538.693487644196 2575.99997520447 163 162 158
130.958274006844 538.892686367035 2576.99990272522 161 160 156
137.966230511665 538.88213634491 2576.99990272522 164 163 159
145.198822021484 539.707660675049 2581.00008964539 165 164 160
152.57066488266 540.950655937195 2586.99989318848 164 163 159
159.789621829987 541.565954685211 2589.99991416931 158 157 153
167.024403810501 542.180597782135 2592.99993515015 154 153 149
174.140766263008 542.376637458801 2594.00010108948 160 159 155
181.681141257286 543.826639652252 2601.0000705719 163 162 158
189.041346311569 544.648706912994 2605.00001907349 150 149 145
196.573287248611 545.888483524323 2611.00006103516 149 146 141
203.747317194939 546.082317829132 2611.99998855591 146 143 138
211.410477757454 547.530055046082 2618.99995803833 153 150 145
219.111084938049 548.977196216583 2625.99992752075 152 151 146
227.107584476471 551.050961017609 2635.99991798401 143 142 137
235.157787799835 553.124070167542 2645.99990844727 140 139 134
243.719652295113 556.241869926453 2661.00001335144 137 136 131
252.362281084061 559.358835220337 2676.00011825562 133 134 128
260.891646146774 562.057197093964 2688.99989128113 112 113 107
269.09202337265 563.918769359589 2697.99995422363 98 99 93
277.033150196075 565.152883529663 2703.9999961853 215 216 210
280.48387169838 557.399392127991 2667.00005531311 178 179 174
286.322146654129 554.661870002747 2654.00004386902 129 130 125
292.752653360367 553.178012371063 2647.0000743866 144 145 140
299.371004104614 552.111744880676 2641.99995994568 144 145 140
306.077480316162 551.254212856293 2638.00001144409 141 142 137
312.5239610672 549.978315830231 2631.99996948242 140 141 136
318.937093019485 548.702239990234 2625.99992752075 147 148 143
325.689285993576 548.052608966827 2622.99990653992 167 168 163
332.678228616714 547.820627689362 2621.99997901917 153 154 149
339.660912752151 547.588348388672 2621.00005149841 163 164 159
346.901953220367 547.773420810699 2621.99997901917 159 160 155
354.012489318848 547.749221324921 2621.99997901917 169 171 168
361.810892820358 548.769354820251 2627.00009346008 181 183 180
370.337694883347 550.833284854889 2637.00008392334 191 193 190
-198.047742247581 549.97706413269 2664.99996185303 216 216 214
-189.944565296173 547.515332698822 2653.00011634827 209 209 207
-182.457074522972 546.703994274139 2648.9999294281 199 199 197
-175.453886389732 547.33681678772 2651.99995040894 173 173 171
-168.560817837715 548.381984233856 2657.00006484985 164 165 160
-161.640003323555 549.42661523819 2661.99994087219 165 164 160
-154.633522033691 550.264358520508 2665.99988937378 160 159 155
-147.604838013649 551.101744174957 2670.00007629395 149 148 144
-140.764206647873 552.764117717743 2677.99997329712 147 146 141
-133.630409836769 553.393959999084 2680.99999427795 147 146 141
-126.574143767357 554.436206817627 2686.00010871887 149 148 143
-119.490273296833 555.477857589722 2690.99998474121 149 145 142
-112.754009664059 558.376789093018 2704.99992370605 146 142 139
-106.136046350002 562.307476997375 2723.99997711182 136 135 131
-99.9580323696136 569.334089756012 2757.99989700317 139 140 135
-54.6170547604561 566.067576408386 2742.00010299683 208 213 207
-46.7261970043182 560.91046333313 2717.00000762939 138 140 135
-38.8699136674404 554.307579994202 2684.99994277954 141 142 137
-31.2934517860413 549.562096595764 2661.99994087219 150 151 146
-23.8962732255459 546.054661273956 2644.99998092651 154 155 150
-16.6167914867401 543.372452259064 2631.99996948242 175 176 171
-9.44033544510603 542.547702789307 2628.00002098084 155 156 151
-2.28736153803766 542.135238647461 2625.99992752075 155 156 151
4.8491838388145 541.102886199951 2621.00005149841 156 157 152
11.949360370636 539.657115936279 2614.00008201599 158 159 154
18.9968179911375 537.797868251801 2605.00001907349 175 176 171
26.0453037917614 536.970257759094 2601.0000705719 166 167 162
33.0337360501289 535.522818565369 2594.00010108948 166 167 162
40.0303341448307 534.694135189056 2589.99991416931 171 170 166
47.0050349831581 533.864855766296 2585.99996566772 171 170 166
53.9578348398209 533.035159111023 2582.00001716614 180 179 175
60.8886927366257 532.204866409302 2578.00006866455 182 181 177
67.7449181675911 530.961155891418 2572.00002670288 163 162 158
74.7135803103447 530.749082565308 2571.00009918213 163 162 158
81.8354710936546 531.568646430969 2575.00004768372 163 162 158
88.9443829655647 532.181262969971 2578.00006866455 163 162 158
95.9576666355133 532.174050807953 2578.00006866455 162 161 157
102.890774607658 531.753361225128 2575.99997520447 161 160 156
109.855361282825 531.538724899292 2575.00004768372 160 159 155
116.9049218297 531.736254692078 2575.99997520447 163 162 158
123.863346874714 531.520426273346 2575.00004768372 163 162 158
130.917638540268 531.71694278717 2575.99997520447 160 159 155
137.923404574394 531.706571578979 2575.99997520447 164 163 159
145.097523927689 532.314777374268 2578.9999961853 165 164 160
152.40553021431 533.335387706757 2584.00011062622 165 164 160
159.740224480629 534.355282783508 2588.99998664856 159 158 154
166.972830891609 534.961938858032 2592.00000762939 155 154 150
174.221232533455 535.567998886108 2595.00002861023 157 156 152
181.625157594681 536.586344242096 2599.99990463257 161 160 156
189.128324389458 537.810504436493 2605.99994659424 157 156 152
196.66351377964 539.034128189087 2611.99998855591 152 149 144
203.918755054474 539.431691169739 2614.00008201599 149 146 141
211.587876081467 540.860533714294 2621.00005149841 149 148 143
219.210997223854 542.082488536835 2627.00009346008 152 151 146
227.383092045784 544.541895389557 2638.99993896484 147 146 141
235.441982746124 546.588003635406 2648.9999294281 143 142 137
244.0125644207 549.66527223587 2664.00003433228 137 136 131
252.663880586624 552.741765975952 2678.99990081787 126 127 121
261.396050453186 555.817663669586 2694.00000572205 133 134 128
270.009458065033 558.480203151703 2707.00001716614 179 180 174
278.077989816666 559.904336929321 2713.99998664856 220 221 215
280.29391169548 549.775362014771 2664.99996185303 212 213 208
286.774426698685 548.310816287994 2657.99999237061 132 133 128
293.326765298843 547.052204608917 2651.99995040894 141 142 137
300.299048423767 546.618402004242 2650.00009536743 141 142 137
306.795507669449 545.359134674072 2644.00005340576 135 136 131
313.021123409271 543.686985969543 2635.99991798401 145 146 141
319.202482700348 542.01465845108 2628.00002098084 162 163 158
325.836360454559 541.167080402374 2624.00007247925 159 160 155
332.701474428177 540.731608867645 2621.99997901917 154 155 150
339.684456586838 540.502071380615 2621.00005149841 158 159 154
346.66121006012 540.272057056427 2619.99988555908 157 158 153
353.901773691177 540.454268455505 2621.00005149841 167 169 166
361.422330141068 541.048467159271 2624.00007247925 180 182 179
370.081871747971 543.291687965393 2634.99999046326 190 192 189
-206.539288163185 546.012341976166 2680.99999427795 208 213 209
-197.691142559052 541.750609874725 2660.00008583069 213 213 211
-189.744189381599 539.72864151001 2650.00009536743 202 202 200
-182.333186268806 539.131700992584 2647.0000743866 190 190 188
-175.467282533646 540.163695812225 2651.99995040894 168 168 166
-168.700605630875 541.602611541748 2658.99991989136 162 163 158
-161.773875355721 542.633712291718 2664.00003433228 158 157 153
-154.761433601379 543.460607528687 2667.99998283386 160 159 155
-147.67150580883 544.0833568573 2671.0000038147 157 156 152
-140.775084495544 545.52036523819 2677.99997329712 150 149 144
-133.590906858444 545.938372612 2680.0000667572 145 144 139
-126.678213477135 547.578096389771 2687.99996376038 145 144 139
-119.543977081776 548.402488231659 2691.99991226196 148 144 141
-112.887851893902 551.671028137207 2707.99994468689 139 138 134
-106.300190091133 555.753946304321 2727.9999256134 135 134 130
-54.7408722341061 559.872686862946 2747.99990653992 203 208 202
-46.7298775911331 553.560793399811 2717.00000762939 133 135 130
-38.8874597847462 547.248244285584 2686.00010871887 142 143 138
-31.3194319605827 542.768657207489 2664.00003433228 142 143 138
-23.889122530818 538.695991039276 2644.00005340576 161 162 157
-16.6244152933359 536.456406116486 2632.99989700317 162 163 158
-9.44108050316572 535.438716411591 2628.00002098084 153 154 149
-2.29102675803006 535.846650600433 2630.00011444092 157 158 153
4.85141715034842 534.216642379761 2621.99997901917 158 159 154
11.9411591440439 532.178521156311 2611.99998855591 162 163 158
18.9764369279146 530.139863491058 2601.99999809265 177 178 173
26.0173138231039 529.323101043701 2598.00004959106 167 168 163
33.0236032605171 528.302073478699 2592.99993515015 169 170 165
39.9716608226299 526.872992515564 2585.99996566772 172 171 167
46.9360314309597 526.054680347443 2582.00001716614 173 172 168
53.9202764630318 525.643169879913 2579.99992370605 184 183 179
60.9170980751514 525.434970855713 2578.9999961853 177 176 172
67.8029134869576 524.411201477051 2573.99988174438 158 157 153
74.7775658965111 524.2018699646 2572.99995422363 164 163 159
81.8736702203751 524.806976318359 2575.99997520447 164 163 159
88.9168307185173 525.004029273987 2576.99990272522 163 162 158
95.8907082676888 524.793088436127 2575.99997520447 162 161 157
102.938748896122 524.989068508148 2576.99990272522 161 160 156
109.991915524006 525.184571743011 2578.00006866455 161 160 156
116.959385573864 524.971961975098 2576.99990272522 162 161 157
123.872980475426 524.555325508118 2575.00004768372 162 161 157
130.876958370209 524.545431137085 2575.00004768372 160 159 155
137.934058904648 524.738729000092 2575.99997520447 163 162 158
145.108714699745 525.33894777298 2578.9999961853 165 164 160
152.417242527008 526.346027851105 2584.00011062622 164 163 159
159.814178943634 527.556121349335 2589.99991416931 160 159 155
167.114451527596 528.358459472656 2594.00010108948 156 155 151
174.234539270401 528.549134731293 2595.00002861023 155 154 150
181.499272584915 529.146671295166 2598.00004959106 160 159 155
189.142644405365 530.761957168579 2605.99994659424 160 159 155
196.678385138512 531.969368457794 2611.99998855591 153 152 148
204.090133309364 532.768905162811 2615.9999370575 149 148 144
211.603760719299 533.771634101868 2621.00005149841 147 146 142
219.310849905014 535.180985927582 2628.00002098084 151 150 146
227.486222982407 537.60814666748 2640.00010490417 148 147 143
235.548362135887 539.627254009247 2650.00009536743 144 143 139
244.122192263603 542.663991451263 2664.99996185303 138 139 134
253.059804439545 546.310901641846 2683.00008773804 126 127 122
262.191504240036 550.160586833954 2701.99990272522 121 122 117
272.223770618439 555.638611316681 2729.00009155273 125 126 121
281.155705451965 544.196903705597 2673.00009727478 210 211 206
287.44250535965 542.344152927399 2664.00003433228 123 124 119
293.900907039642 540.898263454437 2657.00006484985 140 141 136
300.887137651443 540.469825267792 2654.99997138977 140 141 136
307.165443897247 538.819670677185 2647.0000743866 133 134 129
313.043236732483 536.55868768692 2635.99991798401 150 151 146
318.860530853271 534.297466278076 2625 165 166 161
325.486600399017 533.460795879364 2621.00005149841 156 157 152
332.470774650574 533.234298229218 2619.99988555908 155 156 151
339.707940816879 533.414602279663 2621.00005149841 158 159 154
346.685022115707 533.187448978424 2619.99988555908 157 158 153
353.790879249573 533.163547515869 2619.99988555908 167 169 166
361.309081315994 533.74969959259 2622.99990653992 180 182 179
370.106846094131 536.166846752167 2634.99999046326 190 192 189
-205.70732653141 536.549270153046 2670.00007629395 208 213 209
-197.483062744141 533.951938152313 2657.00006484985 207 207 205
-189.686894416809 532.358765602112 2648.9999294281 198 198 196
-182.209238409996 531.568944454193 2644.99998092651 185 185 183
-175.282120704651 532.386362552643 2648.9999294281 164 164 162
-168.523102998734 533.806264400482 2655.99989891052 161 162 157
-161.543309688568 534.62278842926 2660.00008583069 161 160 156
-154.599264264107 535.639762878418 2664.99996185303 162 161 157
-147.57227897644 536.45533323288 2668.99991035461 160 159 155
-140.73334634304 538.074374198914 2677.00004577637 156 155 150
-133.750781416893 539.290964603424 2683.00008773804 151 150 145
-126.829400658607 540.908992290497 2690.99998474121 144 143 138
-119.908526539803 542.727589607239 2700.00004768372 147 143 140
-113.188445568085 545.751750469208 2714.99991416931 134 133 129
-106.776088476181 550.785601139069 2740.00000953674 135 134 130
-54.6256303787231 551.231622695923 2742.00010299683 211 213 208
-46.6131381690502 544.80254650116 2710.00003814697 138 140 135
-38.8760268688202 539.779961109161 2684.99994277954 142 143 138
-31.32189437747 535.56102514267 2664.00003433228 142 143 138
-23.9090695977211 531.944453716278 2645.99990844727 171 172 167
-16.6446641087532 529.935717582703 2635.99991798401 161 162 157
-9.45619307458401 529.132544994354 2631.99996948242 153 154 149
-2.29294924065471 529.133021831512 2631.99996948242 156 157 152
4.85549913719296 527.524650096893 2624.00007247925 156 157 152
11.9329541921616 524.709463119507 2609.99989509583 163 164 159
18.956046551466 522.496819496155 2598.99997711182 171 172 167
25.9792990982533 521.489918231964 2594.00010108948 171 172 167
32.9752489924431 520.482361316681 2588.99998664856 179 180 175
39.9284213781357 519.273281097412 2582.99994468689 174 173 169
46.903345733881 518.666744232178 2579.99992370605 180 179 175
53.9245009422302 518.662810325623 2579.99992370605 189 188 184
60.8982481062412 518.256366252899 2578.00006866455 165 164 160
67.7818730473518 517.246186733246 2572.99995422363 157 156 152
74.7543424367905 517.039597034454 2572.00002670288 164 163 159
81.848256289959 517.63653755188 2575.00004768372 163 162 158
88.8892635703087 517.830967903137 2575.99997520447 162 161 157
95.7864820957184 517.220675945282 2572.99995422363 162 161 157
102.78695076704 517.213046550751 2572.99995422363 162 161 157
109.872423112392 517.606854438782 2575.00004768372 163 162 158
117.013841867447 518.201112747192 2578.00006866455 163 162 158
124.026872217655 518.191814422607 2578.00006866455 163 162 158
131.039515137672 518.181979656219 2578.00006866455 161 160 156
138.051763176918 518.171668052673 2578.00006866455 164 163 159
145.232394337654 518.763780593872 2581.00008964539 166 165 161
152.546882629395 519.757390022278 2585.99996566772 165 164 160
159.826382994652 520.549416542053 2589.99991416931 163 162 158
167.062729597092 521.139919757843 2592.99993515015 159 158 154
174.113467335701 521.126985549927 2592.99993515015 155 154 150
181.512996554375 522.118389606476 2598.00004959106 159 158 154
188.939183950424 523.109257221222 2602.9999256134 161 160 156
196.617871522903 524.702489376068 2611.00006103516 157 156 152
204.027429223061 525.491237640381 2615.00000953674 153 152 148
211.619600653648 526.681482791901 2621.00005149841 143 142 138
219.410642981529 528.272986412048 2628.99994850159 147 146 142
227.675452828407 530.868530273438 2641.99995994568 148 149 144
236.010253429413 533.463537693024 2654.99997138977 141 142 137
244.323402643204 535.856902599335 2667.00005531311 134 135 130
253.267019987106 539.455235004425 2684.99994277954 127 128 123
263.957470655441 546.468257904053 2720.00002861023 149 150 145
281.807124614716 538.17218542099 2678.99990081787 213 214 209
287.786871194839 535.741150379181 2667.00005531311 115 116 111
294.25373673439 534.314215183258 2660.00008583069 140 141 136
301.021844148636 533.489584922791 2655.99989891052 134 135 130
307.187169790268 531.660377979279 2647.0000743866 134 135 130
312.827736139297 529.027462005615 2634.0000629425 158 159 154
318.518429994583 526.595294475555 2621.99997901917 160 161 156
325.012505054474 525.568723678589 2617.00010299683 157 158 153
332.240045070648 525.746762752533 2618.00003051758 158 159 154
339.472085237503 525.924444198608 2618.99995803833 160 161 156
346.973448991776 526.503384113312 2621.99997901917 161 162 157
353.949993848801 526.278734207153 2621.00005149841 166 168 165
361.74675822258 527.258396148682 2625.99992752075 179 181 178
370.693564414978 529.843926429749 2638.99993896484 189 191 188
-205.260396003723 528.135657310486 2664.00003433228 207 212 208
-197.12620973587 525.771617889404 2651.99995040894 199 199 197
-189.629569649696 524.993121623993 2648.00000190735 186 186 184
-182.222977280617 524.412274360657 2644.99998092651 174 174 172
-175.16303062439 524.822235107422 2647.0000743866 162 162 160
-168.345555663109 526.024878025055 2653.00011634827 159 160 155
-161.373376846313 526.830494403839 2657.00006484985 159 158 154
-154.611051082611 528.428733348846 2664.99996185303 155 154 150
-147.749438881874 529.828190803528 2671.99993133545 146 145 141
-140.954419970512 531.623840332031 2680.99999427795 147 146 141
-133.910596370697 532.62585401535 2686.00010871887 152 151 146
-126.980558037758 534.22224521637 2694.00000572205 161 160 155
-120.095409452915 536.214709281921 2703.9999961853 154 153 149
-113.405637443066 539.396524429321 2720.00002861023 140 139 135
-106.979191303253 544.362723827362 2744.99988555908 123 124 119
-54.3708838522434 541.233360767365 2729.00009155273 214 216 211
-46.5651676058769 536.874055862427 2707.00001716614 140 142 137
-38.951463997364 533.505856990814 2690.00005722046 142 143 138
-31.3360951840878 528.550267219543 2664.99996185303 143 144 139
-23.8928664475679 524.38747882843 2644.00005340576 178 179 174
-16.6207067668438 522.009074687958 2631.99996948242 161 162 157
-9.44615341722965 521.415054798126 2628.99994850159 153 154 149
-2.29225726798177 521.812260150909 2631.00004196167 155 156 151
4.85587911680341 520.423829555511 2624.00007247925 154 155 150
11.9338855147362 517.646431922913 2609.99989509583 162 163 158
18.9502369612455 515.265345573425 2598.00004959106 167 168 163
25.971308350563 514.271855354309 2592.99993515015 174 175 170
32.9523496329784 513.079643249512 2586.99989318848 182 183 178
39.8851595818996 511.688530445099 2579.99992370605 176 175 171
46.8342788517475 510.891795158386 2575.99997520447 183 182 178
53.9078004658222 511.482894420624 2578.9999961853 190 189 185
60.9029866755009 511.280119419098 2578.00006866455 161 160 156
67.8925216197968 511.076748371124 2576.99990272522 158 157 153
74.8473480343819 510.674595832825 2575.00004768372 163 162 158
81.8546041846275 510.668516159058 2575.00004768372 163 162 158
88.7926146388054 510.265290737152 2572.99995422363 162 161 157
95.644973218441 509.464919567108 2569.00000572205 162 161 157
102.635085582733 509.457290172577 2569.00000572205 163 162 158
109.667524695396 509.64742898941 2569.9999332428 164 163 159
116.795867681503 510.233581066132 2572.99995422363 164 163 159
123.892053961754 510.621011257172 2575.00004768372 164 163 159
131.049558520317 511.206150054932 2578.00006866455 161 160 156
138.222992420197 511.790752410889 2581.00008964539 165 164 160
145.356029272079 512.17657327652 2582.99994468689 166 165 161
152.67650783062 513.156712055206 2588.00005912781 166 165 161
160.023659467697 514.136135578156 2592.99993515015 163 162 158
167.204275727272 514.520406723022 2595.00002861023 160 159 155
174.193784594536 514.309227466583 2594.00010108948 155 154 150
181.456804275513 514.890611171722 2596.99988365173 158 157 153
189.025953412056 516.26455783844 2604.00009155273 161 160 156
196.707904338837 517.836153507233 2611.99998855591 158 157 153
204.198718070984 518.812537193298 2617.00010299683 153 152 148
211.796820163727 519.98645067215 2622.99990653992 142 141 137
219.760775566101 521.952927112579 2632.99989700317 146 145 141
227.778434753418 523.918688297272 2642.99988746643 148 149 144
236.294314265251 526.875078678131 2657.99999237061 141 142 137
244.707778096199 529.434263706207 2671.0000038147 133 134 129
254.13453578949 533.974945545197 2694.00000572205 114 115 110
282.353341579437 531.915545463562 2684.00001525879 221 222 217
287.699520587921 528.328001499176 2665.99988937378 117 118 113
294.38528418541 527.316451072693 2661.00001335144 140 141 136
300.816476345062 525.908350944519 2654.00004386902 131 132 127
307.208776473999 524.499833583832 2647.0000743866 135 136 131
312.73090839386 521.704077720642 2632.99989700317 158 159 154
318.297654390335 519.106328487396 2619.99988555908 157 158 153
324.786603450775 518.093407154083 2615.00000953674 159 160 155
331.882148981094 518.070697784424 2615.00000953674 159 160 155
339.495331048965 518.840134143829 2618.99995803833 161 162 157
346.732378005981 519.014894962311 2619.99988555908 163 164 159
353.838860988617 518.991112709045 2619.99988555908 165 167 164
361.495614051819 519.7594165802 2624.00007247925 178 180 177
370.437383651733 522.309899330139 2637.00008392334 188 190 187
-213.953673839569 524.430751800537 2681.99992179871 208 213 209
-205.121532082558 520.535409450531 2661.99994087219 207 212 208
-196.843549609184 517.812669277191 2648.00000190735 196 196 194
-189.428880810738 517.240405082703 2644.99998092651 184 184 182
-181.96102976799 516.472041606903 2641.00003242493 173 173 171
-174.977675080299 517.072141170502 2644.00005340576 162 162 160
-167.977467179298 517.671704292297 2647.0000743866 159 160 155
-161.142632365227 518.857598304749 2653.00011634827 160 159 155
-154.506713151932 520.825147628784 2663.00010681152 158 157 153
-147.705361247063 522.40127325058 2671.0000038147 151 150 146
-141.017735004425 524.563610553741 2681.99992179871 147 146 141
-134.120240807533 526.138782501221 2690.00005722046 143 142 137
-127.273082733154 528.104662895203 2700.00004768372 136 135 130
-120.415531098843 530.265688896179 2710.99996566772 139 138 134
-113.747909665108 533.59979391098 2727.9999256134 147 148 143
-107.611022889614 540.063142776489 2760.99991798401 130 131 126
-54.1957728564739 532.086551189423 2720.00002861023 211 213 208
-46.5687811374664 529.547393321991 2707.00001716614 142 143 138
-38.9544852077961 526.225090026855 2690.00005722046 144 145 140
-31.3385277986526 521.33721113205 2664.99996185303 167 168 163
-23.8856840878725 517.035603523254 2642.99988746643 181 182 177
-16.6156832128763 514.689743518829 2631.00004196167 158 159 154
-9.44329425692558 514.103829860687 2628.00002098084 156 157 152
-2.28895014151931 513.908684253693 2627.00009346008 157 158 153
4.84330113977194 511.952340602875 2617.00010299683 156 157 152
11.916521936655 509.799778461456 2605.99994659424 173 174 169
18.9517065882683 508.233606815338 2598.00004959106 170 171 166
25.9933620691299 507.645010948181 2595.00002861023 182 183 178
32.9421684145927 505.882084369659 2585.99996566772 177 178 173
39.8573353886604 504.314303398132 2578.00006866455 174 173 169
46.8015447258949 503.528416156769 2573.99988174438 188 187 183
53.8701713085175 504.111409187317 2576.99990272522 186 185 181
60.8368217945099 503.715753555298 2575.00004768372 158 157 153
67.8714290261269 503.906428813934 2575.99997520447 165 164 160
74.8240500688553 503.509640693665 2573.99988174438 163 162 158
81.8291231989861 503.503620624542 2573.99988174438 163 162 158
88.6959135532379 502.714693546295 2569.9999332428 163 162 158
95.5406278371811 501.925110816956 2565.99998474121 163 162 158
102.523095905781 501.917541027069 2565.99998474121 163 162 158
109.547905623913 502.105057239532 2566.99991226196 164 163 159
116.759404540062 503.074407577515 2572.00002670288 166 165 161
123.853385448456 503.45641374588 2573.99988174438 164 163 159
130.957871675491 503.837883472443 2575.99997520447 163 162 158
138.019263744354 504.023313522339 2576.99990272522 164 163 159
145.141929388046 504.403710365295 2578.9999961853 167 166 162
152.39305794239 505.174815654755 2582.99994468689 169 168 164
159.912317991257 506.727635860443 2591.00008010864 165 164 160
167.152434587479 507.302045822144 2594.00010108948 163 162 158
174.273997545242 507.48473405838 2595.00002861023 155 154 150
181.470409035683 507.862567901611 2596.99988365173 154 153 149
188.894882798195 508.826553821564 2601.99999809265 161 160 156
196.647256612778 510.572195053101 2611.00006103516 158 157 153
204.447969794273 512.31724023819 2619.99988555908 158 157 153
212.135508656502 513.670563697815 2627.00009346008 150 149 145
220.027387142181 515.414476394653 2635.99991798401 146 147 142
228.053748607635 517.353296279907 2645.99990844727 146 147 142
236.667230725288 520.464599132538 2661.99994087219 143 144 139
245.183765888214 523.184239864349 2676.00011825562 138 139 134
254.813343286514 528.053760528564 2700.99997520447 119 121 116
285.21403670311 529.93106842041 2710.99996566772 212 214 209
288.151621818542 521.896421909332 2670.00007629395 155 156 151
294.848680496216 520.898461341858 2664.99996185303 125 126 121
300.83766579628 518.727600574493 2654.00004386902 126 127 122
306.998163461685 516.947150230408 2644.99998092651 136 137 132
312.396347522736 513.994097709656 2630.00011444092 155 156 151
318.19823384285 511.822462081909 2618.99995803833 161 162 157
324.933171272278 511.213958263397 2615.9999370575 162 163 158
332.031846046448 511.191427707672 2615.9999370575 161 162 157
339.388847351074 511.559367179871 2618.00003051758 159 160 155
346.358865499496 511.340737342834 2617.00010299683 160 161 156
353.592604398727 511.512517929077 2618.00003051758 166 168 165
361.244261264801 512.270092964172 2621.99997901917 184 186 183
370.181083679199 514.785528182983 2634.99999046326 182 184 181
384.056180715561 523.942470550537 2681.99992179871 184 186 183
-213.012084364891 514.857709407806 2670.00007629395 206 211 207
-204.674318432808 512.173354625702 2655.99989891052 204 209 205
-196.709424257278 510.259747505188 2645.99990844727 190 190 188
-189.371332526207 509.888350963593 2644.00005340576 181 181 179
-182.043507695198 509.516417980194 2641.99995994568 172 172 170
-174.990758299828 509.915471076965 2644.00005340576 163 163 161
-167.990058660507 510.506868362427 2647.0000743866 160 161 156
-161.215469241142 511.869192123413 2654.00004386902 157 156 152
-154.634401202202 514.002561569214 2664.99996185303 157 156 152
-147.882401943207 515.74981212616 2674.00002479553 156 155 151
-141.186162829399 517.882406711578 2684.99994277954 152 151 146
-134.329870343208 519.628763198853 2694.00000572205 145 144 139
-127.565622329712 521.953284740448 2706.00008964539 132 131 126
-120.646797120571 523.891568183899 2716.00008010864 126 125 121
-114.048480987549 527.56541967392 2734.99989509583 137 138 133
-62.4869763851166 532.242357730865 2759.0000629425 217 218 213
-54.2198680341244 524.916112422943 2720.99995613098 185 186 181
-46.6411896049976 522.990942001343 2710.99996566772 140 141 136
-38.9430038630962 518.750011920929 2688.99989128113 144 145 140
-31.2703885138035 512.965261936188 2658.99991989136 182 183 178
-23.8423384726048 508.916139602661 2638.00001144409 171 172 167
-16.6106484830379 507.374346256256 2630.00011444092 162 163 158
-9.44043044000864 506.796658039093 2627.00009346008 150 151 146
-2.28738412261009 506.411254405975 2625 156 157 152
4.84367553144693 504.867792129517 2617.00010299683 160 161 156
11.9265895336866 503.130853176117 2608.00004005432 176 177 172
18.9677588641644 501.586258411407 2599.99990463257 174 175 170
25.9953681379557 500.620007514954 2595.00002861023 181 182 177
32.9447090625763 498.881489038467 2585.99996566772 175 176 171
39.8913323879242 497.721195220947 2579.99992370605 173 172 168
46.8597039580345 497.139066457748 2576.99990272522 184 183 179
53.8534112274647 496.942341327667 2575.99997520447 175 174 170
60.8414970338345 496.745020151138 2575.00004768372 159 158 154
67.850299179554 496.740102767944 2575.00004768372 162 161 157
74.7716575860977 496.155917644501 2572.00002670288 163 162 158
81.7400440573692 495.95707654953 2571.00009918213 163 162 158
88.6681824922562 495.564699172974 2569.00000572205 164 163 159
95.5851674079895 495.171874761581 2566.99991226196 164 163 159
102.570883929729 495.164334774017 2566.99991226196 164 163 159
109.513588249683 494.963407516479 2565.99998474121 164 163 159
116.632103919983 495.533496141434 2569.00000572205 167 166 162
123.766556382179 496.103018522263 2572.00002670288 166 165 161
130.866125226021 496.479123830795 2573.99988174438 164 163 159
137.815460562706 496.276140213013 2572.99995422363 164 163 159
145.040333271027 497.036993503571 2576.99990272522 167 166 162
152.345538139343 497.990190982819 2582.00001716614 169 168 164
160.047769546509 500.100016593933 2592.99993515015 168 167 163
167.229369282722 500.473499298096 2595.00002861023 165 164 160
174.48852956295 501.039326190948 2598.00004959106 156 155 151
181.483909487724 500.83327293396 2596.99988365173 155 154 150
189.054131507874 502.169489860535 2604.00009155273 159 158 154
196.737140417099 503.697991371155 2611.99998855591 156 156 154
204.619124531746 505.611538887024 2621.99997901917 157 157 155
212.312608957291 506.9460272789 2628.99994850159 150 150 148
220.293939113617 508.858442306519 2638.99993896484 148 148 146
228.156611323357 510.384678840637 2647.0000743866 145 145 143
236.95120215416 513.838410377502 2664.99996185303 143 143 141
245.476394891739 516.520202159882 2678.99990081787 141 143 140
255.68088889122 522.478938102722 2710.00003814697 126 128 125
289.14338350296 516.405761241913 2678.99990081787 209 210 205
295.643925666809 515.03586769104 2671.99993133545 121 122 117
300.972044467926 511.738240718842 2654.99997138977 126 127 122
306.671321392059 509.211480617523 2641.99995994568 144 145 140
312.299221754074 506.684541702271 2628.99994850159 156 157 152
318.463176488876 505.120992660522 2621.00005149841 159 160 155
325.328141450882 504.713416099548 2618.99995803833 160 161 156
332.181483507156 504.305601119995 2617.00010299683 160 161 156
339.282244443893 504.282832145691 2617.00010299683 158 159 154
345.985114574432 503.681659698486 2614.00008201599 158 159 154
353.211104869843 503.850877285004 2615.00000953674 167 169 166
360.854983329773 504.597783088684 2618.99995803833 182 184 181
369.784086942673 507.078170776367 2631.99996948242 182 184 181
-212.548956274986 506.489038467407 2664.00003433228 206 211 207
-204.226955771446 503.842532634735 2650.00009536743 202 207 203
-196.575239300728 502.716362476349 2644.00005340576 190 190 188
-189.313694834709 502.540409564972 2642.99988746643 180 180 178
-182.19481408596 502.744257450104 2644.00005340576 171 171 169
-175.136148929596 503.137826919556 2645.99990844727 162 162 160
-168.192967772484 503.911137580872 2650.00009536743 160 161 156
-161.288276314735 504.874169826508 2654.99997138977 159 158 154
-154.76205945015 507.167935371399 2667.00005531311 157 156 152
-147.838205099106 508.320212364197 2673.00009727478 153 152 148
-141.196772456169 510.613024234772 2684.99994277954 151 150 145
-134.339988231659 512.335002422333 2694.00000572205 148 147 142
-127.716675400734 515.197515487671 2709.00011062622 142 141 136
-120.878048241138 517.489016056061 2720.99995613098 133 134 129
-114.265650510788 521.11142873764 2740.00000953674 126 127 122
-62.1746554970741 522.109270095825 2744.99988555908 217 218 213
-54.2638748884201 517.929196357727 2723.00004959106 140 141 136
-46.610351651907 515.270173549652 2709.00011062622 140 139 135
-38.8011559844017 509.567201137543 2678.99990081787 147 148 143
-31.1551727354527 503.863573074341 2648.9999294281 181 182 177
-23.8260887563229 501.392960548401 2635.99991798401 159 160 155
-16.6119243949652 500.253319740295 2630.00011444092 151 152 147
-9.44834202528 500.064015388489 2628.99994850159 157 158 153
-2.28668795898557 499.113440513611 2624.00007247925 157 158 153
4.84219612553716 497.59167432785 2615.9999370575 171 172 167
11.9275050237775 496.069371700287 2608.00004005432 181 182 177
18.9692154526711 494.546473026276 2599.99990463257 180 181 176
25.9673055261374 493.023127317429 2592.00000762939 178 179 174
32.9344943165779 491.68935418129 2585.00003814697 172 173 168
39.9098470807076 490.925759077072 2581.00008964539 175 174 170
46.8996688723564 490.542054176331 2578.9999961853 177 176 172
53.8366287946701 489.777415990829 2575.00004768372 161 160 156
60.7988946139812 489.39260840416 2572.99995422363 162 161 157
67.7764192223549 489.197462797165 2572.00002670288 161 160 156
74.6901407837868 488.621473312378 2569.00000572205 164 163 159
81.6826745867729 488.615542650223 2569.00000572205 164 163 159
88.6058956384659 488.228619098663 2566.99991226196 164 163 159
95.5924317240715 488.221645355225 2566.99991226196 164 163 159
102.538712322712 488.023996353149 2565.99998474121 164 163 159
109.607242047787 488.396376371384 2568.00007820129 165 164 160
116.686321794987 488.768190145493 2569.9999332428 166 165 161
123.775899410248 489.139527082443 2572.00002670288 166 165 161
130.774289369583 489.129990339279 2572.00002670288 165 164 160
137.772232294083 489.119857549667 2572.00002670288 164 163 159
144.994914531708 489.870011806488 2575.99997520447 165 164 160
152.356922626495 490.99987745285 2582.00001716614 167 166 162
159.936264157295 492.699682712555 2591.00008010864 166 165 161
167.306289076805 493.638306856155 2595.99995613098 164 163 159
174.635797739029 494.386255741119 2599.99990463257 158 157 153
181.706994771957 494.373083114624 2599.99990463257 156 155 151
189.213275909424 495.500236749649 2605.99994659424 157 156 152
196.977570652962 497.197300195694 2615.00000953674 158 158 156
205.024361610413 499.464154243469 2627.00009346008 157 157 155
212.489679455757 500.209450721741 2631.00004196167 151 151 149
220.226511359215 501.52450799942 2638.00001144409 147 147 145
228.173181414604 503.219306468964 2647.0000743866 145 145 143
237.057253718376 506.814479827881 2665.99988937378 144 144 142
246.043920516968 510.408937931061 2684.99994277954 139 141 138
256.642788648605 517.044246196747 2720.00002861023 137 139 136
290.243029594421 511.055111885071 2688.99989128113 228 229 224
296.328544616699 508.944094181061 2677.99997329712 120 121 116
301.446497440338 505.312502384186 2658.99991989136 129 130 125
306.692600250244 502.060890197754 2641.99995994568 150 151 146
312.320739030838 499.569177627563 2628.99994850159 151 152 147
318.971067667007 498.787492513657 2625 152 153 148
325.847238302231 498.385488986969 2622.99990653992 155 156 151
332.457840442657 497.60314822197 2618.99995803833 155 156 151
339.175492525101 497.010558843613 2615.9999370575 156 157 152
345.611214637756 496.037662029266 2611.00006103516 157 158 153
352.829456329346 496.204376220703 2611.99998855591 169 171 168
360.603332519531 497.130572795868 2617.00010299683 182 184 181
369.808465242386 499.955803155899 2631.99996948242 183 185 182
-221.292480826378 502.63375043869 2681.99992179871 208 213 209
-212.165459990501 498.338967561722 2658.99991989136 205 210 206
-203.856483101845 495.730221271515 2644.99998092651 200 205 201
-196.663990616798 495.74476480484 2644.99998092651 190 190 188
-189.399242401123 495.571494102478 2644.00005340576 178 178 176
-182.48388171196 496.334820985794 2648.00000190735 169 169 167
-175.34764111042 496.535450220108 2648.9999294281 161 161 159
-168.459326028824 497.485339641571 2654.00004386902 159 160 155
-161.543235182762 498.434692621231 2658.99991989136 159 158 154
-154.889613389969 500.320971012115 2668.99991035461 158 157 153
-148.070469498634 501.831889152527 2677.00004577637 155 154 150
-141.470268368721 504.279673099518 2690.00005722046 153 152 147
-134.649276733398 506.16466999054 2700.00004768372 148 147 142
-127.914845943451 508.611559867859 2713.00005912781 139 138 133
-121.286973357201 511.807918548584 2730.00001907349 133 134 129
-62.111422419548 514.113068580627 2742.00010299683 215 216 211
-54.4473715126514 512.242496013641 2732.00011253357 133 134 129
-46.6138981282711 507.933855056763 2709.00011062622 143 142 138
-38.7027151882648 500.999569892883 2671.99993133545 150 151 146
-31.1104990541935 495.9397315979 2644.99998092651 171 172 167
-23.818863555789 494.066804647446 2634.99999046326 158 159 154
-16.6195072233677 493.318349123001 2631.00004196167 149 150 145
-9.44906193763018 492.944300174713 2628.99994850159 162 163 158
-2.28686258196831 492.007285356522 2624.00007247925 159 160 155
4.84626740217209 490.882158279419 2618.00003051758 177 178 173
11.9284139946103 489.006489515305 2608.00004005432 181 182 177
18.9487729221582 486.942768096924 2596.99988365173 182 183 178
25.9191878139973 485.066026449203 2586.99989318848 176 177 172
32.9115204513073 484.31384563446 2582.99994468689 172 173 168
39.9438142776489 484.311074018478 2582.99994468689 177 176 172
46.9396039843559 483.932733535767 2581.00008964539 173 172 168
53.8825355470181 483.178943395615 2576.99990272522 160 159 155
60.8035027980804 482.42461681366 2572.99995422363 162 161 157
67.755214869976 482.044816017151 2571.00009918213 161 160 156
74.6667310595512 481.476992368698 2568.00007820129 163 162 158
81.6252529621124 481.283575296402 2566.99991226196 163 162 158
88.6125862598419 481.277108192444 2566.99991226196 164 163 159
95.6368893384933 481.457680463791 2568.00007820129 164 163 159
102.626360952854 481.450259685516 2568.00007820129 164 163 159
109.658174216747 481.629759073257 2569.00000572205 164 163 159
116.740494966507 481.996238231659 2571.00009918213 167 166 162
123.737052083015 481.98726773262 2571.00009918213 167 166 162
130.83490729332 482.352644205093 2572.99995422363 166 165 161
137.996807694435 482.905060052872 2575.99997520447 165 164 160
145.287171006203 483.831822872162 2581.00008964539 167 166 162
152.604281902313 484.758049249649 2585.99996566772 168 167 163
159.948125481606 485.683798789978 2591.00008010864 165 164 160
167.383089661598 486.796379089355 2596.99988365173 163 162 158
174.850195646286 487.908512353897 2602.9999256134 159 158 154
182.069838047028 488.270282745361 2605.00001907349 157 156 152
189.517617225647 489.193826913834 2609.99989509583 153 152 148
197.067305445671 490.304261445999 2615.9999370575 160 160 158
204.961255192757 492.163866758347 2625.99992752075 158 158 156
212.585881352425 493.273228406906 2631.99996948242 153 153 151
220.409452915192 494.756937026978 2640.00010490417 148 148 146
228.275820612907 496.239960193634 2648.00000190735 143 145 142
236.896455287933 499.221682548523 2664.00003433228 146 148 145
246.336475014687 503.70180606842 2687.99996376038 139 141 138
290.371268987656 503.963053226471 2690.00005722046 206 207 202
296.681135892868 502.256572246552 2680.99999427795 123 124 119
301.580727100372 498.301893472672 2660.00008583069 134 135 130
306.829750537872 495.096325874329 2642.99988746643 150 151 146
312.579751014709 492.827355861664 2631.00004196167 156 157 152
319.2358314991 492.056608200073 2627.00009346008 158 159 154
325.86932182312 491.285532712936 2622.99990653992 160 161 156
332.353293895721 490.326851606369 2618.00003051758 160 161 156
338.679522275925 489.180654287338 2611.99998855591 160 161 156
345.237165689468 488.408803939819 2608.00004005432 161 162 157
352.447539567947 488.572925329208 2608.99996757507 172 174 171
360.627084970474 490.047544240952 2617.00010299683 180 182 179
369.692176580429 492.645114660263 2631.00004196167 186 188 185
382.985770702362 500.671982765198 2674.00002479553 199 201 198
-220.895856618881 494.447410106659 2677.00004577637 208 213 209
-211.941376328468 490.584164857864 2655.99989891052 204 209 205
-203.640028834343 488.013207912445 2641.99995994568 200 202 199
-196.306481957436 487.658202648163 2640.00010490417 186 186 184
-189.198106527328 487.856894731522 2641.00003242493 174 174 172
-182.290464639664 488.609343767166 2644.99998092651 164 164 162
-175.426721572876 489.546060562134 2650.00009536743 159 159 157
-168.662145733833 490.851789712906 2657.00006484985 159 160 155
-161.737412214279 491.787552833557 2661.99994087219 160 159 155
-155.017137527466 493.461936712265 2671.0000038147 157 156 152
-148.192062973976 494.951069355011 2678.99990081787 148 147 143
-141.533374786377 497.178852558136 2690.99998474121 146 145 140
-134.709134697914 499.036639928818 2700.99997520447 145 144 139
-128.160133957863 502.187371253967 2717.99993515015 143 144 138
-121.562607586384 505.522429943085 2736.00006103516 144 145 140
-62.5012144446373 509.827375411987 2759.0000629425 210 211 206
-54.511271417141 505.396842956543 2734.99989509583 137 138 133
-46.4969575405121 499.30265545845 2701.99990272522 149 148 144
-38.618728518486 492.653340101242 2665.99988937378 147 148 143
-31.112851575017 488.775342702866 2644.99998092651 157 158 153
-23.8568279892206 487.668693065643 2638.99993896484 155 156 151
-16.6397169232368 486.746251583099 2634.0000629425 159 160 155
-9.45696700364351 486.192852258682 2631.00004196167 153 154 149
-2.28529237210751 484.53015089035 2621.99997901917 163 164 159
4.83922939747572 483.051717281342 2614.00008201599 185 186 181
11.9018722325563 480.833530426025 2601.99999809265 179 180 175
18.91372166574 478.984445333481 2592.00000762939 182 183 178
25.901110842824 477.689206600189 2585.00003814697 176 177 172
32.8885242342949 476.947814226151 2581.00008964539 174 175 170
39.9468317627907 477.314591407776 2582.99994468689 178 177 173
46.9249598681927 476.756989955902 2579.99992370605 169 168 164
