ply
format ascii 1.0
comment KinectMotionCapture
element vertex 791
property float x
property float y
property float z
property uchar red
property uchar green
property uchar blue
end_header
4.51446001493494 -142.187293797277 2834.94864569984 6 9 2
-19.2264776811428 -145.22072895957 2827.79771829605 7 10 3
-18.9215096782762 -143.320188445854 2837.13302241104 10 13 6
15.606134416049 -134.473265163872 2869.55570489596 11 14 7
-14.883295358552 -138.852520674105 2857.96909132113 15 18 11
-29.5683721305426 -140.005663556678 2857.13466979261 17 20 13
-28.3382566960326 -137.946899321115 2866.94515059451 20 23 16
-64.1135088905172 -143.306502663757 2852.25020021263 20 23 16
-84.8408918757393 -145.619551838884 2847.66827081101 19 22 15
-166.521849874909 -160.020194402182 2803.37611792392 18 21 14
186.973914355937 -162.943381216121 2709.2608119663 17 20 11
169.907556261371 -164.943262534608 2705.24821045107 18 21 12
157.449804399817 -165.85875682193 2705.00139232141 12 15 6
160.550029783234 -163.185469855808 2717.11472806069 18 21 12
209.024894600372 -150.137976632984 2764.82389451131 13 16 7
200.572525194609 -150.170487535448 2767.55405226453 13 16 7
181.108757716978 -152.6993276591 2761.74922779216 17 20 11
187.560305168255 -149.338091305613 2776.10128551226 18 21 12
191.702722742844 -146.518182841427 2788.57494772362 14 17 8
190.353742944623 -144.948077218997 2796.76766595212 16 19 10
199.336894972244 -141.073400691401 2812.78064462358 17 20 11
198.053771687979 -139.511317227046 2820.90915203164 17 20 11
202.370651511217 -136.712929046484 2833.21308918158 15 18 9
197.945212276934 -135.864244237014 2838.89908983475 16 19 10
165.489262339295 -141.192103458468 2823.73748795371 17 20 11
144.143227083222 -144.035967998106 2817.01418720403 16 19 10
148.477149419324 -141.238976444547 2829.30140730762 16 19 10
137.528631662597 -141.786450604679 2830.33532282264 13 16 7
141.92060942262 -138.996586211082 2842.56594642319 12 15 6
142.306391274257 -137.088705083412 2851.81991625217 10 13 6
125.654335108988 -138.858489893021 2848.77880795083 10 13 6
118.724271247394 -138.524626826623 2852.77730035972 13 16 9
47.5498203515801 -150.048560332685 2820.29875471341 12 14 9
30.6183675138603 -151.781602600722 2817.52999874846 7 9 4
11.1665304827402 -154.028764144389 2813.08894235494 6 8 3
2.36545445775782 -154.012420624183 2816.15815027354 8 11 4
12.5532839994209 -150.010218983536 2832.37326536884 7 10 3
0.454935563372061 -150.68744455001 2833.15090978753 7 10 3
-7.5228670780505 -150.497102470662 2836.7937874727 8 11 4
-22.1676249454852 -151.684928838392 2835.92479272188 9 12 5
-20.1743606115863 -149.423062775454 2846.36434634161 10 13 6
-22.3250078064625 -148.025538634356 2853.96139245367 13 16 9
-55.4597927166567 -152.983209029196 2840.83607930621 16 19 12
-67.7266692020697 -153.637950611891 2841.77775144624 18 21 14
-81.7069397872907 -154.631126994512 2841.63705113618 21 24 17
-94.8811783957852 -155.448335951302 2842.08718840891 21 24 17
165.385493623234 -175.603201624723 2692.89304734291 17 20 11
166.882227856141 -173.258499003327 2703.81341948582 16 19 10
152.08398571792 -174.743520455875 2701.72351502884 15 18 9
155.950190801725 -171.856503881594 2714.46187961935 16 19 10
169.242256763932 -166.795414514548 2734.52282334706 12 15 6
194.380805391449 -159.02497477406 2763.67492283872 13 16 7
198.465249008398 -156.16524950145 2776.20060698212 16 19 10
189.211618360318 -156.386933843282 2778.33714158579 17 20 11
203.619088051304 -151.186077256208 2798.68706254776 15 18 9
206.255519209209 -148.703801872277 2809.87227491983 14 17 8
191.481006342502 -150.190001485127 2807.75898107703 16 19 10
190.973516421671 -148.43166776843 2816.50517670537 16 19 10
176.142532399638 -149.91011267568 2814.4471512545 15 18 9
177.246274820222 -147.794243834934 2824.37434444966 16 19 10
164.765356230787 -148.728048069933 2824.15289958352 17 20 11
152.250294212492 -149.657312107902 2823.96468860784 16 19 10
142.11599091799 -150.04591937973 2825.58384382857 16 19 10
151.322286024452 -146.149589151063 2841.37203771651 15 18 9
153.320806083316 -143.865638430952 2851.80310822097 14 17 8
154.544312057448 -141.764071609938 2861.6134882693 11 14 7
150.11155928151 -140.910025703845 2867.3062968517 12 15 8
150.570846192352 -138.992010312923 2876.4857772306 10 13 6
120.030782367768 -143.809595556885 2863.59698179942 16 19 12
86.0977460707826 -149.319222643324 2848.5121044019 17 19 14
28.2384343563638 -159.934500126618 2816.84723645438 12 14 9
0.558087807100094 -163.990500302401 2806.6744505088 8 10 5
-2.49811696485391 -162.748139463809 2813.77675243213 5 8 1
-27.8491501153679 -166.256763201788 2805.4610876447 7 10 3
-16.0260242013965 -161.848771953717 2822.82617237686 11 14 7
-13.2513350788472 -159.380741866428 2833.87619799483 12 15 8
-19.5890724110721 -158.844458604035 2838.67349310501 11 14 7
-30.9334147015861 -159.357114069662 2840.09532204559 9 12 5
-94.754420422011 -168.917993036619 2815.61157405354 13 16 9
-88.6370281598698 -165.750607464474 2828.90719455929 16 19 12
-110.24059323733 -168.329183053625 2823.81766229793 21 24 17
-126.854987813013 -169.856356664772 2822.12054481193 21 24 17
148.566987846448 -189.309246804711 2670.52674674457 20 23 16
152.222160750214 -184.371239796101 2693.09023698502 14 17 8
166.159582488769 -179.043665858375 2713.88819374326 16 19 10
163.04449762612 -177.789901852998 2721.04727908399 13 16 7
141.967070300983 -180.777957660383 2714.07889593653 12 15 6
165.469659795134 -173.261218787594 2742.05886743155 14 17 8
184.404452401478 -166.866103691881 2766.23837267473 16 19 10
183.777088104182 -165.076662611123 2775.09900767615 16 19 10
166.598772372884 -167.140768272249 2771.20741192102 16 19 10
188.924470971533 -160.041511125195 2797.58360061223 14 17 8
180.453255135466 -160.091356465913 2800.33503517174 15 18 9
163.221020248152 -162.147853939319 2796.49585744879 15 18 9
157.089974202623 -161.643688149021 2801.09231416218 15 18 9
158.147210512423 -159.499797233212 2811.06188480437 15 18 9
177.658043551502 -153.176947373993 2834.6800541528 16 19 10
167.583181372997 -153.589295758965 2836.2433545508 16 19 10
155.876317382829 -154.361234225747 2836.64658549482 16 19 10
150.593359742705 -153.680181679508 2841.79198125902 15 18 9
129.945583956967 -156.435520698417 2835.77946165954 14 17 8
118.952904930756 -157.013885105809 2836.86179553304 13 16 9
142.875766696748 -149.832999542435 2863.0571601041 13 16 9
144.946656603778 -147.533184151374 2873.41402148806 10 13 6
131.540181957706 -148.655188765136 2872.72257408447 16 19 12
103.364134410485 -153.005237776237 2861.6682396874 18 21 14
32.4219432543655 -166.667961437769 2820.77337518877 15 18 11
-2.64856602852426 -172.409705023029 2805.43508483864 9 12 5
-34.5608234561872 -177.417947321834 2792.52016765179 6 9 2
-38.5060904706997 -176.33734039999 2799.11231936526 8 11 4
-39.9584810078721 -174.722666335123 2807.40080094791 14 17 10
-34.7500133527139 -171.685563981379 2820.20100566784 16 19 12
-37.8101278679885 -170.433599573827 2827.30577062078 13 16 9
-42.5254980888168 -169.538339656188 2833.27279324891 12 15 8
-33.8620904037388 -165.80579996959 2848.20771906651 11 14 7
-64.508758867178 -170.405930756459 2836.80955326154 11 14 7
-133.058184230539 -182.949542480893 2800.45845497614 13 16 9
-132.038754541017 -180.797304787964 2810.46399665915 21 24 17
-147.015692576602 -181.999820414173 2809.92703279182 22 25 18
-157.806700409948 -182.316358932784 2812.18731575525 16 21 17
144.786797082205 -197.948927861205 2668.4722508694 17 19 14
162.446665049457 -191.59498062775 2692.50695040039 17 20 13
178.672842276636 -185.631491135947 2715.18921687838 23 26 17
192.675741983265 -180.24455093903 2735.9130408972 18 21 12
184.949649391352 -180.114806151493 2739.31492303552 12 15 6
155.331168115485 -185.221333734149 2725.55402590344 14 17 8
146.745408301205 -185.268075743275 2728.41874565554 14 17 8
164.84753512921 -178.969381031397 2752.02244189858 16 19 10
158.660120504311 -178.461440824706 2756.67431558746 17 20 11
149.312823328829 -178.697069943127 2758.90626131137 16 19 10
153.397342879964 -175.771176477711 2771.422090421 14 17 8
159.115553595311 -172.480009017568 2785.09547135272 14 17 8
170.45465743402 -167.898516059604 2802.91555368382 14 17 8
157.16806867009 -169.064528918693 2802.11156222646 14 17 8
166.215008257721 -165.050484798287 2818.04093828052 15 18 9
169.726132921498 -162.337360659025 2829.7403570434 15 18 9
180.506659073422 -157.970783368411 2846.72997039884 15 18 9
172.050408383158 -158.031729182682 2849.46818499249 16 19 10
160.352285981581 -158.825911694194 2849.86568522792 15 18 9
110.615874614101 -168.243512850485 2822.71117634671 14 17 8
111.736275982953 -166.084662467023 2832.61547430674 14 17 8
125.889835525035 -161.000692313445 2851.81756040417 11 14 5
127.105407746358 -158.853705343984 2861.62944355021 11 14 5
110.390888663857 -160.727065088132 2858.66600802114 12 15 6
102.62519374113 -160.587934619968 2862.10582865989 17 20 11
66.9574393176995 -166.637417533201 2845.98884814179 19 22 13
-1.7433741501609 -179.940757821579 2807.06621155461 7 10 3
-36.9494224932603 -185.761474773009 2791.87418572393 8 11 4
-57.4233773379285 -188.300478326885 2787.07433223288 9 12 5
-46.499011626989 -183.950147295754 2803.92351196993 14 17 10
-53.7567856413639 -183.587651159489 2808.24285560775 15 18 11
-49.3737811529384 -180.696320084171 2820.4673930684 15 18 11
-29.9332439159237 -174.565439254005 2842.76683080838 15 18 11
-22.9131302732877 -171.150498940077 2856.54601863162 14 17 10
-55.2088761368781 -176.193938808772 2844.0174511581 14 17 10
-86.5039295488752 -179.060623025721 2841.50907013624 18 21 14
-136.806191086944 -187.82619855611 2817.65390837191 21 24 17
181.908846018255 -196.490484308514 2699.41066507143 15 17 12
188.829923503666 -192.738039632922 2714.65522358328 32 35 28
202.019228871056 -187.469101984286 2734.78782805748 21 24 15
211.414783251779 -183.163343144206 2751.74481847807 24 27 18
191.263432812835 -186.087806393196 2745.26433765805 15 18 9
158.535577509215 -192.038948562322 2729.04761561268 15 18 9
165.625924900012 -188.306794646926 2744.1274234137 15 18 9
163.355010990994 -186.853774298238 2751.83569383552 17 20 11
151.653123495092 -187.670787884156 2752.24064513009 17 20 11
143.077784472311 -187.728602940412 2755.09665347372 16 19 10
151.102401061908 -183.825327628246 2770.6403357993 15 18 9
158.400842201881 -180.118699610489 2785.51727614772 15 18 9
164.172126768493 -176.796011153047 2799.13329517092 15 18 9
170.795564304884 -173.292468416071 2813.29329283218 15 18 9
166.293051868389 -172.421519982689 2819.05287560261 14 17 8
166.600393870695 -170.427400377568 2828.37199135222 14 17 8
162.92163324189 -169.371768333679 2834.70285171906 15 18 9
175.347122906139 -164.58167469244 2852.83055293549 15 18 9
162.850484383383 -165.584584100387 2852.63493190991 15 18 9
134.955413848642 -170.12191249455 2841.32960083887 15 18 9
97.2252590004259 -176.877344221629 2823.11422540368 15 18 9
87.7795042898004 -177.11092667887 2825.44330057784 14 17 8
98.6774479949535 -172.703986399357 2842.31035093503 13 16 7
105.57181179841 -169.233313946914 2856.20651086376 11 14 5
92.0661578302635 -170.39547459328 2855.61948503721 14 17 8
70.3196673835822 -173.400168478567 2849.31795056066 14 17 8
32.873974026403 -179.900584766605 2832.19931880697 9 12 3
-18.7330330482673 -189.513812585775 2805.51400549111 6 9 2
-49.0772406315099 -194.314633980601 2793.84549138712 6 9 2
-48.0707059807335 -192.117517028921 2803.85720489939 9 12 5
-27.9422403619729 -185.703655889018 2826.84894238036 11 14 7
-28.4912432927533 -183.886812167374 2835.62737544608 14 17 10
-22.3447491884663 -180.608902212361 2848.87776193685 15 18 11
-27.0087735209295 -179.713835079783 2854.79382583235 16 19 12
-44.2339317851697 -181.556845654229 2852.33297696535 18 21 14
-84.1837374097483 -188.313765474242 2834.90472034334 17 20 13
-107.458843840346 -191.410054331788 2828.7177525151 19 22 15
-92.0115743501495 -186.135174414734 2848.02385844756 19 22 15
-113.667327912518 -188.858910644566 2843.00794264449 15 20 16
184.301686953387 -203.489339194689 2702.31969429895 34 36 33
202.059729359653 -196.985351814568 2726.23506713456 20 23 16
212.954690867476 -192.235237200088 2744.47126715867 25 28 19
227.81985270811 -186.530566221881 2765.70913882084 24 27 18
201.474271248237 -191.05311381227 2754.27986691417 19 22 13
144.54867739807 -203.068506782341 2719.06092114661 19 22 13
158.653968984516 -197.558286204057 2739.66484772862 18 21 12
161.863041482801 -194.748039348112 2751.65019190387 17 20 11
147.008453358234 -196.352814181746 2749.63393934171 17 20 11
169.990012959458 -188.760644464625 2776.70324325908 15 18 9
171.751290677966 -186.349383818747 2787.35108256316 17 20 11
164.824178839568 -186.04322665715 2791.35040064801 17 20 11
169.815776430522 -182.875117188937 2804.34659775331 17 20 11
174.061770668141 -179.90380044754 2816.69536657188 16 19 10
173.561455996902 -178.079797184264 2825.424393299 16 19 10
161.072606288089 -179.108144112454 2825.22513536241 15 18 9
165.408353727401 -176.147804821794 2837.48606254533 18 21 12
140.820724209521 -180.014282916332 2828.46521738314 16 19 10
163.735532215591 -172.704662883135 2854.22565802344 16 19 10
149.589871270553 -174.105131902987 2852.8921432998 16 19 10
122.433347717846 -178.519432536935 2842.25215002635 16 19 10
95.1728861351082 -182.920099411251 2831.71335368949 16 19 10
122.376866000883 -174.696711093897 2860.16441314474 15 18 9
92.5894780455669 -179.650845011248 2847.96562844279 10 13 4
85.5997970864522 -179.333910545304 2852.02548570858 12 15 6
86.8061191663765 -177.141235984548 2861.83980177573 13 16 7
29.6674839365276 -188.244624876224 2830.94868123817 9 12 3
-17.0007998275072 -196.885877651992 2807.71727892848 6 9 2
-32.4704360541195 -198.406966695194 2806.29974734244 7 10 3
-20.6609604464676 -193.768868344157 2823.64437730124 8 11 4
-17.8987106012558 -191.189529102228 2834.69030386104 9 12 5
-30.0709114734747 -191.96246617132 2835.55576880087 12 15 8
-28.9318391306392 -189.760062329384 2845.43508902558 13 16 9
-33.6111169424389 -188.859812521407 2851.36587169638 14 17 10
-55.8777447317529 -191.849458076397 2845.57827931148 15 18 11
-62.2674051524936 -191.314884719379 2850.42738753938 18 21 14
-85.4915722325882 -194.473881036325 2844.19910431818 21 24 17
-96.986911116927 -195.040003154222 2845.77877745644 23 26 19
-71.3086712030799 -187.497801041497 2871.59453246694 17 22 18
-110.734866824833 -194.138399055341 2855.0463782193 10 14 13
154.284659414619 -218.720887305536 2679.11508288406 23 25 22
161.908953905879 -214.676156132758 2695.03538385672 21 23 18
196.744905769732 -203.782232020669 2732.51734145301 30 33 26
182.023215955481 -205.437549935559 2730.37658914944 21 24 15
179.726871560125 -203.959800048329 2738.10645740513 20 23 14
181.3539402563 -201.507944238861 2748.88156830492 20 23 14
161.86626663889 -204.323499200446 2743.14285931057 18 21 12
125.81854706093 -211.217996179173 2724.69460172424 17 20 11
169.130271475459 -198.45583045589 2767.6536354497 16 19 10
188.219602150514 -191.743970128566 2791.63320514125 14 17 8
186.860852947693 -190.089591771862 2799.82283121762 15 18 9
170.454235642227 -192.117346327265 2796.57646415801 15 18 9
162.739115819445 -192.0103020624 2799.97080530171 15 18 9
171.74917152822 -187.844923187133 2815.91444038204 15 18 9
161.656438089238 -188.318660721739 2817.50456049539 14 17 8
154.744457805378 -188.018568435288 2821.48974910879 14 17 8
156.65633141609 -185.6007003238 2831.98706788517 18 21 12
152.970933982365 -184.532421393397 2838.3229873351 18 21 12
161.3939791327 -180.586292039481 2853.46469040136 17 20 11
174.735553981159 -175.498537300107 2872.05562062505 17 20 11
125.755321674129 -185.161487389949 2845.60304869939 16 19 10
118.815711123473 -184.856509655416 2849.61529035107 16 19 10
106.982485685473 -185.695990332079 2850.15364494789 16 19 10
86.1393568726054 -188.628639039872 2844.36165792877 13 16 7
57.8584380660785 -193.265471267122 2833.45384867658 14 17 8
31.11039809732 -197.507851754963 2823.79972476098 14 17 8
19.0618705968362 -198.318670034062 2824.54797904074 9 12 3
-18.342704521022 -202.958729026671 2817.03259717976 10 13 6
2.60729352329303 -196.186991442134 2840.57255615317 11 14 7
-2.87576830089886 -195.476363633016 2845.9122871193 12 15 8
-37.473379095994 -201.368729377105 2831.54357278707 13 16 9
-15.506647433964 -194.431873168534 2855.4664051052 13 16 9
-33.5267648629749 -196.542998392355 2852.41768035085 15 18 11
-34.8507119152552 -194.888555253311 2860.57273780246 14 17 10
-74.7764438769649 -201.868594639379 2843.15389049376 12 15 8
-76.1487794895421 -200.207609087248 2851.35603153527 17 20 13
-89.3096369134869 -201.169270188175 2851.81389321576 20 23 16
-78.8324846435295 -196.893218825226 2867.70123169553 24 29 25
135.844380883575 -231.175398295977 2665.25879698685 12 14 13
145.637353717835 -224.380156737393 2692.7894886173 23 25 20
171.994298314563 -215.536974266294 2723.40697062866 32 35 26
185.261264013218 -210.08230275428 2743.43466802 24 27 18
190.027330870127 -206.816089885018 2756.64032083833 21 24 15
176.940779701914 -206.026643124973 2765.26771392162 16 19 10
180.406212548938 -201.099061855565 2786.60458828727 13 16 7
190.103512760359 -196.675547232426 2803.24453638404 14 17 8
172.912083203252 -198.938215299844 2799.39497244674 14 17 8
154.073336384814 -201.585461962576 2794.40424081476 14 17 8
151.904635950632 -200.110653576526 2802.00779148267 14 17 8
156.942139577378 -196.877126435566 2814.94873451236 15 18 9
158.026840602255 -194.62685540626 2824.87497151017 15 18 9
159.14365927066 -192.380469447678 2834.77022726692 16 19 10
144.19834955657 -194.035429807118 2832.85147998306 16 19 10
151.793126485009 -190.234836047507 2847.42026641728 17 20 11
174.813837249433 -182.749188353484 2873.0495272416 16 19 10
140.424623568605 -189.063430830843 2857.11931537345 16 19 10
126.207850033302 -190.512842366363 2855.86365018562 16 19 10
112.763771291079 -191.763051605601 2855.22849279305 18 21 12
104.996271677869 -191.654488392859 2858.67496118513 18 21 12
57.1224118819051 -201.007058475805 2833.91202744875 17 20 11
41.0361145902121 -202.811738633039 2831.73151689935 17 20 11
15.8565151276955 -206.728619868683 2823.30561836336 10 13 4
-5.29447905974401 -209.67148983345 2817.82085690959 8 11 4
-3.38971561650991 -207.225763580765 2828.32078092429 11 14 7
-14.696393571564 -207.854264503428 2829.72233053095 13 16 9
-42.627318168023 -212.311314872521 2819.85764733388 14 17 10
-33.2290377909232 -208.143722428361 2835.41544241503 16 19 12
-36.2670481602541 -206.851838131344 2842.49201964007 16 19 12
-20.0709187892536 -201.171780447849 2862.41185870349 16 19 12
-49.0061886255764 -205.797250773228 2852.15248825482 14 17 10
-56.2198665968854 -205.459566965694 2856.43171112138 11 14 7
-84.4781915900059 -209.87333837251 2846.88574474634 14 17 10
-101.031804898465 -211.615685728549 2845.160073149 16 19 12
-114.253290044012 -212.593173334773 2845.68047820386 15 20 16
165.934964632383 -228.925626212396 2700.22844557526 24 26 23
142.615021077731 -232.851273369633 2691.37442399109 23 25 20
182.95752573525 -220.276535653493 2733.05891065284 24 27 18
172.869314906024 -220.785163191932 2734.64969647518 24 27 18
188.543032265104 -214.671370594181 2756.44143971791 20 23 14
173.774066135553 -216.383884191499 2754.35608699118 20 23 14
194.294714427307 -209.086581371988 2779.66162762135 22 25 16
170.862549793439 -212.99607633897 2770.91665594111 21 24 15
171.015307627409 -210.906546579094 2780.37517447585 17 20 11
168.822851081045 -209.418305875348 2788.00033002365 16 19 10
171.404852796309 -206.737461140435 2799.21024317352 15 18 9
165.282118363118 -206.248538201617 2803.80103706177 14 17 8
140.030902167922 -210.524794900374 2794.08279906079 14 17 8
153.02739528435 -205.268788573135 2812.99153303443 14 17 8
154.102329355406 -202.995320376244 2822.92404023053 14 17 8
152.801011792811 -201.319257980954 2831.05343094773 15 18 9
135.426869514786 -203.596940137704 2827.38786036113 17 20 11
130.094314390159 -202.907173091966 2832.58121916141 18 21 12
141.741928704163 -198.078898301558 2850.05847178286 17 20 11
168.060765719842 -189.718314301781 2877.9513043934 14 17 8
134.412428895604 -195.923133244913 2862.68646526363 16 19 10
115.287485375736 -198.576744783108 2857.98053407075 20 23 14
107.525841898723 -198.476720160983 2861.42211139098 22 25 16
107.117677471977 -196.612778699386 2870.05406655682 20 23 14
-3.56193940116878 -216.981705747632 2820.01468477203 9 12 5
-15.6951845300997 -217.823505499465 2820.85164395733 13 16 9
-28.68654382572 -218.855802987206 2821.15163151787 15 18 11
-50.8404769104898 -222.020889309856 2815.27839953626 16 19 12
-54.771016495549 -220.906698749789 2821.85096304751 14 17 10
-31.1793993185541 -213.398099516271 2846.9095752951 13 16 9
-29.1789280413424 -210.939301590209 2857.31286587021 11 14 7
-40.5445876903627 -211.577851190219 2858.77447036101 12 15 8
-79.64176500318 -218.583430171861 2841.95354009646 11 14 7
-104.587467997373 -222.291416737383 2834.68175152849 11 14 7
-120.08364045824 -221.788636449875 2842.91014687816 13 18 14
186.899856311574 -231.023548261805 2717.97966233882 11 13 12
176.816430903571 -231.549319834454 2719.56823004791 28 30 27
214.133213023556 -219.64107154397 2758.68749780902 9 12 5
195.550193667311 -222.414553026064 2753.4614824779 32 35 26
155.025054016749 -230.871124396924 2731.18811153476 22 25 16
121.374800845307 -237.477750768355 2714.5673151688 21 24 15
158.253625455323 -225.815811177954 2752.7409762121 22 25 16
163.857315800771 -222.282026731464 2766.49221887942 22 25 16
164.781843144821 -219.96867648128 2776.56852547079 18 21 12
168.111119902262 -217.053155900585 2788.41860778722 15 18 9
162.761272143042 -216.362506157671 2793.62900796703 15 18 9
163.771764326331 -214.059462421959 2803.62147350058 15 18 9
157.642058197011 -213.571829398738 2808.21904319311 15 18 9
157.101105083701 -211.676346637827 2816.97819769742 15 18 9
165.392464985899 -207.575216430242 2832.22775710326 15 18 9
162.513066642584 -206.289836875991 2839.14812948189 15 18 9
133.093269209701 -211.614816871589 2826.63913284558 15 18 9
122.915520008641 -212.124097862914 2828.31892817482 16 19 10
130.502782504553 -208.235312410906 2842.882141858 16 19 10
161.656195042807 -198.568433724272 2874.28323131253 16 19 10
148.303295163274 -199.883769655608 2873.56715765809 18 21 12
121.068610244014 -204.57729844128 2863.04571173396 21 24 15
129.646461730526 -200.511443039986 2878.01633220441 19 22 13
113.744500358513 -202.409505087972 2875.66657516446 17 20 11
92.8720229055004 -205.490521498928 2869.9253226186 13 16 7
-2.06139364378632 -226.382797509 2812.8292134789 10 13 4
-14.1896151464618 -227.246623214848 2813.66410171346 10 13 6
-7.3504429382405 -223.563663531061 2827.58369175206 13 16 9
-28.6010868085458 -226.594942147373 2822.21061282457 14 17 10
-50.7542766331479 -229.813577410982 2816.34455728471 14 17 10
-48.8623652380973 -227.316326879706 2826.84996614936 12 15 8
-29.42658015697 -220.697056832135 2849.08193913734 11 14 7
-27.4224646456962 -218.214098834625 2859.47804008614 13 16 9
-52.1854113544413 -222.007572721049 2852.03740681379 13 16 9
-92.148051253087 -229.312906305884 2834.70295013059 13 16 9
-142.365809406701 -238.943534157463 2810.89172961159 14 17 10
-116.882347030486 -230.975671283512 2836.83798912169 16 19 12
-118.305155603941 -229.266143655244 2845.08341390381 14 19 15
190.85359591696 -235.383824855243 2731.70191277856 9 11 8
194.776215922668 -232.210019647085 2744.34186928281 29 32 25
193.290634800068 -230.485754604214 2752.64711210874 19 22 13
158.230140899812 -237.62101048294 2734.67101820856 19 22 13
169.233016949379 -232.598825731253 2752.75984564999 16 19 10
162.259478911457 -232.312981521977 2756.80860572474 15 18 9
178.10524548468 -226.074327889705 2778.41070930611 16 19 10
183.798936637582 -222.51376612873 2792.06862216579 15 18 9
160.280561865015 -226.535048096986 2783.42578049766 16 19 10
158.87633889237 -224.819165577107 2791.65181025323 16 19 10
176.569545230104 -218.204237917662 2814.1975843368 17 20 11
167.284008208035 -218.538877659314 2816.38283504226 17 20 11
179.546831511575 -213.37024810867 2834.61611891743 17 20 11
192.696589152979 -208.00910950179 2853.35712044708 19 22 13
175.435284366304 -210.381879324847 2849.59321663708 18 21 12
146.852115029195 -215.588559780032 2837.65286063135 18 21 12
131.061965087012 -217.537012748058 2835.19952094468 18 21 12
145.944701978071 -211.784977194421 2854.99603054069 19 22 13
160.114744703448 -206.247668761095 2874.11474539368 21 24 15
145.133588693372 -207.993079420399 2872.24496252646 18 21 12
134.1783974023 -208.723798209554 2873.31258843588 19 22 13
125.645587692836 -208.846503791849 2876.13595533409 15 18 9
93.3708008155967 -214.802238546455 2862.3041649033 15 18 9
75.7311880312983 -217.123997934558 2858.90872504934 13 16 7
69.5429508463725 -216.628308000253 2863.56322613741 9 12 3
-3.39217408586334 -232.368968292071 2822.12033598848 8 11 4
5.94970919263016 -228.047817016955 2837.71143829409 9 12 5
5.42768875557531 -226.135143370322 2846.4492515656 11 14 7
-10.836692164518 -228.019743139335 2844.45739277548 13 16 9
0.297215422309538 -223.315951010956 2861.04625293636 13 16 9
-34.3432277812359 -229.578106207863 2846.77472653854 13 16 9
-50.7346160570705 -231.445751180397 2844.90648201868 16 19 12
-62.1500687483572 -232.114672701908 2846.42202069325 17 20 13
-53.4438641187607 -228.017485826108 2861.26021597498 16 19 12
-91.7909907315106 -235.027503656169 2845.11203965505 16 19 12
-94.548929012384 -231.592215593699 2861.51308576557 17 22 18
187.830778462216 -243.727579710432 2730.26884340742 4 6 3
179.307550265531 -243.867119933675 2733.08518387438 29 32 25
175.445198480439 -242.750868618164 2739.58939347152 18 21 12
187.997900581848 -237.253016156453 2758.90307373045 16 19 10
171.662352518087 -239.47848933258 2755.61535658902 13 16 7
188.249247140735 -232.95309508729 2777.85637608376 12 15 6
182.907224422667 -232.263638206041 2783.05918218645 12 15 6
177.565922072936 -231.574006778947 2788.26124715495 12 15 6
117.647881030966 -245.196863282828 2752.00036229848 16 19 10
159.749272435415 -232.058826092899 2793.2719023209 16 19 10
178.238743469012 -225.158565601115 2816.40204888223 17 20 11
182.50309976107 -221.993433371567 2828.7039380648 16 19 10
172.437301902025 -222.549820666802 2830.27952634761 16 19 10
183.96764949356 -217.536342634207 2847.84585359968 15 18 9
185.14629705392 -215.210270935793 2857.66793483518 17 20 11
157.391968686317 -220.292303996358 2846.30301398144 18 21 12
149.692708230948 -220.224556839499 2849.68741463425 18 21 12
157.34335822629 -216.257019245227 2864.17604406122 19 22 13
189.368811479625 -206.149942371371 2896.06303241244 19 22 13
161.460809395309 -211.211052782177 2884.84795731461 15 18 9
145.659020697713 -213.191827637724 2882.41095224497 17 20 11
115.931851759707 -218.636760129732 2870.22457114163 16 19 10
86.0893671171916 -224.066431172474 2858.150782444 17 20 11
40.5495708065509 -233.350475566468 2835.31102689115 17 20 11
9.61739963417996 -238.948422328642 2822.92727478632 10 13 4
46.9554187609202 -227.668843173227 2857.86764295623 7 10 3
35.767341191288 -228.386655249147 2859.16462077637 8 11 4
24.5530071249012 -229.100921401147 2860.48714759993 9 12 5
20.7803124151629 -227.990046417515 2866.90312101537 13 16 9
-3.77665120109505 -231.933823516317 2859.28015823634 15 18 11
-20.0851504821156 -233.847033899868 2857.33633826714 16 19 12
-56.497286731116 -240.593047875475 2842.06182473464 17 20 13
-64.5759035580644 -240.473142611508 2845.8152229269 18 21 14
-59.2337456519765 -237.133430420686 2858.43794564958 16 19 12
-24.3912371378774 -226.769232134035 2890.32371052805 16 19 12
-19.7223973843754 -223.652100508133 2902.23069828029 19 21 16
-75.0202393209678 -234.768355664609 2875.18151953179 18 23 19
184.051098108734 -250.122185426917 2737.80139828204 5 8 1
173.966380485141 -250.694851218789 2739.39818012544 19 22 15
182.608507082873 -246.191062366281 2755.65681956318 14 17 8
188.972018799801 -242.329433871928 2770.02234032901 12 15 6
172.626138190193 -244.590754827156 2766.75018184445 11 14 5
170.393590422875 -243.053498727844 2774.40790411326 10 13 4
125.571156301368 -252.878600905023 2749.51885608838 10 13 4
109.820181187769 -254.903639606828 2747.03793455582 10 13 4
185.471883206984 -230.633823112848 2822.78187225151 15 18 9
180.192177174291 -229.9507480193 2827.92374018985 16 19 10
170.919551812553 -230.313184601942 2830.0999399447 16 19 10
184.04695364243 -224.824420168554 2848.84427808425 16 19 10
175.594262249769 -224.979928935905 2851.59293460594 15 18 9
159.885894697286 -227.008599417413 2849.07023991078 13 16 7
147.353735192367 -228.198148807776 2848.93747705348 12 15 6
167.124754694397 -221.068308081992 2872.17834234227 12 15 6
177.292188865901 -216.445440488203 2888.32163834283 13 16 7
192.408280703383 -210.587754936367 2907.87080800384 14 17 8
146.553701993676 -220.275957473055 2883.98646110586 15 18 9
94.3531219152485 -229.452768179983 2864.91095672935 17 20 11
-19.0675598544754 -253.829630362674 2804.0157572666 9 12 3
-13.1084192247686 -250.222967332643 2817.40359896631 8 11 4
-32.6966763290861 -252.996964313657 2813.1755379277 8 11 4
13.0478702173651 -239.539745089715 2853.61635255059 8 11 4
-14.8146130077547 -244.367344753678 2843.73847308399 10 13 6
-16.1666175506117 -242.626260999118 2851.90892443537 10 13 6
-30.8365333077574 -244.161162864284 2851.11587160589 11 14 7
-44.712532632408 -245.486181318816 2850.92067450598 12 15 8
-72.0263071343425 -250.071468501212 2841.87901480462 13 16 9
-53.2708921088823 -243.432720551731 2863.36681717248 14 17 10
-49.5468325359569 -240.473014830682 2874.81868161472 16 19 12
-26.3835387938549 -232.842233767869 2898.86765762621 19 21 16
-42.8140128842642 -234.773414159971 2897.04761640528 18 23 19
159.24032253516 -262.292325917529 2728.81217096792 6 8 3
181.906943176007 -253.881357004817 2756.07319576507 13 16 9
192.183944648749 -248.909555818839 2773.47336474297 11 14 7
174.27619267104 -251.636622922812 2768.98684821559 10 13 6
145.288561252694 -257.342034499749 2756.10493195985 9 12 3
151.689109225148 -253.443590444457 2770.42823385262 7 10 1
169.221363730617 -246.572909724999 2793.09603529436 7 10 1
171.01003059047 -243.968116550726 2803.68807275302 11 14 5
175.21892209773 -240.730684128427 2816.0343533499 14 17 8
181.068559906532 -237.075028584988 2829.52335405543 16 19 10
193.36304138643 -231.731596568612 2847.69936516539 17 20 11
162.50949094827 -237.824030610537 2833.89337935354 17 20 11
157.214893410705 -237.137928314067 2839.0495873571 16 19 10
143.875962875075 -238.562378051774 2838.33576891058 13 16 7
152.27332916093 -234.289596940137 2853.45469248174 10 13 4
146.186466344093 -233.815427279931 2858.01204585281 11 14 5
147.389432968745 -231.447827915257 2867.80350228503 14 17 8
151.873526706529 -228.243850761543 2879.88144767284 16 19 10
117.342382004603 -231.016701635316 2881.98993177267 12 15 6
46.4585280537606 -247.054658113632 2841.38819593983 14 17 8
-13.2270380667534 -260.128990987043 2809.06645429186 9 12 3
-19.6135636560326 -259.614230015757 2813.91504000575 9 12 5
-26.8286849220138 -259.307159023329 2818.20055848794 11 14 7
-32.3951078323454 -258.5830148146 2823.62107052695 12 15 8
-16.387876370795 -252.456101186983 2843.66244289348 13 16 9
-25.2289901612195 -252.568585952883 2846.79011182747 14 17 10
-41.5868598308165 -254.544536457059 2844.90459034639 14 17 10
-54.6519292744212 -255.685816628858 2845.29421860862 13 16 9
-43.4645362502857 -250.825688900068 2861.80686060613 12 15 8
-42.271713210436 -248.45412769375 2871.60780420954 10 13 6
-65.4456896128601 -252.068646378828 2865.39700691054 9 12 5
-55.812540366095 -247.637515813257 2880.68228507086 11 13 8
-65.5485012526151 -247.948277075032 2883.31128410331 10 15 11
-74.4559539200269 -248.05107197281 2886.50339636454 13 17 16
167.113241986059 -267.697294523102 2735.96320427266 107 108 112
168.706860737701 -265.044560780315 2746.74184179103 11 13 12
170.336025204198 -262.396177164122 2757.4854869939 11 13 10
164.935513139917 -261.69858017668 2762.74517077788 8 10 5
131.99076588297 -268.561825081389 2746.8789718764 8 10 5
166.759977240429 -256.850287101997 2782.88911364991 13 16 9
189.074057692679 -248.612629881937 2809.10892214061 11 14 5
198.839554562438 -243.836793828708 2825.62907699402 11 14 7
185.631176868088 -245.306065831994 2824.79224235747 11 14 7
207.440166941931 -237.32012826798 2850.13356995606 12 15 8
178.267875330975 -243.080512126249 2837.44314888052 12 14 9
152.182199664501 -247.968602950594 2827.22672312695 16 19 12
141.244789559294 -248.777043438654 2828.28817928911 18 21 14
143.957216605751 -245.947793534685 2839.34664393789 18 21 14
150.741460950263 -242.055852636975 2853.28989082498 18 21 14
146.267532818563 -241.157034802561 2859.01663203089 18 21 14
138.557149136322 -241.110617868823 2862.41523081009 17 20 13
110.529647366006 -246.38161648055 2851.34950420942 15 18 11
121.475441220941 -241.437988878211 2868.08971650859 15 18 11
67.8628842452258 -249.112704025896 2857.27953926886 13 16 9
-13.9625582670253 -268.081737343927 2809.55500200243 9 12 5
-25.2939899309683 -268.836524757976 2810.99979749621 8 11 4
-24.2642927093257 -266.422770428901 2820.95682916542 10 13 6
-27.3417038808392 -265.066773301756 2828.06305612119 12 15 8
-17.9609615100249 -260.554803297583 2843.58736784886 14 17 10
-21.8157098775569 -259.415729630093 2850.08099184831 15 18 11
-31.4969047973706 -259.747505008199 2852.65837550145 15 18 11
-44.5385387896935 -260.915667896646 2853.02836742591 15 18 11
-55.9392438220261 -261.660307050066 2854.54045249006 16 19 12
-45.5423911758772 -256.961439311503 2870.44503760765 14 17 10
-59.4690176557817 -258.332469211011 2870.30691449279 13 16 9
-86.0822991628485 -262.829381468372 2861.97350243473 13 16 9
-87.4358837214881 -261.059410193633 2870.14125320228 13 18 14
-94.6991650358715 -260.749616047073 2874.47385500149 11 17 15
157.851218969662 -275.640095092074 2739.24925022853 9 11 10
140.659287632291 -278.225154483221 2735.4481717053 9 11 8
139.110184429962 -276.422885475844 2743.80496394355 8 10 5
164.338555277404 -267.186069430618 2772.65113886555 9 11 6
156.584666646405 -267.144723426764 2776.09368818321 14 17 10
190.735686908168 -255.535634424084 2811.31627329158 11 14 5
209.225490690282 -248.311028366069 2834.39815129568 14 17 10
188.890051764124 -251.769834590574 2828.17944872321 14 17 10
174.855180502021 -253.479098096234 2826.78189573878 13 16 9
163.174060411077 -254.530994913124 2827.2006024902 11 13 8
152.263396118971 -255.361706644785 2828.23879134465 9 11 6
153.36394891371 -252.938060692991 2838.12366256283 12 15 8
164.954499545131 -247.704182280483 2855.59797006842 15 18 11
164.531365506909 -245.723895169303 2864.22759444354 18 21 14
162.51560740591 -244.178469618535 2871.6688339276 19 22 15
159.705915662411 -242.850633778572 2878.51371160166 18 21 14
149.59865152923 -243.463327561513 2880.13879858197 17 20 13
180.176837750204 -233.312594963869 2910.62233571653 17 20 13
67.2936826821999 -261.015693965806 2839.7659397341 16 19 12
76.6047265327847 -256.446966215353 2855.35107435259 17 20 13
54.0072874317712 -260.250793888943 2848.59540893433 16 19 12
-23.7384985568525 -278.395002248148 2803.78302593541 12 15 8
-12.8489511575882 -273.388823705048 2820.56984679481 8 11 4
-15.0935839587349 -271.811684873573 2828.23367503047 11 14 7
-38.0150226225804 -275.5726033452 2821.79340400638 13 16 9
-28.6598973684598 -271.00845977045 2837.33544267868 14 17 10
-2.60219100167625 -262.194609416896 2864.00367999694 13 16 9
-12.2385786896739 -262.545360413314 2866.53937399462 12 15 8
-36.0964781900619 -266.504839339397 2859.64146025539 16 19 12
-52.5019766604364 -268.543572612535 2857.8125141434 15 18 11
-75.671567542722 -272.271068229794 2851.61405989931 13 16 9
-111.540711003514 -279.163095972113 2837.23883658987 14 17 10
-88.5235214075713 -271.237538754876 2861.38932839143 17 20 13
-101.715037964507 -272.40931620973 2861.90902799155 17 22 18
95.4432508754257 -300.974049751525 2691.60477891489 1 2 4
114.900135472737 -293.148537057316 2716.47167411244 11 13 10
154.107111461331 -279.796863111284 2756.33477021573 10 12 7
160.484841061864 -275.773624388894 2770.66228649184 11 13 8
168.499319994847 -271.315324298965 2786.13400324054 16 19 12
186.070643515336 -264.214266785471 2808.72929682526 13 16 7
176.80092978863 -264.630525667178 2810.91056019578 15 18 11
182.612448714093 -260.856031960306 2824.42018712931 16 19 12
157.409143107047 -265.67510873951 2814.73426393489 15 18 11
147.283055001305 -266.302943203074 2816.38028118421 12 14 9
140.336564782204 -266.048918737586 2820.40654747727 10 12 7
155.852761006527 -259.650084840578 2840.89533539615 11 14 7
158.599895752556 -256.770841135608 2851.91194572422 13 16 9
175.095031705914 -250.174893534453 2872.8167458611 15 18 11
166.637935462741 -250.37099420338 2875.57543808779 16 19 12
167.889386870396 -247.943946818858 2885.31029986437 17 20 13
110.69498854098 -261.227989934764 2853.37960549131 17 20 13
127.338931841526 -254.650507020041 2874.13936680524 17 20 13
63.2977668753951 -269.63388298262 2837.92282334311 16 19 12
57.0563849380985 -269.145645826199 2842.63119947322 18 21 14
10.6350016068331 -279.296887077405 2819.37813486315 20 23 16
-19.5416883264556 -285.084913017984 2807.68918165713 12 15 8
-16.8810789635092 -282.192107816453 2818.78970858641 7 10 3
-19.1354643981114 -280.602653371189 2826.46140108892 9 12 5
-25.5117072883997 -280.095747275146 2831.30127471983 11 14 7
-15.2983648831557 -275.270638161758 2847.36942979935 14 17 10
-8.33700902297085 -271.317630026232 2861.12743878012 15 18 11
-2.14992102113154 -267.587475358833 2874.27067335955 14 17 10
-30.9964506794076 -272.899696116343 2864.02434617422 15 18 11
-44.8776900794652 -274.329991472881 2863.84991242679 16 19 12
-117.548557335342 -290.778615838804 2825.0834037572 16 19 12
-86.2135803945527 -280.605292114515 2854.8120975609 18 21 14
-111.200625726649 -284.799866834288 2847.65328006232 20 23 16
-110.077078047752 -282.353039085208 2857.51222860308 21 26 22
149.436259568546 -290.95245950949 2744.20061497061 11 13 10
165.178141077262 -284.189184428866 2765.82833913578 10 12 7
162.139810569607 -282.818254583752 2772.89388920742 10 12 7
145.703326364082 -285.254436038936 2769.7375457385 14 17 10
181.406140634517 -272.92422076502 2806.14641294401 17 20 11
197.493005793966 -266.204377386309 2827.43798243078 15 18 11
143.753224906733 -279.132350176138 2796.27557846745 15 18 11
156.694065177028 -273.308534383527 2815.15565454899 15 18 11
151.357814278554 -272.616325971085 2820.3523224744 17 19 14
146.022347524148 -271.923951052744 2825.54818712366 17 19 14
136.675400102943 -272.34197232123 2827.80640517453 15 18 11
158.681231819749 -264.104757728415 2852.91512747668 14 17 10
143.728570743027 -266.078444893634 2851.05112572928 12 15 8
154.594907240933 -260.962636156095 2867.84479206199 13 16 9
135.56164982444 -264.037564113162 2863.1104234378 14 17 10
114.026779870426 -267.766360434845 2856.70576870758 14 17 10
89.1586395077959 -272.367300672062 2848.07169030288 15 18 11
58.4862053513686 -278.498459842487 2835.50882406268 15 18 11
62.8672677478463 -275.149787077157 2847.66769514728 17 20 13
27.1197973398438 -282.579381123764 2831.83385360307 18 21 14
-23.5632772731473 -293.942758123859 2805.90698013887 11 14 7
-24.2078246672253 -291.89878070989 2814.74672000851 13 16 9
-19.8736468571457 -288.543165443015 2826.9511220818 10 13 6
-31.2177986590969 -289.351396681074 2828.41644783451 8 11 4
-28.4849490313288 -286.440160070807 2839.44251495876 10 13 6
-11.5763682952017 -279.822432776398 2859.93320144337 13 16 9
-34.568944048873 -283.685758954249 2853.57904425733 14 17 10
-38.4278039975849 -282.528640177248 2860.07374621636 17 20 13
-49.8140149581863 -283.330507751189 2861.57989678859 20 23 16
-55.3514201925029 -282.607662928534 2866.97178589505 20 23 16
-51.6344701297653 -279.497073730607 2878.40840967401 20 23 16
-78.227805979628 -284.197259824735 2870.0852350678 19 24 18
-99.0012095866422 -287.368900207915 2865.67624207151 20 25 21
-79.1864822719712 -280.148803727567 2887.44311793541 7 13 11
183.088878390504 -291.032518147281 2761.8073513348 9 11 10
198.064066222234 -284.42593181825 2782.80266286636 11 13 10
184.88308038081 -286.006923765255 2781.95513987382 11 13 8
127.59826634421 -300.284776347367 2747.42729560424 11 13 8
142.630059035421 -293.684588849957 2768.36734341808 15 18 11
195.72067648972 -276.233783780228 2817.92707612927 14 17 8
167.450061339371 -282.105185130846 2805.77493249573 14 17 10
158.933732363071 -282.316403633135 2808.5946781112 14 17 10
163.944938392452 -278.690720820363 2821.50377460679 16 19 12
161.022037600499 -277.324553899821 2828.45540522253 18 20 15
154.109247902682 -277.084992565411 2832.45068188623 18 20 15
147.189295169063 -276.844367756547 2836.45257652732 17 20 13
133.023239035593 -278.623423686697 2835.19560734929 17 20 13
130.909727360291 -277.032357357687 2842.72717189059 16 19 12
127.196272269269 -275.891105520583 2849.08016764525 15 18 11
129.97275055284 -272.96042518201 2860.06003709478 13 16 9
119.794744048195 -273.611434794988 2861.76103535867 12 15 8
99.0115085211412 -277.162125225766 2856.0005818761 14 17 10
127.931755480478 -267.097458750474 2885.30937910617 15 18 11
64.1006842924354 -280.189592057761 2858.52372548615 15 18 11
-11.1480922936389 -298.380861360362 2815.48945877796 10 13 6
-16.706025235822 -297.656313226356 2820.90148045311 12 15 8
-23.914348197192 -297.375219988325 2825.18408761908 11 14 7
-26.9916424928294 -295.985477942082 2832.28521103107 10 13 6
-41.6702453685125 -297.694995314332 2831.5269305764 10 13 6
-36.4343873248991 -294.094360687658 2844.21664641185 11 14 7
-42.8154819923821 -293.590970765862 2849.06185761825 11 14 7
-56.7180472278444 -295.071738059066 2848.91606047083 15 18 11
-70.6584979402436 -296.547434441794 2848.80713468371 16 19 12
-56.9414944450757 -290.757662086152 2866.92150081426 15 18 11
-55.7524369138509 -288.275914675972 2876.7098981506 14 17 10
-56.217722958646 -286.237182721937 2885.37274196912 12 17 11
-103.137005243423 -296.260335330159 2864.01207625241 13 18 14
-42.6772647827032 -278.44581587895 2911.86871701068 19 25 25
176.140278313089 -300.574810405376 2757.36456317384 2 4 3
171.523297625701 -299.646207280333 2763.22929327131 11 13 10
141.793427493643 -306.070637857989 2749.77345456516 13 15 10
161.515993671239 -298.019332618446 2774.3431519864 16 18 13
111.191561912795 -308.072503328236 2754.95137737899 14 17 8
131.067930126183 -300.040174497334 2779.37115180998 14 17 8
174.113462086781 -285.3968523076 2820.89957515533 13 16 9
174.381995419483 -283.110219801871 2830.21399520859 14 17 10
174.678418659076 -280.826955839992 2839.50121804133 14 16 11
166.998501394815 -280.824550491075 2842.87640595211 15 17 12
160.912183069124 -280.365561938712 2847.43512455453 16 19 12
147.583895325453 -281.951129404801 2846.73455078817 16 19 12
175.337798185541 -271.954380689153 2875.79467384801 15 18 11
153.950302416611 -275.809904696311 2869.26240466998 14 17 10
126.004635534583 -281.467175649236 2858.17250569884 11 14 7
125.562546561351 -279.417834708981 2866.81074647885 13 16 9
132.470738917934 -275.337533218939 2880.60273370239 14 17 10
145.965798235658 -269.458748537775 2898.92433769925 20 23 16
92.4819688297154 -282.081366360565 2870.296457436 21 24 17
10.306228348985 -300.262327308177 2831.30542606875 10 13 6
-8.38086792308701 -303.13969928419 2827.61502494094 8 11 4
-13.0928020680394 -302.192803064729 2833.57100367207 11 14 7
-31.8689610481675 -305.058075776756 2829.96759270601 12 15 8
-26.6498361151832 -301.4201272862 2842.66840979489 12 15 8
-36.8931875763092 -299.750374521566 2854.01032980867 11 14 7
-64.9826949007761 -305.054097860802 2844.42825950003 15 18 11
-76.4302202446729 -305.884973361381 2845.99958352015 16 19 12
-81.1902116980652 -304.930603502756 2852.00217926838 17 20 13
-62.3930840961995 -297.74808482737 2873.36819135543 18 21 14
-73.8341500637025 -298.579420822019 2874.93316918012 19 24 18
-53.1906302714855 -290.973291510493 2897.23689569588 23 28 24
62.7758377152809 -339.484589854012 2680.14063956476 13 15 12
101.846896518005 -325.499999416543 2720.04515866182 16 18 15
124.653206039082 -314.085870808746 2756.64264555255 18 21 14
131.833881432001 -309.66909511432 2771.53156951222 14 17 8
146.21125126 -303.177082472444 2791.72020994008 14 17 10
186.908485957066 -289.067390299322 2831.40866951257 13 16 9
171.277242250072 -291.384882922734 2828.85207748519 14 17 10
164.379518511384 -291.157881211545 2832.83391189359 14 16 11
164.678886064805 -288.855482783552 2842.11572075543 14 16 11
163.401248324926 -287.016880110241 2850.19757367652 15 18 11
164.556858335472 -284.490771375697 2860.01296615296 16 19 12
141.556749954417 -288.859512814535 2852.3237419724 14 17 10
136.252282501012 -288.169188332609 2857.48912691112 12 15 8
139.859871547032 -284.957643477402 2869.01908875229 9 12 5
116.712999025331 -289.30639229716 2861.47298647459 11 14 7
137.437630317867 -281.294951949985 2885.05317259514 10 13 6
119.937993959727 -284.035846845832 2881.58068212578 15 18 11
72.1192216385118 -295.211837311179 2857.03254644883 15 18 11
49.5140806340131 -299.295680495637 2850.3259153048 17 20 13
-3.35079349707978 -309.477825191793 2832.05899050921 9 12 5
-7.22524040588146 -308.3022431973 2838.56677953654 9 12 5
-10.2635317896369 -306.900683979019 2845.62776374959 8 11 4
-11.6304873253079 -305.047342217585 2853.79613213146 8 11 4
10.3033624646471 -296.856820777859 2877.56632546098 8 11 4
-12.6366089777439 -300.895547346382 2871.18585551735 7 10 3
-25.6333960226525 -302.212746606728 2871.53334127074 8 11 4
-71.3171152133114 -312.325810287209 2850.37594127153 9 12 5
-63.4776010118689 -307.988995829726 2864.6224467908 10 13 6
-70.7153522561326 -307.712802137707 2868.93500082748 11 14 7
-45.0809574486177 -298.664817253755 2894.57174064074 14 19 13
-96.1970287177065 -310.077927852585 2870.4987613368 13 18 14
73.8221599018058 -344.052501436181 2689.68469549188 9 11 8
101.931045572837 -333.209813602579 2721.10110457609 17 19 16
107.390640683037 -329.20109113219 2734.92524030962 14 16 11
144.455204994579 -315.812650610136 2772.65962084185 16 19 12
147.730688899052 -312.53090410378 2784.50899222461 16 19 10
194.644190891236 -296.37564913717 2829.05822341794 14 17 10
180.633145788032 -298.264321553158 2827.6635272641 14 17 10
168.172973293664 -299.680039784716 2827.49270789711 13 16 9
144.50029716781 -304.358566383919 2819.10023022321 13 15 10
159.958436487978 -297.600929801418 2839.59363862592 13 15 10
164.285499555235 -294.116854998575 2851.7857816387 13 16 9
166.24719510638 -291.336565146748 2862.18006071678 13 16 9
150.507853594276 -293.673246476159 2859.73364749022 13 16 9
127.445626588927 -298.092519567092 2852.11391441997 13 16 9
119.690414778144 -298.09467317141 2855.5642068978 9 12 5
133.849315255514 -291.840992544017 2874.58810667035 12 15 8
62.6348025765764 -309.894479756086 2833.19536724505 7 10 3
47.4052263327667 -311.958860964897 2831.61975089216 10 13 6
101.647168032186 -294.392657443529 2878.60223644977 9 12 5
49.6001143791607 -306.844305114344 2851.35616594607 16 19 12
9.65917044010434 -315.811398930597 2832.82920081503 12 15 8
-4.91032672322733 -317.623582763931 2831.97741299123 10 13 6
-3.00937205516894 -314.83274608616 2842.43044984786 10 13 6
-4.38279057006641 -312.964862864841 2850.60342468422 10 13 6
-33.1089637213275 -318.668330163326 2840.29540777613 11 14 7
-29.5175504731389 -315.422372206042 2851.83634618221 12 15 8
-1.71522603232388 -305.545137446632 2879.44914068941 11 14 7
-10.5101719369243 -305.746617937868 2882.54411775962 12 15 8
-25.180070707524 -307.544388526405 2881.79023778675 12 15 8
-54.9966899058312 -313.442276922895 2871.17687595879 11 14 7
-47.9164066134081 -309.300448769061 2884.78921856702 11 14 7
-72.812415955481 -313.814523687001 2877.58722297435 12 17 11
-74.1377548111561 -311.951627193895 2885.71285319261 9 14 10
110.648437563359 -338.301930955921 2728.78423420465 16 18 13
165.695852247892 -319.288429577963 2780.42127614469 19 21 16
165.044348040772 -317.166178562415 2789.2563554284 14 17 10
