ply
format ascii 1.0
comment KinectMotionCapture
element vertex 759
property float x
property float y
property float z
property uchar red
property uchar green
property uchar blue
end_header
-17.8219637855408 971.852431277613 2735.76962997652 17 17 7
-10.9795448045438 976.239498288077 2718.51964069188 18 18 8
-15.6530814376619 976.312414895603 2712.66199032691 19 19 9
-3.23461734055663 982.84239645522 2689.58416744266 22 20 8
-17.2140538799024 979.41366632108 2693.0190947175 29 17 5
-24.0643579257238 978.675799372686 2689.28475678662 43 26 16
-28.086864158839 979.012392476351 2682.6650567195 38 18 7
-25.7893489718823 981.763524486797 2669.52289207746 142 110 97
-30.5607577249551 981.827844820761 2663.5939541052 129 93 79
-36.0409866446532 981.623209604847 2658.38514606053 80 38 22
-41.5261821210913 981.417873323373 2653.17273410184 122 80 64
-45.6264278393872 981.74745173598 2646.49664349209 158 121 103
-49.7404398771586 982.075855179369 2639.8105674321 155 120 101
-52.4871135162743 982.937567368868 2631.64803773627 142 109 90
-52.5032475025273 984.86612030684 2620.53019174932 88 59 41
-49.8148144862467 987.859628177459 2606.43760283667 135 105 94
-51.9717764525076 988.980238952176 2597.46884246074 149 129 120
66.9180789448589 982.898144113234 2726.85335013327 22 30 19
60.7337692152878 982.427077707164 2722.36782598638 9 15 5
21.6855189949348 969.908643728018 2749.5779842499 18 21 10
45.451113228645 980.414481048923 2716.2193493086 14 16 5
3.70462390461679 966.842119678981 2746.40889358342 22 22 12
-34.208312784864 954.622124102692 2773.20853987441 20 17 8
-12.7648205718451 964.314594332776 2741.86755364513 23 20 11
-5.15603786337282 968.923441648457 2723.93949899034 21 19 7
-9.82204260643438 968.991700608961 2718.08699058429 18 16 4
-11.6377828726257 970.125316912074 2709.36565497634 26 26 14
-12.0551870681898 971.789326789617 2699.19061631757 24 20 8
-19.6132541724809 970.78854359366 2696.17661627074 30 12 0
-24.330076281303 970.852337676291 2690.28754113329 45 26 12
-27.6440203720423 971.446942667189 2682.94776313653 93 70 56
-27.4565332775683 973.368561249614 2671.97719681559 151 118 103
-31.5195317363992 973.693629384917 2665.32808469367 134 96 83
-34.1972318963402 974.548203762808 2657.21551919044 101 59 43
-38.9896236406131 974.605099192594 2651.27162706848 103 61 45
-42.4011257026988 975.191203461663 2643.86108415847 145 108 89
-47.9094215218467 974.9811177333 2638.63160773446 158 123 103
-48.5879656818917 976.623076204177 2628.26715144771 142 110 89
-48.6137651998031 978.526579778946 2617.14187735361 101 72 54
-45.2483232698897 981.748419681281 2602.30618656809 140 110 99
-48.1018603902861 982.587614171896 2594.06607519751 130 110 101
51.1987013555286 969.438541592053 2742.56243501487 15 25 14
84.6260978410727 983.290716916952 2700.16814249302 8 16 3
15.5514328572739 960.023805303383 2756.19739873932 16 18 7
-8.19962530955065 954.864777388956 2758.71567676033 29 23 9
-6.99372850179159 957.050211715068 2747.24967702404 27 19 6
-10.8839807194796 957.381865989341 2740.72582569901 34 25 10
-11.9101451207921 958.769004588889 2731.3431179971 35 26 9
-15.1194931188419 959.361627862125 2724.07915390233 31 19 3
-13.3413841553627 961.799633766184 2711.79391118795 41 33 14
-18.7411276759559 961.596978235242 2706.64345875422 61 48 29
-23.4349905545885 961.657424201269 2700.77071581682 111 84 65
-23.8876634054381 963.296830175676 2690.56998553354 136 107 89
-24.3758787605235 964.933465940113 2680.34318122175 151 120 102
-26.3083196538809 966.041089512511 2671.53740965737 151 114 96
-31.0749970043875 966.095098999929 2665.61184935333 153 114 97
-34.4519273407404 966.673489052864 2658.22632915107 146 105 87
-37.1494089290709 967.512839324582 2650.09934655515 144 103 85
-40.5648873267579 968.087807835572 2642.68586470978 155 118 99
-44.6916266638535 968.398929908044 2635.99047482536 155 120 100
-46.068743207913 969.756681569057 2626.35320557485 142 110 89
-46.7887219516565 971.373596371647 2615.95858562301 128 97 77
-41.3661704908985 975.342268464436 2598.91222144793 137 107 96
-42.1775884576629 976.951536694941 2588.45127652051 136 116 107
32.5323561040314 955.047052173098 2761.07121542675 21 31 20
33.0488223851422 956.946511041509 2750.33902089565 25 33 20
44.1591052899231 964.405869359061 2718.90706277139 31 27 15
16.9281440013656 956.339102542688 2734.94431609452 32 23 8
1.40836220359741 952.470587044716 2739.73075435479 40 27 11
-4.67120129685372 952.007468557031 2735.32120324256 45 29 13
-6.4336529507425 953.112971298759 2726.63864976319 46 29 11
-8.22295023927744 954.216288886313 2717.93632976509 51 34 14
-10.7544418118923 955.056301024026 2709.92968022644 87 72 49
-19.7257252965719 953.54585512115 2708.35899565926 113 95 71
-25.1259943074458 953.340468547951 2703.20814845315 147 115 94
-26.2795064925547 954.698172535927 2693.73297453292 155 120 100
-26.0514592877898 956.574325986427 2682.79158081167 154 119 99
-29.3848836022346 957.14566585704 2675.43756334259 157 119 100
-33.4384897921016 957.455304296958 2668.79518172244 163 122 104
-36.1063160537631 958.283684724635 2660.68993581829 161 120 102
-38.0990782673183 959.369682970744 2651.840032028 157 119 100
-42.2050951290474 959.674717098849 2645.15963347157 158 123 103
-43.5520919456083 961.016089491908 2635.54411569009 152 120 99
-46.3125150910482 961.836241255171 2627.37140817194 143 112 91
-44.9627921734728 964.208904893197 2614.77558277624 140 112 91
-41.6022333463486 967.354474564453 2599.93596580154 157 127 116
-39.67264989244 969.977401937609 2586.5264302124 120 102 92
26.8934145710142 947.09119133864 2756.94312836491 29 29 17
47.1219110510672 955.973653699605 2727.18763068538 44 34 22
36.5912152717334 953.948273410003 2726.95425435754 30 16 3
18.822524947721 949.332313459368 2733.81202924416 53 30 16
6.91722068440503 946.794293905498 2735.04964653014 61 34 17
-1.34383764316803 945.553286193666 2732.76014746467 99 70 52
-4.55368896002994 946.124480406626 2725.49570996093 128 96 75
-9.21681428436338 946.177021033503 2719.64520929051 138 106 83
-13.1740538095155 946.486998271075 2713.07268763826 146 115 87
-20.7110830420234 945.504598260169 2710.07432598513 154 120 92
-24.68487802613 945.813114833303 2703.48979552881 168 128 103
-25.8373985271514 947.152079856964 2694.01524558499 169 129 104
-25.6080941844183 949.003840185431 2683.07463963391 167 126 104
-29.6453766124825 949.306914848497 2676.44405821023 168 127 107
-33.6964669034556 949.608691689232 2669.80346059833 165 124 104
-37.7615531357087 949.909165829567 2663.15300490849 159 121 102
-39.7469451924042 950.979570566659 2654.30836491801 155 120 100
-43.1505851489384 951.533811118493 2646.90336002009 151 120 99
-43.1055280987007 953.370107667147 2635.82911094754 146 118 96
-45.1741888085704 954.433348507986 2626.92407144679 141 115 92
-44.5141239410887 956.519779281114 2615.06188501585 144 119 99
-43.8986385299145 958.602538877301 2603.16736339042 147 121 106
-39.9049510656102 961.961822824325 2587.55246627517 130 114 101
52.26001620917 948.336938099739 2733.34403903245 45 41 30
41.7201283105086 946.327302438952 2733.10407889078 44 30 19
37.0360108200249 946.373362961044 2727.23832772812 40 22 10
22.1708579977333 942.827076062148 2731.26591602537 79 50 36
13.1526267099198 941.33558925723 2729.66129402535 129 96 79
3.42936456435794 939.589124854015 2728.77932522785 169 134 115
-0.513098457925576 939.892532457137 2722.21748210138 184 146 123
-6.62259100506502 939.427108870522 2717.78622310871 180 143 117
-11.3017053900488 939.472868132551 2711.92439175507 170 133 104
-18.1301121771806 938.751222751215 2708.20571530273 185 146 117
-23.532542816767 938.540343862431 2703.05327326617 183 141 116
-24.6863004975351 939.860210127503 2693.57772972537 179 137 112
-26.578189085382 940.922417321141 2684.80083087275 173 131 107
-27.7926483716751 942.237186847757 2675.28125762668 165 123 101
-33.2524225012105 942.021174187875 2670.0869255899 164 123 103
-36.6169683535864 942.568126630478 2662.71022392669 159 121 102
-39.999751457291 943.113422420889 2655.32029329951 153 118 98
-40.6178627748037 944.673827325393 2644.99923298512 146 115 94
-39.1910319562676 946.993341852651 2632.45874106464 142 114 93
-41.9614620047435 947.785629355261 2624.27893266797 139 112 91
-41.3088568311382 949.844391861709 2612.41119840052 137 112 92
-42.074656718702 951.392344036071 2601.98271793732 137 111 96
-35.3445342742129 955.724013396486 2583.41629974464 132 118 105
40.9729676509727 936.680883331028 2744.86483489202 137 120 110
35.5850619927485 936.469617430149 2739.72262588711 212 189 175
30.9208030869912 936.511740902637 2733.87154517141 237 208 192
23.3405867386089 935.537959889816 2730.84162543623 233 197 175
15.0439327370173 934.3109162873 2728.52639303797 221 183 160
4.59291662313133 932.324252599416 2728.35097430728 219 177 153
-2.23166904077643 931.606083193882 2724.63508547522 208 164 139
-6.8990102256552 931.64753876068 2718.78176696653 201 159 134
-12.2911852959264 931.435210064029 2713.63645759045 194 154 128
-18.4020608591431 930.969435462427 2709.20419424194 193 153 127
-23.8022759950571 930.75610732628 2704.05334586535 196 159 132
-24.9528655399152 932.057231712462 2694.58000404258 188 149 120
-26.1349115841176 933.355688283754 2685.08384521911 181 142 113
-28.7577269399417 934.147198431702 2677.01074744892 179 140 111
-32.8082388943101 934.43289129405 2670.37048761704 168 127 99
-34.7718776584291 935.472627757167 2661.54175618875 154 117 91
-35.3661252590414 937.013388013214 2651.23760121099 153 117 93
-35.3005321337194 938.802607618154 2640.17829520056 135 104 83
-33.8876083990749 941.091243096554 2627.6275653297 134 107 88
-38.0557866495503 941.366507519437 2620.90195386655 133 107 90
-40.1699928121593 942.393378803756 2611.96371327614 131 109 96
-41.6241942432263 943.668712364875 2602.27014608204 133 115 105
-32.8366764625647 948.700766739321 2581.4933208991 119 106 98
48.7506792293737 931.653221023842 2738.12634817596 191 173 163
36.0283825340098 928.923025545203 2740.00577343273 230 204 191
31.3644108192888 928.959974571445 2734.15487469834 230 201 185
23.0568470919952 927.740411293605 2731.83177149642 237 202 180
15.4865919475862 926.772754448948 2728.8091038707 230 192 169
5.03453351250238 924.802256639156 2728.63301142249 226 189 163
-2.51075793927114 923.836274027492 2725.62874346766 217 177 152
-5.73926236863676 924.373565624102 2718.35031772414 212 175 149
-11.8496423069665 923.908010405089 2713.91841477591 203 167 143
-17.2469985766963 923.692404628748 2708.76962731573 200 164 140
-24.0722600528729 922.976390996045 2705.05325949235 186 152 125
-24.510491964655 924.508531822992 2694.86245443487 190 155 127
-26.3985834428768 925.538486245575 2686.0881448214 187 152 124
-26.90413697005 927.064994039438 2675.84850835579 176 139 110
-28.8508116506396 928.090023337845 2667.03170558198 180 141 112
-28.7231297521189 929.860125966133 2656.01701774 153 116 89
-30.0322729493467 931.128988998295 2646.4285735808 153 117 91
-29.2847464462866 933.141373038272 2634.62941489471 134 103 82
-32.0512148303282 933.907156506862 2626.45234414498 131 104 85
-33.4568504324799 935.167833756843 2616.79361464258 126 103 87
-36.2731230278708 935.92910457836 2608.58041689972 125 105 94
-32.2394371367378 939.169392998147 2592.99391276188 125 108 100
-24.1622645690796 943.891911355688 2572.93561194277 104 91 85
78.1463866676377 932.269975035535 2721.14996753869 239 232 224
50.662948611413 924.579344588907 2737.00639474671 213 204 195
34.2775646004325 920.629423356951 2742.39996378286 228 214 201
25.9744495703269 919.418584607323 2740.08012972793 236 219 203
18.4109211791768 918.457039237889 2737.06266390205 233 212 193
8.68114780633666 916.751210841318 2736.17618080632 238 216 195
-0.304842461979149 915.294966400014 2734.59540399594 236 211 189
-7.11239943268693 914.583672939535 2730.89189445501 228 206 185
-8.88868553997346 915.606792989212 2722.19860032353 226 204 183
-17.8522180883964 914.151879564777 2720.63381585842 212 189 171
-21.8020495894509 914.429896555637 2714.06650255597 204 173 152
-26.4774878189145 914.459524078082 2708.20725441548 203 173 149
-24.7773620734728 916.711921282392 2695.86453985745 197 165 140
-28.0770098768643 917.231929274337 2688.53474769597 183 151 126
-27.869744671178 918.984103561445 2677.57766068117 173 138 110
-27.702910601757 920.732893346361 2666.5915416067 169 132 105
-25.4743262533239 923.217659436832 2653.39805833286 153 117 91
-26.0930379941966 924.713074173232 2643.07623357075 151 117 92
-26.7474749182715 926.205524669183 2632.72820136945 131 103 82
-30.9079110518624 926.46546469122 2626.00812471094 131 104 85
-31.6232759022206 927.95263124114 2615.6161922684 126 103 87
-33.0641665622471 929.191165544327 2605.9320879408 126 107 93
-26.2875536345191 933.371734825004 2587.39831186286 133 116 108
69.3029939740497 919.907847604861 2740.61441738753 242 244 241
48.4216216351494 914.511996311675 2750.15223334405 213 210 203
39.3679098388247 913.062024844566 2748.5221010496 221 218 211
27.404929549093 910.629082277844 2749.71843998882 220 212 201
18.3937512614567 909.182268138588 2748.11945161203 228 219 204
7.94549256951527 907.245165865606 2747.94598835667 226 213 196
-1.75233152371801 905.555438177602 2747.08304200585 225 209 193
-9.26029289599106 904.603402478498 2744.10561158915 221 205 189
-13.1573981136262 904.877815061107 2737.57679691478 220 204 188
-17.0682500817074 905.151043901429 2731.03771645472 219 203 187
-25.2899553861039 903.953850017684 2728.77696716126 207 194 178
-28.5011785942371 904.470376630502 2721.51096376507 201 188 172
-28.1720023589878 906.208002208558 2710.64247344225 204 185 168
-23.6254310587514 909.408528733867 2695.42756948115 190 169 152
-25.5120057377543 910.405926167193 2686.65419452024 173 150 132
-24.6049291382751 912.377286879214 2674.97048931277 170 143 122
-25.1486147357729 913.857152308843 2664.70297384283 155 127 106
-24.3265324608832 915.821508045059 2652.95761895401 146 115 94
-23.54919154955 917.78206000041 2641.17981082903 133 105 84
-22.8165362887158 919.739111407354 2629.36959139139 113 86 67
-29.0703281409761 919.260384884742 2624.83365937094 123 97 80
-27.0210450848749 921.697646984922 2611.50995614673 124 101 85
-26.4049511086513 923.644837421177 2599.61518899857 122 103 89
-12.0822973556374 930.441888168263 2572.97866559757 116 102 93
69.2466576781578 910.579708428993 2751.64224775727 239 243 242
49.8150708533429 905.723974863751 2759.76370671728 239 241 238
32.670546462505 901.605204438777 2765.84114006597 230 231 225
24.3983511385721 900.413240335538 2763.5438159697 246 247 241
16.1387283990959 899.222175264224 2761.255610562 246 243 234
7.16224209015337 897.788915090495 2759.68154531742 255 254 243
-4.706814851825 895.384741031359 2760.94641149103 255 253 240
-11.4652366653838 894.683043985209 2757.27856968184 255 253 241
-16.0513310308559 894.709274957924 2751.48407161086 255 253 241
-18.4843467301203 895.462391561086 2743.54836919137 255 254 241
-23.0956913257778 895.48644713755 2737.73526119382 255 254 243
-32.0147275458484 894.05683577524 2736.20315570368 255 252 242
-34.4893419452745 894.806164213061 2728.23727831088 255 251 239
-37.6986981724077 895.311799824728 2720.97286764101 233 219 206
-34.5386378396988 897.990727539002 2707.22057802455 197 181 168
-36.3892066422713 898.97461230069 2698.47323604752 174 155 140
-32.6242243897892 901.886726339158 2683.92561174589 166 145 128
-32.4371629944875 903.588154476217 2672.95362151851 151 128 112
-25.9820707475127 907.455030164103 2655.42051042384 141 114 97
-20.3054761484491 911.074767087297 2638.55654011584 127 100 81
-16.7941618054637 913.966570171372 2623.82492365408 110 84 67
-20.9827558795581 914.207978768469 2617.08434083826 118 95 79
-21.0326665274552 915.889861422727 2605.94075999484 120 97 83
-18.3631029135507 918.528874201157 2591.83269666219 117 97 86
-7.49871842659111 924.042844158031 2568.85817863296 114 99 92
73.032659177076 901.036547009863 2769.16008050561 243 245 244
69.8900444202142 901.537791439253 2761.94402990967 251 253 252
59.3224533576695 899.624727783566 2761.68447630954 254 255 255
44.3498674972718 896.266941586031 2765.63484442092 254 255 255
30.1653874623522 893.153965844335 2768.92302512525 252 255 253
20.4334260564618 891.489302912798 2768.03516438887 251 253 250
12.1865396467897 890.307514272733 2765.7562388054 255 255 251
1.76295982567032 888.405101488802 2765.60113597629 251 252 247
-10.0896852393493 886.0240531089 2766.87772212887 255 254 249
-14.655023963015 886.046648320522 2761.09825184973 255 255 250
-19.2296592769905 886.068480046274 2755.31174392965 255 255 251
-23.0929537433757 886.329191769247 2748.80707551584 255 255 251
-31.2822227575209 885.150995392115 2746.56993620752 253 253 251
-37.3095417598439 884.691989803795 2742.19827907958 253 255 254
-44.0517171986157 883.993401209643 2738.54223035911 255 255 253
-48.6540435204956 884.012342831346 2732.73592847452 255 254 250
-48.2964321125698 885.702853481965 2721.8875182918 255 251 245
-50.1022051791158 886.673877904854 2713.17258455965 255 250 244
-46.9966039795806 889.31278650814 2699.38061365065 197 184 176
-47.4655005819515 890.754798976278 2689.16712258664 122 108 99
-36.7525940800915 896.006359452643 2667.31650240677 113 95 83
-19.157326095786 903.630371553899 2638.11611463155 107 89 77
-14.2527869208067 906.959839592223 2621.92632570725 102 83 69
-16.3643223217442 907.905914624622 2612.98961196003 113 93 82
-17.8106468913795 909.087252096097 2603.30127876215 110 90 79
-14.4580608778855 911.92772139831 2588.45433673119 114 96 86
-4.97683339850719 916.898438272133 2566.94475472059 92 81 75
80.3371391018524 894.194837091888 2773.18556264966 248 250 249
69.0049030576971 892.057872461967 2773.60560411065 253 255 254
59.1888642422664 890.400617350615 2772.65683138786 254 255 255
53.0983056864174 889.937803017126 2768.23931126592 253 255 254
40.3593468073744 887.329280589646 2770.10756852516 254 255 255
28.3958199813408 884.961952200286 2771.3038436173 252 254 253
16.4666867690051 882.59718146032 2772.52535880602 253 253 253
6.76836183450025 880.948626072693 2771.66196345347 254 254 252
-3.63854935623076 879.06393343908 2771.51903382631 254 254 252
-14.0198306217387 877.181018396168 2771.39469288277 255 254 252
-19.2971220711886 876.961816338482 2766.33292475725 255 254 252
-23.13300279949 877.216563977285 2759.84809893795 254 254 254
-32.0300280919275 875.810711111201 2758.33177550343 254 254 254
-38.7535918277617 875.11661746331 2754.6892415714 254 254 254
-45.4735576160601 874.422706160041 2751.04961126896 253 254 255
-51.4752882365932 873.96535530931 2746.69651208664 253 254 255
-58.9020962433611 873.035068866919 2743.77802164077 255 254 252
-61.3504998712986 873.758809897668 2735.83130986734 255 251 248
-60.2823292511263 875.660894044602 2724.26403425392 255 253 250
-60.6699835378246 877.087671195427 2714.10906583144 255 253 248
-63.9075329587537 877.568439681835 2706.82409135683 255 245 239
-57.345939826575 881.345425577901 2689.36772971716 75 61 52
-31.2907740786466 891.707069981176 2651.4923515628 80 66 57
-16.5884511419299 898.289271342074 2625.12997020111 107 90 80
-12.4385514352663 901.335247967166 2609.62672771072 106 88 78
-15.2799068473655 902.026846443622 2601.39469951755 110 92 82
-13.3124901095822 904.359447216665 2588.01141399885 101 87 78
105.794467682541 891.599197387736 2770.62958643876 248 250 249
90.6451389973335 888.293419043541 2774.45238781161 253 255 254
79.2859891696636 886.17345186168 2774.85300499199 254 255 255
66.4661140437812 883.583347230553 2776.66269762683 254 255 255
55.914768580176 881.704339260282 2776.41509330683 252 254 251
47.612213113065 880.534828817795 2774.09587422707 251 253 250
35.6282165924857 878.187768135068 2775.27741306072 253 255 254
25.1519082672269 876.314361059319 2775.08423313331 254 252 255
12.4980435872426 873.736749224668 2777.01433356169 254 252 255
3.54421283432993 872.337944526735 2775.45686633695 255 253 255
-7.58269673936218 870.235297800084 2776.02592716521 255 253 255
-16.4960654439041 868.839412516423 2774.49780653024 255 253 255
-22.4901356938325 868.383458910739 2770.15026759137 254 254 255
-29.9317327656741 867.458317591932 2767.2213767747 254 253 255
-40.250082781943 865.596093817802 2767.14276084211 254 253 255
-49.8235275004602 863.970022090119 2766.37000770737 254 253 255
-54.3581589399516 863.98351463407 2760.61275168705 254 253 255
-63.1898242816318 862.592933870049 2759.14388643189 253 254 255
-69.8673253922757 861.904543354405 2755.53477316738 252 254 253
-73.700293784164 862.150386121213 2749.05201345796 253 253 253
-71.1751359472579 864.495072069773 2736.07310757859 255 255 253
-70.1149796599527 866.369024811377 2724.49987971314 255 254 253
-76.8392419106498 865.676188939926 2720.85684578366 255 254 251
-76.5456925519594 867.311922483507 2709.96171819745 255 253 250
-61.6091600107711 873.830650969382 2683.76879887369 255 252 249
-37.0473870590131 883.594049479832 2647.27816591284 81 72 67
-30.0501015008761 887.533745240983 2628.90314006221 49 38 32
-27.2928868479732 890.07351474004 2614.85811415151 59 48 42
-25.2840078964538 892.376545214247 2601.50444121998 44 35 30
114.655065151697 885.173289289204 2773.31516425971 248 249 251
100.975888823064 882.365595527049 2775.73586561163 252 254 253
88.0901176518605 879.795055393916 2777.49759341794 252 254 253
75.9908276897669 877.461128689526 2778.59591457856 253 255 254
63.1804351793281 874.896227476417 2780.41260902398 252 254 253
51.1525121897556 872.56771347144 2781.5623985654 251 253 250
42.8648180576983 871.407532121698 2779.25400003828 252 254 251
31.6338741003284 869.316352140203 2779.74770220293 255 255 253
21.1696671825519 867.460175731152 2779.56338212079 254 252 255
6.32395967832755 864.209990770404 2783.60627208175 254 252 255
-5.5403457347889 861.893606839724 2784.87502741435 255 253 255
-15.9097626442504 860.044392552692 2784.75945789668 255 253 255
-24.7974895263563 858.661398173165 2783.24999086099 255 253 255
-32.9426002775448 857.511453303473 2781.04500591933 254 254 255
-41.0751625170396 856.362405515543 2778.84912220549 254 253 255
-49.1952385599907 855.214070529708 2776.66229361247 254 253 255
-55.8643272517414 854.529647423647 2773.05929878566 254 253 255
-60.3788410125334 854.539143446926 2767.31631177977 254 253 255
-67.762044411821 853.62321345296 2764.42979843969 254 254 255
-74.4244319377154 852.938735777916 2760.83166115462 253 255 254
-82.5039133297332 851.792673766672 2758.67427200346 254 254 254
-82.0728035470732 853.414996530668 2747.87879697602 254 252 253
-83.0939470689214 854.573125627106 2738.49856903851 254 252 253
-90.4806056727936 853.655840334362 2735.60954408203 255 253 252
-94.3512550090331 853.889609208353 2729.09940749526 251 247 246
-94.0395985436076 855.50189645858 2718.21728737704 255 254 251
-82.6137254248478 860.787557709877 2695.64894248819 247 242 239
-73.3833903794758 865.375732026827 2675.19058217361 244 236 233
-68.4073188913086 868.579200123955 2659.05201033517 255 248 245
135.763816285329 881.054105470171 2775.00990313214 248 248 250
118.232658255144 877.110199673157 2780.80823770533 255 255 255
105.293723669215 874.560037264587 2782.53182391196 255 255 255
95.4031373957513 872.938025954056 2781.52918866272 253 253 253
84.7836700637763 871.086537682532 2781.23234073924 252 252 252
74.9379620229167 869.468042521708 2780.26225648855 254 254 252
59.1477804745848 866.004849650801 2784.85472923804 254 254 252
45.6446609399608 863.237765474902 2787.40326361273 254 254 252
35.8913368337883 861.626107619493 2786.50047955719 253 253 251
26.8985319989987 860.246370285528 2784.91485576871 252 252 250
16.4487374739668 858.407611758753 2784.74107176265 253 253 253
0.881635325430619 854.961236186963 2789.49534471273 253 253 255
-8.76871853668959 853.357192785519 2788.66695007629 254 254 255
-19.8586223027051 851.2954318792 2789.26333877603 253 254 255
-30.9182371332724 849.235935124621 2789.88140156284 254 254 255
-40.4959030846959 847.637123072615 2789.10572644192 254 254 255
-48.6048797457372 846.497931906995 2786.92699034297 254 254 255
-55.2582048881334 845.817474295916 2783.33544293551 254 254 255
-63.3465828314495 844.679653137079 2781.171646226 254 254 254
-66.4024713989777 845.142757030717 2774.01827210621 255 253 254
-73.7663459883804 844.233650341649 2771.14580519429 255 254 252
-78.9837361705899 844.009910817285 2766.12714331557 255 255 253
-88.4696087330958 842.416812841228 2765.41833460118 255 255 255
-92.2673906879394 842.648658345962 2758.961011392 254 254 254
-96.0791282433173 842.879253803785 2752.49356513844 254 254 254
-100.608794715411 842.880841339536 2746.73984802773 255 255 255
-102.340979811042 843.791212854805 2738.0779525672 254 254 255
-106.898269813734 843.790253499059 2732.30390319212 255 255 255
-106.583867965511 845.377909728789 2721.42364849951 246 246 246
-107.004998825958 846.735251420607 2711.24435496702 255 254 255
-105.383356142267 848.769748130426 2698.84393713067 255 254 255
-104.50153892387 850.57363192661 2687.14107255519 244 242 243
147.721388918086 875.49319548246 2775.00419025704 245 245 247
127.863036436985 870.899218462989 2782.81760353368 255 255 255
109.59700590487 866.769121831029 2789.31701240616 255 255 255
100.456291306909 865.38894307142 2787.62445791491 252 252 252
90.580314118804 863.781677105777 2786.6324877915 253 253 253
79.9752591795735 861.947606716529 2786.34617594411 254 254 254
70.1439787477938 860.343733069737 2785.38691911302 253 253 251
57.3507075313682 857.829258186282 2787.21598609213 253 253 251
43.8525375211594 855.089758412971 2789.76824820314 253 253 251
35.5879701221076 853.947700904251 2787.47670653915 252 252 250
24.3789031713293 851.896290270733 2787.98646925235 251 251 249
13.936876956413 850.074411381444 2787.81840215877 252 254 253
-1.62355806133307 846.663884516382 2792.57768983501 252 254 253
-11.998783323947 844.846999042509 2792.45807346999 253 254 255
-23.078716000926 842.805034080456 2793.06149621832 251 255 255
-34.128640810835 840.765261115033 2793.68668341277 253 254 255
-42.9701228230974 839.407341627724 2792.21086727942 253 254 255
-52.5186942505897 837.824219785793 2791.45665735083 253 255 254
-59.1591172013999 837.147436123991 2787.87448162667 253 255 254
-67.954319124141 835.792608658096 2786.43223057957 254 254 252
-70.9943589390127 836.245943871639 2779.29029607852 254 254 252
-78.3432717918 835.343485937278 2776.42870892604 254 253 251
-82.1195751124806 835.569125523495 2769.98692460294 254 253 249
-91.5952276373013 833.990466715954 2769.28530327219 254 253 251
-98.2158337955741 833.313984429793 2765.7177891674 254 254 254
-104.126349010754 832.862648936409 2761.43084444802 255 255 255
-109.333327676512 832.636048744448 2756.41971560992 253 254 255
-111.738061448448 833.307526797164 2748.50439632478 252 253 255
-116.964264111574 833.078841911065 2743.47961551836 235 236 240
-120.102945004652 833.522622399624 2736.26583112102 254 255 255
-123.260099372955 833.9647374576 2729.03894094854 244 243 248
-125.049325053654 834.853281830568 2720.33558499181 252 251 255
-133.083652324922 833.724499396542 2718.21101655089 255 255 255
-139.728181733819 833.043808795303 2714.62613865523 247 247 245
-142.936411735951 833.480700410276 2707.36190173099 255 255 253
-143.426079405627 834.809428743537 2697.13277947054 244 242 243
161.238626087127 870.349439690389 2773.66085672199 251 252 254
139.034418872334 865.120070331369 2783.47589581632 253 254 255
119.199742078917 860.576931132905 2791.3064351308 253 254 255
105.499532702251 857.849322742291 2793.71229482553 252 253 255
97.1263036538765 856.70712528135 2791.3419813041 252 253 255
86.507826391097 854.888337339567 2791.04601673653 252 253 255
75.9149691504013 853.071505417666 2790.76863457736 251 252 254
67.5926365254185 851.933311647001 2788.43523723891 249 250 252
57.0446641194198 850.11987692202 2788.19041026177 249 251 250
48.7540680967204 848.984004836439 2785.87973674639 250 252 251
36.025960034153 846.498896011066 2787.75648510828 251 252 254
23.3367667610214 844.016700742366 2789.66145838926 252 253 255
10.6864434328457 841.537355653622 2791.59462375959 252 253 255
-2.66007296309567 838.836369049227 2794.25701788882 252 253 255
-11.5661326372842 837.484808351259 2792.7344202387 254 255 255
-22.6473076291214 835.46174128108 2793.33703812802 251 255 255
-33.6983817638818 833.440933484572 2793.96148821469 251 255 255
-43.2669498708476 831.869992509904 2793.19284396489 253 254 255
-54.2622899222616 829.853162101375 2793.85771702425 253 255 254
-61.6181507911957 828.955985835732 2790.99082538225 253 255 254
-69.6857512291564 827.835918972833 2788.8421806588 254 254 252
-73.4360743089644 828.05571732088 2782.41920037973 254 254 254
-80.7766629056732 827.159250943649 2779.56367800654 254 253 251
-85.9699444926565 826.931679692668 2774.56276803157 253 252 250
-94.0117890049235 825.812862933576 2772.43280066033 253 252 250
-102.041099175121 824.694762876902 2770.31192333139 253 253 253
-109.351400767258 823.799724081575 2767.47806940814 253 253 253
-112.428210218503 824.238072037651 2760.30940389956 249 250 252
-115.523353212129 824.674755540887 2753.12743958407 248 249 253
-120.036399470225 824.666088840802 2747.38542440444 254 255 255
-124.559156717761 824.656466569203 2741.63665915818 250 251 255
-130.482237510575 824.202798759961 2737.34059356977 253 254 255
-135.019440584126 824.191517906452 2731.58105335787 250 251 255
-142.330443910899 823.294401331454 2728.74697468486 249 250 252
-148.255596892221 822.839729238421 2724.44940183589 255 255 255
-152.121496764934 823.047177386534 2717.94257491692 247 247 247
-153.263699134823 824.135755551002 2708.47423654775 255 254 255
-153.072963092663 825.662491740737 2697.50402530115 252 250 251
-150.882467642778 827.8467077498 2684.28140822648 232 230 231
167.903769434356 863.141752935276 2778.45605302122 237 238 240
154.052385474332 860.429738335343 2780.75240201987 250 251 253
134.151588765331 855.930422204608 2788.53552604598 254 255 255
118.885551913063 852.779066482388 2792.27450535887 254 255 255
105.186003807927 850.078754841871 2794.68098268687 253 254 255
96.0595826837678 848.721530147214 2792.99861162966 252 253 255
83.9390543667862 846.473038767211 2794.08167492331 251 252 254
73.3541032706926 844.673217136557 2793.81011025756 249 250 252
65.0400459467995 843.54363968499 2791.48275550484 248 249 251
59.7232219738921 843.30564191626 2786.39223420542 248 249 251
52.1695069718495 842.399845492386 2783.38187021711 248 249 251
40.9147971935129 840.383092810166 2783.8587210199 250 251 253
23.7732601776366 836.591373423363 2789.94027103546 250 251 253
11.1214389838614 834.13640195503 2791.87247402823 250 251 253
-4.43231245702735 830.797153211419 2796.63696780971 251 252 254
-16.9974946433056 828.348652416204 2798.63171556621 252 253 255
-28.7931131995105 826.124401675167 2799.95073014 252 253 255
-35.453912264571 825.451822214758 2796.35380463088 248 249 251
-42.8375799267884 824.558198797199 2793.4670677239 247 247 249
-52.3856597947816 823.002289854605 2792.71305749896 248 248 250
-61.9126035394799 821.447745069201 2791.97467068761 249 249 251
-71.41808975176 819.894689249586 2791.25155196432 248 248 250
-77.3143486592323 819.445285345715 2786.97495173052 247 247 249
-84.6421836114428 818.555169355473 2784.12870691237 246 246 248
-89.1089683721023 818.546008541723 2778.42022517671 247 247 249
-96.4294795676608 817.65594816311 2775.57928978774 248 248 250
-103.032979415039 816.986158520082 2772.02391583532 246 246 248
-111.04603959745 815.877201333434 2769.91486477976 247 247 249
-115.524546423595 815.866194744424 2764.19787611945 248 248 250
-118.60824598022 816.292752687867 2757.02415610771 246 246 248
-123.810299707374 816.06028872864 2752.01686223858 250 250 252
-127.621842222678 816.265150402536 2745.54942702704 251 251 253
-137.012129313435 814.718270932674 2744.91014436686 248 248 250
-138.753715746158 815.577576542399 2736.24117501757 251 251 253
-145.360735044148 814.90541075109 2732.68323770463 255 255 255
-147.830287863161 815.542721731556 2724.720756646 248 246 251
-154.443099759369 814.869489237038 2721.15861475194 235 233 236
-157.629364017345 815.285826493752 2713.91049162955 230 230 230
-159.469170220035 816.135920586612 2705.17027401474 232 232 232
-159.975692770975 817.41882372964 2694.92840670052 235 235 233
-155.09469246841 820.437937897322 2678.72027641874 236 237 232
173.799868514198 855.711969950443 2783.92795886384 211 212 214
160.694002602779 853.246851179529 2785.5306692759 252 253 255
146.098924398749 850.342216395654 2788.52225389286 251 252 254
130.790098925397 847.220183314098 2792.23006886912 254 255 255
117.05221091444 844.544068637173 2794.60887534356 254 255 255
101.842974699489 841.429755291685 2798.38921827757 252 253 255
91.2165772824922 839.643005595993 2798.08767450122 251 252 254
80.6159924696854 837.858227521481 2797.80485281916 248 249 251
73.0441599266438 836.956459805731 2794.78137544494 247 248 250
64.7318617525587 835.835269511415 2792.45533842006 246 247 249
56.4319917263516 834.714966548048 2790.13831531931 245 246 248
49.6329930149 834.035074723023 2786.44116889862 246 247 249
37.6438551682723 831.818207873937 2787.61993460975 247 248 250
23.4701033035911 828.945783061851 2790.9168163545 248 249 251
10.0814689817992 826.296109770466 2793.54893821249 248 249 251
-6.94081517439793 822.554199039052 2799.71718946166 248 249 251
-18.032432011976 820.568522104641 2800.31242722258 250 251 253
-29.0940442835299 818.585096643252 2800.92942733788 249 250 252
-35.0241957106407 818.133783480723 2796.62824802253 245 246 248
-43.8612660202939 816.808781769806 2795.15579676157 244 244 246
-54.1303506043933 815.048349670577 2795.11340998703 243 243 245
-64.3737330449796 813.289701012534 2795.08966427832 243 243 245
-71.7115829201467 812.404449364286 2792.23618406764 243 243 245
-78.3234863414961 811.737503823143 2788.67473259104 243 243 245
-84.2161725768831 811.288210114109 2784.40072282164 240 240 242
-90.1096400092685 810.838614144145 2780.12614521486 242 242 244
-97.4260267153628 809.954314223981 2777.28793445715 243 243 245
-104.025616478746 809.287360939978 2773.73570385181 242 242 244
-111.328086792132 808.403710452302 2770.90758467367 243 243 245
-116.508944809674 808.170573829327 2765.91565261961 247 247 249
-119.587779395733 808.586592771461 2758.74540594673 242 242 244
-125.485576219708 808.135271964746 2754.46768113495 249 249 251
-129.290253233518 808.332325686703 2748.00518332314 247 247 249
-138.674818592253 806.799461228617 2747.36982498039 248 248 250
-139.715551465961 807.858740437953 2737.97489560949 252 252 254
-144.935978099298 807.620964464253 2732.95425592218 255 255 255
-146.026614776454 808.675782702261 2723.52312762346 234 232 237
-154.018189503436 807.574002764298 2721.42968818724 228 226 229
-159.25835113134 807.333672134903 2716.39472924137 237 237 237
-163.138442070714 807.522764429578 2709.87752193931 239 239 239
-164.311207043476 808.569913714863 2700.38681824164 233 233 231
-162.124801197438 810.687960736063 2687.16090136689 225 226 221
177.324961059647 848.908701019426 2781.50817831003 235 236 238
157.312223020969 844.498833943834 2789.2106067544 254 255 255
141.962495609526 841.406297062059 2792.88921492393 254 255 255
128.188626823538 838.754570464631 2795.24206169711 253 254 255
117.496936643247 836.979129749194 2794.89294860843 252 253 255
103.043223236457 834.115400791331 2797.98721877986 248 249 251
91.6584965611591 832.126889026527 2798.36996060516 245 246 248
81.0569175726807 830.358280730431 2798.08650012705 242 243 245
71.9828940425922 829.026808598717 2796.44224364582 243 244 246
61.4283631364483 827.261832490539 2796.1929077244 241 242 244
53.1390246489747 826.150448114312 2793.88356433523 241 242 244
44.1178398685618 824.822838303891 2792.27763135469 242 243 245
35.1135541678804 823.496597507391 2790.68395581202 243 244 246
21.6866214837013 820.871244032711 2793.28843755445 244 245 247
9.7783002958467 818.682193032487 2794.52592987899 244 245 247
-7.24407973113328 814.981128945686 2800.69402404868 244 245 247
-20.5347077591411 812.365861767225 2803.39736703434 245 246 248
-33.0509571882089 809.969907151188 2805.42814782459 243 244 246
-38.968006430073 809.519535924153 2801.13647133402 237 238 240
-47.065970312258 808.421982198399 2798.96592953534 237 237 239
-55.1515202161892 807.325135424253 2796.80439047527 235 235 237
-64.6691103235027 805.798461721512 2796.07263101078 234 234 236
-72.0051903362606 804.918790139039 2793.22046207526 236 236 238
-79.333100981859 804.039531032777 2790.37392290059 238 238 240
-86.6530772815079 803.160745823953 2787.53343238004 236 236 238
-92.5378926887832 802.711671533068 2783.26512945331 235 235 237
-99.1346910583528 802.047921215477 2779.71464413554 236 236 238
-104.309663643646 801.812871625542 2774.72696886736 237 237 239
-110.196684807431 801.363021205628 2770.45706300942 236 236 238
-115.379770879344 801.126896126086 2765.46350065408 243 243 245
-119.865357091928 801.104024446752 2759.74131989644 242 242 244
-125.060910519545 800.866411421837 2754.73871215214 236 236 238
-128.865300498296 801.055243750338 2748.27638077519 240 240 242
-138.250859223239 799.535920408375 2747.6403709085 252 252 254
-142.759326157583 799.510189848924 2741.90188342359 245 245 247
-147.968851286235 799.27030982792 2736.88913581226 235 235 237
-150.42608805908 799.881245519743 2728.93515484528 234 232 235
-156.3416926864 799.426630024088 2724.64450408857 236 234 237
-159.518385609444 799.821697197867 2717.40321169397 230 230 230
-164.078730146332 799.790379507928 2711.62679425091 227 227 227
-165.926691163935 800.606595408588 2702.88049343702 235 235 233
-166.445378604043 801.844312995061 2692.6298731383 227 228 223
-157.534802196633 806.044535776216 2671.93774791206 218 219 214
182.454030740133 841.258766987731 2787.65796969258 219 220 222
179.313904032361 841.650702563596 2780.44316906564 248 249 251
156.994854789926 836.64137586773 2790.17577680573 249 250 252
141.645440109264 833.581544187547 2793.85477733877 254 255 255
124.06210746572 829.878769155604 2799.61621631911 252 253 255
114.90206428108 828.551451180556 2797.90991787318 250 251 253
101.213227534976 825.933497843499 2800.32457725497 246 247 249
92.1003690644686 824.609872510508 2798.65220824223 243 244 246
79.9914466900908 822.427621331295 2799.74402045104 241 242 244
70.921022136174 821.1072050019 2798.10272342127 240 241 243
60.3700182300972 819.358754579417 2797.85573352631 239 240 242
51.337831127201 818.041256678546 2796.24217042324 238 239 241
41.5782086024037 816.510748017978 2795.33493706927 239 240 242
31.8396466815654 814.981657140505 2794.44327265494 240 241 243
18.4220447646952 812.38424299795 2797.05465998795 241 242 244
7.99916197800599 810.645286016134 2796.90089038984 241 242 244
-6.07636385211707 807.839905241521 2800.26931787455 242 243 245
-19.3708562880686 805.251568182647 2802.96999587478 242 243 245
-34.08470299746 802.239759454912 2807.10997643961 240 241 243
-44.3718600769816 800.510771765797 2807.05435332257 233 234 236
-51.725981145964 799.63549355046 2804.18912829365 234 234 236
-59.0720793827251 798.760745786376 2801.32972187386 232 232 234
-65.6874225616448 798.099137505136 2797.76580387787 231 231 233
-70.858774890034 797.862469394299 2792.78074481306 232 232 234
-77.4712336038605 797.20073632401 2789.21891719529 233 233 235
-85.5119261396828 796.114752498582 2787.08995122164 237 237 239
-92.8263378505636 795.241485949422 2784.25322806631 233 233 235
-98.7098641972064 794.792277111562 2779.98585892563 232 232 234
-103.884850142661 794.554418479991 2774.99815974404 234 234 236
-109.772057286458 794.104433505992 2770.72811838368 232 232 234
-114.95513264577 793.865501334977 2765.73454957565 237 237 239
-121.548674029515 793.203627952571 2762.18643482347 241 241 243
-126.737665651907 792.963678803929 2757.18857203889 232 232 234
-131.233414183539 792.933949738084 2751.45898966528 239 239 241
-136.434897234398 792.692510693907 2746.45206403101 247 247 249
-142.335327487964 792.239841417537 2742.17242335966 238 238 240
-148.236545540622 791.786988833025 2737.89221066744 230 230 232
-152.759457647494 791.75392408216 2732.14291994254 236 234 237
-157.979245496756 791.509867012683 2727.12271150845 231 229 232
-161.833998094821 791.684642190222 2720.62379999173 229 229 229
-165.702699691327 791.858048368063 2714.11476961409 228 228 228
-168.224103159346 792.448860246549 2706.11446538634 228 228 226
-168.054394793449 793.874777970594 2695.12850006306 231 231 229
-162.51527036539 796.970069775065 2678.16251275344 219 220 215
185.218355251108 834.214117859883 2785.92080062292 251 252 254
170.540454355184 831.392747699981 2788.85276705475 253 254 255
152.844061133613 827.722036732813 2794.53240842006 251 252 254
138.270452148107 824.908866047112 2797.53972533837 252 253 255
122.982219347655 821.886431673195 2801.26326734679 246 247 249
114.58613600143 820.783068297396 2798.87658295942 243 244 246
103.929155466665 819.042830956551 2798.55310442256 237 238 240
94.8091002686113 817.729495982733 2796.87557047114 236 237 239
81.1854114600297 815.143705072003 2799.33761989219 236 237 239
71.3609940462243 813.621818226314 2798.38375348861 234 235 237
62.3070110154864 812.31353711583 2796.75414226013 233 234 236
54.7636144175283 811.430084371231 2793.75137147829 233 234 236
41.2710687906639 808.854140851174 2796.30853926948 234 235 237
30.7915091915296 807.127320683726 2796.11374491585 235 236 238
17.3767383959182 804.557319329478 2798.72732344026 235 236 238
5.48104535363469 802.412605615894 2799.97419475412 237 238 240
-9.32328045624908 799.426734018652 2804.04842198774 238 239 241
-23.3421764127331 796.655464698441 2807.45836893465 238 239 241
-37.3133000056294 793.887756395 2810.90267064768 235 236 238
-46.861487289481 792.386156236911 2810.14915211641 227 228 230
-53.4800943050739 791.727151251631 2806.58288128177 231 231 233
-60.0950148868584 791.068385164786 2803.01928403173 228 228 230
-65.983714946702 790.619593611872 2798.74816646957 226 226 228
-71.8731513590636 790.170563174746 2794.47651389977 222 222 224
-77.7633722694702 789.721289953083 2790.20429140083 220 220 222
-87.2345985248002 788.224610132664 2789.50658848405 238 238 240
-94.5429006738121 787.357155725703 2786.67432372015 229 229 231
-100.419989689555 786.908289151992 2782.41162287166 224 224 226
-104.169474741925 787.085976256082 2775.98903679481 228 228 230
-110.054629098761 786.636038093089 2771.72048378063 224 224 226
-115.940567953643 786.18585714556 2767.45136083732 224 224 226
-122.530199253392 785.526820122179 2763.90638943221 231 231 233
-127.014071691773 785.492676208966 2758.18539392997 234 234 236
-132.904465938714 785.041297911579 2753.91303511306 243 243 245
-138.79558993608 784.589561777194 2749.64014547198 227 227 229
-145.381393499007 783.929868583764 2746.09765107432 229 229 231
-150.580033784183 783.685134950214 2741.09276953382 241 241 243
-155.783815737533 783.439805552755 2736.08415767067 230 228 231
-158.930413161818 783.815444561207 2728.8645837379 227 225 228
-162.780518253647 783.982291848271 2722.36900114131 224 224 224
-164.5955923606 784.768432344733 2713.64638841294 223 223 223
-167.799467421389 785.138714300069 2706.38526556457 229 229 229
-168.985884614401 786.126865846338 2696.88436624592 221 221 219
-166.821795505259 788.144228948822 2683.64176150843 223 223 221
-158.643688676751 792.013109214607 2663.65201176681 212 213 208
203.490464211965 830.159096584975 2780.61937552651 216 220 221
182.58559793664 825.676000193325 2788.90945240443 252 253 255
165.607948844871 822.252904489045 2793.87663879614 252 253 255
145.624350365692 817.992357469744 2801.60065298756 247 248 250
134.893807142935 816.26265002377 2801.22390062427 250 251 253
121.901721906176 813.904201277378 2802.90992785731 243 244 246
113.509574161583 812.809222144253 2800.52613893939 238 239 241
101.340175217575 810.665744417352 2801.57430678742 233 234 236
91.4723930733703 809.154025878562 2800.58905586979 230 231 233
80.8726284025885 807.434544132514 2800.30686498795 232 233 235
74.8065990269509 806.973298729473 2795.90713453917 230 231 233
66.4922742591361 805.884265662483 2793.57979127594 229 230 232
57.4435259497763 804.58710276573 2791.95403112465 231 232 234
41.7084496280515 801.411081766222 2796.58790541105 229 230 232
28.2575021742568 798.865512366567 2799.17538245655 230 231 233
15.5902027961634 796.531702070016 2801.09697868842 232 233 235
4.43812994553161 794.617539863955 2801.64875283147 233 234 236
-11.0999170071724 791.456285564368 2806.42553270853 234 235 237
-22.9126650843861 789.339380884746 2807.73267345595 235 236 238
-33.9592081732918 787.432991096688 2808.36098774422 233 234 236
-42.7875916684379 786.151887893009 2806.89505609508 228 229 231
-50.1447142020861 785.287120412295 2804.02770847932 230 230 232
-58.2188665380996 784.215393213412 2801.87455899507 226 226 228
-64.8348306256932 783.558872599753 2798.31021665916 222 222 224
-70.7265987950341 783.109593520491 2794.03687248954 221 221 223
-77.337487796088 782.453125582549 2790.47620945899 214 214 216
-84.6610449256424 781.590061629041 2787.63320274967 220 220 222
-93.404510176242 780.31428441101 2786.22885712542 236 236 238
-99.9956954182919 779.658755515323 2782.6824825267 217 217 219
-104.454579842519 779.621926506907 2776.97988224569 224 224 226
-110.337726256875 779.171971778203 2772.71278474795 223 223 225
-116.221681242038 778.7217723148 2768.44509986035 214 214 216
-121.403182517808 778.477042666025 2763.45234829669 226 226 228
-127.991762992972 777.820420779947 2759.90815088989 236 236 238
-134.576486426628 777.163921767424 2756.36645568015 242 242 244
-141.85404959948 776.302134340925 2753.55679743747 221 221 223
-146.346713174848 776.260825915534 2747.82939276276 230 230 232
-150.156998522601 776.42343106905 2741.36265486119 232 232 234
-154.670916012222 776.379922889052 2735.61983162827 218 216 219
-160.569625826296 775.926317598795 2731.34143339912 219 217 220
-165.783756888169 775.676624923033 2726.32529714547 224 224 224
-166.903948510004 776.651381921165 2716.87233831066 226 226 226
-169.417739786559 777.215268573249 2708.87741594136 224 224 224
-169.917824019643 778.388704928054 2698.63966143029 224 224 222
-171.807099290744 779.151568340116 2689.86314079148 222 222 220
-164.957193816988 782.5575922911 2671.37886729652 216 217 212
198.530130271466 820.964723122548 2785.62279763849 238 242 243
177.637485945524 816.534245859806 2793.92229547163 247 248 250
159.904171652243 812.942333157073 2799.57557109287 244 245 247
141.469131625092 809.147518854086 2805.95445412367 250 251 253
129.221436908406 807.019684020409 2806.9459429295 244 245 247
117.770682543188 805.101996640732 2807.28117861275 234 235 237
109.391284332584 804.016056033282 2804.90667788602 228 229 231
100.266142172887 802.723886834502 2803.22585797338 227 228 230
91.1580390257658 801.433087627387 2801.55710246685 226 227 229
85.0817579540726 800.970951978821 2797.14993583555 225 226 228
77.501795857525 800.095410395411 2794.12069801503 224 225 227
68.4309269101533 798.80739895684 2792.47924297212 222 223 225
55.6414328612624 796.488891060836 2794.31204071202 224 225 227
40.6557389549977 793.554712362169 2798.25534665373 224 225 227
27.2075777779812 791.036492374103 2800.8449820609 225 226 228
13.8026196432879 788.521473595204 2803.4659524902 228 229 231
2.65600000700017 786.626691949736 2804.02177795107 229 230 232
-12.8776393536034 783.501043565228 2808.80193333669 230 231 233
-23.9510032360177 781.611718502274 2809.41089109556 231 232 234
-31.3356382903864 780.750338119182 2806.52361622269 230 231 233
-37.9826211451266 780.094590549288 2802.93679163613 228 229 231
-46.8079846131042 778.824426144409 2801.47310467631 227 227 229
-57.0670361420247 777.145938935573 2801.43840614461 221 221 223
-64.4085894833246 776.287331725918 2798.58237617163 217 217 219
-70.3004714143884 775.837923943058 2794.30894888179 216 216 218
-76.1931312414041 775.388154422875 2790.03495584631 212 212 214
-84.9519911632064 774.122242414416 2788.61950026559 190 190 192
-92.9799663956232 773.061126614654 2786.49987929804 225 225 227
