ply
format ascii 1.0
comment KinectMotionCapture
element vertex 791
property float x
property float y
property float z
property uchar red
property uchar green
property uchar blue
end_header
27.2567315018812 -207.69347118251 2850.38723173679 16 19 12
-19.5793306023959 -216.715681260373 2827.37874112206 12 15 8
-31.7533752488508 -217.551865834133 2828.25538491052 10 13 6
-35.6393552407774 -216.443469625283 2834.78455648967 11 14 7
-41.184249392864 -215.72369058575 2840.18433532358 9 12 5
-68.4559627331591 -220.036212744626 2831.06059371558 8 11 4
-67.3484492382723 -217.763431509839 2840.96085059491 9 12 5
-75.4440717054106 -217.618237150324 2844.72739792199 9 12 5
-122.258902572498 -226.340171861573 2823.07069096653 11 14 7
-89.1370633783044 -216.745675451329 2853.94471103959 13 16 9
-61.7537571967439 -208.520346142506 2880.80050061692 9 14 10
-74.0413794325416 -209.340649782554 2881.78758143552 18 24 22
182.300931738225 -225.874591900124 2743.0404400569 30 32 29
188.621577401139 -222.129978742322 2757.46582226369 17 20 13
177.76952995877 -222.859429996486 2758.43083746548 22 25 18
173.172550282013 -221.962967114033 2764.28011873554 25 28 21
168.580245068934 -221.066828162281 2770.12480607089 20 23 16
170.305463408553 -218.552720624991 2780.79325214563 19 22 15
160.991754429039 -218.871412352304 2783.00378306974 22 25 18
166.726262760462 -215.353601910031 2796.62782033598 22 25 18
173.310698864471 -211.641169252 2810.79567315704 22 25 18
178.360568415925 -208.338644831452 2823.7141388729 20 23 16
172.278498691419 -207.8568532654 2828.26560611807 16 19 12
166.193344049947 -207.374407436827 2832.82004003168 15 18 11
142.445898348308 -211.302889166781 2824.39095334772 14 17 8
144.358076208084 -208.811011011166 2834.87669350608 12 15 6
137.433936603826 -208.523698827507 2838.87618324 14 17 8
138.587937660449 -206.237613219928 2848.72831090281 15 18 9
146.257492916091 -202.359290531101 2863.2113530509 14 17 8
138.554492748587 -202.274973434477 2866.59701826329 15 18 9
119.440058983576 -204.975299444152 2861.88789294896 15 18 9
114.953421797933 -204.089238340798 2867.62913987259 15 18 9
137.472754321125 -196.652643707379 2892.34661740541 15 18 9
111.735548582605 -200.930510917676 2883.11087439611 17 20 11
105.632664544606 -200.44353023273 2887.68224361276 18 21 12
62.4453340987676 -208.85508808564 2866.62856734573 19 22 15
13.2988645619245 -218.625987630582 2841.77427348875 16 19 12
-25.2895211870676 -225.805937056406 2824.47353971351 11 14 7
-29.1783167600119 -224.691495407075 2831.00461369276 9 12 5
-46.3669886534044 -226.726066332668 2828.53584585639 10 13 6
-45.2672416520588 -224.430575995407 2838.44045858318 9 12 5
-54.1634189097464 -224.494087400965 2841.61590595486 14 17 10
-64.7493301236168 -224.947549391988 2843.6927621727 16 19 12
-65.2831974243604 -223.04903848338 2852.44443280147 16 19 12
-106.183035565744 -230.537271790712 2834.65075100903 16 19 12
-108.448433070033 -229.02323599558 2842.34452550308 17 20 13
-62.5133764342785 -216.396739735007 2881.3020319645 17 22 18
-101.915159528563 -223.469590454962 2864.7935224774 16 22 20
175.365780328832 -235.229142221445 2738.55654899353 18 20 17
175.418301079577 -233.089412842059 2748.10718495185 22 25 18
182.547912203302 -229.10138962455 2763.11018591454 23 26 19
164.614835458172 -231.696594159815 2758.62932802551 24 27 20
149.768935655072 -233.462666149465 2756.6286253229 20 23 16
130.142557307314 -236.452442830751 2751.05340207031 27 30 23
151.579558934424 -228.787058008082 2776.81183509267 16 19 12
158.87633889237 -224.819165577107 2791.65181025323 16 19 12
166.235919407287 -220.859206600701 2806.43025825148 17 20 13
166.487232303431 -218.742841071861 2815.78728167962 17 20 13
172.357787817236 -215.203809279093 2829.27274773429 15 18 11
157.464785215303 -216.962013687748 2827.3173181402 14 17 10
152.158057915588 -216.275355227661 2832.48548897614 16 19 10
135.587716451481 -218.430157177318 2829.42047997573 16 19 10
122.996529424277 -219.564205617007 2829.33812930437 16 19 10
141.902174673473 -212.79734521218 2852.07472519201 17 20 11
164.166966188459 -205.236552333224 2877.02660926234 16 19 10
139.447040101999 -209.406834877198 2868.18170087141 17 20 11
130.106975355688 -209.732330232981 2870.41974687687 17 20 11
145.235422678136 -204.011404767555 2889.97652259771 17 20 11
116.280071852417 -209.168289397793 2878.39872635283 17 20 11
94.5940201853333 -212.501923687073 2872.08579252275 17 20 11
83.5179873613083 -213.216275035294 2873.27065891814 17 20 11
70.7679949534397 -214.327839880634 2873.34301911392 16 19 12
-2.30967466186227 -230.049881493118 2832.0389261098 12 15 8
-29.9224067800177 -232.612893947525 2831.49737600942 8 11 4
-10.5155518279978 -225.908806207848 2853.74554102542 11 14 7
-5.99794407105669 -222.805366568912 2865.80472805557 10 13 6
-43.2139697684044 -229.655232131294 2849.9269285304 16 19 12
-64.6627616120723 -232.710770017233 2844.75419897908 19 22 15
-69.3943092088229 -231.787907698031 2850.73320635775 20 23 16
-71.5965012838837 -230.270884787731 2858.3641132739 19 22 15
-86.4331615666334 -231.725089403586 2857.72471320507 18 21 14
-113.990822752866 -236.139049111896 2848.89991446068 15 20 16
-78.1054496931333 -225.732202418196 2881.16070533074 17 23 21
215.342008742526 -229.949035491412 2780.26598733628 10 13 6
213.172069431944 -228.431524917001 2787.86445686199 26 29 22
188.249247140735 -232.95309508729 2777.85637608376 20 23 16
143.552528829319 -242.660261919093 2752.8247217665 7 10 3
165.730318834976 -234.689240084524 2779.21927727894 10 13 6
122.393605539604 -243.95232839874 2755.60563974265 12 15 8
134.375737536503 -238.688548343254 2774.10359103163 12 15 8
137.700592185489 -235.711909300729 2785.94903128516 12 15 8
143.459549892105 -232.120580585086 2799.53792399172 12 15 8
129.304747630194 -233.696803676137 2798.23946310583 15 18 11
174.35946938782 -220.01038871186 2840.74865607089 16 19 12
157.856675535857 -222.211668997658 2837.62310292888 17 20 11
142.105026410242 -224.20006205712 2835.13743449028 17 20 11
127.110389109001 -225.976278046764 2833.28592960084 17 20 11
154.917987300359 -216.872527936072 2862.4243793648 16 19 10
148.849043554288 -216.395752331274 2866.96355367623 17 20 11
137.090556846753 -217.351034775431 2867.44480705951 18 21 12
125.302047346349 -218.302191594456 2867.95560159633 18 21 12
143.683309684989 -211.695235012417 2889.81964186342 18 21 12
126.178957670705 -214.0748395598 2886.29809771261 17 20 11
79.0941087370545 -223.778497426031 2862.22080230698 16 19 10
80.3121546488166 -221.455462991056 2872.00387146134 16 19 10
57.6670332061422 -225.0278252777 2865.26168267211 17 20 13
15.1195405427509 -233.459264880725 2844.99248586027 12 15 8
-39.1912397980638 -244.705114607429 2816.9822943766 7 10 3
-13.757145422586 -234.359547716429 2852.5455321759 11 14 7
-4.24559390503454 -230.011005561354 2867.96376520988 11 14 7
-36.4431007137793 -235.753626907975 2855.44064577776 14 17 10
-62.0632842006521 -239.868986784731 2847.48192658945 16 19 12
-81.8992365726881 -242.564212520887 2843.4885260997 17 20 13
-45.4263195559692 -231.791456071005 2876.52870515053 18 21 14
-120.922485239978 -247.728460108825 2836.24107652945 20 23 16
-118.128877456162 -244.987961319168 2847.2320448819 21 26 22
-63.6163324876602 -230.044408879825 2891.49928760019 19 25 23
239.095068532992 -228.816908384574 2808.94088095516 12 15 8
170.27078391252 -245.223404833566 2764.93152306022 20 23 16
188.496016588839 -238.208986637169 2788.3071897576 12 15 8
182.379395830533 -237.731229384176 2792.89322511781 9 12 5
155.695100669002 -242.716144729338 2781.86863867623 9 12 5
137.628459156406 -245.378630334382 2777.53035668847 9 12 5
151.293994757573 -239.647795990521 2797.12178937072 9 12 5
139.556426076177 -240.628949201881 2797.58609453292 9 12 5
126.191259626609 -242.024174686526 2796.89400940494 12 15 8
138.409324642119 -236.73019592474 2815.15321236311 13 16 9
167.568223594707 -227.066162837547 2845.70114739346 15 18 9
145.404179498994 -230.75923231755 2838.49908215754 17 20 11
137.676035136868 -230.695539317154 2841.9127641593 15 18 9
161.465805051569 -222.523371326973 2868.09377979638 14 17 8
148.929495816053 -223.711925827246 2867.96499063858 15 18 9
140.420754428469 -223.85901231913 2870.76806082516 13 16 7
118.869385306684 -227.317744826614 2864.33987469864 17 20 11
128.256264700632 -222.905632566711 2879.87251336062 17 20 11
127.07827911287 -221.188403153348 2887.87368697833 17 20 11
128.380632121066 -218.854561799037 2897.57144068168 15 18 9
105.054783018221 -222.70783423505 2890.12949575969 15 18 9
-46.5548978289476 -254.32484311816 2812.96310994345 9 12 5
-39.707152344119 -250.520250104208 2826.85620923856 6 9 2
-42.7807584399096 -249.181286461055 2833.96151308137 9 12 5
-46.6752855816228 -248.048402124053 2840.49555277196 8 11 4
-75.6283005237135 -253.046782033052 2830.30858150725 11 14 7
-66.1638418630455 -248.642857714088 2845.76539298465 12 15 8
-54.9496377443113 -243.840374308056 2862.2602688166 12 15 8
-40.291843771179 -238.233584905945 2880.88437021344 14 17 10
-105.654279155724 -251.955536428032 2847.21033914506 16 19 12
-94.3737035775731 -247.161377676735 2863.64019967501 15 20 16
-158.413322761491 -260.429078339282 2831.41961096337 11 17 15
218.8108193744 -241.639255933639 2794.13623259729 17 19 14
173.491161770077 -251.850175193329 2768.38104911974 11 14 7
177.556822705618 -248.595469322873 2780.86666894158 10 13 6
169.046461432978 -248.755855463771 2783.67331338028 8 11 4
146.28485026622 -252.744931413145 2775.69148138875 7 10 3
200.345895717228 -236.10273082117 2825.82398546004 8 11 4
179.987796725227 -239.456706836833 2819.61262865084 9 12 5
151.588939704083 -244.921790468053 2807.52743966729 9 12 5
138.253417272136 -246.347406961712 2806.81040936946 8 11 4
159.306996591639 -238.670304861453 2831.53060744308 8 11 4
152.399418366673 -238.405853976227 2835.51669253046 14 17 8
158.357150116464 -234.7631767345 2848.900272542 16 19 10
149.047556123862 -235.132877574674 2851.11459418987 15 18 9
143.761264227852 -234.447114710375 2856.26260473651 13 16 7
149.010173306042 -231.02718421559 2868.96606869347 15 18 9
145.375191608871 -229.924353070779 2875.24647992752 10 13 4
136.863758240268 -230.08127231825 2878.05367656803 12 15 6
127.521457516672 -230.44564109435 2880.29968840654 14 17 8
159.883357100036 -220.13277883565 2911.82216558844 15 18 9
132.562082669216 -225.103968627831 2901.42808034681 15 18 9
105.958912830574 -229.852697274245 2891.70493628713 15 18 9
1.25009144636667 -252.22505418228 2837.44948169331 13 16 9
-34.0507560995165 -258.999110392975 2822.49249599856 10 13 6
-51.236278232393 -261.183446433403 2820.04273562201 10 13 6
-56.8319572528817 -260.455142276516 2825.49168457236 13 16 9
-68.2617839431283 -261.177770877196 2827.02943472324 12 15 8
-63.8429088121706 -257.963259059669 2839.17024829104 14 17 10
-60.2138954226694 -254.961408702233 2850.7102660396 16 19 12
-36.3958992680615 -247.008388663069 2875.47839541494 15 18 11
-53.6669769546121 -249.180730205592 2873.11182018637 13 16 9
-44.0067432036013 -244.75313200979 2888.37072511631 10 15 9
-83.2980116865771 -252.269620691069 2871.8180424834 14 19 15
182.865919266368 -258.931646073331 2767.20329907558 8 10 7
182.206901233438 -256.940374123397 2776.06553619008 7 9 4
169.766851917317 -258.192396079468 2775.85053997158 11 13 8
147.94770013693 -259.820098435036 2777.9197721171 9 12 3
159.197914172567 -254.600632886242 2795.73416910837 10 13 4
167.35130602035 -250.251659439289 2811.08410170925 11 14 5
151.669922169377 -252.35428784601 2808.54554274866 11 14 7
155.905279381098 -249.087185749956 2820.86081950295 11 14 7
146.578018239519 -249.468487555092 2823.09439950848 11 14 7
183.779601932329 -237.434054901637 2859.47559238154 9 12 5
160.85133246433 -241.458688475147 2851.66417210613 10 13 6
153.967114451095 -241.201795122164 2855.6285149999 16 19 12
149.500967227869 -240.30398767931 2861.3476789841 18 21 14
148.280898393088 -238.55447476587 2869.38587040099 17 20 13
165.762485950922 -231.913943228889 2890.72109150167 12 15 8
142.644317909239 -235.912779551788 2883.09443049477 13 16 9
143.925543665859 -233.532739331271 2892.806673541 12 15 8
153.419080586632 -229.036656445997 2908.2209888804 10 13 6
153.143325888721 -227.090546097028 2916.70931470245 11 14 7
103.575236322733 -237.837312353394 2891.00101912314 11 14 7
66.1567479812462 -245.388061326851 2874.01061109891 12 15 8
22.8072571847746 -254.396078669167 2853.20611890927 10 13 6
4.11308308187408 -257.058531016431 2849.49098114484 9 12 5
-25.4282541696864 -262.449229045416 2838.52929775953 10 13 6
-46.7647659964423 -265.722924266752 2833.27731605051 11 14 7
-43.1667652635901 -262.687296560563 2844.84313754818 10 13 6
-49.5515990396007 -262.174105152231 2849.6902752472 13 16 9
-29.9785352669057 -255.166360323484 2871.72884990409 15 18 11
-39.6667918038713 -255.496832690758 2874.31305326303 17 20 13
-60.3102546066068 -258.541441990991 2869.75625198863 16 19 12
-65.8443351560258 -257.819930314505 2875.14503667226 13 18 12
-42.6414352472246 -250.010395375007 2899.12826342982 17 22 18
-60.8146786240473 -252.4208121716 2896.27549232702 20 26 22
179.813605626848 -267.2635447677 2765.79776751656 14 16 13
182.286940819666 -264.378914878834 2777.08546877285 15 17 12
154.894976455608 -269.810803924669 2765.41276151069 12 14 9
140.806311340439 -271.514275292541 2764.06743270014 7 10 3
167.800668062165 -261.864246306957 2793.93304132822 10 13 4
202.09021381732 -250.272843481196 2829.02034474111 12 15 6
151.537021037613 -262.002822159228 2800.18452378691 13 16 7
155.734496367264 -258.69845262663 2812.53190969925 14 17 10
141.611056218615 -260.395931444161 2811.22056515669 12 15 8
161.870349232173 -252.758082349012 2835.31839353311 11 14 7
149.351477532511 -254.021602659628 2835.18336855846 12 15 8
173.803452231646 -245.323077392199 2862.04591899743 11 14 7
162.112157319739 -246.372525172615 2862.47470537194 9 12 5
147.965429902199 -248.065787392204 2861.18552437831 10 13 6
157.275057505733 -243.497765633704 2876.77216969635 14 17 10
144.725327763524 -244.756098483559 2876.66702050968 17 20 13
132.14158025914 -246.009700587774 2876.59495226159 19 22 15
127.684876099586 -245.109175204089 2882.3046752755 19 22 15
138.775329707413 -240.129709848268 2898.89594149727 18 21 14
149.124339522895 -235.374716742614 2914.83973994822 16 19 12
85.5756610663212 -249.906901196046 2879.48437351153 16 19 12
62.1212528721418 -253.919959178508 2872.19370590167 15 18 11
-3.53261820169815 -268.820012582118 2836.14937908913 11 14 7
-2.42267696438736 -266.394644273684 2846.02501072348 9 12 5
-12.8962775268215 -266.957882759002 2848.0065657221 10 13 6
-25.8870511847973 -268.156811526068 2848.33059976612 11 14 7
-46.413440587362 -271.265330305484 2843.6669886678 11 14 7
-66.1734490512087 -274.152330613881 2839.6261811106 13 16 9
-11.4689752411601 -258.146886453153 2884.96313567904 13 16 9
-25.3110435677382 -259.555583973989 2884.74661232591 13 16 9
-47.603579771049 -263.075968607831 2879.06352822516 14 17 10
-50.5788667005107 -261.723600796236 2886.06921855214 15 20 13
-36.6387219502076 -256.149420840754 2903.9938665803 22 27 23
-45.4798711850328 -256.281580279865 2907.1248164612 38 44 42
197.904246590796 -269.623861889516 2780.77362665184 18 20 17
189.432253185707 -269.821252404604 2783.54764046122 9 11 6
155.763137055705 -277.102197568665 2767.04523931502 9 11 6
147.199361757136 -277.287074016502 2769.90854432775 9 12 5
179.743866022787 -265.981675147682 2803.93681451867 10 13 4
191.070977374737 -260.658388736483 2821.65950665996 13 16 7
171.48626496204 -263.94198202331 2816.0863344839 15 18 9
159.799152191013 -265.014601058404 2816.51439263202 16 19 12
148.081596626734 -266.083044929237 2816.97172599442 14 17 10
121.924062333227 -271.101243262353 2806.84588675274 13 16 9
144.618023931514 -262.721861835266 2832.66752087384 14 17 10
170.666356640906 -253.483362047022 2860.69921268918 14 17 10
167.837671257482 -252.145082512135 2867.56140775492 9 12 5
155.321690310573 -253.432200965701 2867.42700001528 8 11 4
160.597118761344 -249.909617193606 2880.08895773368 12 15 8
135.060763859567 -254.683300663248 2870.72738614297 13 16 9
124.082269755773 -255.522165993773 2871.83379825949 14 17 10
129.398956258133 -252.004252735206 2884.45547642262 17 20 13
118.406763794654 -252.84081451948 2885.57548859167 17 20 13
102.468622160587 -254.976618378561 2883.29679722264 16 19 12
134.971975665854 -244.309053073036 2914.6263836136 16 19 12
2.89051020743258 -276.992761964956 2832.39595573488 20 23 16
16.3720866618959 -271.297970389231 2850.7581425149 11 14 7
-27.9947896539721 -280.744167777273 2829.61178268743 8 11 4
-13.6392469502766 -274.838897946751 2848.49190878594 9 12 5
-33.2840404356833 -277.786549594088 2844.34599313535 11 14 7
-88.0010620314642 -289.771456883775 2816.84843760826 12 15 8
-46.8698974409345 -276.987081921408 2853.46772320941 13 16 9
-27.2928696485071 -269.817688994017 2875.47813217573 14 17 10
-31.9387022513555 -268.887335629039 2881.37125396706 17 20 13
-39.9449439120465 -268.815002079638 2885.05981362796 18 21 14
-46.2754894776856 -268.312913356244 2889.85502114553 18 23 16
-28.1008093415784 -261.608354689553 2910.49252788839 21 26 22
212.861672579401 -272.75745623556 2793.30712949823 12 14 11
177.737743173801 -280.59910935579 2775.49809535441 13 15 10
144.04072527529 -287.973157480778 2759.03716165376 5 7 2
150.436511260803 -283.911152749389 2773.34101807347 7 10 3
134.748773541546 -286.118003630016 2770.82417263413 10 13 4
132.487884021932 -284.520859373206 2778.50118723841 11 14 5
163.620289782023 -273.554388969923 2811.14796696375 15 18 9
178.999600307778 -267.06827297414 2831.75978414877 17 20 13
162.537761877144 -269.499724936898 2828.62791878327 16 19 12
125.208995568226 -277.705412648085 2810.22830579605 16 19 12
119.021332733956 -277.228458753388 2814.88500572389 16 19 12
153.855012899862 -265.435883372803 2849.40258024936 18 21 14
150.179181247353 -264.305612225632 2855.71950047258 16 19 12
136.812773626158 -265.832476568056 2855.04810401207 14 17 10
131.510480740457 -265.143104366447 2860.21147031952 11 14 7
140.015641284475 -260.699133616055 2875.19805084498 11 14 7
141.260893678963 -258.248955562189 2884.93564963045 14 17 10
122.137022782968 -261.311428295913 2880.28942065435 15 18 11
93.1322651249142 -267.006324155985 2868.83986610717 15 18 11
100.092026110443 -263.013487909771 2882.59357224468 18 21 14
82.4554391957353 -265.615760167011 2879.23658733705 20 23 16
56.5235193262281 -270.403750916916 2870.26959437459 20 23 16
-18.2221069927313 -288.104998829114 2828.08051422544 11 14 7
-16.3199133903973 -285.412458912462 2838.5465111784 8 11 4
-50.6585967351132 -290.08376977008 2833.65958543134 10 13 6
-48.7379582546286 -287.393007957453 2844.10786699262 11 14 7
-47.6172375126089 -284.924640981445 2853.96610139317 13 16 9
-30.5550409520605 -278.326426824625 2874.30712912647 17 20 13
-33.5300970863099 -276.957458899367 2881.31013678085 21 24 17
-70.9824785571018 -284.489547156306 2865.767874249 21 24 17
-58.8353224549594 -279.21062906704 2882.68246960748 17 22 15
-66.0430213882499 -278.923173857669 2886.96317896576 14 19 15
189.451137772282 -286.926512381314 2776.13799683393 0 1 0
179.38849916725 -287.596459128732 2777.72723196825 11 13 8
152.778696931708 -293.026397696484 2766.6944471879 10 12 7
116.598668312134 -301.161476329693 2748.56059402052 12 15 8
92.1295630845864 -305.881786819812 2739.5482485411 12 15 6
100.861859185854 -301.095022368582 2755.67552465897 12 15 6
141.451382652794 -287.284345232615 2795.51513736716 14 17 8
176.690569495315 -275.081669588761 2830.98599660417 15 18 11
185.776948429156 -270.33982130235 2846.76863966653 15 18 11
137.298985995571 -281.811302394585 2820.08460642396 15 18 11
127.128602177953 -282.464599766979 2821.77837337679 16 19 12
142.675506335143 -275.928790050788 2842.21642289812 16 19 12
136.553846521022 -275.462233832362 2846.80945546525 18 21 14
131.237414796769 -274.770872814603 2851.98656790225 17 20 13
124.301274054329 -274.527086842307 2856.00407025682 14 17 10
127.10372897285 -271.599533849256 2866.95860674415 12 15 8
142.97097943618 -265.104197328287 2887.08452956847 13 16 9
138.539830998187 -264.19790090333 2892.76802241571 12 15 8
115.300443232779 -268.41621045217 2885.29417243337 13 16 9
89.9359562118782 -271.039765095901 2885.36318630282 18 21 14
26.1294613665144 -286.110619750283 2850.34345057188 18 21 14
0.856498524907323 -290.721836814696 2842.11322362574 11 14 7
2.80315471412029 -288.010489019438 2852.5322887764 8 11 4
-11.8057170668702 -289.729121432702 2851.70611151297 9 12 5
-33.9398447888342 -293.431286432487 2845.89259250723 10 13 6
-26.9800030600686 -289.396369661044 2859.64033682426 11 14 7
-41.6813124917157 -291.102480753775 2858.90376302671 10 13 6
-38.8406343947847 -288.17744661547 2869.82071561846 12 15 8
-51.9061455656757 -289.43762767004 2870.22801817897 15 18 11
-64.1642820965855 -290.473493960829 2871.21767932238 14 17 10
-100.903087385735 -297.870973949208 2856.36383936798 13 16 9
-86.2359304262501 -291.87528611313 2874.92116416226 17 22 18
-98.5785552739165 -292.899764198797 2875.99304028143 14 20 16
185.748612214126 -293.203341044928 2783.57619061727 7 9 4
133.975900538142 -306.052611163434 2753.28264426353 8 10 5
132.457962351971 -304.198676436073 2761.60119085117 13 16 9
123.843492509818 -304.40820911833 2764.51848047576 16 19 10
131.067930126183 -300.040174497334 2779.37115180998 15 18 9
136.765991711163 -296.136994613062 2792.97408595701 14 17 8
157.654095166198 -287.903712643993 2817.77640086851 13 16 9
157.909742839383 -285.615131367592 2827.1033285447 13 16 9
154.991631370206 -284.240929284205 2834.04901569857 13 16 9
140.852420673765 -286.053178250035 2832.7702945209 15 18 11
142.757847215044 -283.314666914679 2843.22628656208 16 19 12
130.18633168477 -284.666444513687 2843.15691992012 16 19 12
133.74483160742 -281.478637873924 2854.73913648434 16 19 12
127.625016724668 -281.014142272033 2859.33064156558 16 19 12
122.314191071933 -280.322809847161 2864.5021913167 20 23 16
132.470738917934 -275.337533218939 2880.60273370239 15 18 11
140.253991326742 -271.038914127268 2894.91075327184 13 16 9
125.198666725242 -273.06187103587 2893.15597996874 12 15 8
86.3216867583119 -281.610442427951 2874.92719692931 15 18 11
69.4751150123891 -284.063712968734 2872.1806022096 17 20 13
17.9784563517331 -295.948385027422 2845.721429754 17 20 13
-0.707748944877018 -298.825662934155 2842.03012997099 10 13 6
-11.1790279467039 -299.452526608715 2844.01878340079 8 11 4
-28.308973306852 -301.868097947117 2841.54801094339 9 12 5
-15.5590779825547 -296.222633600244 2859.22714912706 10 13 6
-33.5595604338281 -298.856532527537 2856.23585443263 10 13 6
-59.9707935115035 -303.714891088712 2847.75522690322 12 15 8
-65.5457058764313 -302.986551301536 2853.18354899147 14 17 10
-71.1197267273906 -302.258176481794 2858.61098061538 18 21 14
-95.1981552937235 -306.423737618783 2851.96285220142 20 23 16
-82.2652623404947 -300.801477414907 2869.46336275457 19 24 17
-73.4711441778146 -296.299980576608 2884.15483960444 20 25 21
-78.1619610290729 -295.354242822482 2890.09001977144 11 17 13
132.457444997462 -316.433646456572 2743.57194600159 13 15 10
125.403673891425 -316.18826980942 2747.70602194506 11 13 8
143.58366833472 -308.518665960088 2771.02977472321 12 15 8
156.345935289882 -302.485967187599 2790.05630393327 16 19 10
143.040675581516 -304.102919646628 2789.33750167568 15 18 9
147.973133004884 -300.396723635508 2802.3128968856 14 17 8
143.398265292197 -299.468463100739 2808.13552096933 14 17 10
156.394692243111 -293.464930103405 2826.93383653092 13 16 9
135.063075879711 -297.382339606144 2820.35522492637 13 16 9
152.16818610347 -290.239681020556 2841.99041726864 15 18 11
123.537188596884 -296.218248733952 2830.2116399419 15 18 11
154.456702261137 -285.184352455519 2861.64294983291 15 18 11
132.211261778789 -289.31646056311 2854.5862642876 16 19 12
126.897820513308 -288.624709945452 2859.76034957213 16 19 12
113.464575003668 -290.222196021924 2859.16576198434 16 19 12
121.971490118777 -285.640017142935 2874.13017309372 12 15 8
136.256852538711 -279.467157799838 2893.04077748036 10 13 6
101.982739766771 -284.708197978494 2886.75669078514 12 15 8
54.3079224298615 -293.558233842824 2871.64087151451 15 18 11
10.9386021565872 -303.304547247173 2850.96519012402 11 14 7
-17.7117240495641 -308.942964246246 2840.57257951435 9 12 5
-29.050098334904 -309.807266075726 2842.04045531659 9 12 5
-43.7406237016891 -311.573587560012 2841.30207185278 8 11 4
-41.8050534832366 -308.811115034764 2851.72492716552 7 10 3
-71.5759066078467 -314.637553293761 2841.05555865071 8 11 4
-71.3171152133114 -312.325810287209 2850.37594127153 10 13 6
-83.6180630628656 -313.398560179626 2851.41356606743 11 14 7
-76.6033947957818 -309.28887030191 2865.09547754698 11 14 7
-38.3365575151666 -296.86571837619 2898.94449600361 9 14 7
-66.6221880200504 -302.215479864042 2889.56398333061 13 18 14
-91.6236558456989 -306.653988983697 2882.4555409791 10 16 12
116.045361136649 -326.617060515796 2741.53607238318 18 20 15
133.412676100384 -319.097964879585 2764.27216362859 18 21 14
137.451795213402 -315.57825186107 2776.7453097738 16 19 10
157.390808568381 -307.381130237308 2801.07852035032 16 19 10
159.179639360579 -304.579860561568 2811.64101803864 16 19 10
134.918819058456 -307.15940964783 2812.02447985669 14 17 10
156.756899498241 -298.533537167957 2837.24267603276 14 17 10
144.227263923812 -299.939260129194 2837.13935723454 14 17 10
160.617304426032 -292.965062987114 2858.09227574903 14 17 10
148.089194622586 -294.370447576589 2857.98739182647 14 17 10
133.102686538575 -296.467535298063 2856.17523920598 14 17 10
116.44989120119 -299.022264168009 2853.2508793028 15 18 11
111.11225175138 -298.326814327632 2858.44844699858 13 16 9
145.66017829284 -286.293474952075 2891.79694712432 11 14 7
146.946639298 -283.761070613105 2901.48147214119 10 13 6
121.275559039641 -288.851638268474 2892.30018232343 9 12 5
33.8021262017425 -306.808009586252 2858.53664353192 16 19 12
11.8515773856704 -310.695157568349 2852.56816836284 12 15 8
-3.55528918315606 -312.735258989893 2851.16467753957 11 14 7
-32.2795490624777 -318.438967486707 2840.85479637317 10 13 6
-53.6283801096498 -322.06640989202 2835.66766935343 10 13 6
-64.216557172224 -322.709112045119 2837.77474520583 10 13 6
-54.7803018470061 -317.862402943549 2853.19411961475 10 13 6
-66.203976483274 -318.733376596653 2854.74768601905 11 14 7
-64.2273485505798 -315.951283657131 2865.12687052593 13 16 9
-72.3081134283241 -315.907826040481 2868.89370069328 13 16 9
-55.1089117446097 -309.035194256172 2889.05812150847 10 15 8
-70.7577690448158 -311.042266279322 2887.89038717009 10 15 11
-120.328195761332 -322.126545121078 2865.06811526396 11 17 13
108.293948861971 -339.015506858667 2726.97667670251 16 18 13
112.982185492466 -335.208438485824 2740.17967787899 16 18 13
119.29917829732 -330.932999201856 2754.5302315582 11 14 7
131.20953570535 -325.005132056537 2773.00096645111 15 18 9
132.902560387712 -322.167148566797 2783.65351257909 15 18 9
150.732342420258 -312.249945708737 2815.49496889658 16 19 12
123.824244327331 -317.929103715941 2804.79523083654 15 18 11
149.636062561131 -308.028523762464 2832.9639298632 14 17 10
181.216166327927 -296.498435596112 2865.08283639045 13 16 9
163.91656423331 -299.347091308453 2861.42729809999 13 16 9
144.94725249328 -302.658201539333 2856.66433811071 14 17 10
133.18598805582 -303.846987725816 2857.183199414 14 17 10
126.254625220449 -303.624177814172 2861.19905748883 14 17 10
139.616537840519 -297.541912571518 2879.6228037866 14 17 10
147.370924441684 -293.109657708158 2893.93973622106 14 17 10
134.790957823603 -294.531001529479 2893.88870564951 14 17 10
98.4602419262641 -302.721207896521 2877.32988219121 15 18 11
55.4247878644922 -312.758724249212 2856.36570638584 14 17 10
30.289176217456 -317.645320645304 2848.03945077604 14 17 10
20.7105859562158 -318.096246865345 2850.53289477084 13 16 9
10.2878098654839 -318.77710778963 2852.48136486284 12 15 8
-5.94994044013353 -321.081060357147 2850.52504163936 10 13 6
-35.5083487671459 -327.091108252515 2839.67184972409 9 12 5
-53.5387328115915 -329.841252208669 2836.7277665602 11 14 7
-45.7935482249985 -325.405832345059 2851.05336894551 12 15 8
-42.1619332849383 -322.134868348308 2862.55069059556 13 16 9
-47.6958661138105 -321.410928088045 2867.93896964688 16 19 12
-76.7246496075153 -327.149014076462 2857.93656590949 19 22 15
-63.8076760089179 -321.346143447486 2875.42652831715 19 22 15
-69.3507965819071 -320.620602659891 2880.82369437696 16 21 14
-85.0322683758442 -322.6554522051 2879.69211437662 15 20 16
-120.236956131426 -329.968871607472 2866.13660539249 17 23 19
114.656679125207 -344.776905751313 2732.84621180063 12 14 9
117.786783912573 -341.417214413695 2744.82842658375 15 17 12
130.424620725201 -335.182192908815 2763.94861355328 15 18 11
134.455725274533 -331.596279489527 2776.41993388838 13 16 7
132.986073122786 -329.693135671304 2784.68292080591 13 16 7
144.248938651807 -323.963415630425 2802.40933928613 16 19 10
140.461304198069 -322.786027420857 2808.83031746247 16 19 12
140.674266390699 -320.415434971376 2818.1875112363 14 17 10
156.121555818034 -313.51587838957 2838.67071802907 14 17 10
157.229715258097 -310.918450296918 2848.52268865347 13 16 9
160.782110909476 -307.610816056104 2860.0932563822 14 17 10
148.25488534292 -309.064253773618 2859.99459663066 14 17 10
142.158460868478 -308.612672636027 2864.56478344286 14 17 10
136.868843736584 -307.923188318626 2869.71554596874 14 17 10
138.887865330533 -305.100326151405 2880.04660726925 14 17 10
68.2864831829475 -318.867231926557 2857.24954711428 15 18 11
44.8545755182415 -323.354624748312 2850.00698047013 16 19 12
58.3130867757764 -317.221647045357 2868.32730761342 16 19 12
48.8004818941308 -317.694441563141 2870.75812143371 14 17 10
21.1075831444112 -323.340088890567 2860.83274916352 11 14 7
-13.3090335279893 -330.852059187552 2846.52368183748 9 12 5
-46.2014967512374 -337.876663308424 2833.46323157475 8 11 4
-59.2682960090265 -339.256637610144 2833.8898564562 11 14 7
-47.3706875615876 -333.604801084118 2850.9971391427 12 15 8
-48.7545651492298 -331.707399193525 2859.17579930449 15 18 11
-67.6983113131495 -334.720844379009 2855.76070471619 17 20 13
-73.2777864762704 -333.990455157958 2861.19325482508 18 21 14
-71.2872755808203 -331.161066769354 2871.55132525601 17 20 13
-65.0460307630887 -327.17125930225 2884.60240474626 12 17 10
-75.6479999026789 -327.843004472317 2886.72746888025 12 17 13
114.724138730667 -350.022516931145 2743.47356336471 16 19 12
159.838198908974 -331.374899427733 2796.52618121596 12 15 6
146.542820704869 -333.099772214489 2795.81351705587 14 17 8
152.276987726825 -329.011454317362 2809.35357249479 15 18 9
173.198077802245 -320.336968773934 2834.05792150901 15 18 11
151.136408440864 -324.719362586516 2826.85574064183 14 17 10
119.390436678383 -331.985739767883 2812.69254136306 13 16 9
143.674371200964 -322.366385502861 2839.58619789972 14 17 10
129.501570881678 -324.32065909919 2838.36148505045 14 17 10
136.24627774353 -320.016731033197 2852.28310171875 15 18 11
139.817571569238 -316.681139746313 2863.8307712418 15 18 11
148.292408390545 -311.911111056547 2878.79927245113 15 18 11
130.039799847291 -315.060291880364 2874.7175918147 15 18 11
135.328569097078 -311.256663889401 2887.32476370966 14 17 10
121.90460500497 -312.961463923694 2886.73682049316 15 18 11
79.3685131279433 -320.890785968239 2874.88422136637 18 21 14
70.723741190069 -321.144440245779 2877.83812257246 19 22 15
51.3577736606372 -324.492554215276 2873.47451678211 17 20 13
8.81237597874307 -334.494538804356 2853.43536548573 11 14 7
-25.631832778287 -342.096597761774 2839.16735041428 8 11 4
-54.4054005884864 -348.018879376973 2828.93873776358 9 12 5
-39.2263688821637 -341.355948278511 2848.30639226428 12 15 8
-51.4472803921215 -342.524397721399 2849.27834630158 11 14 7
-62.0277575890915 -343.215376601651 2851.38524919479 12 15 8
-69.2822827877397 -342.957635368686 2855.71684943954 15 18 11
-77.3828180174148 -342.934978071497 2859.50638613674 18 21 14
-79.6070511986944 -341.259367852069 2867.13540322017 18 21 14
-69.1709361796735 -336.050740357524 2882.92565795178 15 18 11
-67.9542491205436 -333.441388387086 2892.66775886019 13 18 14
-69.2458691634039 -331.541418576652 2900.75476422076 4 10 8
77.9425033513097 -371.661631326483 2706.6776762156 19 21 16
86.4880315794396 -366.510495038077 2722.93689943602 15 18 11
158.982598321985 -341.487087819791 2787.53443204936 14 17 8
167.036085869212 -336.619242988591 2802.90688213356 14 17 8
155.343817710996 -337.883244088648 2803.36834584299 14 17 8
199.23256895987 -322.014766399932 2845.29560968202 16 19 10
205.135997139262 -317.910298834011 2858.66486153347 14 17 10
157.606366860627 -330.173017125413 2832.57331211431 14 17 10
120.275264019919 -339.237615565876 2814.30296596838 15 18 11
123.702494229971 -335.854230935855 2825.98662895618 13 16 9
142.452088817086 -327.851141490824 2848.69547134587 14 17 10
130.687392135692 -329.10362358722 2849.2271551458 14 17 10
145.557423640014 -322.335532557851 2868.88577098109 14 17 10
162.955257602553 -314.851904210638 2890.17988914164 14 17 10
153.669211988926 -315.381918973703 2892.39418338688 15 18 11
118.32146707632 -323.658380263151 2876.28891296735 13 16 9
97.5151388352411 -327.561682545249 2870.60350676882 13 16 9
84.8132013769667 -329.038677955623 2870.6818203252 14 17 10
91.7493240120186 -324.717366835471 2884.41078909325 18 21 14
88.0635118472357 -323.538439587564 2890.73076660424 19 22 15
9.44389137439305 -344.281750544563 2845.75301323497 24 27 20
-29.8969429182008 -353.429171237332 2828.07335406306 9 12 5
-47.0552845007028 -356.065214836921 2825.66336517815 7 10 3
-21.1408747529398 -346.207229048979 2852.31923755421 7 10 3
-38.8587102476867 -346.67738024017 2858.64684803323 12 15 8
-55.2561124568469 -349.063635000077 2856.86122573814 11 14 5
-68.3547473620338 -350.48693484235 2857.32552954205 13 16 7
-86.5213350121343 -353.338641901943 2854.53170955437 15 18 9
-82.8801676492184 -349.978895710667 2866.00642353773 16 19 10
-80.8813492478788 -347.101446620633 2876.34947898382 15 18 11
-61.9501578861308 -339.466377984753 2897.51547708896 12 17 11
129.034424383328 -363.287165770555 2746.81076349314 18 21 14
107.813208776259 -367.542615197575 2740.17248445871 15 18 11
118.847394072749 -361.61394131541 2758.09658049949 15 18 9
161.585065798255 -345.780206239006 2799.75477110453 15 18 9
153.049499308216 -346.073249553555 2802.60605136904 14 17 8
188.986623160698 -332.510580869972 2838.60008962013 17 20 11
213.977157741869 -322.433844507979 2866.14105245469 14 17 10
133.74046782077 -344.963811348767 2815.94825548098 13 16 9
150.768904567576 -337.357944570746 2837.59078590876 15 18 11
135.017419958688 -339.867200530045 2835.18193741175 13 16 9
136.1028921088 -337.201250555722 2845.04630934625 14 17 10
118.680555147124 -340.194062201176 2841.5339547771 14 17 10
152.913089664591 -327.459863135949 2875.09205708896 14 17 10
165.468019010989 -321.37506298863 2892.89986573137 14 17 10
161.059429326495 -320.448422666278 2898.55761274176 16 19 12
127.357993893495 -328.336905543642 2883.59400826762 14 17 10
95.9690141752798 -335.473680993981 2870.47440269204 13 16 9
106.159071951639 -330.132506201615 2886.48906762829 14 17 10
94.2936764521183 -331.391252089661 2887.12167262889 16 19 12
60.2154510242605 -339.229581004035 2872.5248134558 17 20 13
-6.11443625267372 -356.549891916571 2836.09258441142 14 16 11
-16.5998376206278 -357.285984058335 2838.1114054793 8 11 4
-37.8637279558833 -361.178984820177 2832.8788426441 10 13 6
-52.5656190219208 -363.119584133887 2832.17784151674 12 15 8
-29.0716486488884 -353.896303917519 2857.07998938372 10 13 6
-48.7672312884362 -357.291229451498 2853.05061499911 11 14 7
-64.3521203999295 -359.467114702235 2851.84430982502 11 14 5
-69.1009498663711 -358.493335993675 2857.83295293565 12 15 6
-81.3959734257534 -359.694116948958 2858.88361775902 15 18 9
-79.4253948587862 -356.78862267819 2869.25023287064 15 18 9
-84.161942818914 -355.816021989183 2875.22719221672 15 18 11
-99.8763905569877 -357.974322933171 2874.1466038792 11 16 10
-86.0005749676196 -351.707552611433 2892.03276716146 16 21 17
117.387214848446 -377.145459550868 2729.25083246544 7 9 4
130.687997865556 -370.395525735616 2749.05350955689 20 23 16
129.136920499202 -368.428042561415 2757.38784358749 15 18 11
157.571430565833 -356.931103423806 2788.38420477625 17 20 11
119.850085933804 -364.041084965113 2778.71461456416 14 17 8
173.18094499768 -344.825862971529 2827.77534159681 17 20 11
160.704290879067 -346.383151493775 2827.64181275348 14 17 10
185.712106518887 -336.205928956906 2855.15076342857 13 16 9
133.247784751399 -350.231535679144 2825.71785815588 15 18 11
155.155456096564 -341.063991727866 2850.78689072725 13 16 9
134.578737192451 -345.100496800448 2844.89316637712 14 17 10
155.842818716541 -336.202151479492 2869.22383343511 14 17 10
147.340745562282 -336.507613828083 2872.04368984988 14 17 10
153.402229235157 -332.346028896717 2885.24754833815 14 17 10
155.459622575227 -329.430233783491 2895.52677047869 16 19 12
141.276729201548 -331.469889680455 2894.32469964838 15 18 11
144.99822055304 -328.063348240177 2905.71307224831 14 17 10
137.315623983134 -328.120769771724 2909.09942529401 15 18 11
45.2029560017127 -353.595536183238 2854.13062700332 16 19 12
1.15111155464165 -364.471035702096 2832.88234826184 16 19 12
-11.7895670417325 -365.963972205549 2833.20042922618 15 17 12
-23.9390956699572 -367.206227335209 2834.11240745496 8 11 4
-41.0828082595906 -369.918946592597 2831.69922439261 10 13 6
-42.5235205424621 -367.959686199044 2839.92517958721 12 15 8
-41.4502043968992 -365.267024078289 2849.79767457036 11 14 7
-47.8435185951103 -364.783499374497 2854.65795602196 11 14 7
-60.920881749456 -366.257481483712 2855.10862747975 11 14 7
-74.8692253786238 -367.971301430247 2855.04273403439 13 16 7
-52.7797556473622 -359.177304251816 2878.56920101108 15 18 9
-43.1754159670139 -354.060007100535 2893.78167237503 15 18 9
-62.1571026367085 -357.238987699795 2890.42838148971 14 17 10
-98.9400981132169 -365.523183610794 2875.74947927072 15 20 14
87.7290317043857 -394.477519546435 2707.41690947686 11 13 8
104.878841579207 -386.383006633269 2730.28394006864 18 21 14
144.166507667521 -371.196989548523 2769.79579459528 16 19 12
160.02034250089 -363.645321203763 2791.19582327396 19 22 13
99.3037567212709 -380.674633034489 2754.81446843856 17 20 11
118.349994214316 -372.113136009589 2778.56311695876 15 18 9
140.694952522273 -362.555934061167 2804.5572351477 18 21 12
170.343087903874 -350.743530727383 2835.71873230531 14 17 10
170.628095952076 -348.286917123556 2844.99200743247 13 16 9
160.538419965504 -349.109811222838 2846.63069663815 13 16 9
141.602984022563 -352.698748422248 2841.8751601862 13 16 9
181.298760844017 -337.919037686651 2879.62489730509 14 17 10
169.628319146957 -339.24769458884 2880.07390527327 14 17 10
152.2722730181 -342.329014920185 2876.50914231427 14 17 10
143.767193070639 -342.644434205855 2879.3331183081 14 17 10
145.801233328866 -339.701193518195 2889.63147396022 15 18 11
142.988355174147 -338.263804682652 2896.46332390283 15 18 11
157.317371622226 -331.57815856959 2915.25445169155 15 18 11
115.323607798639 -342.135955352679 2894.75000646075 14 17 10
42.012073012113 -362.151135471649 2852.89542186547 16 19 12
42.3160143624206 -359.693694910346 2862.1497737198 16 19 12
35.236525411821 -359.480545869375 2866.31415108922 13 15 10
-50.0926619978546 -380.41867426195 2826.61098148803 9 11 6
-31.6526109295356 -372.485919182007 2848.22035339651 11 14 7
-28.8919246637929 -369.278895543461 2859.17506113414 11 14 7
-49.4192797315329 -373.012509568198 2854.60479775989 13 16 9
-54.1494528083564 -372.035480755472 2860.57443443586 13 16 9
-66.4078190863608 -373.283605858319 2861.59569548126 14 17 10
-59.400964413852 -368.848071687773 2875.23720633154 16 19 10
-48.9715711650165 -363.433296837901 2891.00366739123 16 19 10
-69.6517038305178 -367.146176598242 2886.5820499148 15 18 11
-87.8666860957584 -370.111446943071 2883.85273325732 12 17 11
101.903023896982 -397.622355515409 2719.31278801121 20 22 17
100.256455517417 -395.615456199713 2727.73645818305 17 20 13
110.428306079872 -389.763763712343 2745.1109960192 17 20 13
112.793565736192 -386.484069330761 2756.44762752139 18 21 12
154.720541549695 -370.410718896388 2797.45852678834 17 20 11
137.452430813474 -373.546113155715 2793.81443478748 16 19 10
167.786246018902 -361.345940247307 2825.65463888775 18 21 12
165.648697755501 -359.631825716049 2833.19222348781 14 17 10
147.563033978659 -363.018674564392 2828.97989146066 13 16 9
131.81652201502 -365.633109133987 2826.58165040607 14 17 10
140.884975510662 -360.352813968584 2842.30217363799 13 16 9
139.571808345131 -358.385940233344 2850.40068723902 14 17 10
160.039996727181 -349.564857149836 2874.11619795976 14 17 10
150.740195216375 -350.146504551455 2876.35178329568 14 17 10
143.851338426191 -349.96508315518 2880.33154944378 14 17 10
141.014491316743 -348.516534953988 2887.18555156339 14 17 10
112.15093406485 -355.163104227308 2875.73677768241 14 17 10
83.9910592768072 -361.542245481946 2864.96628244385 15 18 11
104.779826732329 -352.761547000028 2888.36942223208 15 18 11
61.7690789585752 -363.666248187309 2867.50888225731 16 19 12
67.0481326288375 -359.684429944906 2880.09936542502 17 20 13
72.3783979420887 -355.709038259407 2892.63994451649 11 13 8
-62.5505215756812 -394.479805425125 2809.88567937119 7 9 4
-48.3471148824508 -387.711600979445 2828.78933741782 6 8 3
-26.5868720412392 -378.69736500726 2852.61018036566 9 11 6
-30.4640007670556 -377.469876688363 2859.11296074485 10 13 6
-44.3298780498456 -379.248108273251 2858.97469701049 12 15 8
-51.5534277488761 -379.020070855779 2863.27992833717 14 17 10
-41.2074553158801 -373.543329185464 2879.12006883117 15 18 11
-45.0485335337363 -372.319943339716 2885.58765686678 16 19 12
-62.33468974093 -375.087695685049 2883.32371844674 15 18 11
-65.3469346636704 -373.613114375574 2890.34804550577 14 17 10
-78.4831846624714 -375.126448179681 2890.86334647593 14 19 13
132.511765015751 -395.215861393681 2743.82569431466 17 19 14
138.786936695503 -390.610968768807 2758.16908392942 16 19 12
71.9736497614072 -410.115867198911 2716.87144601674 17 20 13
99.4748533070058 -398.511484144954 2747.36180489606 16 19 10
93.9424667248865 -397.791778178277 2752.74917432824 17 20 11
173.985235666735 -369.163759117074 2822.07166790402 18 21 12
181.372759271359 -364.340317193289 2836.69508344058 17 20 11
124.327695351611 -380.414881144288 2803.61162623418 16 19 12
134.078189480515 -374.813713064217 2820.02469531792 13 16 9
127.100486402701 -374.627341877284 2824.09195556612 12 15 8
136.959185612048 -369.039696829258 2840.39957410364 13 16 9
138.048203471725 -366.287290244236 2850.24730900484 14 17 10
137.557214771571 -364.051988764478 2858.90662305003 14 17 10
142.745460498659 -360.024756693905 2871.58056770372 14 17 10
143.935623167897 -357.284717721882 2881.32969224163 14 17 10
144.346035888822 -354.804374771494 2890.4749314879 13 16 9
105.726659320352 -364.597377971342 2872.17427094344 14 17 10
79.1836963536072 -370.538881609625 2862.56763219284 15 18 11
44.3650231349397 -379.018157735349 2847.38387102206 15 18 11
68.7779622171352 -366.641670629314 2882.24371484249 17 20 13
44.4698994900743 -371.78835931576 2874.55137960837 9 11 6
11.8202870822763 -379.46434347702 2861.3460485814 5 7 2
-48.2558965288518 -395.500381089177 2829.84993454295 6 8 3
-45.5681134808374 -392.229797583638 2840.86764213291 8 10 5
-42.0094735482337 -388.71076424951 2852.4011023464 9 12 5
-46.7382960634697 -387.728156235949 2858.36857329131 10 13 6
-57.307526126142 -388.515863066285 2860.47826612069 13 16 9
-49.4863797713712 -383.743695472616 2874.67866617984 14 17 10
-51.6691636539859 -382.007589838774 2882.25758230113 15 18 11
-56.3580235445671 -381.029636451659 2888.18605772075 15 18 11
-63.5703522179001 -380.807567260319 2892.48136634625 14 17 10
-73.3239155962693 -381.339263934209 2895.16016122875 13 18 12
77.8132060729764 -421.195731535548 2702.79123847699 14 16 11
82.3830724414436 -417.056871721257 2716.06274444335 15 17 12
122.396695008275 -401.140672317641 2756.16303998709 19 22 15
96.4070681871729 -407.228385852763 2746.02854002296 16 19 10
139.870971895687 -390.303584486735 2788.22155957177 17 20 11
124.151915091809 -392.992449198131 2785.80705588013 18 21 12
110.765930599248 -394.891887301272 2785.21016578141 17 20 11
174.57389544143 -371.508380575646 2841.67173588942 15 18 11
144.538903559925 -378.888926973929 2828.66053893374 13 16 9
157.094529595619 -369.957360473155 2855.9656079956 12 15 8
157.42828674948 -367.44904404991 2865.18283288607 13 16 9
155.372014775808 -365.72213532175 2872.63748011023 13 16 9
142.829933987319 -367.365083628841 2872.58158139606 13 16 9
157.786574505547 -360.203309476849 2892.09634484862 12 15 8
145.242086112769 -361.845364578899 2892.04270490578 13 16 9
122.899412474563 -366.582500577821 2885.17199617972 14 17 10
93.9515326947054 -373.373203341759 2873.8282586825 15 18 11
67.3443624680887 -379.375753583772 2864.29440135148 16 19 12
56.2074021948895 -380.471424960716 2865.59646638028 17 20 13
-17.1935897886768 -398.588541451708 2833.4695598788 11 13 10
-7.07225564575964 -392.980891244 2849.51308344897 6 8 3
-32.4471844141567 -398.413898653175 2841.50557042953 7 9 4
-104.347425226536 -418.186476396477 2802.46509716714 8 10 5
-57.7094212767442 -401.306078761217 2842.92966042428 8 10 5
-54.9775838753548 -398.013834893495 2853.90041999802 9 11 6
-58.0510331366817 -396.515144470882 2860.98196055365 12 14 9
-56.9276596688812 -393.74165339194 2870.79246354912 13 16 9
-50.7394347983574 -389.442137565258 2883.85008002845 12 15 8
-36.088306773248 -382.602013410122 2902.29885231433 12 15 8
-73.591908096577 -391.553497777189 2887.01690013643 14 17 10
-73.232611311286 -389.04434862777 2896.20830287678 16 21 17
74.76965406889 -430.057508240331 2701.455322223 22 24 19
87.9613543614486 -422.969700659647 2721.31638247749 20 23 16
98.887568781814 -416.687417525976 2739.29509405943 21 24 17
132.760211841209 -402.75067410221 2774.45008553803 17 20 11
105.17985706269 -409.434561581485 2763.14915972205 17 20 11
109.183477815474 -405.552255747401 2775.60396520394 17 20 11
157.71147204495 -386.917632780001 2821.01735086677 17 20 11
161.918369466032 -383.061189075195 2833.27412202347 15 18 11
160.585766902339 -381.051736912781 2841.38564218925 14 17 10
154.472699537753 -380.621337322993 2845.97514841891 13 16 9
133.920816561402 -384.915643273962 2840.0952023246 13 16 9
155.100522025271 -375.561947605031 2864.44235547513 13 16 9
147.397378585817 -375.657467367467 2867.85474276791 14 17 10
163.110056169782 -368.160076407761 2887.98605553803 13 16 9
156.251040316356 -367.998043674735 2891.93905483075 13 16 9
152.631911530991 -366.789753392998 2898.18847491665 12 15 8
136.816687010089 -369.497423785111 2895.87224666103 13 16 9
111.980375633852 -375.066664306827 2887.34967596149 14 17 10
84.5994182498559 -381.40501139735 2877.21692202627 14 17 10
-27.8062678590274 -409.68754717786 2827.22736178773 10 12 9
-19.3610604775398 -404.544196106446 2842.17010858384 5 7 4
-96.7917979390722 -423.806308106702 2808.54571579393 8 10 5
-51.800237682083 -407.275896039566 2847.86313105561 8 10 5
-42.3911488416797 -401.89056110179 2863.22987352218 8 10 5
-37.9209984076612 -398.063530617289 2875.22957780657 10 12 7
-44.2830376762644 -397.595978255913 2880.06116349597 12 14 9
-57.3588421252857 -399.189627707151 2880.52797391722 12 15 8
-64.5834030065213 -398.976440896021 2884.83640427591 12 15 8
-74.3428508623545 -399.53373835696 2887.52516415866 13 16 9
-79.0534074507221 -398.546975967215 2893.47388275318 15 20 16
106.15878188711 -427.15877938701 2726.53745023702 25 27 22
94.3239661996165 -428.576114546941 2727.16312845735 19 22 15
97.4009651949923 -424.911552509327 2739.15301832065 20 23 16
112.347183242444 -417.247393727404 2760.02078852958 18 21 12
163.749917837137 -397.32623735303 2808.05767839244 16 19 10
167.896895529213 -393.430265672436 2820.36777066627 17 20 11
