ply
format ascii 1.0
comment KinectMotionCapture
element vertex 762
property float x
property float y
property float z
property uchar red
property uchar green
property uchar blue
end_header
84.8181060998172 880.768860597474 2745.71453218873 208 173 143
82.0348849164398 880.812615460404 2752.72291081291 217 184 153
78.430671636962 881.053823653793 2759.10045389129 228 197 169
72.3295757710529 881.892105123794 2763.61778748202 229 197 172
62.8777558190814 883.529028314318 2765.67676345463 229 199 175
50.0515362435818 885.967427072392 2765.29979744247 224 202 181
40.5536742800794 887.609990721477 2767.40332231385 234 213 196
31.8796516880719 889.054611120235 2770.13526559642 128 115 99
92.0541722134218 881.167737598753 2610.93909739411 115 93 79
99.4293567740634 878.749577651986 2626.64473353568 116 90 75
106.063225293384 876.516336874351 2641.64260501678 115 88 69
107.920365012133 875.434523795943 2652.71152670848 119 90 72
107.389300846939 874.928286393859 2661.81583453234 131 98 79
110.120835002756 873.64452858679 2673.46322628252 132 97 78
106.397926743151 873.906551120141 2679.95522103845 146 109 90
102.683351010341 874.167333261703 2686.43946264344 150 113 94
99.7924249525464 874.232626826987 2693.55161038929 150 113 94
104.270831479517 872.545574981209 2706.35775736964 164 128 106
104.699195224379 871.826483085679 2715.95804605674 166 130 108
106.797497923792 870.713926806587 2726.79169533324 176 141 121
103.991395204164 870.768350135829 2733.8212188665 178 146 125
102.847827475335 870.430334330617 2742.09197938724 186 155 135
95.9336318554631 871.459825950391 2745.97156295913 199 168 150
91.4993915998057 871.902234130707 2751.72635066499 221 193 169
88.7315761160501 871.951771776681 2758.7185765089 227 200 173
80.1449174529498 873.374705206452 2761.36697144313 232 206 183
74.0478857296312 874.209453878643 2765.88112926816 230 203 182
61.2524573146773 876.619734733994 2765.47774299215 229 204 184
50.9388959203543 878.442868061702 2766.94767201923 224 203 186
41.4433684087228 880.071325672729 2769.05130145365 226 207 192
56.3653011577734 875.972277515198 2788.84762769389 168 154 141
89.705722960034 874.20043442087 2610.04984079097 97 79 65
98.678615705702 871.445595631543 2627.05284654967 117 98 83
103.702225772935 869.632936338814 2640.75341024046 99 77 63
108.776600783784 867.813936287147 2654.4045007532 97 74 58
106.631544320817 867.704632830517 2662.21870364671 118 89 73
110.170662401067 866.256765227984 2674.50565513747 119 87 72
107.259403143735 866.332700845379 2681.63642116038 140 111 95
105.173660803426 866.215625056992 2689.39287300051 145 116 100
104.734994135344 865.7131893148 2698.40486686017 157 126 108
108.40732306471 864.248305530707 2710.56171515074 159 130 112
114.580747488653 862.201987862355 2724.57194011154 168 139 123
119.987563589744 860.341137297818 2737.89909719481 168 142 127
122.152035201861 859.244226650367 2748.66506518731 173 150 136
121.050718180932 858.914047558303 2756.89237402574 220 200 189
115.006322976254 859.7398018079 2761.35559238138 234 214 205
108.958486036116 860.565754067633 2765.8221991654 232 215 199
102.907163766349 861.392027770892 2770.29221942405 232 215 197
92.6874762970513 863.187464184432 2771.67302384768 233 216 200
86.6192569864541 864.015763128427 2776.15918594597 233 216 200
77.2004878095176 865.621276145769 2778.18998442027 232 214 200
70.2788003225603 866.645697414128 2782.07775692265 228 212 199
59.9869862707036 868.449813747658 2783.52890122061 227 210 200
61.4692439570392 867.527966824605 2793.52953406666 220 208 196
84.1571397468996 867.964801098464 2606.56224891855 101 87 76
93.9179066571247 865.072232654715 2624.22014968542 111 95 82
101.341121931721 862.733037683152 2639.86675747115 104 86 72
110.438596111613 860.010422042542 2656.7416272987 104 85 71
109.912769997823 859.535190560669 2665.83615099861 108 85 71
113.459106448341 858.115674543713 2678.11140634702 120 94 81
116.23692589386 856.879035746614 2689.70587195121 109 85 73
119.867361275401 855.448917723126 2701.89918278985 125 103 90
121.909910514989 854.39114176507 2712.78043741061 127 109 97
131.344693219186 851.626428845054 2729.3262390047 164 150 139
137.572216994248 849.610664291969 2743.278564615 248 237 231
143.854164639142 847.588110752068 2757.17751208531 255 253 248
145.251112647945 846.698142347173 2767.2578092292 255 252 252
141.728365648886 846.945002004619 2773.5536198029 255 254 255
133.250958426121 848.332815839216 2776.09871710268 255 253 255
124.758415634965 849.722478783876 2778.65857094795 255 255 253
119.574785683671 850.35060110834 2783.71315591247 255 255 251
109.393851880016 852.124935579272 2785.05859623114 255 254 251
105.034140401175 852.563019542135 2790.74001487734 255 255 250
93.9843725211991 854.532641918431 2791.50244749268 255 250 247
86.2626900250931 855.738601514851 2794.74088626192 255 250 244
71.8045240109801 858.481775494005 2793.10560290789 255 247 242
65.7299965697917 859.307921236769 2797.59834731531 255 252 245
57.9629934798387 860.519299370027 2800.88098924682 255 250 242
105.196331442943 854.973787022842 2634.35147265958 111 98 89
115.057697973578 852.119308558078 2651.90384683398 91 77 66
130.634039833475 847.959946161394 2673.89340604885 98 81 71
135.002957148512 846.382685382092 2686.79238820551 87 69 59
141.038072332027 844.428399356637 2700.92635405001 102 84 74
150.374539751007 841.724068227334 2717.56119761538 92 75 67
158.153911308665 839.382962371706 2732.85441937491 143 129 120
160.286928608429 838.338266578085 2743.64356678997 255 253 244
162.455510672259 837.288897336465 2754.39842644413 252 243 236
164.659232625533 836.235157122256 2765.11903769645 255 251 247
162.791686323542 836.111744064953 2772.65975429058 255 252 251
162.586506202659 835.612070612796 2781.43948429204 251 251 253
157.45391594096 836.233994448705 2786.4443022242 250 249 254
150.667335377531 837.231122766786 2790.2019454404 254 255 255
140.557294438545 838.980716420189 2791.48064477849 247 251 254
132.917400995844 840.168581321758 2794.64054019663 248 252 253
123.600577872782 841.734411603104 2796.57596982344 252 254 253
118.438910724174 842.359470323182 2801.60919819962 255 255 255
107.420182620621 844.306309617985 2802.34417518761 255 254 253
96.3746474513405 846.256528369369 2803.10527250595 255 254 251
82.7805036857456 848.777895390329 2802.06169457582 255 251 248
70.8330418763396 850.924756424802 2802.27210757745 254 246 243
57.1660694566329 853.454950841854 2801.29954489217 255 254 250
48.5395570597347 854.849650049884 2803.99168817886 247 242 236
156.57025563283 835.852216866716 2676.85118154306 68 61 55
164.947444829167 833.397871721064 2692.98440758533 134 127 119
176.614347537736 830.205386199847 2711.62830925907 255 248 242
185.131885860113 827.733347816803 2727.62478159721 255 253 253
189.667239928578 826.167609901461 2740.35644868108 253 249 248
193.438140339351 824.778975693017 2752.40448222147 255 255 253
194.811247565485 823.935001072096 2762.50165575379 253 252 248
190.507557218782 824.372201369984 2768.12791303492 251 252 247
187.025316929016 824.624876783907 2774.38230243924 251 251 249
181.09334438735 825.428674485413 2778.73712859681 255 255 253
175.157930648732 826.232611160342 2783.09535137362 255 255 253
170.042220235761 826.852348054282 2788.08373059552 248 248 250
163.276542802166 827.841534006327 2791.82179057303 255 255 255
159.812077616984 828.091365859708 2798.05928715472 254 255 255
148.894155928769 830.007347543463 2798.69838478154 251 255 255
142.104777038812 830.999036652161 2802.45994853211 251 255 255
131.976178795626 832.734517446034 2803.75916142208 252 253 255
127.668632608997 833.171037495191 2809.38901030772 251 252 254
114.99785448567 835.468646412028 2808.87883515475 253 251 252
104.808567851423 837.211247222454 2810.23726017884 252 250 251
91.2338879375545 839.703211761935 2809.17870003014 255 252 253
79.3059254714739 841.826090972684 2809.37329439867 255 254 255
60.5913616803115 845.449514437583 2804.74935419623 255 253 254
46.8940682172936 847.956287706092 2803.81036239071 254 254 254
45.8840538527006 847.654212476943 2811.94319044503 255 255 255
218.706838789386 815.191648417206 2718.81025299696 96 91 85
216.762872085992 815.100690301618 2726.42205935316 255 251 247
214.834871651019 815.00760144655 2734.01832589117 255 254 248
215.340184242214 814.372995180072 2743.52937845528 255 253 250
212.642189240178 814.454832116981 2750.44749770761 249 249 251
214.814218970278 813.453500617613 2761.19183382088 251 252 255
212.963498848154 813.350079662911 2768.71288694562 248 249 251
212.755812194517 812.883096084772 2777.49027442206 254 255 255
205.232552535304 814.041279362772 2780.53873770004 251 253 252
198.515472772431 815.019621300118 2784.23014221275 255 255 253
190.152470770202 816.361346279022 2786.66844535005 252 252 250
184.238277142819 817.159836286911 2791.00640125772 255 255 253
177.497244348626 818.140608196189 2794.72123233583 255 255 253
170.749153948422 819.121961946803 2798.44332356714 248 246 247
165.647775585973 819.739479276263 2803.41779890167 255 253 254
158.059666778171 820.904658443323 2806.52962435349 253 253 253
148.798492056019 822.436537643726 2808.41447440851 252 254 253
138.685433112277 824.153843034712 2809.70094286102 254 254 254
131.889027889901 825.140638979261 2813.47020707108 255 255 255
121.738154245554 826.862239763497 2814.79359122305 255 254 255
110.725766782696 828.770421733191 2815.52798539687 255 254 255
100.527276079667 830.497789528972 2816.89780163023 255 254 255
86.093221535692 833.148998883867 2815.25216756123 249 247 250
69.0833709443286 836.358521560337 2811.8304149423 245 245 247
50.3271494243487 839.944018424974 2807.25378485733 253 254 255
42.5378830870908 841.133200411875 2810.56181510327 251 255 255
49.1923557450882 839.176550508777 2824.0810991999 194 196 191
240.665471964094 803.750140701294 2728.45317821396 238 238 240
239.553854093668 803.489768933444 2736.68073629818 248 246 249
239.263681408655 803.050062152492 2745.53566428245 252 250 253
236.585868285488 803.137846353906 2752.43286362762 252 250 253
232.308758392586 803.577887490027 2758.03230625054 255 253 255
225.612616737592 804.54910821537 2761.70397142463 255 255 255
224.57677466761 804.278063296142 2769.85786050595 252 253 255
222.749086407479 804.182412166868 2777.35489427446 253 254 255
222.564383150141 803.728511718411 2786.10752521777 254 255 255
215.879664351652 804.697525816446 2789.76817346504 254 254 254
207.553004077758 806.024172891933 2792.17261723642 254 254 254
197.572565367486 807.709781313316 2793.33207663487 254 254 254
190.033101337354 808.861280023428 2796.39761906893 254 254 254
181.65933851869 810.193157497194 2798.84806331299 254 254 254
174.920611368919 811.167918767189 2802.56149322196 255 253 254
169.828800443183 811.784112031578 2807.52666364664 254 254 254
163.079529280754 812.759894659863 2811.25075080174 254 254 254
153.829936249928 814.276809942784 2813.12631172653 253 255 254
142.063009048607 816.337035444343 2813.17059372946 253 255 254
135.274161174626 817.317348633266 2816.93297368731 254 254 254
127.641298803869 818.479324374069 2820.08971355373 254 254 254
119.158618883294 819.823635264971 2822.64647643645 253 255 254
105.617125780047 822.257636509905 2821.56352824383 253 255 254
91.1947407692555 824.877549546432 2819.91059389606 253 255 254
73.3525045640198 828.22969258894 2815.87776179309 253 255 254
52.9131599583859 832.134756984533 2810.09077155237 252 253 255
39.1914447160682 834.590593561313 2809.18355935551 253 254 255
33.0839888506813 835.408847776647 2813.71050638123 253 255 254
37.1992975693183 834.035482448832 2825.41394280475 185 187 182
245.825475695121 796.067666652939 2724.46468453944 232 231 236
245.501370974992 795.648617840023 2733.35059213952 241 240 245
245.200992980943 795.226342020978 2742.21341569995 234 233 238
244.924255601648 794.800967989155 2751.05322169495 246 244 249
241.455846749873 795.069059659053 2757.29159776098 253 251 255
238.801539921219 795.16148749716 2764.16476868074 255 254 255
232.928560776211 795.950771884474 2768.46315858485 254 254 255
229.480842443542 796.215606528588 2774.68147004652 255 255 255
224.418335248462 796.829402906294 2779.61789569228 255 255 255
220.983351583572 797.09226529232 2785.82419078148 253 253 253
218.371888865398 797.17840741714 2792.65574589186 253 253 253
211.685585930228 798.141842275778 2796.31879181941 254 254 254
204.172767820017 799.282021052723 2799.35954754227 254 254 254
195.006364482687 800.775993492653 2801.15622865582 254 254 254
187.46725382066 801.919015112914 2804.2226731003 254 254 254
180.742075948568 802.886584180305 2807.92371138065 254 254 254
175.663744576238 803.500901226326 2812.87577371379 254 254 254
169.756876848519 804.292393899031 2817.20748909788 253 255 254
159.691966602573 805.971255495871 2818.45182715769 253 255 254
148.77143818953 807.830529905593 2819.10223245313 253 255 254
138.65895501758 809.514976043873 2820.39298573894 253 255 254
131.03384184573 810.667778208144 2823.54338638689 253 255 254
121.720364953127 812.178699448304 2825.4836086897 253 255 254
109.025427550768 814.406186750385 2825.00745015999 253 255 254
94.6110905206088 816.995528791099 2823.35138027031 253 255 254
77.6211458958054 820.127179843949 2819.92137012428 253 255 254
58.0382842926905 823.803295955963 2814.73496521696 252 254 253
41.7833379870984 826.769314424634 2812.016818458 253 255 254
31.4305997729378 828.482738176388 2813.54220351572 255 255 255
18.4980851289906 830.739232363494 2813.29767549401 252 252 252
3.82283354456536 833.360300490915 2811.89567066999 255 255 255
248.603989293881 788.895174134357 2718.51460492862 207 207 207
249.057633550112 788.324045368857 2728.06758296622 232 231 236
247.144982710137 788.261513276835 2735.64409085326 231 230 235
247.648160231114 787.683773205394 2745.14919661685 245 244 249
244.971349674029 787.787352600573 2752.04306587635 245 243 248
242.306447986597 787.889266824938 2758.92501772176 246 244 249
240.459703285292 787.817646584277 2766.43776090521 245 243 248
237.821057797692 787.915766008938 2773.29453866778 248 248 250
233.575241340761 788.356710591903 2778.86243507514 254 254 255
227.710796321534 789.141557893951 2783.15300626545 254 254 255
222.65630630256 789.754048735089 2788.08166369455 254 254 255
220.048345316259 789.847664271623 2794.90829912444 253 253 255
214.183353497611 790.631931849334 2799.19949897767 254 254 255
208.314855090757 791.416523550554 2803.49413301951 254 254 255
198.336753921638 793.069345464342 2804.65611703654 254 254 255
190.80539192001 794.203252544784 2807.71621407171 254 254 255
184.913110550454 794.990252778083 2812.0341089671 254 254 255
179.017385829915 795.77762813166 2816.35536771831 254 254 255
171.460220762253 796.914257379131 2819.44068524438 253 254 255
161.39919957699 798.576471239621 2820.68362193761 252 253 255
152.148132853474 800.066387675915 2822.56463667877 252 253 255
142.878358823693 801.558354583368 2824.46426283485 252 253 255
133.589497581133 803.052681806359 2826.38215617977 253 254 255
125.959018681639 804.197786832497 2829.53902270825 253 254 255
113.274078023451 806.399882598193 2829.05702796379 253 254 255
99.7120774116294 808.782158851246 2828.00208896155 253 254 255
81.8895004695208 812.051167214549 2823.96168434696 253 254 255
64.0093585316617 815.327078747278 2819.97742233869 253 254 255
44.3750460364303 818.96368537711 2814.84794841203 252 253 255
30.626997896904 821.368590313633 2813.97441284556 253 253 255
12.57998013992 824.664818531083 2810.15319603742 255 255 255
0.453750964779065 826.725241641167 2810.55390316337 255 255 255
-14.2709326004566 829.322631222275 2809.20482254783 216 216 214
256.940043716558 780.532656622156 2717.14073120647 198 198 196
255.79905973067 780.316439534733 2725.39092423497 215 215 215
253.085733350303 780.433231778316 2732.31910139357 240 239 244
251.182465827312 780.380249096512 2739.88488010946 236 235 240
251.694786887576 779.820003523737 2749.37798268213 241 240 245
249.027448733068 779.930349563636 2756.2614455987 246 244 249
244.764554894899 780.376513400832 2761.84552869458 255 254 255
241.311845014617 780.652873503824 2768.06743122103 250 248 253
239.482524515932 780.58950718576 2775.56131414556 247 247 249
236.859645585257 780.693422870496 2782.40157879932 249 249 251
231.002772132256 781.474603090296 2786.6851733056 251 251 253
225.142311123216 782.255953772316 2790.97196727183 255 255 255
220.093989322648 782.867313198555 2795.89466679149 254 254 255
215.046094309146 783.478441915024 2800.8169766041 252 252 254
209.998668599864 784.089334561759 2805.73885528168 252 252 254
201.666910211705 785.383601792726 2808.15314728277 252 252 254
194.143190039082 786.508466769971 2811.20699228767 251 251 253
189.083609808773 787.120301998944 2816.14080127106 251 251 253
180.716460736306 788.418500068565 2818.58965576861 251 251 253
172.334263822295 789.718241344753 2821.05322490999 249 250 252
163.93703763278 791.019818331098 2823.53144702697 248 249 251
156.357501052806 792.150776352152 2826.63981800027 248 249 251
144.592997437062 794.145784682194 2826.69099457437 248 249 251
133.634786921087 795.971538751349 2827.38377304676 251 252 254
126.843092611479 796.935391625253 2831.15175022662 251 252 254
118.36267034124 798.246644273844 2833.71081938097 252 253 255
103.970003921451 800.774167625655 2832.04236703006 252 253 255
87.8463488083487 803.653992569307 2829.20658554148 252 253 255
69.1336666130482 807.061824674843 2824.61264119529 252 253 255
48.6630363206988 810.825461933172 2818.87795881508 251 252 254
33.2244210655648 813.550977738651 2816.80163876174 249 249 251
17.7397182922849 816.28218567044 2814.77024300143 255 255 255
4.77150911621838 818.494163587768 2814.568077505 253 253 255
-11.6554100876924 821.411040412205 2812.02796548986 250 250 250
-20.4104853934188 822.755783994362 2814.8551570652 254 254 252
259.364788627828 772.978349198526 2720.10051279851 209 209 209
257.435058691271 772.939847632628 2727.69042877966 225 225 227
257.113384995264 772.568551944076 2736.56686444592 233 232 237
254.421607504793 772.690411492785 2743.47289429281 240 239 244
255.741407994038 771.982167787488 2753.60327907482 242 241 246
253.083478466378 772.09928851205 2760.47639779041 243 241 246
251.24134517615 772.048505651672 2767.9811441768 253 251 255
246.192482218016 772.660994738298 2772.90421411061 255 254 255
241.951613599518 773.106563793168 2778.46651374634 248 248 250
240.953485843111 772.884131173423 2786.57576708013 246 246 248
235.106015721935 773.661308488072 2790.85027772454 246 246 248
227.628320675429 774.773353976509 2793.86031381368 255 255 255
220.955003559499 775.718922301105 2797.51344313868 255 255 255
216.726154653188 776.162032579045 2803.06417042868 250 250 252
211.682493327576 776.772273758926 2807.98240730414 250 250 252
204.175683185069 777.886987197783 2811.0209607921 250 250 252
196.657755883752 779.0029841935 2814.07036407396 249 249 251
190.778855877288 779.782577517192 2818.37606581599 249 249 251
181.588426561288 781.23837264169 2820.20190983008 248 248 250
172.379268141937 782.696279954043 2822.04637778222 246 247 249
164.812879362439 783.817501756708 2825.14313180411 245 246 248
157.2353096484 784.940015156178 2828.25079776185 244 245 247
147.142253039144 786.573539892188 2829.52978634475 247 248 250
135.353328788015 788.549795327641 2829.60832248241 248 249 251
130.242611191349 789.166897857654 2834.59213312176 249 250 252
123.451140021036 790.125192569525 2838.36037237293 250 251 253
112.440151020026 791.938258430249 2839.10743597283 251 252 254
92.1140459390113 795.636088146307 2833.2389642473 251 252 254
72.5648788674364 799.170926012406 2828.03964319311 251 252 254
51.2541112596461 803.056650278169 2821.70427586255 250 251 253
36.6716336568658 805.577392624886 2820.22497320987 253 253 255
21.1950897468967 808.275185078667 2818.19075221273 250 250 252
7.38061503374432 810.634212819909 2817.38995984526 255 255 255
-9.89633914435917 813.687705432801 2814.25650621174 247 247 247
-20.3632114351677 815.366278628321 2815.90037899178 255 255 255
-28.2734840612431 816.529083389143 2819.33246881381 224 224 222
262.581417008514 765.277433110532 2723.71252041352 221 221 221
263.835498238255 764.599410765582 2733.90369868786 230 230 232
262.7328592308 764.404849725351 2742.11227598963 238 237 242
260.054380686786 764.532993522122 2749.00417097698 239 238 243
258.987776824631 764.33340489073 2757.17804576453 233 232 237
257.940820492703 764.13111653857 2765.33247143969 238 236 241
256.110236443371 764.089597001377 2772.82471798601 225 223 226
250.266993291217 764.864295468143 2777.09539756033 253 251 254
242.805203736626 765.96690574446 2780.0910337811 254 254 255
240.189577932207 766.085769671707 2786.92188662955 247 247 249
235.151628163236 766.696057413865 2791.83444496296 238 238 240
230.114147698484 767.306109086289 2796.74657216134 248 248 250
222.631024225619 768.41034740311 2799.76315265465 255 255 255
217.588679316264 769.020599534284 2804.68008069072 247 247 249
210.908443237815 769.961143221395 2808.34082328701 247 247 249
204.220749465278 770.902463200773 2812.00851890613 246 246 248
198.34903675513 771.678614792025 2816.30759224323 245 245 247
191.648719157348 772.621113423375 2819.98764930318 245 245 247
182.460409553416 774.063065456485 2821.81377225671 244 244 246
174.082066208491 775.340738338568 2824.27677644604 242 243 245
167.350312560249 776.286610295312 2827.98755139279 240 241 243
158.945782956393 777.567112620804 2830.47614073384 240 241 243
148.02203387056 779.351136043131 2831.14086626804 242 243 245
137.908316973495 780.970636127631 2832.44244365951 244 245 247
131.964614683803 781.75469681063 2836.81149691099 246 247 249
126.858171676657 782.371083554234 2841.79116861267 249 250 252
115.012581595153 784.332487245712 2841.92816983885 250 251 253
95.5369126346324 787.812758410428 2836.66426685051 250 251 253
70.9180074641438 792.312457563264 2827.85487084793 249 250 252
53.8449164810935 795.303440395534 2824.52855480833 248 249 251
36.7178763728448 798.300942566029 2821.25450965024 248 247 252
21.2415850479486 800.966388260537 2819.22481866929 251 250 255
7.4273149926829 803.298323510046 2818.42782733196 253 253 255
-7.2813329107615 805.804779588766 2817.07592515715 250 250 252
-20.3160187416711 807.976370725208 2816.94574111026 255 255 255
-29.9459698597118 809.471358129285 2819.2022441693 248 248 248
-32.7004749740794 809.605076403061 2826.16881075962 247 247 245
266.590089168994 757.437658995689 2727.97578716207 222 222 222
267.059268737745 756.939580104484 2737.50254166517 225 225 227
265.964264957236 756.757370439452 2745.70204938784 228 227 232
262.495225737525 757.052667237426 2751.93703051249 240 239 244
260.634143672945 757.02603266811 2759.45702420505 233 232 237
257.987336332575 757.157613878563 2766.31696117075 241 239 244
256.960155490643 756.965969522065 2774.45051415609 214 212 215
252.730036148096 757.415667560765 2780.00152933988 232 230 233
246.081660239589 758.348243855843 2783.63181189351 254 254 255
241.04498436972 758.958547909257 2788.54310281548 250 250 252
235.19718275239 759.730164975748 2792.81876444272 243 243 245
231.786406276729 760.016275757546 2798.99758533242 231 231 233
223.491757461264 761.274139508582 2801.38040739768 255 255 255
219.268453249068 761.721622108804 2806.92498249713 247 247 249
211.772652713559 762.818908090961 2809.95517905308 247 247 249
205.90808532108 763.591564273021 2814.24767360405 246 246 248
199.216914321485 764.527661604779 2817.91959406608 244 244 246
193.343677199101 765.300997962264 2822.22059725738 243 243 245
185.812977080588 766.401916996646 2825.28491265163 243 243 245
177.442364650262 767.667765010032 2827.74198763891 240 241 243
169.056766538601 768.935325300184 2830.21369055552 239 240 242
159.823180845287 770.368786654496 2832.08569041173 238 239 241
148.901475913724 772.133564416571 2832.7512305707 241 242 244
139.626289877556 773.57197531097 2834.66380864247 243 244 246
132.8481174566 774.517671233367 2838.42104197652 244 245 247
126.902933271827 775.298911322638 2842.79198365424 246 247 249
116.742425767724 776.907785797303 2844.14193311268 247 248 250
98.1152295745411 780.176230023401 2839.48370137038 248 249 251
74.3487282107207 784.447508178021 2831.27852562844 248 249 251
56.4354509080269 787.565950358694 2827.35077927073 247 248 250
39.3144516663635 790.525068870675 2824.07640853079 247 246 251
22.1399666248003 793.49056326672 2820.85454546992 247 246 251
8.3278128838371 795.795341936308 2820.05946633185 247 246 251
-2.95458819774685 797.603468301566 2821.07677619524 249 249 251
-18.5533241470912 800.251517488111 2819.17090789072 251 251 253
-28.17898663969 801.732329405981 2821.42558525396 253 253 253
-35.2385876033097 802.712278560451 2825.45688083641 254 254 252
264.616437131022 751.195961598352 2718.10497557572 210 210 212
269.014278108482 749.93731916854 2730.92814445511 223 223 225
270.282894892211 749.300229823157 2741.09850098803 224 223 228
268.399429609916 749.287549084384 2748.63899701859 229 228 233
264.935911671711 749.587457031477 2754.86781390326 231 230 235
262.280589285151 749.728367334509 2761.7348275999 234 233 238
259.63740716164 749.867570258003 2768.5900381858 239 237 240
257.006302602462 750.004955768476 2775.43352418464 220 218 221
251.970452586054 750.615509522897 2780.34395811621 207 205 208
248.550204171458 750.908770244576 2786.53112802331 249 248 253
243.519184160114 751.518243349502 2791.43692540797 250 249 254
238.488612194413 752.127483064676 2796.3423123716 255 254 255
234.271892474311 752.57708402637 2801.88003588016 246 245 250
226.798249067908 753.663969771726 2804.88976722982 237 236 241
220.948094195422 754.432568211228 2809.16854966797 250 249 254
213.456066966393 755.521240810094 2812.19627232909 248 247 252
207.595077517106 756.290687438628 2816.4853504582 244 243 248
200.907908243116 757.220783150516 2820.15452202633 244 243 248
195.038205469755 757.991033387866 2824.45213384202 243 242 247
188.338497404828 758.9222970318 2828.13358399507 239 238 243
180.802431558672 760.01551892805 2831.20436526984 237 238 242
170.762834340023 761.594067758378 2832.43839330244 235 236 240
159.03508346854 763.498394265285 2832.46681443403 235 236 240
148.94610688334 765.082696398761 2833.74902657188 237 238 242
142.180869692278 766.021290566945 2837.49412682561 239 240 244
136.246974335265 766.798440885004 2841.85480083888 240 241 245
128.628626230279 767.900974328513 2845.00591337041 243 244 248
115.944627818824 769.98142959557 2844.54062353159 243 244 248
101.537611149578 772.392116745463 2842.90368953015 244 245 249
79.4718765211782 776.276809404335 2835.90092092285 243 244 248
61.5702365160704 779.353521848162 2831.9674483515 243 244 248
41.0607293606464 782.928288588993 2826.29928625104 243 242 248
25.5944269822366 785.527858222167 2824.26907470966 243 242 248
12.6442410539651 787.640514372256 2824.06335373356 244 243 248
-0.340172018872487 789.757295453375 2823.89134899698 245 244 249
-16.7906826481441 792.536859513634 2821.39495838255 246 246 248
-29.8518345793433 794.663091909783 2821.2974217245 248 248 248
-37.7768045533053 795.802982597716 2824.74749292021 254 254 254
267.82520586881 743.525638694123 2721.72026627311 211 211 213
269.062139155072 742.914113109608 2731.91864451667 221 221 223
269.536441841263 742.452656666383 2741.4348989066 222 221 226
267.650543096543 742.450969099717 2748.9758487733 229 228 233
265.780654752921 742.446968323466 2756.5012419664 228 227 232
263.127002871141 742.595628824401 2763.36545135122 236 235 240
259.683783859655 742.897682237454 2769.57413184465 237 235 238
256.248814791609 743.19851870757 2775.77479988592 227 225 228
251.210775680267 743.809289463365 2780.68737554842 204 202 205
251.018441550673 743.484562274284 2789.42815446736 246 245 250
247.612072269431 743.781026692097 2795.60106868498 244 243 248
244.213994910275 744.076327843725 2801.76592083162 250 249 254
235.130377576274 745.466470209284 2803.49540241771 247 246 251
228.473989669871 746.388144841054 2807.13525226476 239 238 243
222.627391481999 747.153536407013 2811.41063899502 249 248 253
216.777626007724 747.919019377706 2815.68949521991 246 245 250
210.103197943897 748.842332638783 2819.34667917928 240 239 244
202.598514372295 749.924109259719 2822.3879889982 241 240 245
195.9079103884 750.848976964024 2826.06134398128 238 237 242
189.209827451842 751.774623640579 2829.74167270117 236 235 240
181.675663618873 752.859527028616 2832.81179472061 235 236 240
170.80729773392 754.580194320354 2833.43088792605 234 235 239
159.91229592887 756.304101555395 2834.07595213169 234 235 239
150.659889543951 757.712750927925 2835.97030841296 236 237 241
143.062125136443 758.804833577474 2839.10286349339 237 238 242
137.129980023498 759.578945783696 2843.46191067804 238 239 243
128.673180061292 760.832956106744 2846.00632076402 241 242 246
117.674105417374 762.568980906723 2846.75293986633 242 243 247
104.959760114237 764.628848787507 2846.32082774626 242 243 247
86.2870930940613 767.816753940708 2841.71965284715 241 242 246
65.8567229978466 771.333602541862 2835.98146675278 240 241 245
47.0574043758862 774.536707547136 2831.50381223499 240 239 245
30.7528284112655 777.263554367097 2828.87029792634 241 240 246
18.6685985086892 779.188879376541 2829.24960443604 241 240 246
3.12984707419606 781.764972603358 2827.29480568095 242 241 246
-13.3126060979354 784.508552379014 2824.79573235402 243 242 247
-28.9452321778727 787.096126183537 2822.93245568521 245 245 247
-42.038392159228 789.202026539749 2822.87004640275 243 243 243
-49.9840776305178 790.336273109568 2826.34152259173 243 243 241
269.453719209586 736.17792865918 2724.02327326357 211 210 215
270.69411349281 735.587372445018 2734.21511542221 218 217 222
271.171923205894 735.144167003322 2743.72518979254 220 219 224
268.493745876827 735.304469806421 2750.61203258189 225 224 230
267.423296645438 735.158922677275 2758.78140072552 226 225 231
264.773248721941 735.315207571232 2765.64090444454 237 236 241
261.333680237176 735.62210797177 2771.84524352833 233 231 234
257.902130840964 735.927774601382 2778.04146404747 236 234 237
252.867769463461 736.53808172039 2782.95045619121 220 218 221
253.486685276969 736.075672360816 2792.32324844856 233 232 237
249.27650049106 736.530215397305 2797.85409007636 238 237 242
246.693451268202 736.676638788646 2804.64852062099 252 251 255
237.615547719739 738.052615948312 2806.37442194483 248 247 252
232.595355863249 738.659898428695 2811.26979058501 254 253 255
225.94110436808 739.575773700103 2814.90803824506 242 241 246
220.098974235763 740.337581548604 2819.17985564397 239 238 243
211.790107914963 741.564156130439 2821.58142042774 235 234 239
203.466256451336 742.792383952325 2823.99762133171 236 235 240
196.777298854387 743.711632009269 2827.66983416765 236 235 240
190.908114092525 744.476024960134 2831.96813513664 235 234 239
181.720046186703 745.863826178558 2833.80168370514 235 236 240
172.513334211838 747.253728864911 2835.65377335576 234 235 239
159.956724444542 749.270772801586 2835.07135687708 234 235 239
152.373725401814 750.352987319801 2838.19037039551 235 236 240
144.7795879417 751.436488074857 2841.32025442183 236 237 241
138.01302521447 752.36415017065 2845.06862455007 236 237 241
128.717569208765 753.764368957687 2847.00697577803 239 240 244
117.718624370161 755.48150736917 2847.75625738172 240 241 245
104.16008910933 757.674764452584 2846.72581418544 240 241 245
85.485816893538 760.819824722868 2842.13256572429 239 240 244
65.0538055716004 764.288466820062 2836.40313429156 238 239 243
50.5033350298727 766.657103444869 2834.91452931337 239 238 244
35.9108992215131 769.030840513946 2833.46718046388 239 238 244
22.9842852784716 771.092052665386 2833.24565555852 239 238 244
4.8878942420405 774.111690677418 2829.51434705832 240 239 244
-8.97683502368496 776.341956222056 2828.78248920088 241 240 245
-28.0385913506791 779.533978018979 2824.56707729709 242 242 244
-42.8533382913141 781.934810475344 2823.3361441599 242 242 242
-56.846381097392 784.180898167603 2822.72936503834 248 248 246
269.08169821131 729.553592915903 2715.4527286362 200 201 203
268.711881391721 729.285311183776 2724.3617457181 211 210 215
270.74192097036 728.567711268904 2735.20514474648 217 216 221
268.837457721199 728.589946643493 2742.76099364026 220 219 225
268.540862980263 728.31160854133 2751.59878644272 222 221 227
267.470121977514 728.179425149384 2759.7664691651 225 224 230
265.619513704757 728.194104653733 2767.26995602551 235 234 239
262.181618160537 728.506160316743 2773.47187190907 234 232 235
259.555545297264 728.666911814374 2780.30690787679 233 231 234
254.524862730616 729.276637223167 2785.21233288349 224 222 225
252.724751656097 729.284066220913 2792.66674690126 210 209 214
248.512206644812 729.741573436414 2798.1991563214 233 232 237
244.304318042007 730.19812678677 2803.72742068192 236 235 240
237.660549742843 731.107727103326 2807.35618580895 251 250 255
232.640188356245 731.714971986847 2812.25172835184 241 240 245
226.803224878403 732.473710774571 2816.51886879232 235 234 239
220.962631327368 733.232625384478 2820.78925012071 234 233 238
211.834624321662 734.60034054299 2822.56646388041 231 230 235
203.510744391991 735.817721689401 2824.98429618547 231 230 235
196.821709324797 736.731495411838 2828.65739505476 233 232 237
190.952443041404 737.493186073769 2832.95617637296 234 233 238
181.764327846724 738.867548361268 2834.79175816812 233 234 238
171.726704975982 740.397257980651 2836.03104405811 233 234 238
160.833705446376 742.083231716936 2836.67972652918 233 234 238
153.252608416836 743.157127726939 2839.79808079229 233 234 238
143.987416325256 744.540191274034 2841.7092528851 233 234 238
137.218651644007 745.462777835817 2845.46022190595 234 235 239
127.080973805469 747.00409850365 2846.79714775016 236 237 241
118.605325406032 748.238666505902 2849.36314817946 236 237 241
101.671744435791 751.024599984953 2845.92860283967 236 237 241
82.145740157046 754.282535607235 2840.74754466249 235 236 240
60.8579660419988 757.859267037536 2834.43467561787 233 234 238
48.8485315773786 759.732410494376 2834.74742156269 234 233 239
35.956449765945 761.765092103077 2834.49582254193 234 233 241
23.0299715767579 763.80210992173 2834.27773874281 234 233 239
5.78972998994054 766.624992748169 2831.14225083114 235 234 240
-8.07283990582075 768.82803731621 2830.41227193586 235 234 239
-25.4127809882085 771.663135035266 2827.37398174133 237 237 239
-42.8065441828402 774.504795049373 2824.38782995357 239 239 241
-56.7993398138778 776.723784889936 2823.78481043419 239 239 239
-61.3090461040096 777.214790057051 2829.60769225644 246 246 246
273.070748470762 721.765485492658 2719.72750606609 201 201 203
272.710288299548 721.512004758308 2728.62504427682 213 212 217
273.165516896045 721.109386074105 2738.1515433247 215 214 219
272.060611911087 720.995354231273 2746.35080643741 217 216 221
271.771438210995 720.732179078625 2755.1789889593 218 217 222
269.910376848753 720.759144562721 2762.69104002964 224 223 229
268.865172410396 720.63687889147 2770.83223657329 233 232 237
265.434543263449 720.953397710765 2777.0259393224 235 233 236
262.815987013662 721.121162411408 2783.85247463347 228 226 229
259.404110327338 721.434773427729 2790.02832352598 224 222 225
256.00023093248 721.747212389819 2796.19606637694 198 197 202
250.17648572476 722.502456770944 2800.45059735156 232 231 236
243.537909389934 723.406213301167 2804.07507049033 218 217 222
238.518778846777 724.013538892621 2808.96937885888 246 245 250
233.500203180655 724.620558657702 2813.86318142734 215 214 219
227.665008215999 725.376302961394 2818.12900829152 229 228 233
220.188114576016 726.430752813987 2821.14676118195 228 227 232
211.879126470383 727.635760158242 2823.55163452816 227 226 231
203.555195739077 728.842415382587 2825.9711025666 226 225 230
198.516010023318 729.450853995375 2830.88516151395 230 229 234
190.99669287956 730.509708503477 2833.94439056461 232 231 236
182.637521889508 731.720098696463 2836.39830067419 232 233 237
170.109582396392 733.685468695944 2835.79505157478 232 233 237
160.045365940798 735.202137525491 2837.06267271069 232 233 237
152.462259884767 736.268149107152 2840.18418728186 232 233 237
145.704640646461 737.184023414376 2843.92508078141 232 233 237
139.778373142208 737.949008043361 2848.27997830767 234 235 239
130.487094697356 739.32162045321 2850.21859920842 234 235 239
119.492192957597 741.00056808772 2850.96951053535 235 236 240
100.872061683535 744.053180295985 2846.3361631019 234 235 239
78.8056511596524 747.723311633833 2839.36577773835 233 234 238
60.0549997612814 750.791552414076 2834.85972882167 232 233 237
46.3434767704118 752.949431929589 2833.98643349198 232 231 237
36.0018340113144 754.498951875062 2835.52468766781 232 231 239
20.5136677442326 756.972018131161 2833.53488443497 232 231 237
5.8355521169462 759.296880050411 2832.17984063805 233 232 238
-8.02677114228212 761.472885803471 2831.45361315409 233 232 238
-22.7873223880861 763.807858236061 2830.17859697353 235 234 239
-35.8662543402226 765.839138422414 2830.11308787624 232 231 236
-50.707075280632 768.183935281309 2828.91632864311 235 235 237
-58.6655889605465 769.295209050015 2832.40393880287 239 239 239
275.076246102478 714.666165654065 2713.11731852996 193 193 193
275.483531122708 714.288814856875 2722.68769167514 203 203 205
275.918708176192 713.907580974838 2732.23127937921 214 213 218
276.381312322108 713.522784572259 2741.74782027204 215 214 219
272.107985501151 713.995325403963 2747.33836496579 218 217 222
271.818473461258 713.748291394052 2756.16449781026 220 219 224
269.957060064704 713.785915646433 2763.67532309458 221 220 225
268.911563316478 713.677072749097 2771.81482602612 228 227 232
266.282304299503 713.854514346046 2778.65022126019 229 229 231
262.861873562613 714.174746806049 2784.83358580487 226 226 226
260.255214270209 714.3488545601 2791.64736976087 226 226 226
254.430768888191 715.101710518608 2795.90294902674 197 196 201
249.412356828593 715.709417284404 2800.7964875931 198 197 202
243.583008012786 716.462373717125 2805.05658334917 225 224 229
239.377155900366 716.923800623414 2810.58210513519 215 214 219
233.54496220478 717.676702916649 2814.84503390073 217 216 221
226.892515055801 718.576062287531 2818.48426870322 208 207 212
218.594506657511 719.769247982929 2820.87998627227 222 221 226
211.923572382481 720.670361299444 2824.53698198982 212 211 216
205.245390548182 721.572211379483 2828.20106574754 218 217 222
198.560235603672 722.474691617648 2831.87231861168 222 221 226
191.040864684007 723.525474175829 2834.93279409329 223 222 227
183.510421276718 724.577298784051 2838.00411070424 227 226 232
172.646015809974 726.222281548382 2838.63045729595 229 228 234
162.587600609988 727.722179516679 2839.89479642526 230 229 235
154.175792099145 728.927706584373 2842.40169513891 231 230 236
147.421985171696 729.837675157202 2846.13967582238 230 229 235
141.499483409861 730.599531457329 2850.49129627639 230 231 236
132.21192289525 731.958243308468 2852.42794187197 230 231 236
120.378680819278 733.767130141856 2852.57522327113 230 231 236
101.760726760801 736.776597540651 2847.94609061442 228 229 234
80.5427588228689 740.242866536299 2841.5802293036 227 228 233
60.0999962810969 743.567918620094 2835.88269653237 227 228 233
45.5385180401322 745.849017949962 2834.41796033622 227 228 233
32.6391372320054 747.834252237549 2834.1809598624 223 224 229
17.1434865049465 750.275829174186 2832.20324291663 229 230 235
4.16953682884635 752.270064308556 2832.03862226783 225 225 233
-9.69653802186743 754.419712193284 2831.3200158511 227 227 235
-20.1618803149817 755.968079283804 2832.98127588428 231 231 239
-33.2348522016455 757.974489859171 2832.91352407151 234 233 239
-47.205855080882 760.136893838521 2832.29722739302 239 238 243
-62.080843508312 762.456277763508 2831.13815300012 237 237 239
274.338970412298 707.745965327449 2713.45533745761 196 196 196
274.743915273703 707.38772060011 2723.02521054632 205 205 207
278.336605112825 706.464126746518 2735.18113921545 214 213 218
280.388645047184 705.816167056154 2745.99239877062 215 214 219
276.918811224448 706.149408975155 2752.2228985175 217 216 221
275.844597591658 706.058057009544 2760.38799474586 221 220 225
273.992777646906 706.105191143402 2767.88822587639 220 219 224
272.15675635291 706.150228706558 2775.37274074341 227 226 231
268.7334277209 706.476500537538 2781.5577524824 227 227 229
263.711267151132 707.085446457347 2786.45483022835 221 221 221
261.106299622086 707.267301729321 2793.26578915856 225 225 225
254.476189877521 708.159776266423 2796.88386016368 202 201 206
249.457587029237 708.767448115338 2801.77759334672 189 188 193
245.250838840723 709.231949465491 2807.30321270611 227 226 231
241.048473150138 709.695544519185 2812.82461413048 216 215 220
233.58968625086 710.732026021564 2815.82704247405 206 205 210
224.485639219937 712.056975655498 2817.58678435045 201 200 205
217.000815948784 713.096149767988 2820.61466922957 211 210 215
210.325848492644 713.992464336682 2824.27637920842 206 205 210
203.643908464801 714.889350026788 2827.94526648455 211 210 215
198.60451070178 715.497756402676 2832.85954076256 217 216 221
191.085044027563 716.540413334186 2835.92131229393 218 217 222
184.383214346087 717.439170811984 2839.60933579873 223 222 228
173.520788180865 719.065034029435 2840.23654277545 226 225 231
163.464326972539 720.548587176406 2841.50135731961 227 226 232
155.054423449155 721.743141763743 2844.00798608036 229 228 234
149.139152577804 722.501432898038 2848.35295308317 229 228 234
140.704955644281 723.698768249506 2850.88295672159 227 228 233
130.57530678165 725.1906502929 2852.21955452313 228 229 234
117.895909612583 727.125167342969 2851.77126518733 228 229 234
104.33793141828 729.210795059795 2850.75617638914 224 225 230
83.9720969561437 732.478279487623 2844.99042353004 224 225 230
66.081803031357 735.311835320089 2841.08196041617 225 226 231
48.9840402582598 738.004597720197 2837.82422067844 225 226 231
35.2404429388411 740.112446300581 2836.99017018152 221 222 227
20.6046195771448 742.373079788014 2835.60228463185 227 228 233
5.07120918685233 744.78703000653 2833.66648464873 222 223 228
-9.65062153123597 747.057975368398 2832.36248158484 223 224 229
-20.9755207590203 748.739015315977 2833.44077605267 230 231 236
-29.7420159115207 749.976224159938 2836.29520129203 232 231 237
-41.1143201507231 751.663063355961 2837.41971251059 238 237 242
-56.840876521028 754.100609137387 2835.67188408495 239 239 241
272.029391963118 701.093903626027 2712.48088901873 199 199 199
277.944562297246 699.793017132508 2726.63738970631 207 207 209
281.544718015117 698.898012430428 2738.78201702536 213 212 217
283.603938674114 698.273219814741 2749.5823840893 213 212 217
279.347736251286 698.749072906918 2755.1557722939 213 212 217
278.278990844516 698.670476476968 2763.31355323039 215 214 219
277.230398271917 698.589090548839 2771.45207223324 215 214 219
275.401847561474 698.643859683829 2778.9277303783 217 216 221
270.382830568579 699.252704149956 2783.82170150075 223 223 225
264.560808689306 700.000596050143 2788.07560787821 224 224 224
259.540967996981 700.608954668407 2792.97046875448 217 217 217
252.906658530657 701.496546553041 2796.5930939573 215 214 219
247.883974035569 702.104732958391 2801.49080422474 188 187 192
243.673142841504 702.572225726982 2807.02003593865 218 217 222
240.280112206559 702.898556918654 2813.17529038718 228 227 232
232.81927268662 703.927277426081 2816.18090408507 181 180 185
223.713201857676 705.238978330648 2817.94461377924 192 191 196
215.407123417668 706.41161183045 2820.35104478254 191 190 195
208.728376509407 707.302964689192 2824.01757899378 198 197 202
202.042258018382 708.194965046848 2827.69099975362 199 198 203
196.174026197801 708.945675034232 2831.99037677386 206 205 210
190.302247722812 709.696727234015 2836.29288725352 209 208 213
182.769886795198 710.732682048603 2839.36879138107 212 211 216
175.22628414677 711.769890192154 2842.45533562009 216 215 220
165.17375505479 713.236731206099 2843.71871556056 219 218 223
159.271411295573 713.990857012968 2848.0514613835 222 221 226
150.019616730282 715.318465057155 2849.95718799177 223 222 227
140.748966884115 716.648332171441 2851.88130428311 219 220 224
128.938628059389 718.411579286894 2852.01258794559 222 223 227
117.940033011753 720.034500385778 2852.77544747933 223 224 228
105.22637683431 721.94898220287 2852.36413904398 217 218 222
88.2476154674201 724.589946037148 2848.99588495614 216 217 221
69.5190155541043 727.526677929109 2844.48737554507 223 224 228
51.5791775220924 730.325850062069 2840.63319235784 223 224 228
33.5816057996503 733.132077606663 2836.83495894992 216 217 221
18.9423513254581 735.363528251541 2835.45513159906 223 224 229
2.54926115383691 737.891309827325 2832.93893496259 220 221 226
-12.1780815663519 740.133347713746 2831.64467791052 218 219 224
-24.3683124977152 741.942304418898 2832.14644419334 222 223 228
-32.2808531619856 743.023192557859 2835.59289345176 229 228 234
-39.3410281393667 743.958987456023 2839.63128501816 233 232 237
-59.3908960470508 747.097802297435 2834.98803716804 234 234 236
-79.5060256324125 750.244608534978 2830.40841400374 228 228 228
274.436607021894 693.617698998523 2715.44653445427 202 202 202
279.569095212938 692.488266448459 2728.93799994442 208 208 210
283.962631969165 691.487329686406 2741.72735419398 212 211 216
284.44347190522 691.156549602013 2751.21780308939 211 210 215
283.364184861878 691.092962880596 2759.38383359847 212 211 216
281.509064906476 691.162285568112 2766.88372438782 211 210 215
280.467895810483 691.093467654067 2775.01301422167 213 212 217
277.847169934129 691.294233569308 2781.83682643889 211 210 215
273.6353018914 691.765984867001 2787.36645835012 216 216 218
267.017337306364 692.646903613265 2790.97417697313 224 224 224
262.003130675479 693.254492999736 2795.86355683522 217 217 217
254.567056089029 694.273251109925 2798.84605102602 214 213 218
248.738543126508 695.018377253789 2803.10647408069 192 191 196
243.718221564525 695.625911960917 2808.00193424134 206 205 210
239.511765289136 696.095375823123 2813.52686811155 226 225 230
231.233543174152 697.254354952382 2815.90765548232 172 171 176
220.489192449151 698.82983365091 2816.42505861132 189 188 193
211.356461285354 700.131155777732 2818.21677639093 182 181 186
203.846809429756 701.157007625213 2821.27128544639 194 193 198
197.972031326175 701.906066184873 2825.57740710272 192 191 196
192.918838362136 702.516034758567 2830.50514932712 199 198 203
187.039177006326 703.265309185887 2834.81575037796 203 202 207
179.498814584429 704.294148055824 2837.90031399913 206 205 210
172.778247515122 705.184286439447 2841.60855574739 210 209 214
163.552464906949 706.495583152474 2843.49086290534 213 212 217
158.480678227052 707.107070195924 2848.43684453529 218 217 222
148.39050216714 708.562145936948 2849.73934737363 219 218 223
140.792942068888 709.597193012772 2852.87979156283 214 215 219
129.822939907277 711.197875374883 2853.61754481366 218 219 223
117.141939963167 713.084344942243 2853.17828629613 220 221 225
105.27060047078 714.833358795574 2853.37191035129 212 213 217
85.7536094360083 717.862066734412 2848.21578164111 211 212 216
68.715628335041 720.47252023288 2844.91084303894 222 223 227
49.9239450366469 723.373980638073 2840.47018947214 222 223 227
31.9227880966473 726.140266510168 2836.6814196 212 213 217
18.1336804894414 728.1998369404 2835.89969698112 221 222 227
3.45065018988544 730.407026966261 2834.56692538087 219 220 225
-11.2744274211507 732.619281848533 2833.27515879892 216 217 222
-24.3222849746738 734.54977186919 2833.19335126493 216 217 222
-32.2347518633874 735.622571978342 2836.64092267041 228 227 233
-39.2948347809048 736.552930138861 2840.68002636745 231 231 233
-60.2097651383109 739.79014338088 2835.46434575952 231 231 233
279.202049270718 685.760815699893 2720.37775536559 206 206 206
284.34565524117 684.664950091183 2733.85321955716 211 211 213
287.170292076526 683.959497289782 2745.32268574298 213 212 217
