ply
format ascii 1.0
comment KinectMotionCapture
element vertex 796
property float x
property float y
property float z
property uchar red
property uchar green
property uchar blue
end_header
210.525259885427 329.651227082616 2787.36105595502 20 23 12
203.739751439544 330.283779857685 2791.17185649068 24 26 15
200.165147721165 330.92931787037 2797.45989922447 51 49 36
195.792961594797 331.57076748928 2803.12398586691 40 37 22
190.616948883064 332.208838772563 2808.16953634818 65 62 45
184.631348376945 332.844272754365 2812.60216210947 76 73 56
176.206025332672 333.473535333193 2815.20765259439 76 73 56
166.137458058496 334.10070667007 2816.61106149843 89 86 69
158.495094051409 334.735342651363 2819.85517721634 65 62 45
153.296279098686 335.375389244832 2824.92307871 76 73 56
148.098358756352 336.015131409761 2829.99013683673 63 60 43
145.367286061126 336.65743548229 2836.8582659295 76 73 56
141.824964951547 337.297298562961 2843.11542814999 36 33 16
139.942857156011 337.936876083296 2850.5578348483 33 34 26
132.282559525972 338.572829381492 2853.81956422005 29 32 25
122.952165766822 339.210048766175 2855.90571797409 21 24 17
126.909964551539 339.845131061456 2867.46871640885 20 23 16
114.238980600122 340.484840923191 2867.20344456053 24 27 20
118.245374579654 341.113725015284 2878.71944118218 25 28 21
120.619899715105 341.739141081825 2889.0219259427 22 25 18
74.3435710094076 342.430740320008 2865.43916217381 30 33 26
48.0712700784647 343.110484165494 2856.00238169378 28 31 24
48.6885221027897 343.747669869473 2865.2143064482 36 39 32
33.2743015629764 344.418009914155 2863.41751616184 45 48 41
36.4522768222426 345.046173633779 2874.33900413002 50 53 46
-21.4655208852563 345.842660780507 2843.87971628706 48 50 45
31.8635918791124 346.322018732322 2888.62610767141 50 52 47
295.287207494535 304.865415722967 2611.91483993483 160 162 161
295.221833546618 305.615694484169 2621.78790726629 171 172 174
292.168648252099 306.314026316122 2628.96761805348 168 169 173
288.371883164538 306.998777080719 2635.4708125254 152 153 158
284.583243862294 307.682236396947 2641.96579100589 142 145 150
282.322616647808 308.386972334899 2649.77444269709 147 151 154
276.269658832258 309.034054312331 2654.2725715357 126 130 131
268.686068745129 309.659615037786 2657.45966520111 118 122 121
258.029006951974 310.243909745733 2658.03688569135 107 112 108
245.810116598474 310.810542278556 2657.33347901443 105 110 106
229.709472650967 311.330661360134 2653.40670127641 104 107 100
205.1872078375 313.950825255014 2671.70243854961 136 137 129
203.724012039264 314.659626099325 2680.13553758261 18 19 13
211.65517224035 315.469664773686 2696.22920250771 6 7 2
213.388345704861 316.203768399404 2707.15283282661 25 27 22
210.446856224208 316.884171483318 2714.22427788059 19 21 16
206.73083486613 317.554851275301 2720.64937231913 18 21 14
206.179189582314 318.255042300633 2729.59580790332 19 22 15
214.351491343192 319.03407681933 2745.45459809549 16 19 12
212.283692090446 319.710788692725 2753.07591071467 19 22 15
202.284362057358 320.315477096453 2754.41388898249 24 27 18
201.026726452881 320.996876553551 2762.64725145941 24 27 16
206.178664337519 321.727522444954 2775.84448433498 27 30 19
212.182517608898 322.457885589852 2789.61270374543 32 35 24
202.992847104108 323.066940127946 2791.56294213765 33 35 22
199.416338530185 323.718498927231 2797.85232439351 42 40 25
198.267598539932 324.385446289455 2805.97935008705 42 39 22
192.288966254597 325.017895385056 2810.40583530897 75 72 55
187.927875909025 325.660686550627 2816.05836755505 80 77 60
176.261212995402 326.259349110135 2816.21910400266 66 63 46
169.449466549276 326.889045655375 2820.05604356797 73 70 53
158.550240802656 327.497706735116 2820.87013510473 62 59 42
154.987582063329 328.146369650568 2827.14619228047 72 69 52
147.333322579756 328.774500227489 2830.4030818783 63 60 43
144.600152774594 329.42556018506 2837.27199931625 70 67 50
136.936096183395 330.054586772315 2840.53848515685 43 40 23
135.042172730035 330.706843178886 2847.9907510442 25 26 18
122.403460096572 331.31911833073 2847.69748813823 26 29 22
113.879479289395 331.94881813199 2850.40088261886 32 35 28
102.845870819525 332.572887099761 2851.34614090723 36 39 32
102.622868892234 333.228551544685 2859.97280978929 39 42 35
99.0819253917765 333.873356501534 2866.22787361641 41 44 37
82.1498778104899 334.489469677755 2863.11216624988 50 53 46
56.770639674899 335.097241398013 2854.21610797857 27 30 23
28.7753561321722 335.712503088245 2843.66564865936 25 28 21
25.9748323012499 336.370476674867 2850.60042780921 30 33 26
45.1623894242115 337.046777459073 2872.54035377313 28 31 24
31.4240139865851 337.688516984914 2871.91747030638 22 25 18
28.6862457445274 338.338549748001 2878.79110587904 43 45 40
-54.0345363763404 338.981961285706 2831.89109977241 32 34 29
298.349324395251 297.53012527355 2615.62624042384 173 175 174
294.531755066261 298.223616759093 2622.1488019403 162 163 165
290.722332511912 298.915843634642 2628.66312265592 148 149 153
284.653892406497 299.563211531367 2633.17658337849 163 164 169
280.097569566358 300.239239045867 2639.01807205989 163 164 169
276.305583729509 300.928473371257 2645.51585799687 132 135 140
270.236895791023 301.575076432121 2650.02967786375 137 141 144
261.873821873463 302.181202146867 2652.57643582204 112 116 115
249.668134539722 302.722451723108 2651.86400778321 101 105 104
238.962989176025 303.29382016701 2652.49088646599 91 96 92
219.76686660757 303.72731254347 2645.98245519248 155 157 152
200.583576768083 306.433463652816 2668.88284342724 42 43 35
199.108413662342 307.1576013562 2677.32555939243 20 21 15
212.495594197003 308.09493813375 2697.90187961745 2 3 0
212.664092903689 308.831257074326 2707.544771201 33 36 29
207.365285656931 309.487683290165 2712.70954561977 41 44 37
199.706199020413 310.111926033395 2715.97180327196 24 27 20
195.191981638111 310.778841996599 2721.77282729459 15 18 11
208.081893179578 311.6685224601 2741.43273940353 22 25 16
215.512278868311 312.477388362375 2756.60694483969 21 24 15
207.904984991592 313.094349952742 2759.81884766697 27 30 21
197.896787930538 313.684101923227 2761.16783862296 24 27 18
205.436466925955 314.478865339049 2776.23559853127 28 31 20
207.435074051646 315.202887973908 2786.89713926683 32 35 24
203.851687085195 315.861269755338 2793.19234343437 28 30 17
197.058855277944 316.484527702987 2797.01145210557 31 29 16
195.097682132066 317.157866588514 2804.52738195054 36 33 18
191.536259583825 317.813007655417 2810.8012541023 43 40 25
188.79379878817 318.474659159998 2817.67783220514 41 37 25
180.378082579016 319.081983102105 2820.27702548169 43 39 27
171.133376924016 319.683646270521 2822.28300703285 47 44 29
160.23806123988 320.273357182068 2823.09601664635 47 44 29
153.406699614136 320.900160369162 2826.95286201205 43 39 27
144.928532975305 321.514561101069 2829.61302354202 42 39 24
139.723548592534 322.155871942042 2834.6868645157 30 27 12
135.34330748756 322.803052820815 2840.35776495127 33 29 17
135.922825460034 323.484578326374 2849.60060677369 30 31 23
129.908365496633 324.117652127527 2854.06257707835 29 32 25
97.3404064232928 324.579126505266 2839.57345026493 32 35 28
99.5743628258894 325.271636848397 2850.00594319237 34 37 30
96.0091523592199 325.925353697951 2856.28378730183 36 39 32
68.2224322843625 326.442924438163 2845.54032221364 39 42 35
58.7562512576043 327.070283727384 2847.76277204953 36 39 32
45.9139410604097 327.683075382675 2847.67160819509 42 45 38
30.8489415009348 329.64300843469 2863.75860752784 47 50 43
39.950663276108 330.349368476585 2878.70554900438 76 79 72
19.4016348261346 330.942875458466 2873.51692318204 58 60 55
-66.7427856515652 331.332870082528 2824.38578252873 54 56 51
290.911882083416 289.964356197718 2609.95984124721 164 164 164
287.826431156467 290.683679678519 2617.16848972785 165 166 168
285.507060316694 291.41861263527 2625.03101160117 175 176 180
281.692282292203 292.116867778225 2631.55009724451 163 164 169
278.643530400683 292.830827652155 2638.72309577921 144 147 152
275.60708964859 293.542970151625 2645.88413777761 131 134 139
268.774496769285 294.170901543432 2649.74203904813 131 135 138
259.643869119145 294.750709067953 2651.63796970871 111 115 114
246.666672175239 295.252648331841 2650.28022500507 110 114 113
236.721340665581 295.822122835829 2651.57012438188 92 97 93
215.211200363146 296.161402431265 2643.12240573842 153 158 152
192.094329150762 298.810045320734 2662.85251368468 0 2 0
207.739678250511 299.865528418942 2685.41970512125 5 8 1
210.992627826806 300.682565191344 2697.65573644731 33 35 30
211.156932974278 301.438651376331 2707.29987070706 32 35 28
204.284110915152 302.068751785062 2711.19773741008 28 31 24
194.256257553504 302.646151084702 2712.56807308249 16 19 12
188.150526171727 303.291645115195 2717.11884155036 15 18 11
208.930856608703 304.374685700648 2743.08497921582 20 23 14
214.77699289255 305.201708989923 2756.99552759924 20 23 14
208.75727748329 305.835946558556 2761.46254463501 20 23 14
193.970797510712 306.336794945976 2759.06744947859 19 22 13
195.909931078029 307.093052590572 2769.78328401643 27 30 21
200.286400443757 307.879694383748 2782.32504526527 33 36 27
202.302980757613 308.625996986678 2792.96544538974 29 31 20
187.461576564788 309.132899654579 2790.62399597594 25 25 13
186.28339272934 309.831290676283 2798.77595032587 27 25 12
181.89199394285 310.484197624639 2804.45708419355 22 20 7
182.367117662215 311.199109992042 2813.79865648893 21 19 7
174.748004470417 311.808200293672 2817.02345944385 29 27 15
168.746544940916 312.438382096001 2821.47294756163 31 29 16
161.10983301295 313.049322442792 2824.71495288585 32 30 17
155.098512465465 313.680423054577 2829.17409734062 36 34 22
145.804122628846 314.274698420204 2831.23050793262 48 46 33
137.313297236634 314.880139569174 2833.90456401427 40 38 25
134.574913473034 315.548766140046 2840.77606265226 41 39 27
134.326497274398 316.241349884229 2849.42251162514 26 27 19
134.92996777449 316.939123857145 2858.63916671717 27 30 23
140.539582941419 317.681758665616 2871.38014732901 34 37 30
106.282653673451 318.042015485712 2855.74899631981 39 42 35
59.3878428730768 318.304852499979 2831.4268559655 44 47 40
98.3559823954834 319.348875006355 2867.67821060529 50 53 46
80.5852273239931 319.883483675173 2863.99082702978 53 56 49
59.3996669267289 320.397505963286 2858.02912532608 45 48 41
42.9511809499799 321.650559389771 2864.25847339707 29 32 25
40.2016053595355 322.319343780685 2871.14106235882 41 44 37
31.5346304951976 322.945043693945 2873.98670539175 59 62 55
13.5139287866632 323.509879535875 2870.54305495873 72 74 69
21.8162785195104 324.250614671219 2884.86145690669 51 53 48
285.724902673724 282.40562157116 2606.30872524742 167 169 168
283.377431298305 283.155374834992 2614.19696093312 145 149 150
281.80002958181 283.923052091626 2622.73510406519 130 134 137
277.975094531253 284.628188023325 2629.26292096601 149 152 157
274.916349314672 285.351751803613 2636.44442356705 158 163 167
270.350440440589 286.034634055143 2642.29441819472 151 156 160
264.265853803923 286.678288018109 2646.8244615793 147 151 152
255.123641077982 287.246378197093 2648.73396605195 129 133 132
242.900305241507 287.741673411995 2648.04551742977 80 84 83
233.712426433315 288.314929133689 2649.99926769022 91 96 92
205.26311478449 290.029493819234 2655.32454235239 43 45 40
220.031570155458 291.153818047326 2677.33508037588 12 15 8
215.47174727121 291.833826631885 2683.17979409439 14 17 10
209.35795219751 292.479023458185 2687.73827601221 10 13 6
212.61459990321 293.325669828416 2699.96659659745 19 22 15
208.867106636712 294.017902902724 2706.41941969858 15 18 11
199.633304844097 294.594826772835 2708.41856785269 18 21 14
194.315466862768 295.254123865764 2713.60181575783 19 22 15
192.153992316851 295.97633094043 2721.30942515702 15 18 9
201.080712911935 296.914266753286 2737.8128279123 17 20 11
209.285358316953 297.827874294982 2753.61961055368 22 25 16
202.457045052038 298.446391365009 2757.4746535365 17 20 11
198.011825312324 299.110107922106 2763.2076347509 19 22 13
201.557642819317 299.919135209842 2775.15436553271 23 26 17
193.939101088622 300.521445765708 2778.37960306176 23 26 17
199.952220064932 301.365040344647 2792.12188593374 16 17 9
190.736334822605 301.937862773084 2794.10384887984 19 19 11
184.727197621241 302.567330152092 2798.56072878874 20 20 10
178.715252913763 303.197020486293 2803.02070148202 23 23 13
177.561756162719 303.905904661159 2811.14625246675 23 23 15
175.616514827907 304.599232165329 2818.6437453207 19 19 11
169.616736920173 305.226915226191 2823.09159503411 18 18 8
162.798152933154 305.842379436823 2826.93776575343 26 26 16
151.882385351216 306.397547758786 2827.77618978344 27 27 19
141.760339238423 306.96775987821 2829.24112251225 28 28 18
134.081652966771 307.575765606673 2832.52524271555 32 32 22
133.806915062038 308.288355798039 2841.19487258754 34 34 26
133.556327170147 308.997872012145 2849.84097547227 46 47 41
139.123972602886 309.781297006023 2862.617603879 44 47 40
117.363919839544 310.20286679098 2855.82279886725 40 43 36
87.2114955591092 310.528455985844 2843.20615986214 39 42 35
80.2828695157429 311.156303783306 2847.15977368141 38 41 34
85.8793657994039 311.935767340459 2859.90833826529 37 40 33
107.437783051668 312.89527311556 2883.70283545224 38 41 34
77.9212816990484 313.255093199713 2871.86690342837 47 50 43
57.5472309547669 313.731277322332 2866.521862425 47 50 43
61.5577815828372 314.479740455867 2878.01571986111 37 40 33
87.5859518778026 315.45320944004 2904.45518255994 40 43 36
29.049372966111 315.546442698681 2873.29738489982 45 48 41
29.7014637516217 316.256500328143 2882.46394381062 48 50 45
-1.10378585255466 316.661587508775 2870.48382023494 57 59 54
-3.87898651967022 317.341797310353 2877.38982876393 45 47 42
279.788386384141 274.784801446082 2601.99383949941 178 182 181
277.425186533402 275.547581151199 2609.89610633327 161 165 166
276.585679290456 276.353851356558 2619.11271464178 150 154 157
273.502592313953 277.088988351382 2626.31634061221 132 137 140
269.674246145297 277.799995887257 2632.84701482518 121 126 130
264.334884643696 278.46541181164 2638.05073154352 108 113 116
259.757662693816 279.15243282215 2643.91134851592 104 108 109
252.894445112525 279.773656486398 2647.80098980943 97 101 100
245.258401674244 280.374163530395 2651.04387335111 76 80 79
235.308910276309 280.912273357182 2652.34220140207 110 115 111
192.201108888279 281.375692703752 2635.56580896364 44 49 43
206.09769075533 282.562656037107 2657.01630075705 15 17 12
228.620070334261 283.959392972396 2685.45725948397 13 16 9
220.972517536748 284.559950444372 2688.71156453627 20 23 16
209.418229003094 285.063082485096 2688.77449309034 24 27 20
216.579833052009 286.037229871439 2704.191174137 15 18 11
217.540285317435 286.849437140592 2714.4536750274 14 17 10
208.327651919698 287.410570129988 2716.43379869574 21 24 17
206.965803509003 288.161334043233 2724.76039399345 21 24 17
198.524311565707 288.742776825906 2727.38900817911 18 21 12
203.511728992555 289.63648269355 2740.72517426606 18 21 12
197.452046406279 290.27121816026 2745.2318057103 15 18 9
205.693919099808 291.226305201856 2760.9954904519 17 20 11
198.86656462218 291.839528591283 2764.85070159044 17 20 11
208.003855901059 292.79959568558 2781.14139570818 15 18 9
194.797103903075 293.272817241422 2780.01584703139 16 19 10
198.404258732564 294.103963249157 2791.89806196608 14 17 8
185.966883188613 294.59777607345 2791.42271487619 21 22 14
183.171551232059 295.291817978503 2798.34700753633 21 21 13
177.963887852214 295.93584004489 2803.42310807577 23 23 15
181.669707911478 296.754090724281 2815.20925290266 23 23 15
176.485155028229 297.394933985642 2820.26287420334 26 26 18
175.372155360153 298.112454300595 2828.34727241028 31 31 23
163.670451800201 298.630396342818 2828.5543973529 26 26 18
156.028672879119 299.226496147651 2831.80362770181 36 36 28
140.176741044258 299.677076651483 2829.05706224843 36 36 28
132.494128166114 300.277911443644 2832.34614149128 36 36 28
130.567775559417 300.979280463586 2839.82368902647 29 29 21
133.612220382401 301.762205901553 2850.85490097744 31 34 27
139.179477453883 302.581223314699 2863.62665448861 28 31 24
122.397658169582 303.03007648625 2860.38648915804 22 25 18
101.40487213538 303.419241615782 2854.25215133759 23 26 19
79.505559566984 303.804263413618 2847.60103514743 27 30 23
89.2771501184688 304.683307271421 2863.27417375176 37 40 33
81.5341303265877 305.290666391595 2866.6222736601 41 44 37
91.4061056569748 306.157141901913 2882.1972484493 42 45 38
87.0475530696377 306.810096555938 2887.84609634678 42 45 38
48.1226740360361 306.978615111844 2869.79374286095 43 46 39
64.822470600264 307.929077498734 2889.91246507525 39 42 35
51.1292367033249 308.45932139919 2889.26123439603 48 51 44
29.7575334952396 308.894397541201 2883.49638130308 60 63 56
30.4373810166538 309.620341994772 2892.63302929913 48 50 45
-1.4563021528633 310.657294481397 2888.72523135815 50 52 47
278.352025057147 267.276243743544 2601.6961104443 165 171 167
278.240039551826 268.128075553148 2611.6004542451 156 162 160
275.140757635426 268.873835846023 2618.81892975344 150 156 154
272.809393956315 269.643200038114 2626.68827177196 140 144 143
268.221065054317 270.335041448356 2632.55920565904 134 138 137
262.877630246543 271.001221495217 2637.76685429365 131 135 134
256.773253918952 271.642490592778 2642.31690161592 116 118 115
248.374922444314 272.210900076177 2644.90458313411 115 117 112
240.727088610789 272.805021148501 2648.16011855639 75 77 74
228.463558580505 273.257029042478 2647.51798120997 115 115 113
186.092761189581 273.635232311925 2631.43957496619 69 71 66
212.34541979352 275.262484797965 2663.22712581048 4 7 0
231.006336254945 276.640504548475 2688.42045645714 13 16 9
218.701468927722 277.09655903123 2687.81876957361 22 25 16
205.583247597341 277.534251022184 2686.61055988934 12 15 4
224.450547334154 278.885985817519 2711.60249595554 18 21 12
219.949049748281 279.564199383364 2717.38955709355 26 29 20
209.9573001622 280.089754229591 2718.73170377067 35 38 29
208.598899228724 280.85393950348 2727.05255415931 26 29 20
208.049728779916 281.636654995534 2735.98433511561 26 29 20
205.152309855153 282.353237472568 2743.00667015761 22 25 16
205.438245780451 283.151042504997 2752.52385722952 22 25 16
208.931087935153 284.027161740362 2764.51327715872 22 25 16
210.874074453015 284.85714422315 2775.21405131883 22 25 16
209.658790675623 285.602522415029 2783.39590177632 20 23 16
198.056927052083 286.088197201038 2783.50865327256 21 24 17
195.251905711775 286.792276446429 2790.44108411948 25 28 21
184.415524844507 287.301731187171 2791.20743241561 25 26 20
186.454241265312 288.119086895053 2801.81534944077 26 27 21
190.953622594812 288.988285802732 2814.22319322913 29 30 24
190.6389710198 289.74001950826 2822.92633472945 31 32 26
182.227013899209 290.305370245888 2825.52799879678 32 33 27
175.428693290261 290.908535337167 2829.3558654866 32 33 27
169.439331975636 291.530261425869 2833.79425180695 30 31 25
153.631273184512 291.940902725173 2831.01002276957 30 31 25
132.854310141427 292.253326123144 2824.6727119229 29 30 24
121.044769605861 292.76305900601 2824.9881338866 28 29 23
128.152887218662 293.664844675696 2839.05171346739 31 32 26
135.319830034515 294.559198047339 2853.05763940038 35 38 31
143.373701011066 295.462551970238 2867.59874944075 33 36 29
139.875896251794 296.131624149653 2873.80738917527 32 35 28
122.250089823622 296.528678840781 2869.99606203005 30 33 26
97.0658068005532 296.791422026095 2860.95740551682 31 34 27
83.485474892913 297.281797843845 2860.20029182042 35 38 31
94.1509889234973 298.217991256791 2876.39421383382 42 45 38
93.1406825407164 298.935242044799 2884.37633808435 43 46 39
68.5959528182907 299.237226107583 2876.11370522242 43 46 39
65.8857664068009 299.926976408066 2882.95408139491 42 45 38
58.9624459431355 300.543789877354 2886.90371972199 41 44 37
46.1031476649554 301.063269066614 2886.84355466682 43 46 39
35.7568114998301 301.628159022069 2888.53199734673 57 60 53
24.5372785716258 302.182215874266 2889.6722291308 51 54 47
-6.32394131257286 302.43334461732 2877.77043986042 62 65 58
-21.0596402874961 302.946983457199 2876.73993731708 51 54 47
275.416063698517 259.698601008299 2600.063560649 163 168 162
274.544018440772 260.542038212583 2609.306648579 158 163 159
272.188643916527 261.325708845581 2617.19805707795 156 161 157
270.604896997212 262.135152903752 2625.7359901332 152 154 151
266.768337557163 262.85848838326 2632.2729981814 141 143 140
261.420829173963 263.525462070956 2637.48457463685 123 125 120
255.312403907673 264.164823879689 2642.03892451157 121 122 117
245.383023022872 264.668982814445 2643.32230045272 108 109 103
235.430886581431 265.1758188 2644.62787733106 81 82 77
203.901250150647 267.513588499949 2657.17057856148 36 37 31
176.027305965266 267.441694705239 2643.76703226985 17 18 12
222.647957750564 269.819165254074 2692.06032788537 22 24 13
223.563448022968 270.681282058932 2702.36010009191 17 19 6
215.919144509422 271.265493581678 2705.61359448136 25 27 16
213.74488019054 272.02336750774 2713.32863276912 25 28 17
214.726871465559 272.876643796155 2723.56367512147 32 35 26
210.232388552186 273.55665442838 2729.34316713837 25 28 19
210.475586290814 274.379395454298 2738.89910833248 24 27 18
214.700785345074 275.316889563095 2751.56912517242 18 21 12
203.911821154483 275.80297087451 2752.29184259031 17 20 11
215.346816728253 276.941672026423 2770.52554613636 20 23 14
205.35605091302 277.450164057297 2771.86923779115 18 21 14
208.119539119745 278.324735317009 2783.16589860293 20 23 16
198.915531979806 278.857081927601 2785.14204872597 22 25 18
191.297670379101 279.436043540229 2788.3700618395 24 27 20
175.625311722408 279.796260294439 2785.45853328836 18 21 14
175.223386976656 280.57574502087 2794.24457459058 19 22 15
192.627210393407 281.825375763618 2816.45378941599 23 26 19
199.608225980155 282.784757685925 2830.63507048659 24 27 20
179.847454725481 283.042633720153 2824.71329972422 22 25 18
177.927632443655 283.766308306773 2832.18072795527 21 24 17
170.312264530895 284.343969526865 2835.40679483925 23 26 19
156.960055078778 284.780626624274 2834.43075393367 24 27 20
138.650863322696 285.101436599629 2829.89273598132 24 27 20
137.538977190809 285.846146882429 2837.971671923 25 28 21
134.799962348707 286.549040187926 2844.83873262285 27 30 23
132.899173090108 287.269592991421 2852.28772217866 33 36 29
141.774394949437 288.236459121308 2867.4207408919 32 35 28
139.102112127133 288.930792373315 2874.22280088177 36 39 32
128.958732856458 289.455709698008 2875.7159501446 37 40 33
102.123313835317 289.615458391986 2865.49796214914 41 44 37
92.7317067931823 290.168637485329 2867.65698487445 46 49 42
90.8577932226127 290.885271461873 2875.07986567566 41 44 37
78.9290237789748 291.387658077718 2875.51510732465 46 49 42
79.5883612733075 292.155269735844 2884.66596368616 48 51 44
65.9422469963427 292.626916001751 2883.97694107453 46 49 42
72.5403226963053 293.510208771035 2897.13248589747 45 48 41
29.2192764762031 293.40009687257 2876.40188844402 45 48 41
34.1154830484625 294.250757302149 2888.41808103715 57 60 53
27.9975654610478 294.884372189469 2892.98270631954 62 65 58
17.6124285758701 295.438276235674 2894.71130240062 40 43 36
-27.840068250879 295.348390254511 2873.26012104903 36 39 32
276.229674022718 252.255870931901 2601.77257514232 158 157 152
273.855757817323 253.053096153364 2609.68005460051 165 162 155
269.236705797527 253.755120365208 2615.5799919841 174 169 163
268.40072506232 254.610096515104 2624.78589970095 178 171 163
265.315707563814 255.370363431973 2631.98806635877 168 159 152
259.964147133017 256.038098562165 2637.20355401652 154 145 138
252.328516342362 256.615482032012 2640.44944544716 147 143 134
239.337339235798 256.98561932556 2639.12506352536 129 126 119
223.24608545023 257.242172834598 2635.22791609424 172 169 162
193.911205821962 259.647322184158 2649.83229848766 8 8 0
220.3776773122 262.343442673617 2691.16893050102 25 25 13
224.403082457488 263.339631310585 2704.02833277844 30 31 17
222.227821615633 264.108982363299 2711.74266431393 13 15 1
216.154121586862 264.739381677823 2716.26385616719 18 22 8
208.507426527063 265.315742252714 2719.52088576408 28 31 20
210.292236152018 266.215702199745 2730.36872712048 23 26 15
223.156103119879 267.483766700823 2749.99857688051 23 26 17
211.597026612258 267.922564625879 2750.0761063597 19 22 13
215.861322196823 268.887782279179 2762.70286439733 18 21 12
211.432144138939 269.562051629637 2768.41835628628 20 23 14
212.583967381604 270.415176161957 2778.48477541366 22 25 18
200.991078198618 270.857453670756 2778.59502925638 30 33 26
198.97382117115 271.605501768964 2786.15594707783 32 35 28
196.972767515164 272.351313821753 2793.70076735641 25 28 21
177.292276436295 272.551658327731 2787.70778032746 26 29 22
181.731810617694 273.494048965439 2800.16423551286 27 30 23
202.38358910979 274.914751530431 2824.7912115491 30 33 26
205.336521905869 275.792344816587 2835.89930442896 30 33 26
184.777573674296 275.976578265735 2829.36411022807 29 32 25
171.47232654799 276.381193529941 2828.34650864967 28 31 24
173.633321099878 277.232151973492 2838.8280352134 28 31 24
164.378789694551 277.75637467713 2840.85521954677 29 32 25
147.458179430724 278.856351659006 2846.15910932805 29 32 25
146.389724900875 279.609518083526 2854.19366723282 33 36 29
134.607588752902 280.073384583749 2854.48899310784 32 35 28
135.209856817805 280.868063244774 2863.6925197652 30 33 26
138.328954057008 281.723898041265 2874.63882479195 31 34 27
129.846556490466 282.276030348634 2877.31239094163 30 33 26
113.015121739357 282.618892881225 2874.13749771519 30 33 26
101.142518538782 283.093410634057 2874.52074661832 33 36 29
91.7520484676015 283.633401245583 2876.68092740851 34 37 30
68.9146877770268 283.849547104779 2869.56935734284 40 43 36
66.1858918109854 284.558847590433 2876.42532356927 42 45 38
67.68537581668 285.366035823925 2886.1532997845 44 47 40
62.4561004069091 286.011912639895 2891.25058725797 46 49 42
34.3585171461025 286.133246809376 2880.87437750094 35 38 31
34.1725506711739 286.900307739781 2889.44780527941 52 55 48
30.6072161008051 287.588581224689 2895.72066517006 59 62 55
-1.9449611246829 287.639749004057 2882.6934192022 31 34 27
-32.0558396886792 287.761462060301 2871.48256680848 39 42 35
1.11617560994892 289.245623012061 2902.08855598919 35 38 31
273.919451304295 245.591981856205 2610.71955546109 124 115 108
269.300223414446 246.296991422794 2616.61922625211 87 76 70
267.708313966513 247.135034128071 2625.16137579338 124 111 103
263.863551749734 247.870710970401 2631.70470527209 143 129 120
257.748220460301 248.506238924875 2636.26614172987 110 97 89
249.345180244655 249.043811635382 2638.86305675905 65 56 47
233.292415447202 249.25822995536 2634.93391675631 39 35 26
214.123922901482 249.350200330631 2628.4485252644 168 163 157
212.530953315334 252.866868044473 2666.35295065618 21 18 9
231.964476286841 254.528542875963 2692.15405683775 28 25 16
260.848492013497 256.543839739673 2725.52234416617 21 22 8
229.138288062929 256.155428477856 2708.89015724453 22 23 7
226.97448970518 256.934523837142 2716.5916661596 22 25 8
235.788423757085 258.132180152715 2733.16868104267 24 26 13
223.480903937218 258.515875203471 2732.58032281599 32 35 24
202.48396604414 258.578375651689 2725.08114159031 26 29 18
213.750122694611 259.852790640408 2743.46244623727 26 29 20
217.982290577861 260.855023779247 2756.11597452664 21 24 15
202.445078981253 261.130005651311 2753.08284062535 21 24 15
204.339765854238 262.040305786414 2763.82004397488 23 26 17
187.949206486424 262.293635965576 2760.22024997624 25 28 21
191.467927247317 263.256523447266 2772.17114775802 30 33 26
193.429262586688 264.158111897842 2782.84345577835 30 33 26
196.228796033192 265.082699989046 2794.09693066834 26 29 22
185.394263642994 265.536445072074 2794.8693394205 23 28 21
185.821576440159 266.373540316161 2804.24066793458 22 27 20
202.441085911988 267.745385355911 2825.79374556415 21 26 19
202.153101579749 268.543705532088 2834.46385848016 22 27 20
175.089775100547 268.466516721586 2823.08995805962 24 29 22
175.600254682389 269.29277365804 2832.38030262422 24 29 22
178.586592227101 270.193266662825 2843.45183952646 25 30 23
163.618295276914 270.522984303484 2841.26258436619 27 32 25
142.045495917571 270.654425172345 2834.32505272524 29 34 27
147.515492218268 271.628010371563 2847.17054256831 31 36 29
149.741931303382 272.495161070406 2857.58468853483 36 41 34
146.224260607146 273.184456094894 2863.80972866877 42 45 38
139.405058912374 273.774523644363 2867.66026639645 39 42 35
138.385713505547 274.535268304597 2875.64493815616 38 41 34
119.093900224801 274.764629111087 2870.67894689112 37 40 33
103.070858312979 275.097083609015 2868.11975524572 31 34 27
103.705690514003 275.906718716419 2877.28873467829 31 34 27
103.5313871022 276.689469260904 2885.84826194455 27 30 23
72.3290809907229 276.615293239185 2872.91600908249 26 29 22
72.9727560590203 277.423608876065 2882.07674027629 22 25 18
65.2131794980848 278.002391450285 2885.44550490207 19 22 15
59.9780746608718 278.649504393235 2890.54839838413 24 27 20
44.5799513604621 279.030990753114 2888.77831574954 25 28 21
41.8702966800275 279.746251748935 2895.6143934356 24 27 20
14.4983263265224 279.83230772894 2885.94010059581 34 37 30
-1.03431667248488 280.230251199232 2884.30116565676 24 27 20
-12.3386753319332 280.739570985786 2885.53224276468 34 37 30
33.6608503258793 283.422774522736 2932.98022928689 41 43 38
275.486906369477 238.203482069503 2613.08922292932 150 133 125
271.625063555604 238.947340050706 2619.64796668269 134 114 107
270.038736159445 239.798463012852 2628.18263990779 122 97 90
263.926770704365 240.431357023728 2632.74146118 113 86 77
254.773144324576 240.921777690115 2634.6734412577 84 62 51
241.031738883292 241.201760743664 2632.69046260227 58 44 35
223.430738423938 241.310885707506 2627.48014933354 51 41 31
211.125844291507 241.672106954296 2626.89250537883 33 24 17
245.06743641752 246.827122495612 2694.45099700266 18 15 6
259.155922215674 248.329465276512 2715.66431241101 24 24 14
230.602598505713 247.977569263901 2701.55987491816 26 24 11
236.21063486779 249.102740085574 2715.66279396859 30 28 15
233.283179136565 249.85785656033 2722.7092606954 18 21 4
238.980333473266 250.971571512176 2736.72537745217 23 25 12
234.529344347093 251.65554881588 2742.46109322311 29 32 21
230.870013012179 252.371018723598 2748.82327367106 23 26 15
224.064036211915 252.957147060864 2752.66092325484 22 25 14
221.204721086282 253.702921477039 2759.64110610518 19 22 13
205.675458499897 253.942168611262 2756.60536029787 19 22 13
194.864065732909 254.375292891257 2757.35817664979 22 25 18
191.991680890419 255.122243202299 2764.35116412542 23 26 19
186.736309616148 255.775006915051 2769.47334729776 25 28 21
204.694223521322 257.314509886704 2792.50674624808 25 28 21
197.892147003061 257.89905560816 2796.3407567041 26 29 22
192.691859663859 258.544550787103 2801.40931500076 25 30 23
185.880067544313 259.130087143467 2805.25316461906 25 31 21
188.759625125906 260.071771549919 2816.42464753201 25 31 21
180.336824229225 260.597076755131 2819.04266049951 24 30 20
180.0203517008 261.415470108099 2827.73809580869 23 29 19
171.587877585362 261.941775347434 2830.3659044628 23 29 19
174.564228295673 262.870947855693 2841.44311962115 20 26 16
168.583387115395 263.482505608893 2845.87488603968 22 28 18
147.022641117747 263.558912749961 2838.93351919332 24 30 20
138.533478751711 264.091728824842 2841.61631997764 26 32 22
140.738327332103 264.98630928816 2852.04785152731 30 36 26
146.281553858681 265.986191371779 2864.8167360055 37 40 33
142.772628315523 266.680223548885 2871.03272976606 34 37 30
138.442796679312 267.346067037782 2876.65081452833 36 39 32
122.477105210603 267.636942259669 2874.04081844397 36 39 32
110.629160675501 268.066308326924 2874.40659216916 31 34 27
106.269144686969 268.735647446701 2880.05413378678 31 34 27
107.774858592617 269.586437382151 2889.76914146477 28 31 24
119.383178891844 270.742534101355 2906.41125062126 27 30 23
83.1240346974411 270.433154911615 2890.03348190655 25 28 21
72.8584123013967 270.925569048812 2891.65248651488 24 27 20
53.2752296162986 271.145031998851 2886.97729227446 29 32 25
64.1178497616326 272.265982148325 2902.96803833283 30 33 24
44.4745927609236 272.492753060669 2898.35141866223 28 31 22
37.5288763577113 273.092605852709 2902.32580326905 39 42 35
8.40462716598189 273.066586499766 2891.57429526888 32 35 28
-15.6990125517016 273.196970328205 2884.31592526914 35 38 31
-33.8903677068698 273.503112923129 2881.07963313829 39 42 35
-28.0988349415074 274.471028660628 2893.60667046272 41 44 37
272.543997963836 230.58897507097 2611.46902017641 156 136 125
272.442693574167 231.535048823955 2621.3488285534 154 127 118
271.613616633293 232.438614744089 2630.54069915361 135 102 95
265.505258316733 233.068590365038 2635.09603197871 131 98 89
251.798463206586 233.314961698477 2633.08365255038 95 65 57
232.71880700285 233.299480974267 2626.52592648322 73 49 39
215.096799637558 233.368282364387 2621.3427710312 68 48 39
210.424318987109 234.084663824894 2627.29364183976 39 25 16
197.315830892082 234.388787998048 2626.09550817404 72 62 53
205.697458477611 237.602857228588 2662.6418666367 29 30 22
218.135605150903 239.112715835893 2682.65872587923 25 26 18
217.45380632608 239.995811560394 2691.70703477701 24 24 14
226.923486191873 241.343120981953 2709.0276750272 29 26 17
234.905819497846 242.609554792382 2725.00306930088 17 14 5
236.691969225518 243.583749714985 2735.83860801849 24 26 15
233.804830207472 244.341950809907 2742.84458374761 27 30 21
233.290487455486 245.203407020518 2751.7301424423 25 28 19
231.222769945586 245.992208328068 2759.33480712021 19 22 13
231.543473486663 246.882324483315 2768.80382589205 21 24 15
222.380776344606 247.357747651462 2770.74736783646 23 26 17
212.404766203554 247.801282850813 2772.08600747999 22 25 16
188.865551176575 247.673302845709 2762.88843216269 20 23 14
218.734488957953 249.802875084528 2795.26178748042 22 25 16
203.952710792108 250.04666056593 2792.90001714565 24 27 18
200.358153778166 250.758682147387 2799.19838539646 26 29 22
195.163623474551 251.403893826717 2804.26126877279 27 30 23
176.264010830076 251.495225591614 2798.92621711021 29 32 25
178.311845711384 252.434971464139 2809.50699015641 30 33 26
168.243733599031 252.888864492851 2810.9355575363 30 33 26
169.521877812307 253.791252593045 2820.86891909669 27 30 23
167.576092512552 254.563119734182 2828.35500614984 26 29 22
178.701958366536 255.834644339712 2845.45947735324 27 30 23
175.184261502765 256.536119725701 2851.68274321982 30 33 26
166.756455720555 257.05113360545 2854.30758500804 31 34 27
143.522331795868 257.01630829098 2846.21019081122 30 33 26
135.854083503304 257.569454451882 2849.49205416711 32 35 28
133.954792838038 258.334945932637 2856.93325152271 31 32 24
135.381964927263 259.217971755055 2866.72148793545 32 33 25
126.887051471466 259.740826450679 2869.41180976641 33 34 26
110.894487059803 260.000401021842 2866.83312513416 31 34 25
97.3526507038325 260.353642043632 2866.05805324884 26 32 22
92.9615687864462 261.030008122956 2871.7354052115 25 31 21
95.2734442153882 261.935479761177 2882.05904780752 22 28 18
109.369876696563 263.235135201204 2900.46027266518 26 32 22
107.574675053065 263.987016409744 2907.79978183374 16 24 13
64.485465246813 263.364809907651 2886.91431691095 14 22 11
65.1635655476843 264.207528215969 2896.03577864009 20 28 17
59.0937727444683 264.826553509846 2900.5544337939 33 34 28
76.7896853961187 266.209754336472 2921.0369487734 34 35 29
53.7522091785769 266.281844883225 2914.14572553852 40 41 35
11.874037582476 265.774182415774 2894.87490868974 37 40 33
-22.4773788540618 265.5259983456 2880.84475929328 33 36 29
-37.2574942880819 265.899377193598 2879.87909331597 32 37 30
-32.3325584239069 266.877844315757 2891.84820536617 33 38 32
270.35313870275 222.994205124707 2610.51601369564 150 128 117
268.738255267385 223.876612189067 2619.07408187116 144 114 104
267.143619387401 224.756321009582 2627.61278056613 126 92 83
260.265931257399 225.344015400651 2631.52140909836 117 83 74
242.747950574383 225.357154861952 2626.24284257983 72 42 32
220.599608593725 225.132777281115 2617.09560444596 67 40 31
209.053630128881 225.487262732943 2617.17225087978 59 35 25
209.723040206945 226.491145312481 2627.69543143745 48 29 22
211.191377328375 227.530952103711 2638.83652752367 39 26 18
172.590702378571 227.456698172383 2626.16609137048 131 133 122
184.885356954444 229.047138452425 2646.31353045092 22 25 16
205.021227020613 231.017601076694 2672.78846620168 24 27 20
215.184785843495 232.466045672998 2690.82203597312 24 24 16
218.41621205245 233.556611847754 2703.03935063689 26 26 18
229.500335968916 235.025751146514 2721.57263631168 19 16 9
228.923934900333 235.911822167339 2730.51618177394 24 25 17
220.523348884998 236.415458513601 2733.11567552575 21 24 15
230.990462026764 237.825296193978 2750.85351745649 20 23 14
227.339192639048 238.551129044366 2757.20582279131 21 24 15
229.231307632683 239.536201549159 2767.93452873147 22 25 16
224.818277818767 240.220980774713 2773.6324318205 23 26 17
240.273777345159 241.82305502846 2794.89045143811 22 25 16
234.325936489623 242.427356702983 2799.2905204916 21 24 15
220.390604586682 242.669560414245 2797.50569744964 22 25 16
216.017864219066 243.348774022102 2803.16441511877 21 24 15
199.615087260378 243.490956699616 2799.59351876267 18 21 12
192.809914174997 244.065794381025 2803.43203899969 22 25 18
178.742063168364 244.323952378412 2801.77645135017 25 28 21
184.028002134527 245.427887286914 2814.78544721719 27 30 23
171.543181065074 245.759957584561 2814.3807818683 29 32 25
179.325268339508 246.959838017349 2829.14795065391 29 32 25
172.518697573116 247.534262210393 2832.98791992224 29 32 25
177.128250693354 248.586365929464 2845.25932824253 31 34 27
171.970904737513 249.22655086017 2850.28602996308 33 36 29
174.192752109198 250.168758045295 2860.69364225303 32 35 28
166.589516217778 250.706322514513 2863.91325030075 32 35 28
141.678265110508 250.549946102492 2854.66507691044 33 36 29
134.013060573789 251.095029564255 2857.94544727718 29 30 22
132.957298730533 251.902321414975 2865.95940144218 29 30 22
120.309139274918 252.253612086322 2865.7140927625 29 30 22
108.458496740644 252.641214537135 2866.08871828503 28 31 22
98.2443892895808 253.096278958522 2867.66208806314 23 29 19
98.86701956317 253.96559557567 2876.83436328895 23 29 19
101.192188870029 254.89420244309 2887.14138549091 20 26 16
106.909895999262 255.942998488205 2899.72977868921 30 36 26
77.3520546506754 255.685892569843 2888.02574144421 31 39 28
60.3287274656048 255.903003209247 2885.05998631628 13 23 12
45.7870486236978 256.218064230413 2883.86650646958 19 27 16
52.3766169078641 257.293753852152 2897.00206311141 30 31 25
47.1374600168164 257.942792872708 2902.1086956694 32 31 26
29.9881588118902 258.175312788347 2899.26575712112 34 35 29
18.7544995064188 258.620862342835 2900.43571609587 36 39 32
-16.4353335485794 258.250255253 2885.83931154674 33 36 29
-47.47675482683 258.041397173693 2874.18445077597 32 37 30
-9.09304783394127 260.178213281669 2908.02048466257 31 38 31
270.417648443626 215.516933662765 2611.55709202593 149 127 116
268.04894769464 216.368593019216 2619.45134711742 137 109 98
263.429603358738 217.085204640085 2625.34941876254 116 83 74
254.269639280257 217.536857895822 2627.29375991709 105 72 63
233.698394765228 217.33374422517 2619.41111652486 65 35 25
213.81118002301 217.18366520988 2612.25829227524 64 37 30
204.537905877696 217.648923154163 2614.31280339216 53 30 22
205.195338648429 218.676222582639 2624.84441659302 49 32 24
167.257022952762 219.531759532071 2622.71477544862 2 3 0
176.444910002263 221.018157417133 2640.29468291688 17 20 11
210.509704911749 223.834273239658 2678.3190601464 19 22 15
227.679547563739 225.709973406271 2702.08533570238 15 16 8
231.720650722373 226.868177069964 2714.90554171228 19 19 11
232.68545106795 227.855797468447 2725.13746106891 22 22 14
233.682328828558 228.839287250134 2735.33847542357 20 21 13
231.571781488483 229.656087741064 2742.98153248891 15 18 9
224.757012732168 230.228361104369 2746.82996037412 15 18 9
225.822409848574 231.202888603984 2756.96425861695 20 23 14
223.757040081265 232.013654673273 2764.56334556957 21 24 15
211.404440485572 232.306530261524 2764.03317530358 20 23 14
226.031762313219 233.944032837553 2784.69144201048 24 27 18
238.367666199182 235.451672159915 2803.39324854389 21 24 15
234.023148593359 236.130600610076 2809.02398273953 22 25 16
217.677981770502 236.228340769485 2805.40244725168 23 26 17
202.081608167843 236.371039575905 2802.4476134763 24 27 18
188.848294719467 236.634481543506 2801.37944604393 22 25 18
181.220333659412 237.168337371432 2804.62415468517 21 24 17
180.854763909644 238.043028969574 2813.3600234049 21 24 17
191.044198399394 239.401984805032 2829.96387749668 20 23 16
196.436360903103 240.528057266758 2842.86411989994 20 23 16
187.228869800161 240.981426819182 2844.85540242445 20 23 16
173.107234514078 241.216392569235 2843.25631332154 23 26 19
164.668859965672 241.712143947245 2845.89449704017 23 26 19
163.593895601172 242.536202452221 2853.92537933044 25 28 21
165.00420805541 243.465757225857 2863.72348065128 27 30 23
151.620821303732 243.746776777104 2862.80174026839 32 35 28
140.676429401365 244.139069910118 2863.69266155352 35 36 28
138.808504733357 244.923116853746 2871.09963167887 35 36 28
127.003588972224 245.284050269248 2871.43279151147 32 33 25
120.988230928429 245.892483418492 2875.89895765884 31 34 25
114.13681358164 246.466636572814 2879.78383814585 33 36 27
112.290150048647 247.247723110622 2887.17013319651 34 37 28
100.413427122119 247.61723720968 2887.57333038458 42 45 36
94.3804485450706 248.22758212078 2892.05671142438 39 45 35
84.9804964208585 248.70366651132 2894.23575334495 39 45 35
69.6607876776478 248.948145422622 2892.40805353695 16 24 13
53.4505804819547 249.165043390228 2890.05179898996 21 27 17
39.7317689126098 249.486785895521 2889.45712157468 26 27 21
25.9752033219711 249.813155215226 2888.8992506195 28 27 22
13.8825011950567 250.20902713407 2889.51302267206 31 32 26
-2.50384958932237 250.447585338191 2887.32847993902 34 37 30
-29.1951889742648 250.308638905992 2878.42847506185 32 35 28
-45.7033908261835 250.562219302559 2876.36271196668 31 36 29
2.12670797149483 253.183101352878 2916.33414827579 26 33 26
273.617113162893 207.221767507688 2605.35493240282 161 151 139
273.48899547821 208.228937241473 2615.25233681886 144 122 111
268.866986403211 208.949024885056 2621.15254083465 133 106 95
260.471703694923 209.43344696927 2623.74960818371 111 81 71
246.758816322554 209.592309995923 2621.75621215135 96 66 56
226.168441933028 209.337754669129 2613.9001680616 61 33 22
210.068999313565 209.370284280234 2610.04392505588 55 30 23
201.549467761212 209.869544341905 2612.76218029724 61 41 32
199.137392868305 210.736711141094 2620.69721456157 28 14 5
163.466293225366 211.658426111775 2620.5578169157 29 30 22
183.467278678441 213.825025637394 2647.13770613286 14 17 10
215.998328289194 216.68825603322 2683.84433296815 17 20 13
237.842830078138 218.907015548964 2711.4196926233 16 17 9
227.108931000457 219.257529275188 2712.10776639994 22 22 14
235.089782861858 220.663095142639 2728.06406811271 23 23 15
236.092199305654 221.667911541994 2738.25643040832 17 18 10
245.758894252068 223.145337711687 2755.36186273048 19 22 13
246.059888598531 224.096127717907 2764.84182329725 21 24 15
241.656642404593 224.786145391414 2770.52923686669 23 26 17
228.561402743998 225.006647462298 2769.33030661993 24 27 18
220.183482522962 225.486020741031 2771.91087897372 28 31 22
221.32472598441 226.472685427552 2781.96772896179 27 30 21
219.312254495146 227.28766257686 2789.51366474654 26 29 20
223.703364885369 228.433673887165 2801.98811042593 26 29 20
217.73758370049 229.035372297078 2806.40637925303 25 28 19
204.548219003469 229.266870534197 2805.2992913303 20 23 14
193.733408205953 229.625710503803 2806.06614318371 24 27 20
179.667835410056 229.824995767418 2804.41699460159 25 28 21
182.530552515716 230.878617880559 2815.58865601192 26 29 22
191.103379869782 232.208553361006 2830.96829544764 29 32 25
206.23914097402 233.849699526873 2851.12113591579 30 33 26
204.380184670624 234.644557053002 2858.51760252312 30 33 26
176.429883324198 234.174165599004 2846.6660249609 29 32 25
165.545838294584 234.540909784378 2847.5007970326 28 31 24
159.55390088777 235.144754005257 2851.94438438283 29 32 25
152.73751473921 235.710156711673 2855.79577168453 32 35 28
144.2668423094 236.19928994673 2858.46666799349 35 38 31
143.211969514056 237.034540584536 2866.47594486624 34 37 28
144.659709594152 237.98128393027 2876.23433953787 32 35 26
142.821930171556 238.772824821293 2883.61060522873 31 34 25
143.494544398247 239.674862787863 2892.72840944905 32 33 25
132.528725026996 240.051105106977 2893.64298083083 35 36 28
115.689770811677 240.171053475687 2890.50816331759 36 37 29
97.1232049846535 240.223905893595 2886.26498779035 37 38 30
91.0826755587357 240.833037309097 2890.75638413081 36 37 29
91.7677712627256 241.733206942999 2899.86207019842 32 33 25
77.3068527209064 241.980002551027 2898.59848377813 17 18 10
64.4940202810136 242.303609977635 2898.52078937763 21 22 14
49.9537672873549 242.560126851964 2897.33454644188 26 25 20
37.9181040821797 242.927901955128 2897.89549285706 25 24 19
14.7928807612212 242.842536254636 2891.11467575758 27 28 22
-13.5287146104455 242.557659585298 2881.02128896472 31 34 27
-35.9714948968568 242.528182170932 2874.97144489702 28 31 24
-25.942113200689 243.816254742791 2890.32780097653 25 30 23
-39.0210104525055 244.172578302967 2890.50947743718 27 34 27
20.1408177061611 247.384326384125 2937.56218173409 14 19 13
271.433104638682 199.583632135502 2604.40153243008 154 141 132
270.547247163649 200.56057813631 2613.6389413962 134 112 101
265.917313736497 201.284598469512 2619.54643316102 125 101 91
256.758549861766 201.709710166349 2621.49316748432 95 68 57
240.763547168661 201.691924808869 2617.54098846019 73 46 35
222.436246646699 201.533095392119 2611.67459611303 53 31 20
209.372979882456 201.725124192813 2610.44812464444 53 33 24
197.034701008922 201.970464101554 2609.91075944232 41 22 15
187.723284918673 202.413922465394 2612.00670588486 40 27 19
161.218176499775 203.852940338232 2619.69281165085 168 169 161
191.26250338159 206.727569090867 2654.61604044919 20 23 16
225.361698703699 209.815926733181 2692.56602033837 23 26 19
219.257809024873 210.434107154192 2697.11899690754 18 19 11
228.729170842679 211.988111408888 2714.40741754844 24 25 17
228.123976647917 212.927685145767 2723.37164733257 34 34 24
236.936524251383 214.419621562971 2739.90620666694 31 32 24
237.972353304797 215.442101502306 2750.06244124177 27 30 21
245.333804345844 216.826908338578 2765.21997598361 27 30 21
234.619404733638 217.155754752118 2765.89188892213 28 31 22
238.899922849885 218.348863198486 2778.46919342829 25 28 19
232.924889349873 218.949929460526 2782.89674337228 15 18 9
222.179671694508 219.282187523177 2783.59841700099 19 22 13
213.797618486524 219.751408472992 2786.1845939817 24 27 18
214.182820408028 220.710229963453 2795.57941028978 34 37 28
209.794366912562 221.400787466247 2801.25239254642 33 36 27
204.608280694268 222.04677741028 2806.30677579402 25 28 19
195.401982525223 222.474402399442 2808.30034091075 24 27 20
199.075434650371 223.598388603094 2820.07343999773 25 28 21
182.590523091667 223.638250966807 2816.59922741131 25 28 21
181.442723461232 224.499796551069 2824.69689562341 23 26 19
190.870608521957 225.913290114285 2840.63200958592 22 25 18
190.602461540546 226.808869989387 2849.26804877828 24 27 20
181.384094288664 227.237382563326 2851.27346748804 22 25 18
165.605197582189 227.332640006013 2848.50723150777 27 30 23
151.415923066152 227.517326093537 2846.98274047225 27 30 23
152.796811769413 228.494744811632 2856.80332358468 28 31 24
