ply
format ascii 1.0
comment KinectMotionCapture
element vertex 793
property float x
property float y
property float z
property uchar red
property uchar green
property uchar blue
end_header
114.10790323874 -5.97289642397303 2832.10235905634 11 14 7
100.624407538454 -6.55429496523269 2831.40749335674 10 13 6
121.499800989707 -1.85776834663492 2855.3279132264 11 14 7
112.947632917256 -1.68794372891634 2858.12726742942 12 15 8
46.7812550815965 -10.2700361587468 2820.24116621714 15 18 11
57.0342355480347 -7.20853095591051 2836.53028216173 16 19 12
12.2997413389632 -10.934612288119 2823.40567327193 9 12 5
1.85852463472136 -10.9835825463497 2825.27906200127 10 13 6
30.5247776863808 -5.2101418699641 2854.05741091767 11 14 7
34.3162906920238 -3.16420874101619 2865.57701045214 10 13 6
10.549589033793 -5.19355491016987 2858.30326312895 12 15 8
-34.2602297156018 -10.2890726828618 2836.95372313874 12 15 8
-31.3543659152495 -8.36004305060684 2847.95315439439 14 17 10
-32.619805238264 -7.0489268117524 2856.10119421384 16 19 12
192.680410137679 -34.989564684923 2687.5164777296 24 27 18
174.863322710948 -36.4429816407734 2682.75202286916 21 24 15
188.031971096181 -32.5406608509686 2703.10678756492 18 21 12
197.404295801313 -29.3174274724087 2720.24684218722 17 20 11
209.971612656311 -25.5707792678735 2739.80483700422 15 18 9
193.694134476158 -26.7547994586564 2736.30519147153 16 19 8
192.258646251605 -25.4104373462947 2744.61717863841 16 19 10
199.488478089877 -22.6114913727888 2759.69640404739 16 19 10
187.872531011323 -22.9935512321606 2759.95139142428 15 18 9
192.812378984489 -20.6004096463941 2773.11351657963 14 17 8
180.385167052562 -21.1114243381415 2772.77658994079 15 18 9
213.958029974773 -13.9928491374722 2807.81940481122 13 16 7
177.194376890634 -16.986035709109 2798.00726155388 13 16 9
172.709574207941 -16.1826499602271 2803.75924401224 20 23 16
177.847038548191 -13.8140525023608 2816.72876080515 22 25 18
188.659892517038 -10.5402994611516 2833.84779110729 14 17 10
193.1082727756 -8.3163431738239 2846.10570932197 12 15 8
170.156222693583 -10.5093759229307 2838.04753158787 12 15 8
137.408480931799 -14.2455028674026 2822.94008812428 12 15 8
129.676450437291 -13.9582998565225 2826.32459443101 11 14 7
104.045039478053 -16.5075117435037 2816.7286389821 12 15 8
101.139339738586 -15.439470457943 2823.7072515371 11 14 7
93.344146982397 -15.143973140722 2827.15325300853 10 13 6
117.477257942968 -9.84513540749649 2853.41800286869 10 13 6
116.303367698904 -8.53236781407057 2861.47455118792 11 14 7
53.4380356652613 -16.8040246435389 2825.93255556253 13 16 9
57.9329201716603 -14.5851700276353 2838.14538623846 16 19 12
57.5151392737858 -13.1358791636 2846.84817587951 9 12 5
33.9194520860509 -15.2461291768171 2839.41656621188 9 12 5
-0.558088180132366 -18.9935667494198 2824.61160062247 10 13 6
1.46066960018842 -17.1567480407059 2835.08866068636 12 15 8
11.8598781597776 -14.0616871165374 2851.22794829384 11 14 7
8.11483178236738 -13.1185847950845 2857.64126323276 13 16 9
-46.7594725939025 -19.8492446109041 2829.52331634975 13 16 9
-73.2921186736557 -22.2826227888114 2820.8051805266 14 17 10
-40.5428300669732 -14.3584011383437 2860.79814631071 14 17 10
141.783492738675 -51.575644247109 2646.98651260802 23 26 17
194.313850890887 -38.977868062347 2709.15615470585 18 21 12
193.58590121999 -37.4748364849195 2718.15900366968 17 20 11
202.242798003271 -34.3438299649174 2734.60621056605 17 20 11
196.894447077796 -33.6636368685916 2739.81666985562 16 19 8
194.682634153363 -32.4417801235474 2747.50041800574 16 19 10
195.630701416887 -30.6812318677505 2757.63471516045 16 19 10
207.64061134947 -27.0357486356702 2776.34426611242 14 17 8
196.04343433286 -27.4412691529706 2776.58441985732 14 17 8
213.709706251051 -22.8691937452588 2799.45887288831 15 18 9
180.694816390238 -26.8986944276816 2783.24350047086 13 16 7
175.391165655693 -26.223414132555 2788.41029791992 11 14 7
174.076083608688 -24.8797191339277 2796.60248072968 12 15 8
179.976860617059 -22.3376133608175 2810.20528162382 20 23 16
187.535904024182 -19.536075796521 2824.9572120423 22 25 18
195.961433277099 -16.6095357689217 2840.24714321513 16 19 12
203.648538083441 -13.8241128943956 2854.8742885152 13 16 9
163.769465126162 -18.8607877520655 2834.28772321933 12 15 8
130.198202908139 -22.8186009267738 2818.61424139495 12 15 8
109.470294535482 -24.6479857446751 2812.54443901233 11 14 7
96.8004972284868 -25.151005460211 2812.44688374103 12 15 8
95.5074498646833 -23.8092241601339 2820.61780647045 12 15 8
71.3592156773117 -26.14372269779 2812.35111865786 10 13 6
46.3036161011789 -28.5978654962127 2803.58589429942 9 12 5
76.1536755076908 -22.2825299589609 2833.94243281724 10 13 6
83.9559962149186 -19.5110200778718 2848.45722335888 12 15 8
-6.89180772052023 -30.7578583654137 2802.88271219475 12 15 8
14.1073548283703 -25.9028055303926 2826.65713525725 9 12 5
-0.482434259510445 -26.6310535331087 2825.66529237211 10 13 6
-16.7787943768136 -27.6123619545632 2823.57168333088 12 15 8
-17.2702437361769 -26.1366683085275 2832.34372452356 11 14 7
-18.5738215674411 -24.7927412832374 2840.52478702559 13 16 9
-3.92941286948512 -21.01017519765 2859.43179960805 13 16 9
-79.0965239658061 -30.9609641762156 2817.93265494562 14 17 10
-83.8413851754689 -30.1195989943125 2823.93692818002 16 19 12
-63.2580863470262 -25.4465205701546 2846.73395864327 14 17 10
-63.7048522640353 -23.9762314778159 2855.46242730783 12 24 12
-66.6712921835728 -22.8907367311364 2862.49877614562 2 19 3
188.964906802403 -50.7887327802562 2686.45625318086 22 25 16
188.171139412435 -49.2609810153644 2695.52080647978 21 24 13
197.491222763112 -45.9277452045544 2712.69647922788 18 21 10
201.439349874702 -43.5759468034668 2725.43226120403 19 22 11
190.614551727498 -43.8637439330885 2726.30494116617 19 22 11
186.801092815418 -42.9027204590392 2732.78387986681 17 20 9
193.971050278441 -40.0089746192875 2747.90855003669 17 20 11
201.203914456694 -37.1231608748339 2762.97158742664 17 20 11
173.048641571053 -40.438356960213 2750.32710119731 16 19 10
189.797264298694 -35.9086758238458 2772.70214997695 15 18 9
193.19671935258 -33.7240608705529 2784.59057174011 15 18 9
182.354268576077 -34.0087554444689 2785.48032246773 14 17 8
177.054589156642 -33.3335335305149 2790.64318497088 10 13 6
194.884274833929 -28.7030906896174 2813.34707688426 9 12 5
216.025402524157 -23.5424560965615 2838.35227093012 13 16 9
151.543776403345 -32.9385750729221 2798.91349912786 16 19 12
187.195752452156 -25.3425649160704 2834.65531572805 19 22 15
169.896760092026 -26.7079644451304 2830.7802851881 16 19 12
134.780645403974 -31.0392618842056 2813.86157119531 15 18 11
115.705786712108 -32.6541991324273 2808.95272726339 14 17 10
143.611503632832 -26.4508371325102 2838.42275761674 14 17 10
135.088812591114 -26.3160943117675 2841.19768792476 13 16 9
99.6563380847322 -30.6065938478842 2824.58743183799 12 15 8
46.925189736517 -37.6909033529028 2795.81081576679 11 14 7
42.2845390017286 -36.8604494839942 2801.71321914643 9 12 5
52.4238296189261 -33.6290356584447 2818.09045621371 10 13 6
55.232811588489 -31.6056047301226 2829.17214008919 11 14 7
49.8344566403208 -30.9163584106704 2834.43091605006 15 18 11
30.3838856517675 -32.4826134308766 2829.88762692876 12 15 8
-13.9891279162949 -38.0132146683744 2808.16863808241 8 11 4
-10.3726404539746 -35.8543072672294 2819.84568086265 10 13 6
-15.8697669248018 -35.1521522195259 2825.20063050123 12 15 8
-28.0412238235668 -35.5035429310481 2826.00271445488 12 15 8
-31.8790705768111 -34.5366513339587 2832.50500333629 12 15 8
-87.6814989056718 -41.7044728515938 2803.9560624073 13 16 9
-68.9362318118483 -37.1889892167321 2825.76775935971 14 17 10
-74.4999441849727 -36.4779976918391 2831.18752375613 16 19 12
-61.4927557753262 -32.8972856046244 2848.91633558482 15 18 11
-69.5500048886992 -32.5825137695561 2852.61971412752 14 26 16
206.027012676526 -55.221236316483 2701.34282179424 24 27 18
189.018484854499 -56.6658159706716 2697.19072062002 17 20 9
223.951695401404 -48.6009905064865 2734.99423845093 20 23 12
207.736511347006 -49.9055958113611 2731.45089419969 16 20 6
196.927362265263 -50.2140089789057 2732.31074360791 16 20 6
193.911430687839 -49.1081225040043 2739.39322450507 17 20 9
186.204539668787 -48.8486639818909 2742.75686756437 17 20 11
183.98784088873 -47.6035897900666 2750.44237375485 18 21 12
159.729279421586 -50.2898376983496 2740.91998380567 15 18 9
161.43944219404 -48.3413481536442 2751.68697837346 13 16 7
167.935525125775 -45.5582545414085 2766.08026094778 16 19 10
193.537604131075 -39.4324673759401 2795.0151468544 14 17 8
206.563196035898 -35.5554593533433 2814.09880064819 11 14 7
241.21165213386 -27.9343416807193 2849.41650719673 11 14 7
148.143150720697 -42.5532710838698 2788.12406470983 12 15 8
173.254516841511 -36.6052099552669 2816.15559427772 13 16 9
124.607272334208 -43.4041989058842 2788.94906833884 18 21 14
125.678649905182 -41.6140756460037 2798.95688320469 16 19 12
160.685185206627 -34.0380700622098 2833.92567935782 16 19 12
114.970615996038 -40.2474696502062 2809.38813540094 14 17 10
116.106684521822 -38.4653412531006 2819.3325549876 13 16 9
157.114261324399 -29.9687398388269 2858.12554330671 12 15 8
133.145005711068 -32.4494664698261 2849.70273957265 12 15 8
84.5795877877325 -39.0172645773042 2823.79803588033 12 15 8
40.7224772749988 -44.7406465169487 2801.59490273519 11 14 7
48.3950224436689 -41.8652002887492 2816.22320055834 11 14 7
38.03014791536 -41.9869355622375 2818.03153501591 11 14 7
28.4677603622385 -41.9700702661034 2820.43975010023 12 15 8
-13.3515545668543 -47.2304915115331 2800.3956962231 11 14 7
1.00202960781548 -43.2803941013103 2819.56707864174 9 12 5
-26.0755019636392 -46.08628512021 2810.02783224224 10 13 6
-42.4310963146684 -47.1291049100856 2808.00213502413 10 13 6
-49.6579544796614 -46.687345420323 2812.27906367747 10 13 6
-65.2544942055413 -47.5859713650893 2810.89554936807 11 14 7
-60.7788385847625 -45.2654203275358 2823.11210608298 13 16 9
-90.7031163674628 -48.4301828247976 2812.20169600651 16 19 12
-83.6852348072186 -45.7112928046161 2826.08631409199 17 20 13
-82.5168652260335 -43.9319244123972 2835.99906618065 14 17 10
-97.3901911830781 -44.6816777426521 2835.29229591805 13 23 15
193.781055250046 -66.75261817169 2682.61629254798 22 25 18
176.756760507273 -68.2355448323053 2678.48551582994 27 30 21
174.383356790153 -66.9602502308218 2686.32182793411 19 22 13
185.995858527404 -63.085380035353 2705.39210780581 21 24 13
219.479528202971 -55.1815583502804 2741.82468096092 15 18 7
205.580200467417 -56.0883605207342 2740.17392781603 16 19 8
183.819425025434 -58.427544226507 2732.37096927739 16 19 8
188.629319565333 -55.876045124747 2745.63873494133 17 20 11
167.558779336858 -58.0594402481671 2738.5445843074 18 21 12
147.986873081483 -59.9467902185881 2732.75266911741 17 20 11
151.247000846764 -57.6842415106376 2744.76792636289 17 20 11
152.175984182563 -55.854746768643 2754.91132172139 15 18 9
152.343213604906 -54.1714938210494 2764.41551729037 14 17 8
166.858135052057 -49.934880359994 2784.80091394097 12 15 8
184.661125772059 -45.1434116668663 2807.50751479091 11 14 7
148.216841531478 -49.9918370388545 2789.15030544495 10 13 6
139.669830762183 -49.8752701454689 2791.9524098381 10 13 6
137.534550009057 -48.6282846312471 2799.55644638965 11 14 7
124.142196463621 -49.3545900592272 2798.79249235753 20 23 16
145.421269090199 -44.031881364963 2823.63675056101 20 23 16
143.364724963174 -42.794540047312 2831.16436372894 14 17 10
123.480579339208 -44.6406419858923 2825.67607256462 13 16 9
155.560795764797 -37.5296134365535 2857.95149491017 12 15 8
111.21426485833 -43.5607779345895 2834.86294426096 12 15 8
106.710673490106 -42.7414828565759 2840.6312327699 12 15 8
81.7406175117883 -45.3995253203555 2831.81119863576 12 15 8
51.7538487623126 -48.8786133572754 2819.59239087285 11 14 7
27.4108255746399 -51.3728258580219 2811.54273707107 11 14 7
17.8233862032977 -51.3657607817631 2813.97727744944 13 16 9
-1.70159412541659 -53.0132318488133 2809.52021944114 12 15 8
7.70709532348901 -49.8282093526869 2825.21256372733 10 13 6
-17.6931854509355 -52.4306571576206 2816.8118701513 10 13 6
-43.1854332531958 -55.0212456976805 2808.50074839927 11 14 7
-55.4202399486261 -55.4066359652003 2809.37076475701 11 14 7
-85.2470359733908 -58.6617328288182 2798.37690523376 11 14 7
-109.317353172027 -60.9463411776711 2791.44271811113 13 16 9
-82.2225446454175 -54.90312482293 2818.90716762426 15 18 11
-86.1328672008468 -53.914875210094 2825.47826934323 17 20 13
-93.4107907317454 -53.4710860393431 2829.80560667384 14 17 10
-94.7734732862862 -52.0771619162428 2838.03797149059 1 11 3
159.843366983448 -79.0914421393586 2665.71089262223 26 29 22
171.361189559835 -75.1448269990149 2684.86458642877 19 22 13
182.189265209329 -71.3563175549236 2703.30932992318 21 24 15
208.660063725268 -64.6384082988381 2734.12820560472 15 18 7
177.574962333734 -68.7994183681536 2718.84978037515 16 19 8
176.856076801703 -67.2308946955304 2727.83394881203 16 19 8
176.161382318774 -65.6652880091669 2736.79452630883 17 20 11
162.1322816483 -66.5845529574062 2735.27414375784 18 21 12
152.787843370217 -66.6237929957184 2737.4742243341 18 21 12
167.114857199958 -62.2956471588936 2758.03268758141 17 20 11
164.124444565988 -61.1753018465563 2765.08769078062 15 18 9
168.288648339568 -58.7514160206293 2777.5985887893 14 17 8
168.522771672889 -57.057224853916 2787.0347410518 13 16 9
160.810400727752 -56.8115670891548 2790.40586550461 11 14 7
156.284811190105 -55.9873776188923 2796.19493728996 9 12 5
134.935919639783 -58.1878253201885 2789.37971399697 9 12 5
130.379265369734 -57.3593493873462 2795.19933782551 10 13 6
137.905484894911 -54.3787297895163 2809.95705675565 19 22 15
134.19470205057 -53.4117139008575 2816.33315092693 20 23 16
132.919960647416 -52.0166253835156 2824.47801678338 16 19 12
149.508465194817 -47.4831499911891 2845.59459517588 15 18 11
140.186953505808 -47.5237488051509 2847.77177229472 13 16 9
121.067907033458 -49.2690975953918 2842.92608225099 13 16 9
96.9825548184402 -51.8581826348811 2834.63457948408 13 16 9
50.7009980519411 -58.2638081624086 2810.68906466001 12 15 8
46.0846639830299 -57.4267636502735 2816.56634713677 11 14 7
57.1044626145794 -53.9059040700324 2833.44335609109 8 11 4
3.8816607089891 -61.3954354731921 2805.21485088991 13 16 9
23.9994431957196 -56.3265612786287 2828.41564752006 10 13 6
15.2407956675318 -56.1917909778215 2831.42521988768 10 13 6
-25.0894887565973 -61.3860110048582 2812.72690867347 11 14 7
-38.1128744962611 -61.9381714876515 2812.98773492674 11 14 7
-34.4834410471098 -59.6900546566565 2824.63873703591 11 14 7
-32.4832905404766 -57.7265708813062 2835.11521551411 11 14 7
-69.0039527574453 -62.1751292378937 2819.60890693496 12 15 8
-87.1840020483292 -63.546377982118 2816.60964346311 14 17 10
-86.5794028930966 -60.1705265091381 2835.34840000698 14 17 10
-55.3391570179831 -51.8388812631658 2873.94549402437 2 9 2
155.285749614492 -87.6588964856806 2663.00114630608 22 24 19
155.180122980662 -85.9037562652671 2672.76566706486 19 22 15
176.831205814082 -79.9536706200401 2699.98160622971 20 23 16
184.615869266045 -76.7153583819681 2715.86184682007 16 19 10
158.931031795102 -79.9115096719475 2704.99765273058 18 21 12
198.040593957143 -70.711402971852 2745.57108202956 17 20 9
184.85731073937 -71.519082951731 2744.61154519467 17 20 11
182.636481724753 -70.2399512624497 2752.29578124388 17 20 11
159.164073162291 -72.9709521646467 2743.41659147154 16 19 10
171.137318988571 -69.0213073141873 2762.11759546871 16 19 10
181.61368526902 -65.378469467894 2779.51621244662 16 19 10
185.026749202226 -63.0748904266832 2791.37353755121 15 18 9
170.187602654948 -64.1682865776811 2789.26670757055 13 16 9
175.238169871377 -61.5754367401355 2802.28937008821 12 15 8
149.164667235511 -64.7205726324313 2791.80324835752 10 13 6
120.587017446197 -68.2929202624933 2779.61585768143 9 12 5
92.7008755605656 -71.7043932317614 2768.13492154772 11 14 7
117.850082443137 -65.4515456778333 2796.08382737924 14 17 10
125.390610072232 -62.4288995592702 2810.82146449126 18 21 14
132.994275540698 -59.4141982263722 2825.49757903129 20 23 16
118.763169423596 -60.3352260339569 2824.17805142482 16 19 12
135.383018676758 -55.7322564664569 2845.2532328524 13 16 9
99.1399618401481 -60.5661282991921 2828.11129787257 13 16 9
61.1165592825431 -65.6705999700101 2809.9431105725 13 16 9
44.2271544150814 -66.9987870845243 2807.07242509463 11 14 7
74.8867174006063 -59.954587788791 2837.93463600634 10 13 6
69.5205946162845 -59.2675325854989 2843.16172879805 7 10 3
0.660876869711391 -69.6480574588342 2803.96455782478 13 16 9
14.9845041032135 -65.4982448319928 2823.13617010705 11 14 7
9.51858911527781 -64.7981227429839 2828.46042675214 9 12 5
-13.3853187766517 -67.1008292903476 2821.78722432682 10 13 6
-21.3870999267174 -66.8237875742069 2825.44109885709 10 13 6
-24.3936850151742 -65.6903468120467 2832.51022604092 10 13 6
-30.7325148843272 -65.1274045883046 2837.30466587357 11 14 7
-62.2192748270831 -68.8239238422605 2825.19059846074 12 15 8
-89.6245859033189 -71.7963876441376 2816.00146133953 14 17 10
-106.183068064913 -72.9165013195321 2814.18865871907 15 18 11
-76.3722485491627 -66.2613181138356 2843.11702437379 14 17 10
-76.8508144206841 -64.703249247128 2851.86375920896 28 31 24
-73.0656627295909 -62.4444089713599 2863.35854588148 5 10 3
143.779507606444 -97.6366341354498 2654.64639100499 23 25 20
157.577686262571 -93.10633763901 2675.70045546011 20 23 16
182.337763534336 -86.4513178926785 2705.39290334888 21 24 17
173.798877216481 -86.368768273905 2708.19196777997 16 19 10
199.560472277508 -79.5894771437018 2738.28877360229 18 21 12
203.587092613983 -77.0832925770488 2750.92413027993 16 19 8
200.607053539789 -75.947891167402 2757.96660709634 16 19 10
177.99606506923 -78.5991287345284 2749.63713477024 16 19 10
170.266238765603 -78.3673394496913 2753.02764240735 16 19 10
186.214434291509 -73.6066921462523 2774.74681905644 17 20 11
185.645201725416 -72.0233503700433 2783.57985193463 17 20 11
180.339318221976 -71.3453929903444 2788.74847088428 15 18 9
178.216167971033 -70.0667355650632 2796.33611841521 12 15 8
172.122178706712 -69.5396439600517 2800.89238877165 12 15 8
135.650241972839 -74.6993883760467 2782.60865157906 13 16 9
111.04701425132 -77.5984329576185 2773.46030941294 13 16 9
102.415994728716 -77.5021013800768 2776.34882651084 11 14 7
115.509874432336 -73.3828634739255 2795.32886803995 10 13 6
130.308345155502 -68.9776819586792 2815.40811962504 12 15 8
116.887659090636 -69.7798483359659 2814.68317457673 19 22 15
127.75931106543 -66.1316607486002 2831.68881416936 19 22 15
125.702289409552 -64.8603096333004 2839.21153705526 18 21 14
95.141004217445 -68.759772782202 2826.20811671106 17 20 13
50.5745977569778 -75.1501407236326 2803.39133369138 15 18 11
57.4044245598908 -72.2441572415483 2817.4347027569 11 14 7
81.5282052602875 -66.2599869559491 2843.6074258514 10 13 6
1.01144942267339 -75.6060988147778 2814.4164087577 11 14 7
-2.0022242056088 -74.4634662715102 2821.49087858314 9 12 5
-19.9500302401447 -75.944736034049 2818.27725518301 10 13 6
-27.9671338056731 -75.6732959515589 2821.94717301735 11 14 7
-20.1437856695361 -72.6416791923021 2836.40263932824 10 13 6
-34.8348754791674 -73.531636311595 2835.5356279361 11 14 7
-70.5211650479862 -78.0336523440161 2820.62558532191 11 14 7
-96.2651021782905 -80.7844566795882 2812.58773677589 13 16 9
-75.7900364629815 -75.592236524672 2835.41585324136 15 18 11
-88.1081580123522 -76.0297042981366 2836.37629951332 14 17 10
-84.3842952305116 -73.7328276047055 2847.92632521283 15 16 8
-111.138348874542 -76.6059773082282 2839.49271057144 23 24 18
151.576392328589 -103.798685810601 2661.98482446643 26 28 23
191.710438484607 -93.9123427417285 2704.27365705656 19 22 15
152.925435968414 -99.9014642205296 2682.74143483401 20 23 16
155.981513985036 -97.4933818863419 2694.93780668992 17 20 11
191.835718873976 -88.5866127602745 2733.11923393657 18 21 12
185.67906684827 -88.0550547483658 2737.7374070504 14 17 6
181.086713897795 -87.2142077955888 2743.59031392299 14 17 8
169.427843000338 -87.7607733947632 2743.91257700507 15 18 9
182.943315477381 -83.379674634405 2763.85217707571 17 20 11
193.39466601897 -79.6248856718883 2781.25908872602 18 21 12
181.761598995309 -80.1742619931627 2781.55614360347 17 20 11
163.750245956157 -81.9445904070198 2777.03109890104 16 19 10
150.450176737153 -82.7897055828125 2776.19306519739 12 15 8
144.288474312249 -82.2561840892417 2780.81596323055 12 15 8
133.327834780365 -82.6363687357713 2781.83719053044 14 17 10
122.340687311397 -83.0130954022817 2782.88389167379 15 18 11
136.226773581757 -78.678097522407 2802.46261830098 10 13 6
158.258257450408 -72.8387671232677 2827.90027387376 10 13 6
135.225888495305 -75.4935225426917 2819.98975853499 11 14 7
129.907682139895 -74.8124637400048 2825.17015586985 16 19 12
136.754950955415 -71.8681510704562 2839.19087756383 19 22 15
135.532125089278 -70.4376527157152 2847.27861912407 20 23 16
92.7723827284046 -76.6792087455633 2825.479616246 19 22 15
65.3541424891628 -80.0452937737711 2814.94458570241 16 19 12
70.5812192844792 -77.4024884452406 2827.78458819919 11 14 7
71.7564083506193 -75.5143550047334 2837.67483085384 11 14 7
64.7374138626353 -75.1241124030424 2841.75296197668 11 14 7
26.3788038435222 -80.4002500073747 2823.94301279116 14 17 10
-36.9284430813872 -90.1232701125259 2789.05435604381 12 15 8
-6.06578281884351 -82.8661619990335 2819.68308268484 10 13 6
-14.0585811965899 -82.6054961457192 2823.33045753478 11 14 7
-32.0496433491764 -84.1211626760575 2820.16453408458 11 14 7
-34.2471123142705 -82.8193080061719 2827.82255265467 11 14 7
-27.2304189390309 -79.8953827130814 2841.67770865965 11 14 7
-47.8121154815301 -81.8431303475907 2836.89745690059 11 14 7
-116.96727023608 -90.5598119184631 2809.08403199786 15 18 11
-74.5251613484701 -81.4736005692001 2846.36502681737 14 17 10
-77.5375206574766 -80.321697000227 2853.43715909278 21 24 17
-136.491228767233 -88.8177742411856 2823.96307323337 12 15 8
245.071174706628 -92.3059377034246 2738.90302790479 24 27 20
171.660995033249 -105.561282994278 2689.06241407436 18 21 14
165.416548731509 -105.021384427106 2693.7665354717 19 22 13
156.057252368952 -105.11219357108 2695.98865439479 16 19 8
163.056053575685 -101.891537553249 2711.23496807576 17 20 9
187.31727431364 -95.2177780699285 2740.00344667639 14 17 8
175.675269281528 -95.7879952053794 2740.3121195496 15 18 9
179.716678506949 -93.2177183807452 2752.92331783416 14 17 8
198.770269623574 -87.6785636437362 2777.11136496767 14 17 8
182.414802224478 -89.1891822472549 2773.73777282705 15 18 9
173.129387589454 -89.2881537605032 2775.88807033913 17 20 11
155.89062339273 -90.9428270527344 2771.99564903645 17 20 11
152.116368235966 -89.9451654411926 2778.43024272781 15 18 9
141.174376238617 -90.3464546968654 2779.43573416026 14 17 8
136.600666603758 -89.503533663969 2785.2701592387 15 18 9
137.640143117695 -87.5773003019426 2795.28919747013 15 18 9
133.089436233319 -86.7371039290606 2801.10084533886 11 14 7
106.805525900241 -90.064241396227 2790.85089915718 10 13 6
158.70592522056 -78.4324461680967 2838.20151738823 10 13 6
146.972208492645 -78.9888148407298 2838.59955237635 12 15 8
139.262893963623 -78.7732774165371 2841.97209353597 14 17 10
120.975403394046 -80.5496154771706 2837.72214570647 20 23 16
92.8487706163268 -84.1550586797665 2826.50868929949 23 26 19
97.2851068782208 -81.6329470404837 2838.7348379921 21 24 17
118.961642532373 -75.9124471547401 2863.12561616924 19 22 15
77.5777086558858 -81.9386373409033 2842.76274062777 18 21 14
49.1852486676674 -85.5094778765054 2831.80814031139 13 16 9
28.9305146881311 -87.547948667128 2826.71661873677 12 14 9
-2.13721916250353 -91.5482363634311 2814.23101122124 12 14 9
9.75280429990866 -87.6630767255983 2831.60727782452 11 13 8
0.966682567829391 -87.5658556836607 2834.64968224681 11 13 8
-6.1694727601882 -87.164970914328 2838.84258290803 11 13 8
-16.6492270630472 -87.3655124503619 2840.77664221115 11 13 8
-41.365685923715 -90.119108442098 2833.13615231974 12 15 8
-57.7894590559378 -91.3602400832014 2831.20746804423 12 15 8
-45.7017741513761 -87.499910357623 2848.39112376367 14 17 10
-88.2590852729379 -93.3744643660762 2829.17067956942 14 17 10
-127.610050764097 -98.6296977116687 2812.34306439705 14 17 10
-97.7571117636931 -91.6383063777017 2841.17991336634 21 24 17
-61.8062832758337 -83.6258407176748 2873.72959449976 14 19 13
217.351201901064 -105.476250756817 2717.36348549496 24 26 21
208.887436972661 -105.435058775733 2720.09406591662 18 21 14
174.027340956061 -110.857945286281 2701.66554866876 19 22 13
189.58156802018 -105.828033792816 2723.73580685264 15 18 7
183.406932744095 -105.29902940802 2728.37221502491 16 19 8
187.392071283625 -102.689152203727 2741.03343801357 15 18 9
225.123865609504 -93.2149147287901 2780.10033825478 16 19 10
237.144100491369 -89.0322519105135 2798.72024147124 15 18 9
202.782562038121 -94.257760537049 2781.18472398759 15 18 9
174.59414892154 -98.1925822049626 2768.66438904599 16 19 10
166.872375569976 -97.9846438007437 2772.05042513239 18 21 12
167.074048917679 -96.1898887976121 2781.5039374192 17 20 11
176.053100115711 -92.6574056682879 2797.57190215188 16 19 10
164.372459206668 -93.2427130853166 2797.92117135905 15 18 9
164.65057516659 -91.4572410751193 2807.3001470242 15 18 9
141.722071650591 -94.2436602470449 2799.30628945611 16 19 10
114.692930654374 -97.805557788569 2788.41348077421 12 15 8
94.0008153379144 -100.097633596285 2782.37685872589 10 13 6
109.551994779411 -95.3248378756693 2803.07123552531 9 12 5
123.587146329107 -90.8780030542407 2822.48507083342 11 14 7
142.581845919029 -85.5053799937318 2845.33930211486 12 15 8
124.302632968905 -87.3255434634347 2841.08761186321 17 20 13
100.25870272525 -90.2282573630754 2832.80133067496 23 26 19
107.979180850425 -87.0533363556712 2847.33776812215 28 31 24
137.048185796115 -79.8487476389493 2876.92156471638 27 30 23
144.945069074994 -76.6962274684048 2891.2861400721 20 23 16
32.3067979906391 -94.5243924228605 2830.06300995996 11 13 8
25.21431386316 -94.1343350388523 2834.21414475628 12 14 9
-4.25062506719343 -97.9025381487273 2822.93713051016 12 14 9
-6.4271641116096 -96.5810187735867 2830.57112108278 12 14 9
2.23202197450068 -93.2653299454872 2845.5715115434 10 12 7
-4.05710892640077 -92.7175721013826 2850.31884381057 10 12 7
-51.3191613389035 -99.6689179425607 2827.42729503941 12 15 8
-62.7373838945262 -100.024867045074 2828.89932704337 12 15 8
-55.7018007247478 -97.0211336045276 2842.72426743577 13 16 9
-55.3427122033843 -95.2433927815889 2852.02397881652 15 18 11
-88.7099484460165 -99.5514364223143 2839.03347872788 16 19 12
-106.9797578878 -101.110582615642 2836.1507817317 20 25 19
-106.656219389353 -99.3280193723993 2845.4854199011 15 20 14
218.1973779513 -112.773836160608 2719.0187094217 24 26 21
185.743498659289 -117.818830192777 2702.39633468977 19 22 15
178.758434575706 -117.45167611334 2706.44418489296 20 23 14
216.881143393475 -107.616311776015 2746.4867740321 16 19 8
217.01300778221 -105.794593845831 2756.00562253829 17 20 9
207.792191650643 -105.928952624702 2758.0970030039 15 18 9
205.605675699413 -104.598465327868 2765.73957533756 15 18 9
222.290416638625 -99.3763534191039 2788.07571871169 16 19 10
194.193493053776 -103.40104888218 2775.47781662029 17 20 11
186.512180573164 -103.206111332093 2778.82593382628 17 20 11
174.862393780158 -103.817126866498 2779.14836408864 16 19 10
189.364805341022 -99.1032478501936 2799.47598144261 16 19 10
179.309437546319 -99.3923765005606 2801.00171180636 16 19 10
185.177364169873 -96.4637092036435 2814.57999999383 15 18 9
164.725841492676 -98.838068776825 2808.31628956072 15 18 9
153.014456053829 -99.4402261955724 2808.69891680536 14 17 8
116.376044033099 -104.998075206273 2790.63933171881 14 17 10
110.984463423322 -104.306572294218 2795.89104713811 12 15 8
123.347871421403 -100.106198133456 2814.16755664846 10 13 6
104.248815125739 -102.127210607356 2809.34275903582 9 12 5
115.087336623162 -98.2570172561741 2826.34814748531 9 12 5
116.250427487075 -96.3016690766413 2836.24013168254 14 17 10
112.557112678484 -95.3012233980435 2842.59393892775 18 21 14
104.788812942719 -95.0930216423378 2846.02613747822 25 28 21
128.937067573608 -88.7214303733915 2872.1172969458 24 27 20
56.2949698459536 -97.547379729728 2847.78260769283 9 11 6
43.4740424136062 -98.2684754850892 2847.86735841356 11 13 8
-9.14106787042712 -106.509103659181 2820.56332754129 12 14 9
7.76711649313544 -101.575225462483 2841.30327979098 12 14 9
-12.6687815988418 -103.686182450456 2836.40203244443 10 12 7
10.2027561710396 -97.6760117865035 2860.98058980047 9 11 6
-29.5000756174542 -103.364386422186 2843.14915399669 11 14 7
-47.571768790275 -104.989195105129 2840.07976734601 11 14 7
-32.9422529368863 -100.551642302162 2858.90476199251 14 17 10
-36.7404098097808 -99.5362252928987 2865.36046620128 16 19 12
-72.5956694981456 -104.402610824316 2850.67206706646 17 20 13
-109.117555639299 -107.602907080639 2844.90152217686 15 20 14
172.725354434407 -130.06603056283 2683.12514885352 23 25 20
164.149172647055 -130.031453161779 2685.96833850998 19 22 15
149.351087976372 -131.324226606872 2683.84986351386 21 24 15
177.286916778989 -123.48467558163 2715.8819829354 17 20 9
214.748000605198 -113.678206882435 2755.16893691676 17 20 9
176.598402426092 -119.946099299426 2734.46386033512 14 17 8
223.150127774808 -106.523887156298 2789.69566236919 16 19 10
183.242861431458 -113.097243608305 2767.9469672313 17 20 11
185.797650307547 -110.76893358367 2779.23600760897 16 19 10
208.969351177363 -104.176624046307 2806.26427733373 16 19 10
185.472749376302 -107.274604392529 2797.46335120652 16 19 10
205.630127700755 -101.358077322806 2821.91679301943 16 19 10
183.657826277391 -104.119817633448 2814.38667443088 16 19 10
168.797516662032 -105.402299429252 2812.32846862341 14 17 8
151.487947647306 -107.167591202615 2808.5227069149 14 17 8
138.136568189146 -108.111865817909 2807.75028075909 13 16 9
143.262947997919 -105.314899819488 2820.6674919724 12 15 8
158.124452350024 -100.578004254205 2840.63512304042 10 13 6
175.510537421874 -95.367751638281 2862.27657412137 9 12 5
128.137885452428 -103.107080459313 2836.77783509206 9 12 5
122.016692798432 -102.586702072943 2841.36211102738 13 16 9
110.189608063638 -103.194116767161 2841.86040640627 14 17 10
120.382655015439 -99.451961989445 2858.10877534895 20 23 16
65.160704628469 -108.575215282986 2827.8555138874 18 21 14
15.4471406229746 -116.5448593389 2801.88121912863 13 16 9
62.1441291510521 -103.932067923331 2852.83700107112 7 9 4
18.7612685117835 -110.587695569664 2831.71796345895 9 11 6
-15.6875424831 -115.4664379055 2817.05167562838 11 13 8
-38.6473913530958 -118.098861467446 2810.48309329399 12 14 9
-4.26661863920952 -109.752997044389 2843.12567751137 12 14 9
-18.0784855059031 -110.636022550454 2842.8011317259 12 14 9
-26.0752644881044 -110.404824080461 2846.45715248329 14 17 10
-34.0829680626111 -110.172220611907 2850.12347602217 15 18 11
-39.581421610178 -109.464251999958 2855.47888422532 18 21 14
-41.7114449932634 -108.125525109671 2863.06414079539 20 23 16
-38.7621233130058 -105.844062741372 2873.9683283294 22 25 18
-67.9114438319992 -109.541580323784 2863.78402452073 19 24 18
158.906646356952 -140.732049952784 2672.91770633134 21 23 18
151.84335897178 -140.365250932453 2677.04328590694 18 21 14
148.652315064362 -139.152889633035 2684.28391900386 19 22 15
160.251713789225 -134.737775817996 2703.28736258952 15 18 9
185.192898061412 -127.47091904524 2732.70987714631 15 18 9
154.005800745582 -132.32937990702 2717.63581829987 15 18 9
179.895572121412 -124.915349531244 2747.51152896351 12 15 6
181.588985878959 -122.718009899175 2758.25803777447 15 18 9
180.955854043204 -121.027233685584 2767.13898265111 16 19 10
192.978230907147 -116.665030204037 2785.73022281608 14 17 8
194.007174674488 -114.650268869786 2795.74663582494 17 20 11
210.141892482415 -109.473110280515 2817.21903290453 18 21 12
183.436435350195 -113.294720342323 2806.04318675784 18 21 12
171.774506202411 -113.945982849239 2806.38396088495 18 21 12
164.078129570781 -113.7637279702 2809.74857366683 16 19 10
147.558667709752 -115.402023291246 2806.55670101429 15 18 9
143.834602475526 -114.386955668564 2812.93854492778 14 17 10
148.974327233107 -111.556158037235 2825.83750410908 13 16 9
166.26968416263 -106.258307753663 2847.55644052154 11 14 7
162.643594162904 -105.255265433209 2853.84310875525 10 13 6
133.079343284788 -109.514042496851 2841.31963435577 10 13 6
117.216811337962 -110.967216815376 2838.86496910161 10 13 6
115.969661488068 -109.463639592454 2846.96640155449 11 14 7
93.5098582576632 -112.217451506472 2839.91920765337 18 21 14
88.1598003484352 -111.529369899175 2845.13019608457 16 19 12
-29.4584704966465 -131.33052261959 2780.64175449262 6 9 2
-26.8136927449896 -128.98343879446 2791.83865982706 6 8 3
15.5355857856518 -118.845934221881 2830.47370304375 8 10 5
-28.859363196001 -125.763622869779 2808.98116945885 9 11 6
-33.5845942280333 -124.886371457754 2814.96098350954 11 13 8
-32.4801040868619 -122.878082307537 2824.90333443838 14 16 11
-23.0024094064292 -119.259726989697 2840.46344694977 14 16 11
-28.136397132327 -116.716375279567 2855.10470729186 20 23 16
-21.862616302295 -113.760458557121 2868.27594879948 22 25 18
-53.8697041214178 -116.358112141862 2865.01795654203 23 26 19
-90.6642880041426 -121.565416458274 2849.89579854779 17 22 16
-109.800493003679 -123.401465451954 2846.49746194338 16 21 15
148.176795141738 -150.806367128781 2665.22350506732 27 29 24
141.860288008003 -150.269371267016 2669.99927511269 19 22 15
147.177899158252 -147.157842453974 2684.09700784809 24 27 20
178.994733630962 -138.227476748387 2719.19923160663 23 26 17
183.709360128173 -135.309211135993 2732.50739191518 19 22 13
178.313856105517 -134.618245569867 2737.76308276097 16 19 10
166.650475441054 -135.291954377203 2738.10861581899 15 18 9
179.30843303292 -130.680802558127 2757.44882978768 15 18 9
189.694238807271 -126.591343439461 2774.87136425787 15 18 9
189.895997181402 -124.719777516564 2784.31343949178 15 18 9
196.456659943603 -121.49485054972 2798.57695272095 15 18 9
162.617314913913 -126.914036519346 2781.96842419271 16 19 10
142.953696220069 -129.271378858894 2776.33704547678 17 20 11
165.47288092348 -122.670650854733 2802.59511983731 17 20 11
156.961879138032 -122.662764117781 2805.37719181485 15 18 9
134.275011904358 -123.817414251198 2806.82125200311 14 17 10
133.756383915514 -122.123013863792 2815.58795721578 14 17 10
142.137929037126 -118.587987429006 2830.83163125596 13 16 9
144.115667213138 -116.400174864499 2841.29754765471 13 16 9
111.264575253702 -121.402277236339 2826.47984308048 12 15 8
117.294117034135 -118.378405198004 2839.88357380886 8 11 4
102.197317219281 -119.693136632061 2838.0653105899 10 13 6
100.120674414887 -118.340220020706 2845.59546222164 14 17 10
70.2293990683187 -122.636786977081 2833.40265112528 14 17 10
25.4535753295935 -129.903804856103 2810.9230531946 12 15 8
-24.4419509901768 -138.140385679812 2785.16890284151 9 12 5
-0.351796949554117 -131.468055769922 2811.27330801431 7 9 4
17.2682468251799 -126.134538620949 2832.6642162006 5 7 2
-40.9747985220705 -134.109962037026 2810.90961089485 7 9 4
-16.5881268862114 -127.475337210031 2836.72514250704 12 14 9
-19.5851793518216 -126.274222597119 2843.77480148988 14 16 11
-20.0616490368355 -124.583087767058 2852.50012553158 19 22 15
-19.6760559242724 -122.731335910845 2861.76257866306 21 24 17
-36.0599432729529 -124.150274450311 2859.82056699679 23 26 19
-26.3969776348834 -120.506377285454 2875.19258979261 22 25 18
147.482372988623 -158.683389317599 2665.66004981055 0 2 0
141.164311271031 -158.14851029798 2670.43801429101 16 18 13
151.134487624901 -153.952786463792 2688.25756904133 16 19 12
193.070422851107 -142.630873478551 2731.37907901867 20 23 14
194.70099706972 -140.376815220207 2742.17960543253 16 19 10
179.953570725921 -141.77160594238 2740.02624191995 16 19 10
162.809279058739 -143.680226546355 2736.07754130065 16 19 10
199.022441748181 -133.813792498178 2773.76068008865 14 17 8
178.745519016796 -136.415374684961 2767.35717273134 14 17 8
198.655152928879 -130.20722390003 2792.01352655031 14 17 8
178.331201378372 -132.802346637467 2785.65576480181 15 18 9
169.833647421572 -132.807106968216 2788.42668995978 15 18 9
152.573904690056 -134.699594010685 2784.59058726269 17 20 11
136.053559281117 -136.413009131157 2781.41035681785 17 20 11
137.859668357897 -134.179338546141 2792.03992565388 15 18 9
133.293038968703 -133.318530223774 2797.86433836814 14 17 8
135.958292481935 -130.920896781078 2809.03343975724 14 17 10
139.468275607777 -128.35759949647 2820.75647426985 14 17 10
148.669960273872 -124.607638364127 2836.57087968175 14 17 10
128.824623108615 -126.988613349266 2831.12344298892 13 16 9
105.667084783043 -130.039751793368 2823.39580792331 13 16 9
106.806368393618 -127.993199709062 2833.29795317775 10 13 6
108.79246536124 -125.781290698559 2843.75200772868 10 13 6
123.063432762664 -121.037952217607 2862.88818914062 13 16 9
113.690662900314 -121.202041675717 2865.1345182466 14 17 10
44.4048601784934 -133.668209159082 2825.25180370165 13 16 9
-2.97716388470848 -141.551068127891 2801.20049431087 7 10 3
6.32404334236769 -137.812547730212 2816.91776328409 7 9 4
14.8697816556163 -134.25078003525 2831.99443871117 6 8 3
5.26145138381784 -134.383771146923 2834.47042430592 6 8 3
-15.6748211249491 -134.976395289715 2838.343778811 10 12 7
-14.4996902084462 -132.93290114516 2848.21111696489 11 13 8
-13.2927537403895 -130.89343304225 2858.04712894111 16 19 12
-40.5429335842196 -134.512469132873 2848.79950731477 18 21 14
-18.3416873230562 -128.321073511487 2872.59964191842 21 24 17
-66.7215194557773 -136.074118296208 2849.51998421127 20 23 16
-62.9874012127547 -133.537117795297 2861.02399805034 19 22 15
149.754224468567 -163.905278314596 2678.34596732325 15 17 12
149.660570897711 -161.958922621869 2688.07033709021 13 16 9
149.5951219113 -160.015796532322 2697.76751446381 19 22 13
171.387577134593 -153.134061305784 2724.70537135439 18 21 12
184.719545740888 -148.208397118607 2744.74670694911 16 19 10
205.98125766537 -141.534485175438 2770.82574449603 15 18 9
176.319125254377 -146.301541594447 2757.05768205468 13 16 7
179.609562692495 -143.681716589108 2768.99037390825 13 16 7
168.734724788009 -144.221923767306 2769.95005018405 14 17 8
172.868383330382 -141.433447137944 2782.43705585534 17 20 11
161.977681950062 -141.971153237927 2783.41211513888 17 20 11
170.940888954779 -138.142639385243 2799.4520601781 18 21 12
157.654539519441 -139.202199457087 2798.63209738845 18 21 12
149.124594703941 -139.212696419333 2801.43569717757 18 21 12
138.978019421578 -139.568578549393 2803.06186406 17 20 11
162.534164361716 -132.634080562433 2829.6577998364 16 19 12
166.912924038781 -129.875660815521 2841.90619669377 16 19 12
154.394934806164 -130.756378300378 2841.71371732583 16 19 12
143.460659927022 -131.286984367959 2842.73099635615 15 18 11
137.364485274847 -130.778986815286 2847.29259676963 14 17 10
135.328733898108 -129.409170877022 2854.77964489608 13 16 9
143.899525605042 -125.80518504844 2869.82520211117 10 13 6
108.442666894704 -131.484628686098 2853.44444523102 11 14 7
105.583354317137 -130.285192666826 2860.35757456427 14 17 10
71.5596547254909 -135.595045476911 2845.3328627658 15 18 11
-5.36266933943796 -149.779804713952 2800.53447437028 9 12 5
-11.7296950922823 -149.235819300565 2805.35971494055 7 9 4
-4.0533646056895 -145.7927020752 2819.90001451959 7 9 4
-22.8161048483089 -147.80582730928 2816.15733152372 7 9 4
-24.2073554931341 -146.240787734943 2824.39243624548 7 9 4
-33.066716944592 -146.20606924006 2827.51680664096 6 8 3
-32.7665972435742 -144.304770098794 2836.85681306654 6 8 3
-54.17299278598 -146.807689675998 2831.56030661664 11 14 7
-29.5683721305426 -140.005663556678 2857.13466979261 13 16 9
-49.3338659969123 -142.165872735969 2852.99222775171 17 20 13
-58.2212523112045 -142.126957862531 2856.14380702734 19 22 15
-76.4040068638106 -143.936963894008 2853.21174021382 20 23 16
136.677876547583 -174.64050253707 2668.82848795335 15 17 12
152.783708888438 -166.935511414421 2701.29190641 16 19 12
154.312937688264 -164.619157883689 2712.18386310883 14 17 10
169.164796505539 -159.2648537421 2733.4867289353 16 19 10
186.469176483767 -153.387255938664 2756.52792821448 15 18 9
172.468778768236 -154.662358446716 2755.03197368285 13 16 7
174.174466911317 -152.367644285257 2765.75223977659 13 16 7
160.918322428847 -153.45856535552 2764.9069181641 14 17 8
142.084857768312 -155.788372288034 2759.86368597575 15 18 9
172.366956525609 -147.107026090993 2792.27566416672 16 19 10
186.126005019231 -142.169481352522 2811.89114717963 17 20 11
180.848187120675 -141.490875301582 2817.03180069541 17 20 11
159.589994566185 -144.346342824659 2810.22332360238 17 20 11
180.708267134967 -137.83939180441 2835.05222814172 17 20 11
193.926181637663 -133.110927285713 2853.8190578545 17 20 13
174.233750940972 -135.608241249185 2848.2369776282 17 20 13
168.188409597938 -135.109423577682 2852.74945659668 16 19 12
167.801282086126 -133.381877156229 2861.38034308037 16 19 12
165.817192461994 -132.007589354524 2868.81576722532 15 18 11
152.472185095349 -133.084757444518 2868.05665508597 13 16 9
129.31404099194 -136.253388618494 2860.34698694087 11 14 7
107.298787461124 -137.331207606063 2862.52967850184 14 17 10
60.9737217156616 -145.345105487433 2838.8647328466 15 18 11
-16.7934870535018 -159.934876519216 2793.54827870075 11 14 7
-21.5390873374197 -159.042749201106 2799.54578322525 7 9 4
-11.4074882130919 -155.033296658617 2815.81566427608 7 9 4
-16.1084258420381 -154.146622871348 2821.76962415344 7 9 4
-42.3874279590066 -157.750902519942 2812.97233700971 7 9 4
-51.289256189246 -157.721002535392 2816.13958971801 7 9 4
-50.1977367052091 -155.62257905711 2826.0818367288 7 9 4
-73.3161233830395 -158.515031586156 2819.708779107 9 12 5
-39.5404725542288 -149.720742263854 2851.46907197961 11 14 7
-55.9694607652514 -151.237500155678 2849.58630379392 15 18 11
-49.7212284525959 -148.125191109886 2862.75980063988 18 21 14
-92.3503539247017 -154.935505058447 2843.74897406782 20 23 16
-105.552570705442 -155.748980531178 2844.22634227188 21 26 20
138.304106519769 -181.996283548274 2671.13495524934 13 15 10
148.265395511098 -177.636346288985 2688.93906460952 14 17 10
156.749912015728 -173.650542846249 2705.43077121697 11 14 7
152.831869357884 -172.58414454018 2711.99798876904 18 21 14
154.393117717969 -170.246955776924 2722.85540797492 14 17 8
164.608442666881 -165.918601520355 2740.41192382789 13 16 7
178.829414254276 -160.694324041527 2760.94324072411 12 15 6
146.788042932007 -164.193810562416 2755.01876437077 15 18 9
151.658316699784 -161.152285295047 2768.15414691558 13 16 7
188.308219212479 -150.910643198686 2805.34814101724 13 16 7
205.28633303517 -145.193202302451 2827.32008921518 14 17 8
186.504576337198 -147.574535802063 2822.23312585974 14 17 8
185.236650302785 -146.000112478725 2830.34471834827 15 18 9
180.784947693297 -145.144799757013 2836.05581931873 16 19 10
178.746892307276 -143.753138551394 2843.54226448148 17 20 13
169.481296837364 -143.97139805046 2845.69017413984 17 20 13
166.651621859983 -142.759747254051 2852.57206755925 16 19 12
181.626821253994 -137.629977228376 2872.36839325428 16 19 12
174.000938101387 -137.494141126221 2875.67020348635 15 18 11
154.174586589151 -140.021749008461 2870.22524819557 13 16 9
142.893110570691 -138.849049399175 2879.83768684493 12 15 8
87.734535933818 -148.965425428199 2849.66827543326 11 14 7
87.3063418393771 -147.214906363797 2858.33688413598 15 18 11
12.0706016372369 -161.52075623241 2814.71540881032 17 20 13
31.2966591361175 -155.525576042189 2837.24788459618 9 11 6
11.8085190198438 -157.813109993125 2832.84884472704 8 10 5
-24.3074372782455 -163.605373090992 2817.13925616173 8 10 5
-24.04236402836 -161.661060690764 2826.50770689047 9 11 6
-35.3974195647186 -162.17248351918 2827.93999205932 13 15 10
-43.4428015697979 -161.980786699668 2831.64977682161 10 12 7
-54.0066018447316 -162.311550463122 2833.68654180577 9 12 5
-59.5656706086998 -161.59284447662 2839.10055483559 9 12 5
-51.6875687372851 -158.08766703974 2853.43165781661 13 16 9
-93.4066696307889 -164.851041452965 2834.92747290225 16 19 12
-65.2698317446747 -157.179383212128 2862.53373601748 19 22 15
-113.078258989395 -165.13440262031 2840.33342588848 17 22 16
147.667591566822 -187.48676656203 2679.65229251011 19 21 16
152.940041290359 -182.18633675818 2703.39073134935 11 14 5
147.453174218299 -181.482217043044 2708.73520287631 16 19 10
145.874527670393 -179.856137517124 2717.14737282186 13 16 7
144.31632673017 -178.232353678697 2725.53991712034 12 15 6
161.627920729803 -172.198174323961 2748.55081008473 12 15 6
163.306035321631 -169.850687843601 2759.2903195548 14 17 8
116.873433889732 -178.692817881084 2733.02108998338 16 19 10
172.308596381564 -163.88693224051 2784.89463854525 15 18 9
176.487462749587 -161.005660389168 2797.32337492608 15 18 9
171.967304816808 -160.139093673466 2803.10078970913 15 18 9
204.913887130313 -150.701743394639 2837.00588722051 16 19 10
178.921439132905 -154.764788211529 2826.57528141581 17 20 11
176.056064801963 -153.540692599293 2833.4904476407 18 21 12
170.794710184238 -152.862835207897 2838.6148635268 17 20 13
163.11987879764 -152.728936616734 2841.96556644209 17 20 13
161.888196435961 -151.144592499421 2850.03936429681 16 19 12
170.381447413626 -147.392313656441 2865.14000295956 15 18 11
180.562966109176 -143.287211910316 2881.34617622769 14 17 10
158.315203121132 -146.406088507996 2874.1423796322 12 15 8
148.204785427674 -146.812730952205 2875.74014384661 13 16 9
143.78726846999 -145.957275728691 2881.41727689776 12 15 8
127.098343437665 -147.796475773547 2878.42337730989 10 13 6
76.7212264359598 -156.982435765997 2851.87052428999 15 18 11
68.8912344992292 -156.8270029707 2855.3717833373 19 22 15
50.3354369994815 -158.995256864546 2851.44619324476 10 12 7
6.93333135407004 -166.513781674046 2830.47380203206 8 10 5
0.619044398899149 -165.983019848243 2835.24862663708 8 10 5
-28.9396967836528 -170.438784422335 2824.16604285618 10 12 7
-30.3221923780219 -168.832846310263 2832.38674673939 15 17 12
-27.5147619654175 -166.34134637203 2843.40079093861 16 18 13
-25.5034975330721 -164.032215693267 2853.81548450491 12 15 8
-50.2660404831747 -167.395061655682 2846.31080367515 11 14 7
-51.6041906580376 -165.79443559073 2854.4879191775 13 16 9
-62.1803087164019 -166.138948912332 2856.53894808138 16 19 12
-122.551333189022 -176.885510149999 2825.97074239653 20 23 16
-165.230052672247 -181.926531940938 2816.66704155245 19 24 18
146.199004661859 -195.544404053015 2679.46771768324 26 29 22
163.15988365608 -189.387848319716 2702.80878865721 22 25 18
147.575419932338 -191.123496009789 2700.11974698788 20 23 12
157.665880567527 -186.670927466151 2717.78189613283 16 19 8
154.549738918953 -185.408391303037 2724.94073435651 15 18 9
150.662458060593 -184.334019980752 2731.47588873664 14 17 8
145.998401749309 -183.447086514789 2737.39318653996 15 18 9
175.193945532429 -174.548695725522 2769.43514146886 15 18 9
132.738347834813 -182.604526536606 2746.1853581467 17 20 11
176.342211657332 -170.382459077202 2788.93411940895 19 22 13
178.944211698482 -167.84082518881 2800.1447492279 17 20 11
165.684049769178 -169.010434930028 2799.3150471507 14 17 8
195.425941676404 -160.181214847052 2830.82469371604 14 17 8
182.194603415859 -161.354133941161 2829.96685843058 14 17 8
200.962143888776 -155.139207254559 2852.92216996515 14 17 8
186.929665422662 -156.49622728106 2851.47017946655 16 19 10
171.245657989035 -158.215787775228 2848.87760849213 15 18 9
156.318651223563 -159.744945736634 2846.92209257023 16 19 10
108.189785124491 -168.794212667897 2820.95064647145 16 19 10
160.374040523227 -155.085732253314 2867.71245825684 15 18 9
136.453260888369 -158.620829395583 2859.39735266065 15 18 9
148.282706692017 -154.100516214331 2876.73989835825 14 17 8
142.232487883 -153.607054254422 2881.25801229438 11 14 5
119.811316181485 -156.759384391953 2874.2310196914 10 13 4
