ply
format ascii 1.0
comment KinectMotionCapture
element vertex 763
property float x
property float y
property float z
property uchar red
property uchar green
property uchar blue
end_header
144.453910554037 659.728957639552 2862.28321210261 182 181 186
132.651603306643 661.319664968744 2862.43168375314 180 179 184
121.661225099981 662.791356603217 2863.20873549112 175 174 179
113.176723061059 663.89778107976 2865.80246727245 166 165 170
102.985160881026 665.252005223557 2867.22055384886 156 155 160
91.0751425886169 666.855334702297 2867.47445645316 156 156 158
81.684309707152 668.091850157089 2869.53171360968 173 173 173
73.9784302006408 669.083116978457 2872.78619127504 203 203 203
67.9691952094759 669.827779250043 2877.22648037783 183 183 183
57.6779792820727 671.193858706211 2878.74177238854 169 169 169
47.3641469211699 672.562494479049 2880.27914502956 169 169 169
36.1681267022988 674.058636336016 2881.25678859341 157 157 157
21.499652907218 676.057423484034 2879.94036402335 148 148 146
11.1061886090225 677.435803283735 2881.55537219237 154 154 152
4.1515489720898 678.315541376151 2885.49725077702 164 165 160
335.482924138014 629.323515737916 2691.25259542358 203 203 203
338.875406499083 628.723661417743 2703.55948451637 195 195 197
342.311045387196 628.118189625127 2715.82434879981 198 198 200
343.467205103755 627.841765066421 2726.05340860687 203 202 207
340.773549829661 628.120600480377 2732.93810215633 190 189 194
338.870207408131 628.28534014809 2740.47177597941 190 189 194
334.64245826329 628.78480391939 2746.0130821683 187 185 190
331.20136250629 629.170679209039 2752.20726540188 181 179 182
326.984398460641 629.668016752473 2757.73817608339 197 195 198
322.772069564895 630.164403110744 2763.26496241927 206 204 207
316.200239563008 630.999832877441 2766.83325412854 169 167 170
308.831429592962 631.949314353841 2769.75919261712 171 169 172
300.659794084563 633.013525498123 2772.0484824207 179 177 180
295.648031908314 633.623165475306 2776.93513182679 171 169 172
288.24987515195 634.575108235066 2779.8898483314 135 133 136
281.63820255024 635.413673792096 2783.49724086284 144 142 145
274.219900201889 636.367330660256 2786.47170889362 156 154 157
268.393544390201 637.092181390895 2790.73332440484 150 148 151
264.170638456342 637.586788842989 2796.27053897549 156 154 157
259.952409651031 638.080498786671 2801.80357958169 153 151 154
254.931250926925 638.689023563783 2806.69972472479 154 152 155
250.719874680963 639.181351951947 2812.22582698957 152 150 153
248.135393533915 639.440527349836 2819.00501475877 156 154 157
246.376191290704 639.581670725743 2826.39904277562 164 162 165
239.742797012987 640.420144141506 2830.02801887087 156 154 157
233.102472142212 641.259242355431 2833.66412264459 161 159 162
225.635939749222 642.216030945737 2836.68602095551 158 156 159
219.800191159232 642.939353219309 2840.95718953972 157 155 158
213.138235047026 643.780365869261 2844.61415266114 155 153 156
203.99519943238 644.975250989864 2846.4318342558 152 150 153
193.179763018286 646.408331229342 2847.04053511298 156 154 157
187.309690980904 647.134978048784 2851.34529602141 160 160 162
180.60575833355 647.980280037921 2855.04330850031 163 163 165
172.229759583569 649.06376784509 2857.53268494146 169 169 171
159.66698768751 650.743448327058 2857.006587561 171 171 173
150.415145868822 651.950530046961 2858.93017483069 172 172 174
141.144556677667 653.159680326914 2860.8720727861 172 172 174
130.174925326556 654.610299247902 2861.63163712767 174 174 176
119.178809019421 656.063903205468 2862.417060235 177 177 179
109.844468828164 657.280428616944 2864.42151167669 177 177 179
100.491169514099 658.499239227355 2866.44411421421 175 175 177
88.5754368155545 660.081883413775 2866.70674858544 143 143 145
80.8787711957395 661.064027886747 2869.95342500421 143 144 146
74.0227304798924 661.926500574716 2873.7999452219 188 189 191
68.0134341487584 662.668575950815 2878.24067757821 195 197 196
56.0108903343677 664.26146946975 2878.58766398192 184 186 185
44.835746676541 665.736286386489 2879.54772862889 160 162 161
31.0554014435787 667.580164620657 2878.78918405524 160 162 161
19.8213736812054 669.062168939097 2879.80665919366 151 153 150
10.2878110295168 670.30239425539 2882.00543864803 148 150 147
12.850014398436 669.827836735389 2892.28413176403 165 167 162
340.145262184782 621.64957852013 2696.25916098084 202 202 202
344.319201949349 620.969472522473 2709.2188218005 195 195 197
344.678587480022 620.826723388471 2718.80208582353 198 198 200
345.065653832115 620.680248771794 2728.35841300641 195 194 199
341.599370124114 621.075903911452 2734.57616279012 190 189 194
338.919484177712 621.360669430309 2741.44630672672 187 186 191
334.691454081576 621.862999123655 2746.98746832237 193 191 196
330.468018233711 622.364205881659 2752.52457157292 185 183 186
325.464890527588 622.97470331796 2757.40252009045 171 169 172
320.462297516939 623.584779534442 2762.27999990357 197 195 198
314.67223254732 624.30506826571 2766.50591449166 179 177 180
307.299329133211 625.247046025375 2769.43702687676 170 168 171
299.915353769986 626.190006798367 2772.37898858207 177 175 178
292.520473536799 627.13397545262 2775.33196786204 171 169 172
282.727391943915 628.413610661474 2776.36538153679 133 131 134
273.709184886823 629.58392687289 2778.06239996055 143 141 144
267.070926149313 630.419993083043 2781.69690016223 159 157 160
264.43270219242 630.695378628287 2788.52705948336 150 148 151
261.003222788341 631.081394688299 2794.70934885899 150 148 151
255.971580893184 631.691535879825 2799.61566504056 148 146 149
249.326019975305 632.527343269311 2803.25745466887 154 152 155
245.10086519711 633.024062257587 2808.79659029106 147 145 148
243.313672076812 633.179643561206 2816.21627974322 158 156 159
241.542594573481 633.33301632876 2823.62029257017 161 159 162
236.527567474212 633.939765647085 2828.5106113312 158 156 159
229.062253588896 634.888675708869 2831.53246408906 159 157 160
222.404930497517 635.724314780076 2835.1859586069 153 151 154
215.74034211626 636.56058795029 2838.84623610344 152 150 153
209.068780624791 637.397491278629 2842.51368270639 150 148 151
199.915793136801 638.580258105294 2844.34269989496 152 150 153
191.570838421394 639.649807618133 2846.80330922468 157 155 158
183.211004856045 640.720996971116 2849.27845110469 159 159 161
176.497278491694 641.562167450687 2852.98679952465 162 162 164
168.111620601734 642.636081650681 2855.48718260956 167 167 169
159.711084400339 643.711576654106 2858.0021064356 168 168 170
148.786477496754 645.138311198602 2858.72015309362 169 169 171
138.673982023096 646.451360180624 2860.0661487747 170 170 172
126.858269992776 648.000828090019 2860.23402674107 172 172 174
117.538760285588 649.202392803853 2862.22596247743 174 174 176
108.200378105422 650.406054886555 2864.23599102625 176 176 178
99.6894154431427 651.494173585795 2866.85870418363 178 178 180
86.9237566986962 653.173556901828 2866.53378252184 170 170 172
78.3733833270053 654.266349103068 2869.1949403547 156 157 159
69.8080875112033 655.360904577843 2871.8706557841 134 135 137
63.7889549611081 656.101461468698 2876.32104224071 148 149 151
52.6326890195703 657.555264400176 2877.26546689419 165 167 166
38.0195125957767 659.488465422382 2875.90382481776 165 167 166
24.2238936225383 661.307438338153 2875.16412828917 161 163 162
12.9745624770092 662.772442897901 2876.1993124702 154 156 153
7.74254425962795 663.402419576656 2881.3016736255 153 155 150
13.7603724813404 662.472731252069 2893.88446126817 170 172 167
337.603379842555 615.070937473904 2685.58550129304 206 208 205
342.501891046501 614.323353216936 2699.25253453724 196 196 196
345.140645174534 613.886395289291 2710.86723941619 196 196 198
345.501526104026 613.762445598634 2720.44623993657 197 197 199
345.115701908922 613.740856549514 2729.33435366618 193 192 197
340.872926654522 614.248511227203 2734.88970823359 192 191 196
338.19073424346 614.541705210633 2741.76089680031 193 192 197
333.180434857745 615.153932314671 2746.64571125755 184 182 187
329.734586299385 615.551329041259 2752.8425733878 180 178 181
323.945300881328 616.269678426135 2757.06833834621 181 179 182
317.366633745139 617.095768515268 2760.64479983118 155 153 156
311.568746142464 617.814376778628 2764.87906862395 197 195 198
304.977607760623 618.641213502864 2768.46780388787 184 182 185
299.962843278433 619.251762687854 2773.35730024763 169 167 170
290.186717473629 620.513620573277 2774.3768418968 165 163 166
279.592106958638 621.886888057532 2774.77543751285 150 148 151
269.768499482645 623.1539192364 2775.84102671091 135 133 136
262.320708613403 624.095313049196 2778.84658975309 156 154 157
259.670549133437 624.380223017172 2785.68719351956 139 137 140
256.229200956286 624.773101487826 2791.880254501 137 135 138
253.60166491042 625.054687661851 2798.69888411827 142 140 143
247.757338368658 625.775612161779 2802.97892512529 138 136 139
243.528097892374 626.275617752063 2808.52163214774 147 145 148
239.303534544638 626.774725833934 2814.06016520575 141 139 142
237.52249451462 626.940145831522 2821.47229039363 139 137 140
232.497560379913 627.548203057905 2826.37225367906 164 162 165
225.839371932334 628.378892939844 2830.02700115442 155 153 156
219.174168395898 629.210159303156 2833.68896735501 150 148 151
210.859939671839 630.266000560457 2836.1207535533 149 147 150
204.176671729941 631.098954540844 2839.80040854649 148 146 149
197.486137421149 631.932660693667 2843.48683013666 153 151 154
190.788441125904 632.767033853375 2847.18026510194 156 154 157
182.426600431319 633.827802879298 2849.65894021074 158 158 160
174.04994520103 634.890144668707 2852.15209391874 161 161 163
165.658432917885 635.954064581564 2854.65976765389 165 165 167
158.920693540992 636.792601275576 2858.39235062264 166 166 168
147.994406474207 638.200723537783 2859.11515443674 166 166 168
137.041589780211 639.612072343385 2859.86382568114 169 169 171
124.381925887473 641.254859606538 2859.43905844534 170 170 172
115.898693075771 642.329221941696 2862.03626863578 170 170 172
104.868481441649 643.749502045686 2862.86047415783 172 172 174
98.0415736424671 644.598041490799 2866.68012428581 174 174 176
86.9681263705773 646.023300383303 2867.54652757253 169 169 171
78.4178079516282 647.105412299284 2870.20920937801 167 168 170
69.0005995809351 648.304977095096 2872.2981190765 154 155 157
60.4185230018239 649.390856756476 2874.99178033337 143 144 146
49.2546051493652 650.826872246088 2875.94643242364 158 160 159
36.3489972902897 652.498718682812 2875.76159624898 162 164 163
22.5496692427196 654.291328370288 2875.02947935966 155 157 156
13.880947011395 655.38765934226 2877.80763633089 155 157 154
9.51420554485072 655.900399548702 2883.4850016986 157 159 154
342.254174679057 607.41733852357 2690.6001855997 203 205 202
344.858690002691 607.011953576995 2702.24388580276 195 195 195
347.50253530949 606.601433554635 2713.84928971308 197 197 199
344.779612491802 606.908961389931 2720.75880563864 197 197 199
342.068852272755 607.21466109228 2727.6565141212 189 188 193
340.146375341622 607.414599636487 2735.20398641659 184 183 188
337.461898262984 607.716160367795 2742.0762070903 189 188 193
334.789605041565 608.015890286175 2748.93659960704 190 188 193
328.219479811852 608.836408863548 2752.5057401616 183 181 184
323.209972917074 609.44788740442 2757.38987830094 178 176 179
315.8432878525 610.373926253915 2760.31717153699 169 167 170
310.829047295629 610.985234953364 2765.20603537525 163 161 164
304.235746487464 611.807037091415 2768.79766207012 186 184 187
299.218813091901 612.417918671224 2773.6892630651 163 161 164
288.646776054569 613.770060073733 2774.0685653098 172 170 173
276.456903659814 615.337524164256 2773.18842090373 180 178 181
265.827880454882 616.695965046267 2773.62338019494 135 133 136
260.768700086253 617.310521401167 2778.55638992855 145 143 146
256.511490298145 617.817944910168 2784.12577452596 139 137 140
255.472401333336 617.89587404695 2792.23130960877 136 134 137
252.037379812668 618.293249098502 2798.41776137609 139 137 140
245.381629664319 619.119680682705 2802.07071695881 142 140 143
240.337151358146 619.731027326017 2806.98960172104 151 149 152
234.482330900135 620.450090434199 2811.28033845491 129 127 130
232.689437407081 620.627678106739 2818.70243592978 145 143 146
227.652704223575 621.23728175953 2823.61388728394 150 148 151
220.982723752751 622.064092050156 2827.2809178146 149 147 150
213.486776075918 623.000588592003 2830.33502509311 149 147 150
205.97984040726 623.938175500679 2833.3998824542 149 147 150
199.284843679341 624.767300886524 2837.09175016989 151 149 152
194.231986544474 625.377698874227 2842.01909544376 154 152 155
188.353205259259 626.097718716473 2846.33348422837 152 150 153
181.642528075975 626.928185253687 2850.04038680446 156 156 158
172.433222458906 628.090572402241 2851.92834083527 159 159 161
161.540476680042 629.476362822427 2852.62113829113 163 163 165
154.793217496702 630.310720438185 2856.36413007634 164 164 166
143.857215898509 631.701374253439 2857.09916239257 165 165 167
134.571133455572 632.872437870776 2859.06207456813 163 163 165
121.905736872391 634.491888549444 2858.64644911568 165 165 167
112.574652417342 635.668081628112 2860.65362866437 164 164 166
104.912852604277 636.62236111921 2863.86980125378 164 164 166
97.2400844424413 637.577905407297 2867.09667863921 166 166 168
87.0125460987205 638.872211990821 2868.55934586723 163 163 165
74.2128911127065 640.507408697914 2868.27471373738 158 159 161
63.93463058411 641.807742767915 2869.78719582691 159 160 162
56.1946487250564 642.771111753427 2873.07966092042 167 168 170
47.5878867199224 643.849207210003 2875.79864783033 161 163 162
34.6787546114711 645.497425615245 2875.62114134211 159 161 160
21.7351876745875 647.149821209188 2875.47687391892 163 165 164
8.75735352693585 648.806359823053 2875.36602200604 157 159 156
7.83263088533026 648.865743449736 2883.36073065756 162 164 159
335.919041386687 601.266045459394 2676.54523390425 119 121 116
343.839176051102 600.194525737285 2692.92794085954 197 199 196
341.836611804792 600.41688504484 2700.55162726378 199 199 199
344.472186977725 600.034238420309 2712.16112386326 195 195 197
342.513327275759 600.250262512041 2719.74234735104 200 200 202
342.119083674006 600.262154679563 2728.6342110087 199 198 203
340.196274351614 600.472926422216 2736.18041223153 198 197 202
336.73337417033 600.884076597718 2742.39251196367 187 186 191
334.058773945742 601.192294017385 2749.25394091967 184 182 187
326.704357002367 602.10959207844 2752.17034361473 184 182 185
321.690682349462 602.721713969099 2757.05852531268 177 175 178
314.319882043739 603.640310818555 2759.99100496838 177 175 178
308.513751523179 604.354710007132 2764.23408119988 144 142 145
301.124675841748 605.274844163335 2767.18448136055 176 174 177
296.099706165532 605.886797812839 2772.08390404959 165 163 166
284.726235240228 607.324480780958 2771.82948966865 172 170 173
272.526527788157 608.869066486698 2770.96249303517 176 174 177
261.090058045901 610.313702024563 2770.76927198199 141 139 142
256.818575096287 610.825919264604 2776.35245937041 135 133 136
252.551412781317 611.337310013773 2781.93114061775 137 135 138
249.092275393136 611.743327292125 2788.14026248067 139 137 140
246.446545715148 612.043377558929 2794.97389181674 142 140 143
240.584431154383 612.761296295736 2799.27204084007 149 147 150
237.146538085328 613.16386879536 2805.46057591683 145 143 146
231.283538500354 613.881322453175 2809.75933467876 135 133 136
229.482848404525 614.070671268713 2817.18777384563 158 156 159
224.43820595332 614.681389948023 2822.1069144191 148 146 149
219.394204490475 615.291674007607 2827.02548271827 148 146 149
210.256498092733 616.433359109257 2828.84539741934 149 147 150
205.204082002908 617.044291184488 2833.77222579106 147 145 148
196.8614769326 618.082055133888 2836.23519978086 150 148 151
191.802688654721 618.693200836409 2841.16832425549 155 153 156
184.264710666833 619.625914767521 2844.26472732242 152 150 153
178.372901925139 620.34480539281 2848.59221946168 155 155 157
169.986471361981 621.387032803064 2851.09805311617 157 157 159
159.920222994628 622.646912672746 2852.40564526663 162 162 164
151.500041647059 623.692818255299 2854.94411247472 163 163 165
143.065189968844 624.740501259395 2857.49722267788 164 164 166
134.615523216418 625.789816063692 2860.06480328938 162 162 164
122.790445078946 627.27635256742 2860.25162101487 164 164 166
110.934845306752 628.766396033125 2860.4678910054 162 162 164
102.42519385034 629.822506267733 2863.09403295306 162 162 164
94.7465890411179 630.770766597562 2866.32778278148 165 165 167
86.2091765755464 631.830081704346 2868.98101814291 167 167 169
72.5579473592504 633.551538925379 2868.1123532283 162 163 165
61.4240037616414 634.946566354387 2869.04329845787 149 150 152
53.6782277723571 635.902646021678 2872.3425945664 160 161 163
45.9214828957943 636.860049522672 2875.65258728011 157 159 158
33.8658969699153 638.373712262383 2876.0639555592 153 155 154
20.0611485414224 640.11340261173 2875.34504264333 156 158 157
9.66407849005169 641.411908394336 2876.97577456538 159 161 158
343.616708031254 593.231371612295 2684.25896512264 110 112 107
345.424174680698 592.981325215446 2695.25427815417 189 191 188
341.888250200282 593.409065405383 2701.53610225596 195 195 195
343.753046526472 593.151143034758 2712.47565013649 198 198 200
342.564078394089 593.280353745743 2720.72210021206 200 200 202
342.169431599789 593.308513169374 2729.61195995253 193 192 197
340.246225571898 593.53018518713 2737.15694405389 191 190 195
336.783020206472 593.946857936806 2743.36853060434 189 188 193
333.328087658585 594.362133953423 2749.57210856121 178 176 181
326.753405644319 595.172684603864 2753.14690948345 178 176 179
321.739454629912 595.784841334282 2758.03536046316 175 173 176
314.368471919805 596.695500387133 2760.96919445199 166 164 167
305.410870889591 597.80691929775 2762.61507303247 144 142 145
297.223947009352 598.82017578478 2764.92673764938 148 146 149
290.605765084572 599.63413334329 2768.54456892828 166 164 167
281.599284163649 600.750371095701 2770.2379358981 157 155 158
267.005238733455 602.574325729737 2767.45653371296 96 94 97
253.960149502356 604.201383882391 2765.99991497374 119 117 120
249.670808824658 604.718519007906 2771.59977064681 122 120 123
247.790118898914 604.930290595795 2779.10399890944 134 132 135
245.925609442883 605.139727534246 2786.59250478662 139 137 140
241.661656594403 605.652823519011 2792.16808479521 147 145 148
234.980323016301 606.471865912273 2795.84753722106 127 125 128
231.528604308066 606.881665454258 2802.04873320821 118 116 119
227.274164033611 607.392749702258 2807.61482658199 160 158 161
224.650326855386 607.697162261704 2814.42640943922 159 157 160
218.778955683904 608.412591874131 2818.73411830532 149 147 150
213.721263158896 609.024660878469 2823.66601821755 146 144 147
206.207625471463 609.947406975258 2826.73972424787 145 143 146
201.145409716101 610.559515485215 2831.67610995579 150 148 151
193.61568413237 611.483758997521 2834.7655701876 154 152 155
187.724174127916 612.200443153564 2839.09275394956 155 153 156
179.349912136895 613.230875946143 2841.58824727138 155 153 156
172.617900249818 614.053463603915 2845.31783786066 155 155 157
165.878644869948 614.876623643998 2849.0541989055 157 157 159
156.635082680265 616.016380624143 2850.97951494832 160 160 162
147.37300451151 617.158163955613 2852.92325598023 161 161 163
138.928450637654 618.196337749213 2855.48740606424 161 161 163
128.79260689203 619.448126137777 2856.8653033715 162 162 164
119.474266721234 620.596248631737 2858.8636386357 164 164 166
108.453196574729 621.959473858457 2859.68719921136 161 161 163
102.469781418203 622.685608203569 2864.10458725611 156 156 158
93.0991930499636 623.839727724741 2866.15391939474 154 154 156
82.8622932709742 625.103181355239 2867.63078056134 161 161 163
70.0532567831402 626.691383218468 2867.36241021888 169 170 172
60.6168567067562 627.853268631719 2869.47594656111 169 170 172
53.7230476865971 628.693717729428 2873.36356418231 158 159 161
45.9663329914215 629.643156634004 2876.67470408933 156 158 157
32.1958825934123 631.352046168546 2875.92628506915 157 159 158
14.9495700571212 633.49961673903 2872.89663655656 153 155 154
2.81795012160213 635.001046307989 2873.38531578851 166 168 165
16.5562385117624 633.235926194951 2891.17824619347 177 179 174
347.49157679386 585.720895422406 2688.60609269176 114 116 111
346.242619136776 585.872279997232 2696.90917380677 190 192 189
343.476768524181 586.210399252078 2703.85679626881 196 196 196
344.574536451198 586.071375206549 2714.12319440824 198 198 200
344.159511338624 586.118614912411 2723.03047006263 200 200 202
343.768309154234 586.162556515513 2731.91457665531 191 190 195
339.520206039877 586.681923063067 2737.47315301517 189 188 193
334.498462269826 587.296388992751 2742.36900101779 189 188 193
328.697317308194 588.00662154282 2746.60774234293 173 171 176
323.674752261998 588.620335959428 2751.5045169582 172 170 173
319.436590635095 589.13694551945 2757.05362875562 179 177 180
312.84552875607 589.943474285071 2760.64562740052 174 172 175
302.308029694554 591.236463140639 2760.99903780327 147 145 148
293.323705361516 592.337422758383 2762.67299889742 147 145 148
285.903763121234 593.245054801017 2765.65589781425 160 158 161
276.09193727266 594.447268198906 2766.71936772184 152 150 153
259.89309955102 596.437077516969 2762.672878278 87 85 88
247.627978372961 597.941142442751 2761.87682739499 116 114 117
243.322796004035 598.463046200003 2767.49170929995 120 118 121
242.227808065508 598.588710780893 2775.64569761221 139 137 140
237.939467336218 599.107960662429 2781.24424776171 143 141 144
234.461079577185 599.526960175843 2787.47056675878 146 144 147
230.183692400181 600.044239499803 2793.05853111649 122 120 123
227.529249283108 600.361119872815 2799.89866338603 129 127 130
224.076080658613 600.776232487687 2806.10051389161 165 163 166
221.444239717064 601.08979174673 2812.91869272592 159 157 160
217.194731150766 601.602613027614 2818.4796321079 146 144 147
212.132934104853 602.215376378509 2823.41550524595 143 141 144
205.434104485974 603.029666104186 2827.11303394112 144 142 145
198.728365532614 603.844577948044 2830.81766960077 149 147 150
191.192696470103 604.761609938713 2833.91409765462 153 151 154
186.120066704499 605.374736456 2838.86067416762 153 151 154
177.741819459556 606.395116233219 2841.36161073678 153 151 154
170.177225012715 607.314969164617 2844.48634519105 154 154 156
162.601684552697 608.235966139596 2847.62178010908 156 156 158
155.015155023839 609.158171554832 2850.76794872798 160 160 162
146.583429815026 610.184349577902 2853.32113272761 160 160 162
138.136743711422 611.212131853257 2855.88859816714 161 161 163
127.999172695651 612.448144401783 2857.27088018345 164 164 166
117.838817628715 613.686747435759 2858.67506638477 163 163 165
105.971703471435 615.135490073462 2858.90887457424 160 160 162
97.4504266474376 616.171778124014 2861.54949039392 157 157 159
88.0684778993528 617.313989808881 2863.61220137267 155 155 157
79.5154039260066 618.353945620295 2866.28351229625 152 152 154
70.0980421580208 619.500208897224 2868.38079010372 153 154 156
61.513590227948 620.543871485443 2871.08304978418 161 162 164
52.914092368777 621.589149045872 2873.79967376048 159 160 162
42.5889098452261 622.846984972357 2875.36503129169 160 162 161
28.8109232904987 624.530052711975 2874.62791223655 159 161 160
7.25972400224295 627.170368657193 2868.71503008281 155 157 156
-5.75052774241769 628.758639274164 2868.64645930311 166 168 165
346.015343622143 578.877475985262 2688.24964982273 141 143 138
346.294762249607 578.859177988991 2697.89392833897 193 195 192
344.2968229154 579.113416591865 2705.5083103912 200 200 200
345.396240255341 578.995813133038 2715.77024252785 196 196 198
344.982558143004 579.059054028747 2724.67348175228 196 196 198
343.044670632759 579.304677152653 2732.22984266162 190 189 194
338.794288530112 579.827132022151 2737.79022563791 184 183 188
332.992313150182 580.535287413061 2742.03009858391 189 188 193
327.186836325536 581.243484472837 2746.27310451563 177 175 180
322.160103521212 581.857842239233 2751.17392268952 166 164 167
317.917938510321 582.377744470766 2756.726861093 162 160 163
309.750865676081 583.36803623524 2759.02220750375 171 169 172
297.630221103696 584.832291960836 2758.08891083995 140 138 141
287.844256529899 586.016090145716 2759.12942187983 131 129 132
279.618922793526 587.012475239365 2761.48205947826 133 131 134
268.997700028565 588.295880943824 2761.92002514175 131 129 132
251.985940051671 590.34570188062 2757.25500050581 102 100 103
242.093741264741 591.541123511263 2758.39928574955 109 107 110
238.574309348727 591.971606957263 2764.66466488103 125 123 126
235.864574776727 592.304538895992 2771.55732996827 145 143 146
232.363687906724 592.732137278332 2777.80438216407 129 127 130
229.67664081381 593.061707864808 2784.67501505558 119 117 120
228.616293792674 593.195801642985 2792.79335859311 136 134 137
225.148407234935 593.618473216866 2799.00836917113 157 155 158
221.689214869057 594.039829320915 2805.21527855598 156 154 157
217.425222737181 594.557513379939 2810.78988161619 146 144 147
212.350965741801 595.172112865164 2815.7378562884 141 139 142
206.460575977129 595.88442648818 2820.06491144056 143 141 144
200.567000118429 596.59684692484 2824.39511464418 149 147 150
194.669963447391 597.309510298903 2828.72838073758 155 153 156
187.947375083466 598.120944240172 2832.45026214348 157 155 158
182.866857308741 598.735183103998 2837.40450716181 152 150 153
175.307264588538 599.64676902525 2840.52549668809 152 150 153
166.908137472126 600.658855362632 2843.04805520307 152 152 154
159.324928329869 601.572933720613 2846.19246564649 154 154 156
150.898105326299 602.588069298442 2848.74207591043 158 158 160
142.456677921845 603.604738111016 2851.30629979092 159 159 161
134.000456163249 604.623095080522 2853.8849651749 160 160 162
125.529441127529 605.643022133532 2856.47808844411 162 162 164
116.203308081567 606.765532102488 2858.48794766856 159 159 161
105.17458612396 608.092335725591 2859.32448970286 159 159 161
95.8075109156056 609.219522316139 2861.37465173916 161 161 163
87.2673299215414 610.247415280367 2864.03494262727 162 162 164
77.0167799151205 611.48052373523 2865.52950583321 155 155 157
69.2931982466942 612.410204887222 2868.81100218406 153 154 156
61.5585236674949 613.341120608305 2872.10299364853 147 148 150
55.5199764695162 614.068439316169 2876.57461573516 150 151 153
44.3449653699592 615.412328727044 2877.55389977799 153 155 154
28.856088438094 617.273964805218 2875.65550920106 154 156 155
5.58622717130097 620.069841548366 2868.59213550308 152 154 153
-10.0115733245674 621.944619484241 2866.79996527456 167 169 166
346.068032031169 571.844167379529 2689.23684939403 163 165 160
345.580666088444 571.934050574334 2698.20965787311 196 198 195
344.348654497906 572.110024744515 2706.49193912008 202 202 202
345.447630539641 572.014030024418 2716.75111571022 193 193 195
344.261352879801 572.183501595621 2724.98894356923 192 192 194
343.095239221929 572.350123291941 2733.20750732845 190 189 194
338.068494301182 572.965809384401 2738.10814120811 181 180 185
332.264143116584 573.67165320837 2742.35037716986 190 188 193
325.676695245577 574.468409296273 2745.94023144887 183 181 186
320.64581648021 575.083348695762 2750.84508065824 170 168 171
316.399313119258 575.606582418007 2756.4014968726 155 153 156
307.44235197092 576.678395101101 2758.05225598206 164 162 165
296.103514947958 578.027504431306 2757.77654076911 141 139 142
283.944407312421 579.471973105606 2756.88402517116 130 128 131
273.334274865515 580.735805262791 2757.3142087886 131 129 132
259.523352980044 582.372505631012 2755.19973876329 125 123 126
244.874685662365 584.10679780642 2752.48549115011 96 94 97
236.559900473243 585.102312098758 2754.9270840675 110 108 111
233.026600670148 585.539998428726 2761.20516963275 130 128 131
230.302805822049 585.882883109043 2768.10998792915 133 131 134
227.591510720365 586.223943084496 2775.00300132516 122 120 123
227.308203742661 586.281349473765 2783.7779762931 124 122 125
227.048813741214 586.335622810499 2792.52966441386 149 147 150
223.57702684885 586.764257146486 2798.74800463018 164 162 165
218.49156119826 587.380859349063 2803.70681366195 150 148 151
214.219635565838 587.902315086733 2809.28873735303 142 140 143
209.952261422949 588.422961161521 2814.86626101555 140 138 141
205.689713218647 588.942690968028 2820.43946571575 144 142 145
197.337438979067 589.939671618893 2822.91773124529 151 149 152
191.432727677251 590.650724320248 2827.25919425922 156 154 157
185.524830012153 591.361913353605 2831.60380122918 157 155 158
181.262866318002 591.880697978832 2837.17622735754 151 149 152
172.046193209427 592.97782140903 2839.08114336539 151 149 152
163.639443440709 593.980270760591 2841.61303347109 151 151 153
156.878815711417 594.790367410333 2845.37288618023 153 153 155
149.278613773778 595.698345382378 2848.53473451305 158 158 160
140.833244171063 596.704896782914 2851.10436840376 159 159 161
133.209300172354 597.615455037218 2854.28941158961 159 159 161
125.574388901889 598.527160015083 2857.48517595319 160 160 162
115.408202966675 599.734566503115 2858.89976312876 159 159 161
102.693482286878 601.239644017735 2858.5500215371 158 158 160
94.1644908657207 602.255705322719 2861.20128756996 159 159 161
85.6206208638759 603.273376949491 2863.86709024853 160 160 162
76.2140048046413 604.391851078323 2865.95746679032 161 161 163
65.9390699513565 605.611876172137 2867.47817822473 158 159 161
57.3449914984541 606.635405621332 2870.19297285382 148 149 151
51.2969417013198 607.361314616534 2874.67457735879 150 151 153
40.9678448401434 608.587636972603 2876.24814173508 157 159 158
22.0413627004463 610.819163053937 2872.04036141088 161 163 162
1.33487762938644 613.259022080493 2866.73554015704 165 167 166
-14.2725759429099 615.102891967511 2864.95718593024 169 171 168
342.298620423185 565.241090082282 2686.87064051116 198 200 195
344.100204384805 565.088906948918 2697.85733099107 198 200 197
343.632326148714 565.192166538565 2706.80881086406 202 202 202
343.188324525757 565.292062288784 2715.73707808125 185 185 187
341.223686909539 565.563036614364 2723.31591750272 184 184 186
340.823472980458 565.656793057334 2732.20161027952 194 193 198
336.566640887871 566.185663089066 2737.767450033 183 182 187
331.536263712231 566.801482756423 2742.67167105316 179 177 182
326.506484738542 567.416902682374 2747.57535713153 184 182 187
320.695380042582 568.120253117154 2751.82500579372 179 177 180
315.664800782072 568.734948368404 2756.72959367535 163 161 164
305.920020696426 569.882566475842 2757.73455530933 155 153 156
295.364855221369 571.121690071652 2758.11380782575 150 148 151
281.62428487628 572.721111573914 2755.93464963896 128 126 129
267.050218348261 574.414968493789 2753.15263649395 130 128 131
253.22353893121 576.024213458325 2751.05753398511 98 96 99
240.946018168998 577.458033964561 2750.284516009 92 90 93
231.823770594006 578.534496685159 2752.09871970999 119 117 120
226.679742397586 579.160280176367 2757.11432522503 122 120 123
223.940330764607 579.513258260703 2764.03349726097 114 112 115
225.229437677564 579.409347081945 2774.10470329247 120 118 121
224.134828142498 579.575003792246 2782.25240502524 136 134 137
224.674454681685 579.555008510138 2791.63854409666 159 157 160
222.005629333052 579.898233023778 2798.48906448227 163 161 164
216.105139345925 580.607426762747 2802.82661042214 145 143 146
211.014295813835 581.224647963913 2807.79066828202 139 137 140
205.109136506521 581.933883178942 2812.13250695372 144 142 145
200.834742415726 582.457966335748 2817.71683137105 146 144 147
193.289656736097 583.35280430093 2820.82589053217 153 151 154
189.837052352847 583.783161232609 2827.02458979249 156 154 157
184.747708499069 584.398925545724 2831.98737377705 155 153 156
178.010081228889 585.201611506906 2835.72548198682 147 145 148
168.785621363122 586.286419111203 2837.63995063337 148 146 149
162.028015877034 587.091092924503 2841.39760370319 150 150 152
155.263229866122 587.896419635241 2845.16195280036 152 152 154
146.826797801077 588.891554256922 2847.72439897898 157 157 159
138.375572189653 589.888288480464 2850.30129894738 158 158 160
131.581880437465 590.696610562092 2854.09390915843 159 159 161
123.943045253046 591.600849420085 2857.29467351583 160 160 162
112.933071944564 592.888198086206 2858.11842928981 160 160 162
100.212575518664 594.370003413018 2857.7778627186 157 157 159
91.6777719522219 595.37609458926 2860.43637387832 155 155 157
83.128131245231 596.383908800754 2863.10936387408 154 154 156
73.7157264657973 597.489844703789 2865.2073418449 159 159 161
64.2849111924164 598.597882113314 2867.32362894862 158 159 161
57.3901900781846 599.417554783895 2871.21488519758 152 153 155
50.4886220589347 600.237989124498 2875.11316579194 151 152 154
40.1576295021853 601.448658364379 2876.6909261457 157 159 158
23.8018969687994 603.344832821961 2874.23098407845 160 162 161
7.39650655332946 605.247031569304 2871.8194626348 162 164 163
342.351580972994 558.191914038968 2687.85991504299 205 207 202
341.853640867505 558.315504160745 2696.83824195292 197 199 196
342.915976067538 558.267660632795 2707.12634887336 201 201 201
341.699417541245 558.468386539175 2715.38996454529 183 183 185
339.730492092156 558.750840131531 2722.97136521757 182 182 184
337.00362832988 559.115622280999 2729.87633239673 198 197 202
333.512980145712 559.563469982472 2736.11056242761 189 188 193
329.252469229792 560.095250994637 2741.6796250654 175 173 178
324.996469171027 560.626021075385 2747.24435777058 183 181 184
320.745104262163 561.15583997097 2752.80496613013 182 180 183
314.146495189724 561.942694128882 2756.40702930609 173 171 174
305.183567491407 562.988592042926 2758.06788132142 158 156 159
293.050829895662 564.382148511739 2757.15670468587 156 154 157
280.09416817116 565.866263644947 2755.63340304124 129 127 130
261.558159314329 567.962958519696 2749.64089565063 131 129 132
245.337178789942 569.805909446182 2745.63776210139 87 85 86
233.040171037902 571.218127315917 2744.88728785448 93 91 94
225.493278404174 572.108534539082 2747.99879620947 110 108 111
221.932075478506 572.560631287407 2754.30212229239 108 106 107
221.584693089949 572.658931552267 2763.13468099356 128 126 127
223.670975316622 572.48910853072 2773.84126905542 135 133 136
221.766878871994 572.757463029912 2781.36037740774 140 138 141
221.493267784795 572.846020983859 2790.12112002543 163 161 164
218.007246227174 573.287431065217 2796.3513693832 162 160 163
212.096873168203 573.995305578476 2800.69892434049 140 138 141
206.183270421035 574.70341033877 2805.04965239549 135 133 136
201.081310537896 575.321826541723 2810.02457233555 148 146 149
196.796859809052 575.84993258589 2815.61795072014 149 147 150
191.698220841257 576.467428899673 2820.58970890139 155 153 156
189.062369123802 576.813307462632 2827.40709371646 158 156 159
183.970940313946 577.42951152407 2832.37188309863 155 153 156
176.406567231209 578.318112555384 2835.50101675226 147 145 148
165.525233698932 579.572496986992 2836.20190342628 148 146 149
158.759621859514 580.372915456284 2839.96779801931 149 149 151
151.987185450671 581.173974842188 2843.74071262546 151 151 153
144.375223568429 582.067572727785 2846.91636412761 156 156 158
137.586552096439 582.870249573074 2850.70482348968 158 158 160
129.118588508114 583.858273104902 2853.29963195301 158 158 160
122.311978835856 584.662769079162 2857.10563534666 159 159 161
109.618142109021 586.117495021147 2856.74293546342 159 159 161
96.8899563958239 587.576298876837 2856.41340407555 158 158 160
87.5033504492286 588.66600928524 2858.48816154501 157 157 159
78.9439857495116 589.664376002932 2861.17220394475 155 155 157
71.2176462728364 590.570771358964 2864.45954262844 151 151 153
61.7810428177639 591.666211505977 2866.58343935204 154 155 157
54.0289406381773 592.575559815931 2869.89592433527 156 157 159
43.7051088089548 593.769404749179 2871.46906060591 148 149 151
32.5033146249938 595.060502786187 2872.48274318949 163 165 164
17.8453219657944 596.73431821635 2871.20394137454 174 176 175
15.1768213944479 597.081511666854 2878.05355264437 176 178 177
345.976732784415 550.67554574083 2682.53718302114 192 192 190
343.169143423619 551.060558819583 2689.51932179046 197 197 195
343.43896380188 551.119127839508 2699.16177059862 198 198 198
342.19991688486 551.336588961411 2707.44490627544 199 199 201
339.440531488512 551.714345787987 2714.38025026638 184 183 188
337.465416640917 552.008400432029 2721.9660824725 182 181 186
334.732355286609 552.382190037742 2728.87587265407 196 195 200
332.787509024122 552.67166225094 2736.432324989 194 194 196
326.968918372184 553.371622200671 2740.68990842835 171 171 171
321.926914101138 553.988760226086 2745.60548047338 180 180 180
317.667256208364 554.522468125643 2751.17341125346 176 176 174
311.060869455785 555.305041520253 2754.78416831772 143 141 142
301.30413710867 556.422116842971 2755.80551293426 129 127 128
289.161585175679 557.792851283733 2754.90745516646 141 139 140
274.615992296913 559.419343861854 2752.10712368711 148 146 147
256.066243137384 561.472289508362 2746.13438889504 137 135 136
237.451276405186 563.532765686756 2740.22564094938 95 94 92
224.339219209102 565.008018429513 2738.85795916264 104 102 103
218.36567131331 565.723237962082 2743.26716207614 109 107 108
218.783558654681 565.757214421558 2752.76621297079 111 110 108
219.22927616602 565.787387601775 2762.23819021828 127 126 124
220.506207842394 565.728310870185 2772.31519776998 140 138 139
217.788908004052 566.094481963442 2779.21046254601 150 148 149
218.312351450598 566.114355319486 2788.60677910034 164 162 165
215.62753956464 566.475900070694 2795.47046663073 157 155 158
211.333000410601 567.008904503984 2801.07313899089 137 135 138
204.604237506143 567.801493262889 2804.80359927455 142 140 143
198.683369184653 568.507653976188 2809.16182948156 146 144 147
191.942515534901 569.301177277386 2812.90415792909 148 146 149
188.469610466731 569.745313956499 2819.12131727098 156 154 157
185.005211252687 570.188112977827 2825.33022787921 155 153 156
180.726480414875 570.717679785424 2830.91771042725 150 148 151
173.978747333011 571.51115633154 2834.66687716295 145 143 146
167.224104647412 572.305284514193 2838.42314676769 146 144 147
160.462260447666 573.100038755909 2842.18613720919 150 150 152
152.863102459112 573.984356559818 2845.35044584765 153 153 155
145.252997380366 574.869936480736 2848.52543856816 159 159 161
137.63198988261 575.756537011843 2851.71110670617 160 160 162
128.327891201014 576.823626483515 2853.70761444837 161 161 163
119.843168646466 577.802912485251 2856.32035621603 160 160 162
106.303458885055 579.324411681545 2855.37050454289 160 160 162
96.9354669107454 580.398743392325 2857.42905102749 155 155 157
88.3928634435818 581.384648061282 2860.09829116089 156 156 158
78.9895434836789 582.4630206442 2862.1913216183 151 151 153
69.5676849398588 583.54356985021 2864.30277730164 143 143 145
60.1270806667622 584.62628890027 2866.43218922726 142 143 145
51.5195171808078 585.619704670263 2869.16482548216 145 146 148
42.043666966967 586.706500180321 2871.32897249096 150 151 153
30.8378787212837 587.979480621013 2872.3489611677 159 160 162
19.6058562867707 589.255607838076 2873.39487353158 168 170 169
8.34751788783406 590.534816725292 2874.46646256766 178 180 179
346.030243812243 543.618398478267 2683.52708906288 199 199 197
343.986584787586 543.933448174099 2691.17788359061 194 194 192
344.257922900258 544.010695883959 2700.81606456385 198 198 198
342.252184740704 544.320286910702 2708.43000990086 191 191 193
341.032902145884 544.54845240497 2716.692275054 180 179 184
337.516946667969 545.011297296142 2722.9490811816 179 178 183
334.009527827364 545.472640188845 2729.19797013886 188 187 192
330.510424052198 545.932610506882 2735.43880497916 194 194 196
327.019490329654 546.391092147267 2741.67140902035 167 167 167
321.977186553751 547.00847432092 2746.58724239312 168 168 168
316.935481787561 547.625368198095 2751.50255311041 166 166 164
308.759236265005 548.564114641309 2753.81496435422 139 137 138
297.424983237166 549.82765556063 2753.54700629812 128 126 127
281.334369013587 551.580772000998 2749.42803242481 138 136 137
264.400449595235 553.421494749464 2744.71661558446 149 147 148
242.659303723561 555.758054562251 2736.20309174227 135 133 134
226.391961575919 557.531710785157 2732.2565755392 97 96 94
217.229790605245 558.573608917156 2734.11553239338 103 102 100
215.225548082484 558.877248896624 2741.72920994513 112 111 109
216.434552058288 558.848684972379 2751.86882308606 112 111 109
216.874079454314 558.89868544594 2761.34401674426 143 142 140
216.538327217523 559.027922915526 2770.16045402746 162 161 159
213.811131871748 559.403449708368 2777.06416242033 170 169 167
213.517496645754 559.526964877746 2785.83962264268 153 151 154
210.011582651907 559.981909887319 2792.08762502721 137 135 138
207.325251945657 560.351665870359 2798.95160715211 139 137 140
201.399706749682 561.056086909353 2803.31473868772 145 143 146
196.285733077941 561.676312485384 2808.30132107291 150 148 151
189.538868122392 562.465404350463 2812.05027380028 152 150 153
186.059960571416 562.915781838772 2818.27247130745 158 156 159
182.589537077481 563.364883385992 2824.4864326041 154 152 155
176.659605384913 564.06860262072 2828.85368588004 147 145 148
171.551168636358 564.687068740729 2833.83503006549 144 142 145
163.964047078685 565.562439089138 2836.98870878017 146 144 147
156.3661893734 566.438943470742 2840.15321888052 152 152 154
149.587536664721 567.230391560049 2843.93338906775 154 154 156
141.137407519361 568.195380265628 2846.51389220283 158 158 160
135.174939984656 568.901992299288 2850.91302649657 158 158 160
125.028952430201 570.043418449697 2852.31764608854 158 158 160
117.374432040956 570.925958693154 2855.53719313196 159 159 161
105.508910539942 572.246656135418 2855.78834481418 160 160 162
97.8229312261369 573.132749494392 2859.03860588581 157 157 159
89.2822949066394 574.107850753188 2861.7074893518 156 156 158
79.0351512741085 575.260833411509 2863.21051253585 154 154 156
69.6133716466236 576.328075198491 2865.32385668482 152 152 154
59.3231188507723 577.486138638866 2866.86893696795 145 146 148
47.3071815928963 578.824429056372 2867.26719132823 143 144 146
36.1143601020513 580.077258620069 2868.27728211655 147 148 150
20.6179329282059 581.779598740252 2866.40993291455 160 162 161
8.50532111321423 583.129322964943 2866.90215878545 171 173 172
348.143794367817 536.231530206227 2676.85176506693 129 130 125
349.13338327611 536.258860067577 2687.20133737834 200 200 198
345.568362964807 536.734878166544 2693.50491861645 189 189 187
345.843308446006 536.830734487739 2703.13710491678 201 201 201
343.841106686971 537.150700474665 2710.74600514121 192 192 194
341.854990541815 537.468255316998 2718.3392884794 178 177 182
338.340853017262 537.936371573629 2724.59384808892 175 174 179
334.060870810328 538.479747419517 2730.18053229516 180 179 184
332.113316249381 538.791438491393 2737.7363900729 197 197 199
327.848051439895 539.332251349565 2743.30883849438 160 160 160
322.807426014569 539.949539878113 2748.22301908093 154 154 154
314.640117491176 540.876928579185 2750.52823442178 164 164 162
305.674127692859 541.88373289026 2752.19790516512 161 159 160
292.760664359778 543.283148077046 2750.64422549432 147 145 146
274.295241461645 545.235388175967 2744.60263771405 131 129 130
247.079059750924 548.059854545554 2731.5350899539 132 130 131
226.087046798563 550.266504056869 2723.71411389414 115 113 114
217.71376958842 551.21690994229 2726.22045725592 98 97 95
215.688912942494 551.534336290056 2733.8522294755 105 104 102
216.072395628855 551.610802833697 2743.3791646853 109 108 106
217.283008682127 551.603707103401 2753.51400699882 113 112 110
216.121742450702 551.832519504797 2761.71856543288 159 158 156
214.980357055345 552.058661742343 2769.90343870988 173 172 170
212.249004671686 552.442968231571 2776.80997746754 173 172 170
211.14418615531 552.663986360063 2784.95963447623 142 140 143
206.01434523818 553.287126271306 2789.96154253318 133 131 134
203.318075968836 553.666302350609 2796.83400151205 146 144 147
199.008287927966 554.206595311588 2802.45073900105 147 145 148
194.703094163034 554.746043731366 2808.06303912894 148 146 149
189.585804422519 555.366657866143 2813.05285699063 155 153 156
184.469218638333 555.98691789632 2818.04202814979 157 155 158
179.353358069053 556.606821141915 2823.03053189242 152 150 153
174.238243434749 557.226423959662 2828.0183393137 145 143 146
169.948490369728 557.7628808415 2833.61608658833 144 142 145
163.183762861768 558.547826447463 2837.38338990959 147 145 148
155.583704830465 559.416748914697 2840.55086772784 152 152 154
147.972743303138 560.28681006555 2843.72900458189 154 154 156
138.686506810132 561.325495049987 2845.71197307757 158 158 160
132.718152816077 562.030284021429 2850.11722216026 159 159 161
123.402413456859 563.072246044735 2852.12900309331 158 158 160
115.743989873728 563.947376525052 2855.35352122571 158 158 160
103.874833509914 565.247260899672 2855.61169638473 159 159 161
94.5010039110228 566.295792563871 2857.67985295245 157 157 159
82.5771750642121 567.602068038657 2857.99137409348 156 156 158
73.1603221440715 568.655581209913 2860.10151719065 155 155 157
65.4203388244792 569.539961636478 2863.40565820901 155 155 157
56.819897612661 570.511457144008 2866.13446174562 151 152 154
42.2434016575952 572.087488881189 2864.78918488584 146 147 149
30.1855722310829 573.409461435195 2865.23111271996 148 149 151
14.675833323849 575.081312216041 2863.38148857703 164 166 165
5.12200063375134 576.150943971703 2865.62527229096 174 176 175
356.562689797699 528.365190011875 2685.24167295914 190 191 186
346.899896775729 529.427611422 2686.17781226154 197 197 195
344.857399321406 529.764303664818 2693.82425457377 191 191 189
346.662347810601 529.733290099496 2704.78969521881 201 201 201
345.429848451598 529.990673256773 2713.06042861434 199 199 201
343.447445607644 530.318715142303 2720.64881245113 185 184 189
337.620381593054 531.013240276617 2724.9152754862 178 177 182
334.886266865776 531.41172319296 2731.82246202217 170 169 174
329.836449657525 532.031055024194 2736.74546818579 183 183 185
326.343094251913 532.501003510917 2742.97912004118 178 178 178
320.518497422479 533.193641905529 2747.24374982621 159 159 159
311.563236038279 534.186192594447 2748.90453593288 157 157 155
302.589122065742 535.180707169896 2750.58375267688 146 145 143
291.239291544383 536.403475927096 2750.33762725187 145 144 142
267.256776391002 538.840373982489 2739.78425833835 128 127 125
236.864950875944 541.895503101438 2724.16776701206 103 102 100
217.43092793822 543.899298278113 2717.66382209594 93 92 90
216.177120111672 544.15435535605 2725.95605890825 101 100 98
214.943614467844 544.406545139224 2734.2288969799 102 101 99
216.122097082691 544.425406880261 2744.39180879083 116 115 113
214.934599038523 544.671354408269 2752.61988323848 138 137 135
214.568171604968 544.837229194835 2761.46102862409 174 173 171
212.619731119283 545.154974765165 2769.01720912795 163 162 160
210.687323667209 545.470535248285 2776.55745370537 142 140 143
205.54298063094 546.095916163859 2781.57343136154 137 135 138
202.017195459445 546.564393421667 2787.83916605884 138 136 139
198.500104210555 547.031584728001 2794.09679546754 147 145 148
194.991498095723 547.497382019817 2800.34620504742 146 144 147
191.491144375282 547.961975097626 2806.58726001799 156 154 157
187.182820174295 548.504458717892 2812.20255795585 158 156 159
182.878858048089 549.04622856075 2817.81329194297 149 147 150
176.938422730942 549.746541400224 2822.19181677911 144 142 145
170.99459118495 550.447000582085 2826.57335464937 142 140 143
163.398874518125 551.307886710383 2829.73770919591 147 145 148
156.618737500844 552.089513666376 2833.52114272473 150 148 151
150.659669478653 552.791244991068 2837.91762261894 153 153 155
