ply
format ascii 1.0
comment KinectMotionCapture
element vertex 793
property float x
property float y
property float z
property uchar red
property uchar green
property uchar blue
end_header
-90.8398911222879 393.259491816097 2716.96043803421 13 16 9
-75.9172459668309 394.58592529483 2690.73115145032 40 42 37
-63.2157143256653 395.721513952067 2666.59616997699 34 36 31
-50.6342172863454 396.847427853329 2642.37382937754 35 37 32
-33.3330280316895 398.381318918857 2612.92940999156 11 13 8
82.347015057485 399.576591715155 2825.24762895507 44 49 43
93.7525283754832 400.528852026762 2805.11264854047 48 53 47
100.522871158316 401.100789235 2789.02641640324 35 40 34
43.2327819272582 396.428836660079 2821.57944206608 26 29 22
50.5974748819211 397.081532179735 2784.92708655072 24 26 21
58.6412974946824 397.758379339342 2767.29448525079 21 23 18
-6.69442012867383 392.422621126334 2808.8333183419 23 25 20
-4.54801260767956 392.61473925249 2796.80368724738 27 29 24
-5.38533484208181 392.561727219764 2787.55058061549 19 21 16
6.90881790994391 393.58796009407 2765.59009531834 17 19 14
8.1555358356713 393.706373663777 2754.14292333697 18 20 15
-25.5341838726491 390.953000599038 2776.64150580262 21 23 18
-35.8673465829775 390.119231614436 2776.55736115825 22 24 19
-44.7300660800798 389.406236305726 2775.06941618702 18 21 14
-31.2474160936715 390.530506638963 2751.50062674249 18 21 14
-7.83151393688142 392.471853136479 2717.84481724034 18 21 14
-41.8679410637812 389.688579997709 2741.32694927859 25 28 21
-40.04981687766 389.853815151921 2729.05949689818 29 32 25
-43.9729578472727 389.546809753843 2722.50856887785 32 35 28
-7.48234902864664 392.564473305977 2674.8691766811 29 32 25
-74.3096603434066 387.128659317048 2700.50459741241 20 23 16
-70.6049197915455 387.449038183917 2685.90017496678 29 31 26
-86.4515674669053 386.160107274999 2691.69776391042 39 41 36
96.412497311368 393.172450621472 2823.06030925292 22 27 21
88.8501684521366 392.572598978557 2820.04525056634 19 24 18
113.124978048974 394.471093399584 2788.24719544948 29 34 28
110.775171707028 394.280138428248 2780.36732583726 20 23 16
97.1005829477392 393.200473022166 2782.80010562039 14 17 10
10.7044812338359 386.408255592824 2842.41278438489 28 30 25
12.2693070389541 386.524459829361 2831.19649888037 26 28 23
59.9580852665529 390.259236545181 2776.85691353003 24 26 21
44.2198651813182 389.017637365184 2781.49830706304 24 26 21
12.992355888755 386.560943366521 2800.84256567237 24 26 21
8.48334935115735 386.200312477009 2795.10199068135 20 22 17
3.2288078171554 385.781120982113 2790.0554069921 23 25 20
1.63693098645323 385.649164831023 2781.48994439203 25 27 22
2.94338464994492 385.744423106686 2770.08625331268 27 29 24
-14.0267633440201 384.406122283769 2776.30447393655 28 30 25
-27.2965503029101 383.358047993718 2779.03086319893 29 31 26
-42.697988173092 382.142783495977 2783.91653073728 29 31 26
-39.254400100057 382.405332676904 2770.35753699692 25 28 21
-38.0305040478768 382.493686294013 2758.89396316981 27 30 23
-31.8241213266441 382.972582006282 2742.3984330749 26 29 22
-32.8540973179452 382.883911352737 2733.00548700525 25 28 21
-53.9031694075609 381.225558970032 2743.6757016316 25 28 21
-49.9539758195549 381.527072074663 2729.24839284995 18 21 14
-54.5804671769816 381.156136576542 2723.42230393389 23 26 19
-52.1448164719449 381.338691292547 2710.36726632648 20 23 16
-42.7132242509427 382.06947321422 2690.03555765762 21 24 17
-75.5474890576526 379.48716476762 2713.15484963676 22 25 18
-80.8921876716946 379.059537301692 2708.0431609033 15 18 11
-59.7035821410801 380.71128756076 2675.24163741735 18 20 15
-78.3704340971887 379.239284577106 2683.93460826642 28 30 25
136.488612389297 388.720233817677 2817.50611307295 30 35 31
132.69658582206 388.378581400782 2801.1691751994 27 32 26
92.2617896224125 385.321591777733 2827.42241525014 22 27 21
91.5541638067241 385.239921640079 2818.26288868406 26 31 25
96.878510482346 385.609611018807 2803.59776641991 42 45 38
124.659296994999 387.629896563852 2758.28523159895 26 29 22
56.8200474868545 382.495308182053 2800.48029322201 30 33 26
33.6008965369339 380.729374225353 2812.04719418429 32 34 29
51.4466418469519 382.034414536512 2785.46644918846 28 30 25
35.6236628008273 380.791888105384 2780.16551245753 36 38 33
19.9759053442072 379.5925227312 2784.87269820315 45 47 42
14.6882796622942 379.167405371808 2779.80239557038 39 41 36
-11.1514626964997 377.207003016006 2794.40902986721 40 42 37
-16.3884297942367 376.785817803423 2789.37547064031 38 40 35
-18.7131043633224 376.581997281652 2781.513459943 35 37 32
-18.1521080265892 376.593425032635 2770.80398294971 28 30 25
-25.6070238155206 376.006280772337 2767.86714913252 26 28 23
-31.6085123244698 375.527576185459 2763.51411730117 36 39 32
-30.405146931648 375.586321420638 2752.03551038865 36 39 32
-36.4309182565226 375.10553016723 2747.66486485644 32 35 28
-50.3356961541461 374.037098061225 2751.16586914879 30 33 26
-62.0512986773829 373.132065426502 2752.5495711523 29 32 25
-73.0207589663256 372.282746702345 2753.23911868063 26 29 22
-66.930751421447 372.70486028596 2736.65893812413 25 28 21
-48.8914080421596 374.016810280815 2707.74820376379 24 27 20
-42.9910482011611 374.423605093266 2691.03046594687 23 26 19
-74.4232209214368 372.0495795336 2712.69714613708 21 24 17
-79.7700049439713 371.618571896261 2707.58392852527 20 23 16
-83.7250626542618 371.291050273707 2701.00975945976 33 35 30
173.76419546677 383.714516608533 2775.33556645711 34 39 33
117.830912556044 379.673341897999 2815.05113709152 38 43 37
79.7208236280351 376.905182664959 2839.28566567343 33 38 32
91.2171498089527 377.673783918111 2819.21558717187 26 29 22
77.5921695615693 376.651824640672 2821.6846215169 37 40 33
71.5697017096235 376.171637064373 2817.31637380046 30 33 26
109.124598949458 378.740982749449 2763.03542744566 25 28 21
72.9791556782406 376.116411947002 2786.22452916008 22 25 18
38.5029563758081 373.61202150239 2808.15394245269 21 23 18
37.7161279870646 373.504043272967 2798.93716147249 25 27 22
30.2124525054293 372.918400556912 2795.96498831909 31 33 28
36.0468550196078 373.280325900437 2780.43424598486 30 32 27
36.6411533281927 373.269448695876 2769.74879732266 22 24 19
-7.71155340777185 370.067503740004 2801.80697154437 31 33 28
1.00913235633104 370.633644485266 2783.4291509318 35 37 32
-17.4345781918843 369.272070212256 2791.04910998649 36 38 33
-15.3769053949158 369.364773211865 2778.95494411664 35 37 32
-12.641239959299 369.505047984873 2766.11717943381 39 41 36
-25.9130598474409 368.510593374508 2768.84236657664 41 43 38
-20.3451117338456 368.850805984394 2753.11835578172 33 36 29
-27.8223472091033 368.266722701525 2750.16535745204 32 35 28
-43.1958105915791 367.123833816398 2755.07167089029 28 31 24
-54.9312889352402 366.238733241513 2756.44077097019 26 29 22
-72.345732036281 364.952317056025 2763.57221202432 27 30 23
-80.4355142521396 364.325580090149 2761.40998606987 26 29 22
-69.3505896555671 365.053689625191 2739.80643205234 26 29 22
-51.2972721233247 366.272884276705 2710.9053580296 26 29 22
-38.3323598460412 367.131359473976 2686.9599031659 25 28 21
-74.7050800790012 364.506913079602 2713.6896519552 24 27 20
-90.5631362139632 363.331261151367 2719.47983892039 24 27 20
-86.796770196476 363.539792979232 2704.91922908562 25 27 22
-50.358643673547 366.050339375786 2656.00418607512 17 19 14
179.569531674893 376.341350746916 2770.86078666927 39 44 38
132.024930533605 373.045656089035 2803.07468691584 38 43 37
100.733230081506 370.853092665585 2821.13871322795 34 36 31
67.3038643910986 368.517615618281 2841.35778086771 46 49 42
72.7053326795533 368.810038322071 2826.74817433563 42 45 38
57.6248393034984 367.717221017431 2830.63208497704 39 42 35
59.1823527077104 367.748987000897 2819.40977638363 39 40 34
77.984094871788 368.944496169342 2792.28646248325 40 41 35
8.33190962225494 364.022319660995 2826.99288658241 36 38 33
26.918242924836 365.200482861027 2799.71333034054 33 35 30
-19.0845673900291 362.027557503633 2833.04582398836 32 34 29
-7.24615154011987 362.75023577099 2811.98846435023 33 35 30
5.2219710960677 363.513885647523 2790.15246902314 25 27 22
-11.7857634742669 362.294601084758 2796.34375069946 23 25 20
-11.8946381890552 362.21146184088 2786.38352199091 20 22 17
-8.39117933394995 362.370344050532 2772.86740476453 17 19 14
-19.4963449870345 361.548066084796 2773.45871354507 18 20 15
-21.1426872351679 361.360519581789 2764.85348622546 20 22 17
-22.8167551521927 361.170707476865 2756.22844297808 28 31 24
-30.2853389481679 360.592288390742 2753.2814506486 28 31 24
-41.3397680219558 359.773844338615 2753.90955887777 27 30 23
-51.6480110492115 359.005624205735 2753.84381106133 28 31 24
-57.645071415533 358.525993855767 2749.4939845959 32 35 28
-66.4915250394895 357.855838215743 2748.0180480946 28 31 24
-66.8029734342539 357.755877505891 2737.91088419826 28 31 24
-58.6585781256286 358.219792953086 2719.11478054457 29 32 25
-30.1449820679682 360.041181868525 2679.2729085449 29 32 25
-66.5486383916569 357.53190968577 2705.9808144819 27 30 23
-82.4329455404511 356.392155180625 2711.75185887745 26 29 22
-87.7739288918262 355.955097918507 2706.64281565341 26 28 23
-77.7942148227007 356.537299129406 2685.47236851294 32 34 29
-73.4724619256966 356.741794408169 2670.07931340456 35 37 32
-88.6002895160156 355.652836332344 2675.16396664085 31 33 28
166.239168032967 367.798270657028 2793.26735737166 34 39 33
166.115233369227 367.595438641729 2773.41442865258 34 39 33
108.021793552364 363.773024539 2815.27056787592 35 37 32
90.5411422352058 362.556950397184 2821.11903837134 43 46 39
57.9558699841489 360.374979988888 2840.71574827133 39 42 35
76.19330327028 361.446421643092 2814.41776302516 42 45 38
55.0773959676816 360.000068262381 2823.80556456683 42 43 37
37.8075488367839 358.800745910025 2829.80723084379 39 40 34
67.0822701021367 360.573237571707 2792.98723481158 38 39 33
49.0586740017736 359.325674584562 2799.67699017863 32 34 29
52.7171564189821 359.461045103193 2786.27313374943 37 39 34
28.8233607987203 357.840783118937 2798.58703935602 37 39 34
-8.30159486503779 355.380226366174 2823.53727013218 33 35 30
-14.9570238221213 354.860100082159 2819.94500973433 25 27 22
-5.40670477263161 355.369656488541 2800.93299027853 20 22 17
-5.49570515003683 355.265648677169 2790.98706319788 27 29 24
-4.15675379548341 355.251579718561 2779.60637662433 32 34 29
-9.43178934528932 354.81746027528 2774.54515524967 35 37 32
-14.7121955618577 354.382858049834 2769.47974364166 35 37 32
-30.8803005801277 353.25905367421 2775.04543217265 34 36 31
-28.1828665364969 353.329206185429 2762.17959755479 34 37 30
-27.7025633852823 353.258311858897 2751.41120737169 33 36 29
-35.8893387953842 352.639474793845 2749.17870899535 29 32 25
-44.7805788366344 351.976347757583 2747.67034146563 27 30 23
-47.9397871857363 351.674732364292 2740.43819517727 28 31 24
-60.3768458826004 350.788444554677 2742.53402977931 28 31 24
-66.3848487679313 350.307300428576 2738.17626318075 28 31 24
-53.2827252572112 351.027516792042 2714.32957536015 28 31 24
-85.4603837001435 348.901288857471 2736.69212881357 26 29 22
-58.3891284132891 350.496395397678 2698.27389477864 21 24 17
-73.5987756710419 349.436468606005 2703.29938224107 19 22 15
-74.7719388272081 349.25685551826 2693.80188162146 26 28 23
-80.1579284985103 348.812926076283 2688.66017754668 25 27 22
-72.3522952155773 349.193813869356 2669.61807751959 21 23 18
-73.636855601144 349.005059766462 2660.04007084703 46 48 43
141.980141227865 358.732543792685 2825.04055032576 30 35 29
182.832453288646 361.0937920462 2779.32468839051 32 37 31
135.151172121815 357.844074023732 2791.6776807981 34 37 30
100.092427693229 355.604244513227 2813.18642922694 42 45 38
97.0616631875099 355.302203046794 2806.04709798661 26 29 22
79.6401193788148 354.131366725635 2811.93894039184 28 31 24
65.3003671841152 353.14757281578 2815.12505124258 32 35 28
48.7516992510657 352.031652592145 2820.41490152981 33 34 28
-3.72790793359878 348.754872340473 2858.93228837013 32 35 28
11.3502406411747 349.544602803681 2835.28337876234 35 37 32
40.4673102491189 351.174910351247 2798.34837748866 39 41 36
24.7828981145579 350.113152736514 2803.02968848642 40 42 37
1.00326256943184 348.567271795607 2815.4264334454 39 41 36
-9.37295101506774 347.826023521095 2815.31154893923 40 42 37
-8.67436459049498 347.747697767758 2804.70135931773 37 39 34
-7.28220572072535 347.709934297898 2793.35912399009 26 28 23
-3.73846710543346 347.799647709394 2779.87185606788 25 27 22
-0.983003185569986 347.841126898993 2767.0479433097 26 28 23
-12.8380371073815 347.011098707049 2768.33094842905 25 27 22
-36.2687281876866 345.492873785226 2780.98079076062 23 25 20
-26.3176969267345 345.96115920183 2761.02401046363 24 27 20
-15.0223752453655 346.507187111118 2739.57205550363 26 29 22
-19.6519674918143 346.1062927943 2733.74356693962 25 28 21
-28.5925072861108 345.449697198085 2732.19978852687 24 27 20
-42.518459005932 344.498305544995 2735.68603629661 24 27 20
-57.82188803125 343.466403634074 2740.64368130587 22 25 18
-45.3717534382752 344.074746674548 2717.55882277343 23 26 19
-71.2684228061751 342.418351443747 2733.36106042872 25 28 21
-64.57680201385 342.684858923623 2715.98088287255 24 27 20
-76.2585903164557 341.86810382528 2717.38954466934 20 23 16
-69.6706239538387 342.126161864524 2699.9341830069 19 22 15
-83.4385551817971 341.187011535302 2703.53504520824 17 19 14
-68.5843332782139 341.927729778217 2677.2531903857 15 17 12
-57.3374053185178 342.454130289077 2654.53101773824 21 23 18
-50.3569208992884 342.728369316846 2636.12524612248 16 18 13
-91.7836449582083 340.171253233605 2669.07246270949 24 26 21
140.755850789733 351.201609788143 2836.46614011714 13 18 14
133.288549965648 350.355818365105 2813.75695957249 36 41 35
108.816103035554 348.819985718866 2825.65152166978 31 36 30
114.974581503418 349.030255215169 2810.35494074373 36 41 35
97.4715919418889 347.893476545961 2816.18791389331 44 49 43
78.5159684647669 346.675697187607 2823.43750469067 32 37 31
81.5746678389395 346.708359974045 2810.83336912786 33 38 32
80.8076104145732 346.522994621566 2801.63052856063 37 42 36
39.3909506527561 344.036609278935 2829.64525271974 40 42 37
19.9293877653668 342.795902565945 2837.76299773894 47 50 43
24.4748155151076 342.912193649434 2823.76697363935 41 44 37
20.7562293882981 342.561044822693 2817.36410819481 34 37 30
14.0498547882797 342.041287095532 2813.73491807998 33 36 29
5.12322351283157 341.396718600329 2812.20098869198 31 34 27
0.646841265120823 341.002466146312 2806.48389344508 22 25 18
-13.4174426858391 340.070113346216 2809.86995766386 21 24 17
-17.8850583214554 339.676496405778 2804.15922074016 24 27 20
2.53841404315702 340.675254979548 2774.50513272642 29 32 25
-1.29354654547265 340.314772197474 2768.02003243666 34 37 30
-26.251067151301 338.775040430431 2782.03330226002 34 37 30
-33.676568726781 338.215069842363 2779.11763459688 32 35 28
-20.8345275084192 338.783237604646 2756.31667404518 29 32 25
-18.9287243272662 338.740677232031 2744.11172951412 28 31 24
-4.8466917149943 339.372668653183 2719.73962073058 26 29 22
-21.7183307021198 338.285834077242 2726.03052636191 25 28 21
-46.3872136537566 336.768954952808 2740.25315153377 25 28 21
-46.0033669313458 336.639651036339 2729.41454217086 24 27 20
-49.9223075049826 336.271778378513 2722.86635080254 24 27 20
-37.5685117193512 336.800422687584 2699.71125052289 24 27 20
-28.8602524736559 337.125429605206 2680.08816364235 23 26 19
-52.6168816166792 335.663699311169 2693.73734377904 22 25 18
-83.2792008407432 333.825692202923 2714.72949113104 21 24 17
-93.508264824389 333.111308108915 2714.72141458323 21 24 17
-89.0727193562697 333.199970581813 2699.4102634221 20 23 16
-80.5352468746148 333.51097010341 2679.66329862132 20 23 16
-92.8719170454646 332.680647276006 2681.83219048193 26 29 22
-53.3844454732462 334.674377643545 2628.9492928988 23 26 19
184.539387424342 345.982846185767 2799.0122687995 37 42 38
135.109009202749 343.166762415561 2832.3319260552 49 54 48
124.501339157503 342.274993262393 2822.16760941554 36 41 35
75.7062966282405 339.345765125856 2846.06608551016 43 48 42
87.2378783356487 339.798941028383 2826.01996680056 50 55 49
103.979774448892 340.526434384171 2801.10646031091 42 47 41
72.1584517917431 338.671423550573 2820.02329858349 40 45 39
69.1573786625903 338.348613440863 2812.90568053543 32 37 31
42.815468961952 336.789481068943 2827.15031552095 31 36 30
30.0935183610109 335.953576326649 2829.039881102 32 35 28
36.108429901907 336.107721094399 2813.63894116391 33 36 29
2.52794341683105 334.173038521578 2834.98552484677 30 33 26
10.746916423924 334.442391766862 2817.47782976857 29 32 25
18.1400888058647 334.665979247993 2800.60600453331 32 35 28
4.75710907237348 333.797432187136 2803.25124727853 42 45 38
-7.18550284537445 332.838983686044 2794.58893830079 36 39 32
-11.6935155716087 332.436048803445 2788.84886946677 33 36 29
-15.480984451173 332.070361867239 2782.39599580634 31 34 27
-27.2920729054191 331.286704769424 2783.71079833468 25 28 21
-26.002472598968 331.184585745541 2772.29389014222 22 25 18
-26.9292740435376 330.966186754063 2762.97508040374 23 26 19
-15.6222055193365 331.380296043636 2741.53097278699 24 27 20
-13.7729408802392 331.302414335261 2729.28456887364 25 28 21
-24.1642534681588 330.591409193748 2729.15889196509 26 29 22
-26.6663694097717 330.287495659484 2721.16803771624 25 28 21
-38.4565215086625 329.5052247189 2722.49802447654 27 30 23
-40.2656062961013 329.236285488244 2713.77440934688 27 30 23
-52.7266075995891 328.42063932796 2715.8532452563 26 29 22
-43.2604069959419 328.727752001401 2695.54418449732 24 27 20
-43.0428953460711 328.559655803758 2684.58509327702 21 24 17
-63.2143589464851 327.351068920843 2694.65874654801 21 24 17
-90.9925573705661 325.757981737319 2712.80245419199 19 22 15
-101.203702111894 325.061004634424 2712.80745585519 19 22 15
-114.864537453562 324.189852140857 2716.48629857248 23 26 19
-97.993125376207 324.864889298883 2687.96101090362 25 28 21
-52.9529814443448 326.958011631065 2629.22298546615 23 26 19
127.661582932139 335.40576798845 2849.12624303658 34 39 33
144.026457893583 336.0435066493 2825.17400787193 36 41 35
118.680073628894 334.591258896829 2837.67049414779 41 46 40
107.263657791303 333.837772244606 2838.03681394576 46 51 45
85.1577993300565 332.552435511499 2847.94283097618 43 48 42
80.7029167060471 332.148021655184 2842.2409753188 50 55 49
80.8056880139287 331.969653717096 2832.43369097672 34 39 33
88.4631963655638 332.164679658321 2815.75334385727 30 35 29
61.2753658359777 330.447794817463 2820.73810837525 27 32 26
43.983166337298 329.408966949973 2826.72438387999 31 36 30
21.503907112935 328.116868346379 2837.59501158447 32 35 28
14.0821749811502 327.567404381733 2834.68212968963 28 31 24
7.41383980820265 327.05509619529 2831.0808473777 26 29 22
8.92950877784937 326.943383424644 2819.82777258951 38 41 34
20.7809703004025 327.335070723698 2798.77789902635 44 47 40
11.8254608782409 326.709001322501 2797.22342343209 44 47 40
-9.64382720513046 325.474539367385 2807.59116160529 36 39 32
-6.77063226158747 325.425074453699 2794.85213392887 26 29 22
-14.2090081322834 324.874089553528 2791.92747340567 23 26 19
-16.5261447470584 324.571051508923 2784.070424576 22 25 18
-23.2363317267226 324.055158691992 2780.43878483936 21 24 17
-27.7647621465325 323.644450585028 2774.68358093359 19 22 15
-19.9973055270755 323.824555169978 2756.84782545109 21 24 17
-23.139824300447 323.478416036358 2749.62755227083 23 26 19
-23.423191394699 323.268535074075 2739.54018834076 25 28 21
-22.3083993413806 323.124223580882 2727.99634420183 25 28 21
-19.093575937468 323.078535044506 2714.26995278594 25 28 21
-28.7684419210263 322.417604502361 2713.42856584211 28 31 24
-56.1885600433458 320.914836095196 2730.59727439187 27 30 23
-74.2676573496945 319.85889066702 2738.48309743717 27 30 23
-73.9108858805324 319.676826837914 2727.62488788303 26 29 22
-44.0255759375374 320.886145680807 2686.30393256165 23 26 19
-47.3521163367971 320.524833630043 2678.95018132375 23 26 19
-68.887236846749 319.307824279972 2690.5056156731 22 25 18
-107.063930102251 317.314332082459 2719.63622619168 22 25 18
-110.278525515566 316.961876830248 2712.36337664753 24 27 20
-110.740079755461 316.737135047286 2702.1467657799 25 28 21
-73.9358816394908 318.245015506465 2652.25668607269 24 27 20
-70.4579896573134 318.196492677588 2637.48594769789 8 11 4
150.544382501857 328.954411366767 2829.86308285468 39 44 40
135.181660091127 328.032950881614 2833.54297312485 23 28 22
121.410857466319 327.187203353724 2835.90719026373 16 21 15
109.218783372175 326.416088942342 2836.94616617928 23 28 22
103.187486569285 325.931160883004 2832.5714941564 25 30 24
95.627781528127 325.375619358615 2829.55885644804 32 37 31
104.065954049883 325.557331760792 2812.20932538081 22 27 21
87.3649587494896 324.580504066759 2817.38916036269 31 36 30
23.7883853262484 321.455660650082 2865.15487433959 36 41 35
56.4085780272978 322.745027692798 2825.81719383175 31 36 30
44.3981628159187 321.988432619038 2826.9876372145 29 34 28
24.9172464828247 320.892619180468 2835.09238089791 41 44 37
27.2135164453635 320.789551916361 2823.16989311329 46 49 42
9.31719851235302 319.768825558843 2829.95335858937 50 53 46
14.5492516020442 319.797190532114 2815.21930738272 43 46 39
11.5560581044107 319.4517858843 2808.10728700191 34 37 30
-9.94189881714735 318.272134347246 2818.45481462509 23 26 19
-7.75665037510209 318.160035761948 2806.45179922553 22 25 18
-15.9116502599805 317.582557806836 2804.24254509759 19 22 15
-10.1305771259279 317.628800514969 2788.67154416282 20 23 16
-13.1887146059166 317.278056266551 2781.5124174571 24 27 20
-16.9939652477047 316.893356659653 2775.04655711483 30 33 26
-18.6348378179422 316.604210825205 2766.44478026081 30 33 26
-20.3034368823329 316.31281425794 2757.82318695609 33 36 29
-24.886683152626 315.891605192509 2752.02819268106 33 36 29
-39.5546128373112 315.025567271795 2756.21232822918 31 34 27
-43.4094224900166 314.636729610696 2749.71052054219 30 33 26
-36.550341897285 314.717087095756 2732.45079528268 29 32 25
-37.614914618312 314.447931880897 2723.03185511544 24 27 20
-48.6625610294782 313.742112963398 2723.66545071 25 28 21
-92.2756580553901 311.620637773356 2757.50029321616 25 28 21
-58.6599388851143 312.858589954922 2712.708258565 26 29 22
-45.009473962301 313.22333478319 2688.02223797361 25 28 21
-51.1388533857562 312.729773883864 2683.57642003885 25 28 21
-81.0611553954179 311.212160305397 2703.87160788952 25 28 21
-109.863196741833 309.522285003958 2712.62677433988 26 29 22
-85.3705002863054 310.340153731976 2676.04075548082 25 28 21
-103.910939647087 309.319181446831 2684.82765007743 24 27 20
-98.2673435898394 309.32741622941 2667.92146545191 21 24 17
242.524726993123 325.560454350801 2760.66036504213 24 29 25
129.274912325209 320.440408672404 2848.98464634226 26 31 25
135.603259308119 320.486481257337 2833.81037503822 19 24 18
144.941755138062 320.659028872277 2815.87842450029 17 22 16
116.551286612431 319.213450874859 2831.10895838588 23 28 22
97.4787451080053 318.170431108499 2838.27467800188 21 26 20
89.9363431170888 317.62117911503 2835.27461550162 24 29 23
90.0174827115889 317.39600819627 2825.45141280255 22 27 21
86.2655450724419 317.007061767646 2819.02417868265 32 37 31
70.3844271299774 316.105079083218 2823.56370273388 40 45 39
65.129243892811 315.65301011075 2818.5164873294 43 48 42
56.1033534470745 314.810435981737 2807.02871792535 44 49 43
25.3818532744026 313.292954676615 2825.50951401271 44 47 40
24.6520572572768 313.031372678774 2816.33329898245 39 42 35
3.80265838778637 311.932082556538 2825.91605611867 23 26 19
-5.83311749807591 311.301060729939 2825.10345239145 19 22 15
-9.53107554330979 310.916334156893 2818.71537060557 22 25 18
-13.2433797174882 310.530422983479 2812.31688300442 21 24 17
1.40978062935204 310.898888034824 2788.35746209113 21 24 17
-5.31827477878632 310.386020994074 2784.71288447551 25 28 21
-6.92739588975511 310.082465202461 2776.13405194265 30 33 26
-9.2925689818375 309.746985591791 2768.2420161225 35 38 31
-13.1337079022946 309.350588825273 2761.75008035271 35 38 31
-18.4375728377093 308.894351209437 2756.66784790827 36 39 32
-28.0786868586391 308.262696142577 2755.85107676851 33 36 29
-41.2980027159797 307.487788406684 2758.61573172898 27 30 23
-50.8862004708825 306.860341733754 2757.8373420361 25 28 21
-50.4384734298198 306.635294329683 2747.04455591981 22 25 18
-44.3262758404785 306.634509176094 2730.47831933462 23 26 19
-60.3295694725001 305.751221859679 2736.16440694605 23 26 19
-72.019852609398 305.0413398563 2737.56745198948 23 26 19
-67.4253411812349 304.976206302377 2722.3707596381 23 26 19
-65.0112300230552 304.82240505834 2709.29869832127 22 25 18
-55.4454678577301 304.693299607 2677.94338923843 24 27 20
-103.44378816824 302.566555222704 2717.24510846921 22 25 18
-89.9742812880642 302.839145235134 2692.42744074856 24 27 20
-81.4824710863524 302.913724772698 2672.64617687274 23 26 19
-50.9695359753759 303.834085056673 2629.30836906233 23 26 19
-80.6240653864516 302.430851996672 2649.79854482116 19 22 15
193.230129720296 315.707419373402 2803.92398572479 31 36 30
136.024383052994 312.93986482885 2834.07743152811 28 33 27
126.873493704182 312.32943379532 2832.38140006682 20 25 19
90.2348144420717 310.393297475655 2845.33525507698 29 34 28
99.5205725654542 310.506137955695 2827.36477142168 41 46 40
63.0136231661633 308.834837244877 2850.29663812989 40 45 39
79.1385899435291 308.704349550202 2806.40483320949 41 46 40
55.0149106941884 307.522632413676 2818.55401810649 41 46 40
47.511914470078 306.981389571883 2815.58256225549 43 48 42
38.519619821149 306.383654227804 2814.00126930587 41 44 37
17.6023170363049 305.333226268975 2823.5350489412 32 35 28
12.3987943396049 304.881941736347 2818.52558181536 28 31 24
-0.971544032660088 304.121974437025 2821.18053853101 29 32 25
-12.0796758874979 303.448989344313 2821.77045324643 25 28 21
-9.88240677472363 303.276374269021 2809.77613983669 27 30 23
-1.85188405857595 303.319657597755 2792.13039355514 26 29 22
-6.36949649395624 302.891794437953 2786.38294494344 27 30 23
-13.0898047909991 302.381719689495 2782.74370304047 30 33 26
-26.3655295704148 301.629278988781 2785.46728529244 29 32 25
-5.4512219341365 302.138879417776 2754.93149993043 27 30 23
-20.9175805735111 301.305176280151 2759.77203770123 21 24 17
-29.1064518099424 300.740220779596 2757.53829293641 20 23 16
-38.0031389711666 300.14996746208 2756.02634579293 18 21 14
-45.4478879138782 299.613166984527 2753.09713714072 18 21 14
-40.0056090929524 299.542980763208 2737.27994724265 19 22 15
-44.6212616400266 299.107025901446 2731.46138627563 22 25 18
-47.8246725739679 298.721319213868 2724.19677065121 22 25 18
-67.3514942536504 297.750880190802 2733.50390824454 21 24 17
-78.3151695169946 297.089235496147 2734.19860006734 21 24 17
-73.0458740647029 297.004972215 2718.25593953061 19 22 15
-64.3369894138697 297.039004604648 2698.63183217625 19 22 15
-77.4239632018074 296.301483307405 2701.49231961981 18 21 14
-89.7699452899698 295.591883957078 2703.65507256105 19 22 15
-98.5988512208529 295.006824823056 2702.19228778753 23 26 19
-90.7685049837066 295.00170096528 2683.16614748324 21 24 17
-60.2167725132183 295.779051382563 2639.85603481057 23 26 19
-11.2963796559367 297.17872399854 2576.51626896196 27 30 23
184.332632421143 307.666094242736 2812.254592135 12 17 11
172.739597646384 306.972747748599 2812.49318171794 28 33 27
141.082007571796 305.559739556102 2830.29591543516 28 33 27
119.586928813365 304.517066339096 2839.41089221619 20 25 19
108.168709448229 303.837808006555 2839.7759861026 30 35 29
116.703293049493 303.869185168574 2822.49558400679 33 38 32
47.9814294687255 301.160391174829 2873.94428344416 40 45 39
71.8064710859312 301.733730416834 2843.0485063773 39 44 38
8.09524462022937 299.221690963678 2890.71971146297 39 44 38
22.1557057530584 299.179991738415 2858.91803842548 43 48 42
47.1465620937837 299.778187452697 2826.39714349893 41 46 40
43.4217973375675 299.373766652717 2819.98982367805 22 25 18
33.693467478126 298.761626527057 2819.1099267627 30 33 26
29.9579621784414 298.35631779692 2812.69452191809 37 40 33
19.5093916311273 297.720637484784 2812.52771902794 32 35 28
18.7333474356746 297.415741660119 2803.31775831315 27 30 23
0.907844860420948 296.530706136344 2810.15324665417 27 30 23
-3.56976277139109 296.100059021414 2804.43478427703 28 31 24
-0.702405560519148 295.916151281689 2791.69084372419 29 32 25
-5.95526086610576 295.457520869929 2786.64557712904 29 32 25
-17.0622781083436 294.803228803724 2787.23639453478 30 33 26
-15.0196380995193 294.58733018368 2775.12976794794 30 33 26
-21.7467583908073 294.078871168014 2771.48559606898 30 33 26
-17.6033961704904 293.928671019246 2757.19675625597 30 33 26
-27.2459932235309 293.323300709567 2756.37904317206 30 33 26
-29.6671156493209 292.954702186737 2748.44657520909 29 32 25
-32.1111836126533 292.584228860112 2740.497169563 29 32 25
-36.7255619914875 292.142400128085 2734.67979699244 32 35 28
-39.2093243938887 291.768683104297 2726.70159957039 29 32 25
-59.4976712360755 290.823107714409 2736.69185389007 28 31 24
-74.026533803291 290.065514697524 2740.9773514543 27 30 23
-72.9529025878415 289.805834127983 2729.40308457847 28 31 24
-74.7429671048208 289.453427770312 2720.69283487133 33 36 29
-58.9999853034509 289.650926126898 2693.81747292075 35 38 31
-61.6004476131913 289.267667360412 2685.75462891456 23 26 19
-73.9963983519594 288.578302119007 2687.88126100434 19 22 15
-74.5249486313331 288.258410768225 2677.6156013266 24 27 20
-80.6385952410078 287.76457666406 2673.18118706048 23 26 19
-50.1095097605577 288.393948692245 2629.85361308468 25 28 21
-19.8158288745827 289.004288686262 2586.35558737058 31 34 27
188.58735737563 300.416417799889 2819.00761637903 198 203 197
179.317797580341 299.817135979518 2817.2256146515 66 71 65
159.212030978336 298.866114361756 2824.8778299621 56 61 55
111.355763871925 297.01987268317 2856.87313866437 25 30 24
109.984343379944 296.684579235758 2848.46675410254 19 24 18
118.577880928316 296.668019610025 2831.22884617184 29 34 28
86.4662311440672 295.34559007411 2849.93791774337 31 36 30
8.97112316278292 292.301873512251 2899.96544962948 40 45 39
47.38886456696 292.936482690345 2846.30019760159 40 45 39
51.2697510355555 292.763622511651 2833.05600536633 42 47 41
33.2482553351654 291.906144979602 2839.7495536949 36 41 35
31.819105091309 291.566142016159 2831.30100127228 18 21 14
34.1066738621079 291.339362100396 2819.37187365613 20 23 16
26.6383307492717 290.810722665776 2816.42560242376 22 25 18
27.3666644543176 290.532771860868 2805.83596610048 24 27 20
25.0853417305033 290.161299158504 2798.00453288963 23 26 19
7.23977401267817 289.317997208284 2804.82568696937 22 25 18
-15.7013880771468 288.324885487544 2816.59802248589 25 28 21
-22.3583107001486 287.824356549345 2813.00507303918 25 28 21
-17.2765884515225 287.673613227321 2798.16113657879 25 28 21
-12.2620052424789 287.517432761329 2783.26850205559 24 27 20
-29.1860181348509 286.71113727905 2789.52286171111 24 27 20
-18.4251322033893 286.719900545262 2768.91579814844 24 27 20
-26.6071765172908 286.170923207853 2766.687083298 24 27 20
-30.4425260631334 285.748639087772 2760.19921324486 24 27 20
-42.9349850152425 285.075862820297 2762.25596849763 23 26 19
-41.0282010335836 284.818176189754 2750.05035083585 23 26 19
-46.3294006237169 284.35225569323 2744.9700015114 26 29 22
-64.4810391515693 283.521524561271 2752.80437863194 24 27 20
-69.7535182847415 283.057900870154 2747.74486101343 24 27 20
-67.9394801957693 282.792675673457 2735.47226616745 24 27 20
-66.881949116524 282.503725106837 2723.88617970098 25 28 21
-54.5930107026613 282.523566366126 2700.68148574066 28 31 24
-58.5792436858315 282.088974990181 2694.08417472512 29 32 25
-66.081570077676 281.557355601262 2691.11295871749 20 23 16
-67.9910065102884 281.178290163112 2682.3163332047 19 22 15
-75.4954015092406 280.64647332204 2679.34361661949 24 27 20
-57.3233170295211 280.804812864302 2649.28822922212 22 25 18
-44.8392960723258 280.802888515581 2624.98980788443 24 27 20
-42.815633118451 280.517032860236 2611.6340334501 62 65 58
-22.980642290845 280.697406801513 2579.07882959644 35 38 31
197.590620263015 293.005253008177 2811.91044842224 54 59 53
171.967795532615 291.938296778834 2824.20878315952 63 68 61
132.497202796842 290.475302900216 2848.69870104562 20 25 19
111.770455421492 289.563007146389 2857.13598692457 22 27 21
106.545188081923 289.100065985795 2852.11069759995 17 22 16
106.695919735936 288.790388717813 2842.33751562866 28 33 27
52.3835459052573 286.931413294972 2880.7688033813 36 41 35
9.81256174684031 285.418765103418 2909.18640747363 33 38 32
0.987346361163599 284.865767273873 2907.72675492894 39 44 38
43.8582447306626 285.758904450114 2859.76107417396 41 46 40
78.8687338389615 286.418504303753 2818.4475762836 40 45 39
58.4824309753849 285.533744567669 2827.13209160697 35 40 34
52.493187070588 285.049213667374 2822.78790663906 29 34 28
48.0052692248876 284.605660258976 2817.06190479492 24 29 23
36.0174535330766 283.957724474383 2818.24928143242 24 27 20
12.1147359367839 282.989660263371 2830.56002281848 23 26 19
11.3991817821804 282.65010506599 2821.39373706867 20 23 16
18.0759635547258 282.506213772409 2805.23576026889 21 24 17
-2.71095440125935 281.629262444774 2814.86523181957 26 29 22
-27.8386491126335 280.642539763155 2828.75764542515 26 29 22
-32.2508516544973 280.205095024255 2823.08685663924 24 27 20
-22.0008609340767 280.14908218891 2803.34414276052 23 26 19
-14.7745372351316 280.009400726276 2786.34981980243 21 24 17
-16.3788129104485 279.63814818961 2777.77415693193 21 24 17
-25.2805332043131 279.078890908578 2776.25871816422 21 24 17
-26.917860370804 278.70495336455 2767.65908196232 24 27 20
-41.5893588080274 278.000807455901 2771.84145046053 25 28 21
-51.1662266037292 277.427146311484 2771.07154653117 25 28 21
-46.3588376972162 277.212447964293 2756.02871050873 24 27 20
-57.3698673565122 276.603228906418 2756.6893396655 26 29 22
-71.2062077863489 275.926378460901 2760.24193917709 22 25 18
-70.7640437298553 275.599933972209 2749.44490121536 22 25 18
-57.5940158794182 275.578893705039 2725.64338961179 21 24 17
-41.7158344803268 275.615996674364 2698.86522430064 21 24 17
-42.188973500902 275.255704154459 2688.63923431004 19 22 15
-49.7260694107133 274.726305287152 2685.64311886121 19 22 15
-73.3674209724626 273.819509219106 2699.37867702797 17 20 13
-75.2514667937465 273.425528702728 2690.60008768637 19 22 15
-67.417541666728 273.25440906732 2671.57570099438 24 27 20
-46.4888768545657 273.378140037772 2638.57800121527 23 26 19
-40.9507784608087 273.141977577037 2621.59439563886 24 27 20
-45.1415309758789 272.682056034246 2614.8486957477 33 36 29
189.439082280176 285.091431074038 2819.54742586003 32 37 31
157.615082533266 283.934530907427 2837.23082289207 18 23 16
140.669352241426 283.16472640629 2842.23458734606 22 27 21
119.917757367908 282.301907678417 2850.65411135421 23 28 22
113.128456295541 281.795053481261 2846.96516590578 18 23 17
100.19136620503 281.134656067785 2848.69936678173 29 34 28
68.124225082268 280.001121928198 2867.44195490128 37 42 36
49.9670826729428 279.219295817381 2874.03755322506 34 39 33
47.4512813564201 278.154456235161 2847.50590209233 38 43 37
57.3844845726259 278.054892818997 2828.76835822814 32 37 31
58.9351072215258 277.749955355401 2817.53964338683 27 32 26
46.916216622007 277.120887498608 2818.70488320736 24 29 23
34.9316493176901 276.494589153011 2819.89472426817 24 27 20
10.2827643182688 275.574428715665 2832.89983225096 24 27 20
-1.59626786989886 274.956677674381 2834.16622126348 22 25 18
-4.53065280596698 274.54678580931 2827.09650582353 23 26 19
-5.26268725723544 274.186117170724 2817.91816621122 28 31 24
-25.2184356912815 273.387754777155 2826.91494277159 26 29 22
-40.6761244313665 272.695411475963 2831.76248155285 24 27 20
-24.5263737304504 272.711894904743 2806.41611481134 22 25 18
-26.7986258285191 272.312581017215 2798.5914105466 22 25 18
-33.4699262103182 271.815266615316 2794.98776016095 22 25 18
-27.7765382244952 271.587554030259 2779.35180675336 22 25 18
-43.1779927770994 270.899762474719 2784.24013395271 25 28 21
-54.9096947061878 270.293949134459 2785.61368075805 26 29 22
-47.1527116488089 270.104219156658 2767.7684594819 26 29 22
-49.5371471914956 269.695804350203 2759.86209046908 25 28 21
-55.5253713410915 269.210762940725 2755.51864215764 26 29 22
-60.0869244672213 268.75517684546 2749.73949405636 22 25 18
-60.3879530155951 268.386348932829 2739.63822738663 22 25 18
-52.2114184447413 268.18754677356 2720.86206537469 22 25 18
-36.3439337799873 268.138106823136 2694.07570741559 22 25 18
-30.4856118449479 267.880694260834 2677.32413108221 23 26 19
-48.6014312536922 267.145249818961 2685.18495689249 23 26 19
-63.1397735018344 266.484298942596 2689.46377746818 18 21 14
-87.4048762173669 265.638260394865 2703.98250949007 19 22 15
-68.3880003971329 265.628635319565 2673.30364196107 23 26 19
-64.8002749854242 265.316466406445 2658.61118876391 23 26 19
-48.1304028192844 265.245898417858 2629.93602387527 23 26 19
-50.2274700234535 264.817696467448 2621.0028374488 25 28 21
6.07890901109265 265.460485840515 2549.42750496677 24 27 20
171.923026469106 277.028944374199 2835.21672891756 42 47 40
151.034458508557 276.20651443817 2843.53745726599 43 48 41
155.049420342596 275.935775581197 2830.38996334965 20 25 18
145.857387938369 275.373814433436 2828.66405744195 21 26 20
129.740383422162 274.6631115513 2833.03355115171 14 19 13
109.83390518146 273.874460858165 2840.83135176622 25 30 24
114.545695858858 273.614367194096 2826.95402124029 27 32 26
67.1964643097893 272.251579730855 2859.31933962966 33 38 32
28.4706225030065 271.083535745938 2884.35063733732 32 37 31
34.7899760599004 270.862066684905 2869.16849135564 36 41 35
3.89122677839193 269.870057803604 2887.52345740274 37 42 36
47.2145325690212 270.401767373375 2838.64886911092 29 34 28
48.0436397056412 270.056176263928 2828.13223746434 24 29 23
46.5777383743538 269.662076350424 2819.65676938241 24 27 20
35.3434639558747 269.072130998545 2820.15566127409 23 26 19
19.6561551413734 268.396294736926 2824.83682717448 24 27 20
9.23921714805731 267.826769171479 2824.69329048463 26 29 22
4.78933005949944 267.37417381829 2818.99481214873 26 29 22
-1.8921009953079 266.878237311192 2815.38411927834 20 23 16
-12.2615245542144 266.312563188663 2815.2747518473 21 24 17
-33.6474992550055 265.541579034773 2825.70552775299 19 22 15
-38.0621446693628 265.091854052923 2820.0326113978 18 21 14
-29.3162102890925 264.883726282567 2801.66917222324 19 22 15
-25.7659014709519 264.575355151067 2788.18465080461 21 24 17
-36.0925925836364 264.013175128807 2788.10657321111 22 25 18
-55.0949334832254 263.297887174256 2796.55987939915 24 27 20
-54.5013076373144 262.933246992263 2785.87244585221 25 28 21
-42.4172630937183 262.766488014995 2763.75331141489 25 28 21
-34.7554640883909 262.516336102819 2745.83878313908 24 27 20
-53.6807689832162 261.807323553086 2754.34826063418 25 28 21
-62.530757427413 261.273179132838 2752.8704505899 26 29 22
-67.8048887504179 260.799676819562 2747.80968522655 23 26 19
-31.2145256157457 261.014818515989 2700.22811725964 21 24 17
-44.4117498482339 260.40337552356 2703.00932041456 20 23 16
-68.1445820029432 259.625610312205 2716.67921591391 20 23 16
-65.0527162272803 259.280124452487 2702.8621713567 20 23 16
-66.9250415777687 258.853164072159 2694.09191138499 20 23 16
-57.6470620557576 258.59653019648 2673.6438441367 19 22 15
-81.1985364766252 257.833482098639 2687.44498979574 21 24 17
-61.6000393000851 257.725748065191 2655.95221842993 25 28 21
-47.7019211381746 257.522707196874 2630.20751990403 23 26 19
-61.5243607610143 256.906475109471 2633.77050345121 24 27 20
173.904456476096 269.458431628185 2834.14469041749 40 42 37
188.796919678551 269.352988500801 2811.59167591907 44 46 41
160.124607796428 268.436917931323 2826.6202831232 25 27 22
160.975719030926 268.067811160706 2816.1194836053 22 25 18
156.38654886651 267.59779784877 2810.31994776986 19 22 15
133.32586614509 266.79655410712 2820.77157544979 30 33 26
125.70159987588 266.274866903942 2817.7120129312 35 38 31
134.1463216626 266.0354371784 2800.36539087503 33 36 29
47.1766208762849 264.135039094315 2868.23287881855 30 33 26
38.2368249849048 263.603930211639 2866.68998081481 33 36 29
27.0387864894102 263.035538506795 2867.21525007385 28 31 24
28.7232195147844 262.685421547526 2856.08330838704 25 28 21
43.9319308562234 262.557003042263 2832.52439590963 26 29 22
32.7086635375804 261.986577789852 2833.03136595604 22 25 18
32.7570126176768 261.601004307787 2823.18328576566 23 26 17
20.0655476571732 261.008763425762 2825.09618524355 24 27 18
20.8236835198132 260.632147860653 2814.52765338385 27 30 21
16.3409633367357 260.170846023006 2808.805624014 26 29 20
8.88592358932216 259.662958604581 2805.86880731117 22 25 16
-17.7614704185052 258.862697181698 2821.13116514024 21 24 15
-36.9239695320207 258.183269126873 2829.46855085852 18 21 12
-37.6570941530736 257.782990121693 2820.28922032455 18 21 12
-36.2265819228758 257.412326083638 2808.97310195938 21 24 15
-37.759766910388 256.995789063405 2800.44874487078 22 25 16
-60.4164313245541 256.276136361097 2812.4287039477 23 26 19
-55.4137335393321 255.952101585884 2797.52689768897 25 27 22
-58.4314185520372 255.512429104767 2790.39635092404 27 29 24
-28.3095676290026 255.5238346411 2750.47613264629 22 24 19
-47.2762361905483 254.860387821997 2758.95585553605 20 22 17
-52.5522615426279 254.383450738984 2753.8934052758 23 25 20
-59.2624655279763 253.887469904805 2750.26185406949 22 24 19
-21.8241970167568 253.957398052659 2702.05917864078 23 25 20
-15.8878852346305 253.611867935983 2685.36369247916 24 26 21
-32.6710115034796 252.9796981221 2691.72106583558 23 25 20
-95.2395741258036 251.794758314136 2745.16777534212 20 22 17
-87.1372920333453 251.479061139204 2726.33719402766 19 21 16
-76.3204407174389 251.189036130618 2704.53415091582 18 21 14
-55.8276306608463 251.003016333373 2672.4539584033 21 24 17
-52.9178733820608 250.606580837195 2658.50464144037 27 30 23
-63.9537013098161 250.051615647477 2659.14756860965 26 29 22
-55.5795876474343 249.709386864596 2639.27887278438 25 28 21
-82.4860316541058 248.985665569831 2656.82390069012 19 22 15
-81.064069515854 248.565867901963 2644.26629868011 16 19 12
191.393759955081 262.519603538983 2829.4959280235 107 112 106
186.030718918105 262.032090552886 2824.37063914424 25 27 22
179.884221392843 261.532393263099 2819.91238085014 59 61 56
172.184632748162 261.009464916861 2816.79850372451 22 24 19
158.302810749376 260.396013915165 2819.08341717763 21 24 17
160.666904530089 260.02158829712 2807.20872184267 19 22 15
138.361343382146 259.289944557855 2816.97306917483 27 30 23
124.585968769382 258.685159922429 2819.33519250664 31 34 27
105.498669860246 258.009108434858 2826.4920729317 28 31 24
89.5360443378901 257.381049811699 2830.97389787817 28 31 24
37.1208375003351 256.262010771451 2868.31415713693 20 23 16
38.060481603698 255.874837099222 2857.87715099561 12 15 8
41.2282508274311 255.514272952567 2845.35009072248 13 16 9
30.7699824216554 254.97315813479 2845.17673664064 19 22 15
30.8622372815406 254.56863125108 2835.36068316133 22 25 16
27.1702862721139 254.11401310063 2828.97660198928 25 28 19
27.2011992277594 253.704506480194 2819.11576075412 27 30 21
24.2148053482225 253.255760049651 2812.00814611509 24 27 18
13.0367257451987 252.707672916378 2812.54798684788 21 24 15
6.33319075448968 252.214303685322 2808.92098888937 20 23 14
2.587126614082 251.755349466037 2802.49795246782 19 22 13
-19.5831066240397 251.086310645389 2813.59546114828 18 21 12
-29.1762936816777 250.564099073927 2812.81428211692 19 22 13
-36.5523616849119 250.067600656559 2809.93477140432 23 26 17
-41.7314506321893 249.595206412549 2804.94290990004 24 27 18
-53.4643757381637 249.05360064049 2806.31560074532 23 25 20
-52.1060526149419 248.649112504732 2794.94697963018 24 26 21
-26.2044833221151 248.488606634255 2759.3773270975 25 27 22
-32.2212668593662 247.999673402317 2755.01315576361 22 24 19
-38.957980926104 247.503739517699 2751.36209259434 21 23 18
-73.6379914720373 246.744993190006 2775.62326301103 23 25 20
-45.9920884793945 246.571832375456 2737.61235226183 21 23 18
-49.8899669826833 246.100696096926 2731.0789061872 21 23 18
-9.07468308339454 246.01955063515 2679.14805844175 21 23 18
-25.8798464140386 245.426303515574 2685.4896538129 22 24 19
-54.6142158447844 244.738914077024 2704.1801313323 23 25 20
-76.8783108004063 244.113967581835 2716.44515209318 24 26 21
-94.1337994780342 243.535645694412 2723.6951147613 14 17 10
-35.8359121137557 243.536694337091 2652.32488751885 16 19 12
-49.7073010293951 242.976010609137 2655.85296251947 22 25 18
-67.0036154980069 242.394444011557 2663.07360774236 24 27 20
-62.0766317694053 241.971320676645 2646.88108173886 26 29 22
-76.5437680468519 241.413753370937 2651.21204470049 26 29 22
-81.3287665812168 240.922239411439 2645.2707342725 22 25 18
227.037487870016 255.29882031675 2799.71777585805 91 96 90
207.526960727385 254.634319197504 2806.56790760941 35 37 32
160.849129029462 253.660019469687 2836.95183258782 42 44 39
159.413210384925 253.217155039794 2828.49785259349 21 23 18
151.758464134687 252.702745351489 2825.41652582525 21 24 17
153.372189338175 252.290808295602 2814.23301339841 20 23 16
134.933361739727 251.659212630876 2820.62487858694 27 30 23
103.518808341806 250.895049636426 2838.60708130658 29 32 25
80.6646615546409 250.230065379567 2849.20912147409 26 29 22
38.0694612160251 249.370791007093 2877.61277468482 23 26 19
67.1943933374091 249.242351039139 2841.90960134122 21 24 17
54.3960278042888 248.689599709691 2843.74491185799 16 19 12
37.9642168942751 247.678188521074 2839.23882718929 17 20 13
30.5184137692471 247.180858649637 2836.30905426422 20 23 14
32.0774424569699 246.764548442802 2825.08586901494 23 26 17
26.863347908558 246.285901755275 2820.06859953347 26 29 20
25.3705642395756 245.838523973937 2811.57337400835 22 25 16
9.73024977527048 245.271851129878 2816.28916005033 20 23 14
8.96522480693784 244.829412230726 2807.08649072566 21 24 15
14.0784521807231 244.43081617578 2792.2641375799 18 21 12
2.92013821754011 243.903030093922 2792.81840967566 17 20 11
-16.286466062021 243.317783069296 2801.12459414032 19 22 13
-31.7539937629479 242.765244170622 2805.96570858576 24 27 18
-39.8657274795975 242.268160524402 2803.78793176252 25 28 19
-43.599178129339 241.801526078449 2797.37400022767 21 24 17
-29.2080653010922 241.451955305801 2773.22097848278 22 24 19
-36.6418431855768 240.955801248334 2770.29992886694 23 25 20
-23.8759342254939 240.58265391336 2747.43901046993 20 22 17
-32.0748588033739 240.078586272164 2745.19828623235 20 22 17
-28.7940097268871 239.63970676242 2731.51776664576 21 23 18
-52.0088636944478 239.054316982338 2744.32879890045 22 24 19
-34.5169054858694 238.685661898506 2716.24807185825 21 23 18
-24.9827546438768 238.266902981441 2695.98459299446 20 22 17
-31.8288096298933 237.764425492206 2692.25452759173 21 23 18
-42.1997323564143 237.246675149761 2692.14431612548 24 26 21
-56.7664592834267 236.713401525076 2696.40350122917 25 27 22
-67.0734442704375 236.200914023737 2696.33996072915 15 18 11
-37.5075601862422 235.837336390164 2654.7794797551 17 20 13
-35.3459918444234 235.361939528078 2641.52271581595 22 25 18
-70.0552259258682 234.764692639653 2666.99826164676 24 27 20
-45.7261630938965 234.355266086687 2630.28740478932 27 30 23
-45.0607298163777 233.866826065157 2618.41606780518 25 28 21
-54.7608839757636 233.349576999957 2617.55707669803 23 26 19
232.163374709191 247.573120829906 2795.98369969939 63 68 62
198.585274654128 246.836812578454 2814.86801010008 25 27 22
158.932238011354 246.062596812361 2839.22915930138 27 29 24
123.34824701253 245.334247298418 2860.36450674928 24 27 20
143.662884462097 245.046783159861 2833.09537474678 22 25 18
142.214812476836 244.585881048582 2824.63249317198 22 25 18
124.575989658296 244.005619807172 2830.36981676521 26 29 22
