ply
format ascii 1.0
comment KinectMotionCapture
element vertex 800
property float x
property float y
property float z
property uchar red
property uchar green
property uchar blue
end_header
17.9591165230995 231.4536639086 2829.59525805532 17 20 11
20.9708138845484 230.9799615024 2816.95448489089 20 23 14
11.2898658879792 230.490044072849 2816.10955518116 21 24 15
7.55984357554995 230.005987231795 2809.69772619632 20 23 16
7.51071934264047 229.522472282771 2799.77878390534 21 24 17
-0.680259824572982 229.034271779357 2797.5438998357 18 21 14
-7.38960095379948 228.547050680856 2793.91272402497 18 21 14
-2.37654738719728 228.056908215846 2779.01758352497 18 20 15
-12.7659436718073 227.569298549718 2778.89442732771 20 22 17
-20.9456425810382 227.082098598324 2776.66743114878 21 24 17
-32.0169793277836 226.598876913348 2777.2852750894 23 26 17
-37.9928721569238 226.111674940685 2772.95075507164 24 27 18
-24.0555185518212 225.091069056847 2738.58451266942 19 22 13
-20.0754891568162 224.576807352511 2724.17513088508 20 23 14
-32.5994949479047 224.095125681235 2726.20998509283 23 26 17
-45.7974043703935 223.618454035711 2728.99137418233 26 29 20
-65.3461270069997 223.163297373464 2738.28524531134 17 20 11
-43.7359209150678 222.588637904482 2705.77807186549 15 18 9
-41.1515243882805 221.541691847905 2681.70871699802 21 24 15
-59.9255441630184 221.089915904614 2690.32887278236 27 30 23
-66.032362214977 220.592424917801 2685.89939016062 28 31 24
-77.7177098308597 220.1195058509 2687.30721333255 25 28 21
-46.975820133482 219.450782622675 2644.12733056668 24 27 20
-56.6489567559796 218.962247689629 2643.28836496836 25 28 21
210.309959496457 231.974745879481 2815.8813963324 16 21 15
210.366224962406 231.477036993311 2806.03848691114 22 27 20
205.713653023821 230.971375233884 2800.19310368716 19 24 17
184.743459474229 230.451136360098 2808.45619056142 19 24 17
155.337511551979 229.93237552504 2824.19031290184 20 23 16
134.556325613866 229.427568706876 2832.59019911667 24 27 20
125.406935999592 228.931276505876 2830.89583298063 18 21 14
134.701021813232 228.434867012395 2812.92830027449 18 21 14
117.876199602083 227.939393369619 2818.02080863934 13 16 9
82.0268615771429 227.459355558987 2840.20038921917 10 13 6
77.5570350305728 226.968678289381 2834.48726345222 18 21 14
67.7641602828101 226.482645907084 2833.56150980747 18 21 14
57.2355536083737 225.999307818354 2833.33716418708 20 23 16
45.9773436192519 225.519180382274 2833.81955539921 22 25 18
38.5111271565077 225.034911427901 2830.87475608909 20 23 14
28.8018256150471 224.555783830933 2830.00962141923 19 22 13
20.6094657486235 224.075032802096 2827.77377418432 18 21 12
32.5662401256039 223.545174837871 2806.79557634839 20 23 14
25.0823064866075 223.059555632779 2803.83822111684 21 24 15
13.1576862886988 222.587880214073 2805.07230231003 19 22 15
3.48463028224133 222.111834535213 2804.23345841253 20 23 16
-0.271388260040695 221.616915506708 2797.80272918676 19 22 15
-0.367704667387336 221.107095120798 2787.84944303918 19 22 15
-11.4894206761749 220.638343451956 2788.43054479406 20 22 17
-25.5029080230105 220.184505241822 2791.85585632595 21 23 18
-28.5461964711462 219.685160047977 2784.70674130724 22 25 18
-32.3341188519564 219.187790876335 2778.25287189759 23 26 17
-39.7552680734914 218.707553737925 2775.34076321435 23 26 17
-27.6859315326614 218.124484173661 2753.20915241377 18 21 12
-21.4829210119842 217.56448287688 2736.70591552055 19 22 13
-18.9418065487355 217.019264949131 2723.72364453026 23 26 17
-22.1746011525878 216.50466472694 2716.43707518527 22 25 16
-38.2559010584713 216.070533677457 2722.06888944908 26 29 20
-57.8294822246719 215.665052799189 2731.34499171712 17 20 11
-76.6118101775957 215.261455571695 2739.95936876049 16 19 10
-53.6529441609812 214.563821029952 2705.95917152448 25 28 19
-54.8102032475768 214.03065458326 2696.47170376387 23 26 17
-61.6131925675425 213.538554078541 2692.77261566597 26 29 22
-62.1171534985319 212.99607960489 2682.52365390425 29 32 25
-62.6573980315299 212.450681534373 2672.24808009948 26 29 22
-59.0633969163141 211.866417462476 2657.5587980781 23 26 19
-60.3825778667879 211.320286632532 2647.95388403563 24 27 20
226.413346224631 223.717714579985 2792.9295856328 18 23 16
211.591338880443 223.227008613037 2795.76889149851 19 24 17
189.049682184621 222.760898087427 2805.36313863054 17 22 15
148.010458890929 222.356304540807 2831.19165149073 20 23 16
144.239441517699 221.851048305942 2824.74999693232 19 22 15
156.627122424983 221.289801611356 2804.08401344611 19 22 15
140.494494457288 220.823124824395 2808.44341742274 19 22 15
117.526283764841 220.387782030192 2818.96393341034 15 18 11
77.8554916270742 220.029573811959 2844.54964954087 10 13 6
76.4445210322573 219.520607567049 2836.11342010147 16 19 12
65.1370878926709 219.05503260307 2836.55990763547 15 18 11
53.8594062125526 218.591912646967 2837.02797507246 19 22 15
46.3850764658975 218.111884575372 2834.07761022762 20 23 16
36.660890643657 217.644662062702 2833.20145144955 18 21 12
37.4626462620298 217.119965317262 2822.66379042131 21 24 15
40.4679886610064 216.578740821914 2810.01836287328 23 26 17
27.0084294648174 216.134078228136 2812.6102385901 19 22 13
33.6733125264583 215.564213996374 2796.44177300096 17 20 11
17.2740004333831 215.141552011986 2801.84311153663 17 20 13
9.8075037943266 214.662331116521 2798.89813469014 17 20 13
8.24568889778421 214.141315720787 2790.35278844294 22 25 18
7.3916499060438 213.61258812923 2781.08485940679 24 27 20
-9.61519212228712 213.205976797092 2787.281198933 25 27 22
-23.6347478270755 212.781309786531 2790.70225914059 24 26 21
-27.4100277960447 212.276174982429 2784.25751515063 23 26 19
-32.6520293580366 211.782318043632 2779.21993823654 23 26 17
-32.1078630337688 211.236947860051 2768.49544051673 20 23 14
-27.2741660876568 210.648888078485 2753.46978460436 21 24 15
-29.7028290494739 210.122846415867 2745.53075838834 26 29 20
-27.1335499663887 209.546463958295 2732.56904115457 27 30 21
-24.6181031170178 208.965728801002 2719.56798326143 23 26 17
-17.1662452017276 208.329594317064 2701.49930913126 22 25 16
-61.68170955186 208.23175361065 2735.92558752045 16 19 10
-72.6599070694764 207.793858580673 2736.61088518737 17 20 11
-58.6179561015636 206.517089208478 2701.0841334979 23 26 17
-65.4078075940581 206.028338215233 2697.39458625745 21 24 17
-55.4020171463481 205.339059389245 2676.23660214326 22 25 18
-46.1962347791665 204.650007675468 2655.73371287805 23 26 19
-49.564081844917 203.524225480522 2637.22993227023 22 25 18
-74.4359419384191 203.26229421696 2652.54680816773 11 14 7
219.775117655128 216.522769566633 2809.07804334251 27 32 26
229.965901042148 215.92044890532 2790.52497275364 20 25 18
217.470702859127 215.444564301 2791.34570294535 17 22 15
196.464343047873 215.024286451997 2799.58278396998 20 25 18
180.962783042018 214.575890967551 2803.16471854901 21 24 17
165.512880297467 214.131732573207 2806.78412204088 19 22 15
150.114727014171 213.691800911836 2810.44076675381 18 21 14
146.289457557666 213.173292632586 2803.95971657822 18 21 14
124.834387951925 212.784762001693 2813.10701020903 16 19 12
108.811947630235 212.362182080113 2817.54651492109 11 14 7
89.0379732833955 211.974500612232 2825.4424014242 15 18 11
68.5827549504925 211.59947916601 2834.07954037806 15 18 11
53.5098032405501 211.18628079363 2837.97206606104 17 20 13
54.3413176265868 210.638729830813 2827.45615651446 18 21 14
49.8633956119168 210.13532475335 2821.73709770106 16 19 10
43.8745665491496 209.64506218172 2817.39318442893 19 22 13
39.3812832231748 209.140464942565 2811.6629838346 22 25 16
43.831257812299 208.547227594402 2797.59416980042 20 23 14
25.1574041616598 208.181406869605 2805.0523368967 18 21 12
22.8748037359585 207.65267557668 2797.21947538375 18 21 14
20.5692321525852 207.122095409355 2789.36965774644 18 21 14
16.0283789482674 206.613774325548 2783.60524834712 24 27 20
-1.75409897876011 206.25264976185 2790.47428540911 27 30 23
-21.6660632716272 205.922437024941 2799.50546777515 27 29 24
-29.0735727730107 205.453154273919 2796.60359677929 25 27 22
-29.1880898007502 204.896921727375 2786.6365870498 24 27 20
-27.8865419634693 204.319873758837 2775.22593426867 25 28 19
-23.7338016209427 203.70269901341 2760.9415275382 23 26 17
-24.6971033246428 203.145541778623 2751.59454210564 22 25 16
-33.6088183927088 202.690120769211 2750.072383864 26 29 20
-36.7642005628035 202.158801650598 2742.8418477598 25 28 19
-26.348008198994 201.43898970004 2721.98121809671 22 25 16
-33.1480557327255 200.951395461612 2718.28428538757 23 26 17
-35.6797120005381 200.402906074632 2710.27077790091 17 20 11
-57.3681385379343 200.132945072265 2721.71957994882 17 20 11
-61.723581610809 199.025788937778 2704.97033199919 24 27 18
-53.0577322500025 198.299871869978 2685.31117815085 19 22 15
-57.7823267630548 197.777334918542 2679.4132042724 19 22 15
-44.3787326394613 196.960642021599 2654.54223755518 21 24 17
-29.0134139985276 196.099424313274 2627.38744243726 25 28 21
-36.6620041025187 195.611335738593 2624.31071171244 23 26 19
-33.9377403436774 194.946540752257 2610.22556724455 8 11 4
219.415891661454 208.797422408203 2810.01383345328 50 55 49
231.956448944041 208.115854455445 2789.45806386317 17 22 15
208.546813824163 207.763731167671 2799.65900338607 19 24 17
197.665010167449 207.298950816906 2799.17900621126 24 29 22
193.781880188981 206.766853361635 2792.65594287664 21 24 17
190.657172697328 206.22571200814 2785.44759374992 20 23 16
150.533131118109 206.070452422592 2810.70547318533 16 19 12
129.03891058567 205.732930302416 2819.82464384201 15 18 11
129.080473889619 205.166477948531 2809.97102278757 16 19 12
113.045119911593 204.777899092358 2814.40133833666 11 14 7
97.8276399279503 204.385149426511 2818.18919596638 14 17 10
73.548053274096 204.104299078156 2830.23021780353 16 19 12
66.0326889150036 203.630704500729 2827.2498442023 17 20 13
66.0754500802789 203.064453738648 2817.39709252419 18 21 14
53.2833914873185 202.656953092372 2819.23800527685 14 17 8
41.2805615384864 202.242938639659 2820.41568261668 15 18 9
37.5448806755347 201.723159605989 2813.99957068785 17 20 11
47.9736821655501 201.011244376273 2794.38345275411 18 21 12
38.2151073913382 200.567612869385 2793.48248418396 18 21 12
26.9936570927505 200.146563664249 2793.9915280461 19 22 15
32.0743118841342 199.4949435608 2779.14457520056 22 25 18
24.551229386125 199.020992575215 2776.15860475044 20 23 16
2.33041035181358 198.766797199414 2787.22183844854 20 23 16
-19.0613898240368 198.509348808174 2797.6506980259 20 22 17
-19.1671716368438 197.931318319484 2787.69020470628 21 23 18
-22.9524588971159 197.407819333481 2781.23811319909 21 24 17
-18.7611661913052 196.754777452038 2766.9814722254 23 26 17
-23.3235376940344 196.23890763763 2761.20113103951 24 27 18
-23.5636973844215 195.650058254023 2751.14316952883 23 26 17
-28.1591008445004 195.131587162456 2745.33886959614 20 23 14
-27.7410342172981 194.525581451075 2734.52265238393 19 22 13
-31.6563500250056 193.991757805963 2727.97624811132 19 22 13
-31.3067206481201 193.380270548288 2717.11068598774 21 24 15
-40.2410286963786 192.933705930459 2715.57219447197 17 20 11
-49.1586816935836 192.488550301323 2714.04578369495 15 18 9
-77.8447850075334 192.417196752007 2732.7743706957 21 24 15
-71.1707435077955 191.683378459062 2715.37638268792 22 25 16
-35.0853486089713 190.369311602526 2667.42130120451 17 20 13
-51.0644697425553 190.057789165467 2673.12780807776 21 24 17
-43.9564265801937 189.288595884055 2654.8095158038 22 25 18
-120.131366345587 189.599318348029 2713.22186542761 22 25 18
219.09728181386 200.488613371507 2801.09493526103 12 17 10
205.074107702234 200.078008603376 2803.27840700711 17 22 15
194.202357064803 199.629897174245 2802.8057819119 22 27 20
197.305599517398 198.995939924028 2790.23056001533 21 24 17
184.899464111654 198.569991803363 2791.11581217609 20 23 16
141.704075250544 198.578881114158 2819.08877333842 15 18 11
127.916989056768 198.187723223307 2821.44348875678 14 17 10
120.302236780093 197.710807235928 2818.39134438648 15 18 11
115.751429242056 197.189175456346 2812.61935697989 10 13 6
81.480553621907 197.116104890566 2833.47489227692 12 15 8
87.6299734282062 196.436114869851 2818.16723519382 15 18 11
95.2226903807372 195.726515215649 2801.43563177648 16 19 12
83.1001073670516 195.323986079621 2802.52655573933 16 19 12
67.999318544453 194.97326790483 2806.39951265681 19 22 15
54.4518764353805 194.601964468064 2808.92805175316 14 17 8
42.4445899908901 194.208992211295 2810.10260506705 15 18 9
58.0884147646326 193.345851045989 2785.62035745818 17 20 11
46.8121123801057 192.938916132759 2786.0897093643 18 21 12
45.9536334257651 192.350423988883 2776.81855346228 19 22 15
31.7466366493724 191.999205844947 2780.10410566986 20 23 16
34.5519450947154 191.341284380957 2767.31278366974 19 22 15
10.8284403575896 191.17168648467 2779.75748467131 16 19 12
-4.72509099551566 190.858188559046 2784.53746402352 16 18 13
-22.4152864912599 190.59146715255 2791.47387675995 18 20 15
-7.96909422798886 189.704447575118 2767.35835546583 19 22 15
-20.5315242336925 189.340410300398 2769.36595103245 20 23 14
-23.638065622583 188.789916614894 2762.17042905288 22 25 16
-28.2079025048303 188.267485466324 2756.38493729663 22 25 16
-23.4276700981328 187.549943213535 2741.31957346739 18 21 12
-28.7637916142609 187.038794212701 2736.21367940222 16 19 10
-38.3986805846894 186.619125348173 2735.40249468632 17 20 11
-38.7389279438239 185.999823560306 2725.27182324116 19 22 13
-51.9164650780188 185.659741171922 2728.06867248873 15 18 9
-78.5212880981352 185.624466961479 2744.60080237554 15 18 9
-66.8343297780869 184.733788806232 2722.19014486719 21 24 15
-63.0088991497488 184.012408960012 2707.66793652039 21 24 15
-71.1860459379865 183.564711409736 2705.4432849929 19 22 15
-63.2479617794099 182.736816041221 2686.49107870719 21 24 17
-64.4722480990698 182.119518366591 2676.95459533365 20 23 16
-92.1656010724305 182.143340686432 2695.16799922095 18 21 14
-130.819126730779 182.452268020734 2725.19964259264 24 27 20
-156.131401356016 182.449487496721 2741.43389635298 11 14 7
220.30348754613 192.727003492999 2800.69469434764 2 7 0
203.938147578117 192.38133844409 2804.88601337723 7 12 5
201.620337104486 191.806470350501 2797.02739365713 15 20 13
190.753343891077 191.374591372751 2796.55829954068 19 22 15
171.409429421297 191.091645112602 2803.53114502486 20 23 16
145.973424766165 190.923010521939 2815.96916532081 15 18 11
120.64584050001 190.763311441859 2828.48612160769 12 15 8
123.015268677917 190.112494158193 2816.61418778985 12 15 8
106.995875228262 189.795347521851 2821.05643528485 12 15 8
77.3176034717791 189.739389365193 2837.83052508216 12 15 8
87.281352410113 188.944045209767 2819.11189467423 15 18 11
107.757573597708 187.936475417771 2790.72091958848 15 18 11
92.5770574913938 187.61150782822 2794.53621092832 12 15 8
83.4735073082848 187.171030316786 2792.87506300959 16 19 12
72.8844745911603 186.76224427336 2792.60758535913 14 17 8
68.3109304990945 186.232885813541 2786.81907660215 13 16 7
66.7136462098563 185.640688260325 2778.24736280655 14 17 8
55.4121456699139 185.250337149874 2778.69853203228 17 20 11
47.1089551712138 184.798940729227 2776.38248999367 20 23 16
31.4181614083711 184.509168597832 2781.06308507157 13 16 9
19.4722218138068 184.142870951335 2782.28253961536 14 17 10
25.213901428224 183.385332817534 2766.67891016907 15 18 11
18.416977888823 182.904190078312 2762.9842747882 16 19 12
4.31183975710159 182.591162739942 2766.34385994503 18 21 14
-14.1198812594583 182.383872187546 2773.97865161872 18 21 14
-6.31468638919208 181.565548417602 2756.16519616315 16 19 10
-17.4325239850472 181.190733235857 2756.74958526915 20 23 14
-23.4642133025218 180.695885777046 2752.37457846035 22 25 16
-26.6164830043825 180.130271941936 2745.14612494131 16 19 10
-31.9411871368251 179.616781480206 2740.04820124424 15 18 9
-45.8602737919123 179.31947899074 2743.54303321351 18 21 12
-49.7424914436837 178.770943747182 2737.02054798334 17 20 11
-67.8653839041266 178.589467935113 2744.87905234781 15 18 9
-65.7165215096387 177.231351097871 2721.72742998093 23 26 17
-64.0052316674966 176.527889387161 2709.37813098373 21 24 15
-50.9273267853154 174.838652144844 2674.38546911107 14 17 10
-50.0937871198859 174.140213249231 2662.6349323494 15 18 11
-68.7895791590571 173.989016648755 2671.31331958234 23 26 19
-122.783499202406 174.856962753187 2717.40008240593 25 28 21
236.364560322508 184.668385799226 2787.59439083005 0 4 0
198.902671674203 184.773483462171 2809.84299950521 9 14 7
216.037678146667 183.792679971977 2785.20581424403 9 14 7
194.276618756533 183.595909682197 2794.13226065392 17 20 13
184.198293783624 183.165091725903 2792.99985772111 19 22 15
145.61823173549 183.337611374594 2816.9085878768 15 18 11
137.200348457048 182.884077881567 2814.50939176979 12 15 8
135.692988214403 182.281951492234 2806.00281554313 10 13 6
126.446880663788 180.565187382686 2784.46980165084 15 18 11
86.9579103338998 180.822414994038 2810.19014711694 13 16 9
74.8591108828816 180.46460698986 2811.29883329031 14 17 10
77.8607545908945 179.755535907162 2798.6495798292 17 20 13
73.2972758677151 179.220931747633 2792.86863557944 16 19 12
64.9793698032273 178.775878390735 2790.54195804201 14 17 10
64.1409369291681 178.149389695073 2781.28484703435 11 14 7
50.6136748617694 177.833617456018 2783.82829635004 11 14 7
47.5216250988972 177.260866132727 2776.64346139713 12 15 6
30.3487383549612 177.043663451329 2782.7203909576 11 14 5
31.6884766090704 176.35754031944 2771.33687073744 15 18 9
8.70478179886769 176.299802886935 2783.08311123244 18 21 12
-14.1787312489821 176.250345589931 2794.90201756547 19 22 13
-27.455115091271 175.955479787182 2797.62743975577 18 21 12
-2.04617622447789 174.620375292047 2762.92975596959 17 20 11
-6.63058431922314 174.084602955969 2757.13333917767 17 20 13
-14.123762336524 173.628304662123 2754.1694310152 18 21 14
-10.0491706555637 172.848887159448 2739.82725638361 19 22 15
-15.4013209577704 172.329837956604 2734.70970269326 15 18 11
-67.4344273450114 173.149405930125 2776.0421785142 16 19 12
-52.6096060901666 172.05949384383 2750.96477465963 15 18 11
-56.469292376012 171.504083699102 2744.45858807474 17 20 13
-56.0743774628683 170.820716130191 2733.62519583786 15 18 11
-67.7778488977923 170.496584527035 2735.02063430442 19 22 15
-56.1141074619196 169.465673805214 2712.59243607566 25 28 21
-50.20067803583 168.599199289725 2695.87772331972 18 21 14
-52.7948782627465 167.988965777461 2687.81826915917 17 19 14
-30.8971689832647 166.605252095856 2654.28037826131 16 18 13
-31.5203081698623 165.918389349162 2643.94429028364 15 17 12
-64.1964541409934 166.259504416159 2667.19301369754 17 19 14
-88.3801686252816 166.343296618515 2681.77545556123 22 24 19
202.442464725957 177.003125377724 2807.42927164194 8 13 6
220.350752340966 175.920706320206 2782.11710305156 15 20 13
226.490844726218 175.106410843476 2766.80200403827 15 18 11
196.991314777346 175.151447467146 2782.47114251573 16 19 12
187.669171784583 174.71352212164 2780.6515449315 14 17 10
193.606716591269 173.22261366273 2755.30530569014 9 12 5
191.908161968199 172.587724965755 2746.65996262928 10 13 6
173.41278610869 172.384294275024 2753.01329799359 7 10 3
120.024130653601 173.101695818755 2790.89222213787 12 15 8
70.6963072274953 173.741087803351 2825.53876284858 15 18 11
55.622173455284 173.489567876733 2829.43154503961 15 18 11
57.175830641921 172.792739778792 2818.20304499614 16 19 12
69.2021059845427 171.803589532037 2797.27290348748 15 18 11
66.8894682329588 171.20087419406 2789.41789253219 14 17 10
46.6291775651069 171.099812024004 2798.19772636815 12 15 8
37.5393108466695 170.021850981515 2786.66238691758 13 16 7
15.9535696266699 169.976748281352 2796.95173006591 12 15 6
39.4807141967854 168.615280173782 2764.59516426232 14 17 8
17.2076459557191 168.596152990889 2775.62141758511 18 21 12
-6.43724379200039 168.629100070647 2788.12413420046 19 22 13
-13.1539686870032 168.159024717884 2784.48769258693 18 21 10
-24.2428849022638 167.823840099165 2785.09324815556 17 20 9
-37.4832379818639 167.559016882118 2787.84494198628 16 19 12
-15.1631544178152 166.181039175972 2755.84830490426 18 21 14
-14.6954505366503 165.47808301048 2745.06787420061 19 22 15
-32.9997538217794 165.373811822181 2752.79526104341 16 19 12
-67.7495353691007 165.812380098691 2777.0116231297 18 21 14
-59.3623774331751 164.854500592973 2758.38430161362 17 20 13
-48.9230142762915 163.818288027599 2737.53886632142 19 22 15
-73.0447119665958 163.236544594224 2741.04668131951 19 22 15
-50.7514867544128 161.77463730708 2707.79511229597 24 27 20
-56.3968590209978 159.829919491583 2681.46038489487 17 19 14
-44.3661890043172 158.678058363145 2658.06253175812 16 18 13
-35.9323159011709 157.642515739042 2638.2336450555 17 19 14
-62.9839334413596 157.89106574761 2655.67835831447 21 23 18
-90.595945246146 158.176019024278 2673.95234530758 9 11 6
278.671003303875 167.953858361888 2752.71691885489 120 125 118
239.520998646076 168.308427677052 2776.2134075671 15 20 13
223.887128888369 168.04286118444 2779.70035404827 11 16 9
233.123246768555 167.098154923664 2761.68823396154 13 16 9
172.666634917362 168.084510382145 2804.32598444589 14 17 10
199.659614372302 166.641944405738 2770.77606117357 13 16 9
238.506928986095 164.129430845006 2716.17094402955 9 12 5
191.571029761787 164.780515950843 2747.61105987447 10 13 6
126.569218951579 165.989357700731 2795.60087092944 7 10 3
121.200154667534 165.461365748153 2790.4710106359 10 13 6
108.24578960214 165.161015216985 2792.19451222234 14 17 10
60.5627563243614 165.92123814551 2825.56393518728 15 18 11
61.3511733937462 165.218615401887 2815.01570352996 15 18 11
61.3474829372831 164.536036724601 2805.1286888561 15 18 11
62.0567981448499 163.826983444071 2794.52308199909 14 17 10
85.135703526404 162.403298363309 2763.07629952978 14 17 10
55.9051022047958 162.637894008254 2780.1766813684 14 17 10
8.98740690159361 163.46146666143 2814.10094056606 15 18 9
23.7643426162566 162.291768029418 2790.22375043312 17 20 11
21.4383209094779 161.673925754837 2782.35866606515 18 21 12
19.8249752049895 161.029632759396 2773.77533961021 19 22 13
9.37871713570537 160.680698102943 2773.61137103098 19 22 13
-47.8650772724378 161.932659740177 2818.57950679238 17 20 9
-36.9672236902434 160.869970317281 2798.06630688366 16 19 12
-23.9902052304604 159.722887221081 2775.35450613107 15 18 11
-40.8535070421601 159.612849483459 2781.65610875032 17 20 13
-23.6808693270238 158.300077476201 2754.57444843567 18 21 14
-41.9589594322041 158.244149156844 2762.32108263819 16 19 12
-55.1345495983151 158.011890317543 2765.11988943201 18 21 14
-52.5111270918479 157.20577384889 2752.19596379624 19 22 15
-56.3674891034656 156.633165409481 2745.69209993592 15 18 11
-70.2030010496379 156.432054958878 2749.24800422689 13 16 9
-72.637901933267 155.806228670129 2741.30395057942 17 20 13
-63.7783619283083 154.747001740179 2721.78351893243 20 23 16
-41.9663247068027 151.688767492792 2667.1776511961 19 21 16
-31.3729166504633 150.517121719917 2645.20816371391 19 21 16
-52.9171290988995 150.619348206328 2656.76368931261 18 20 15
-52.1536869369226 149.831537014078 2644.96188468643 18 20 15
198.602639267128 161.729824799616 2811.97914667165 25 30 23
214.199687201406 160.549860812814 2788.69642139273 12 17 10
210.280055715571 159.961783692386 2782.1466137884 12 15 8
188.555117458471 159.930666833848 2791.10008424577 12 15 8
209.203589003946 157.845795245772 2752.94763838683 11 14 7
183.72204321247 157.945253398466 2765.35400288375 9 12 5
138.465837204754 158.703485289087 2795.542233649 9 12 5
125.459644175299 158.422885916743 2797.22826408174 7 10 3
151.269352533962 156.85244380263 2764.05524572785 8 11 4
105.62752709394 157.667034509161 2795.19896035779 13 16 9
104.814192362928 156.983159241202 2785.96004733236 15 18 11
89.6476122801238 156.78875560059 2789.7861025252 13 16 9
57.2469221672756 157.198489153278 2809.52974744785 14 17 10
62.4670636629512 156.307832084442 2794.78240624466 14 17 10
43.7109718370676 156.257853732692 2802.18255693655 15 18 11
30.9881241402827 156.001010456179 2804.07440525416 15 18 11
23.5031301240869 155.559765949178 2801.11650609913 16 19 10
-1.00690014829108 155.739906707446 2814.22755160232 18 21 12
12.9864742816301 154.516343970965 2791.01710496894 18 21 12
26.1237973756883 153.31028591251 2768.421213747 18 21 12
7.58555099230263 153.278627589005 2775.97937804375 18 21 12
-11.6108822658745 153.28084212088 2784.29591130748 17 20 9
-46.0495826169311 153.875358971263 2807.50353607282 16 19 12
-22.8569639538871 152.266004375035 2774.9029152291 16 19 12
-21.596136310329 151.489839794409 2763.46173494563 16 19 12
-39.1769445792722 151.449465286861 2770.4788857859 17 20 13
-30.7417699923156 150.384531400561 2751.88583031333 14 17 10
-32.4552636830215 149.715573374145 2743.22948503564 17 20 13
-49.9555687781374 149.682086452343 2750.30502923162 20 23 16
-60.9592056928696 149.391904558191 2750.97263353283 15 18 11
-69.7974555046517 149.01624395994 2749.50443030252 15 18 11
-67.2635500388674 148.16959083963 2736.51540652744 18 21 14
-65.4912406110124 147.348298855651 2724.20974509658 20 23 16
-54.5995434603035 146.134439556955 2702.45598544785 16 19 12
-59.2829974964943 145.573499810468 2696.58793513836 19 22 15
-57.5004424716403 143.962497629572 2673.16948782772 20 23 16
-39.265232390844 142.386158875262 2643.15107503818 20 23 16
247.301279109628 151.663284731694 2760.77209290251 23 28 22
212.255351378851 152.131376529111 2781.06851747817 10 13 6
171.181225267639 152.82879037141 2806.87731042576 10 13 6
153.448175550117 152.727132785835 2812.54845667387 12 15 8
178.859360893131 151.09882985397 2780.32128403378 12 15 8
165.735294518096 150.832537034689 2781.9222325053 8 11 4
160.298669124629 150.292243257499 2776.74303893353 8 11 4
142.653329379788 150.19798529938 2782.47809997025 10 13 6
113.66543104511 150.530390268966 2798.51958670092 8 11 4
119.690072128318 149.57339375371 2783.12007176604 9 12 5
97.6674918951801 149.663082479293 2793.09342373628 13 16 9
87.0446555834619 149.330950030131 2792.80182940427 12 15 8
95.2397551302901 148.280660514582 2775.26984921748 13 16 9
48.6360985660381 149.339868564225 2808.18821318648 14 17 10
50.8438670316447 148.522361160098 2796.19824447488 17 20 13
50.021929988282 147.818242422957 2786.95269843547 17 20 13
35.0526127801665 147.672738117304 2790.92200138074 18 21 12
1.61740754472195 148.274550034129 2812.38675038656 19 22 13
19.3007270919185 146.826658252497 2785.67460982216 17 20 11
20.4730165997904 145.288031553754 2764.28420786903 16 19 10
-6.8142505758173 145.670717451979 2780.3237364738 17 20 9
-10.6245078522202 145.083883525854 2773.85322286508 17 20 9
-12.2665164076434 144.403487969916 2765.24864075418 17 20 13
-16.1120452336307 143.813886270638 2758.75254402711 17 20 13
-22.8642711203477 143.347883050545 2755.09068209024 17 20 13
-43.3099383768585 143.477979511782 2764.97233997418 15 18 11
-37.0771526647231 142.448508390847 2748.48801531844 19 22 15
-46.6831116441813 142.110667746761 2747.69851152349 19 22 15
-59.839354272013 141.934126574326 2750.51162598166 15 18 11
-48.7423724626013 140.670472858268 2728.9067238215 18 21 14
-59.7579122125895 140.398258023155 2729.5657905101 22 25 18
-53.7599857771505 139.349950271404 2712.91141041832 19 22 15
-74.6450072914846 139.535274016861 2723.70988739076 16 19 12
-66.6056474513397 138.383131180394 2704.8294556306 17 20 13
-72.6762230946245 137.883550284418 2700.42623531855 17 20 13
-63.3735936745774 136.654217161527 2679.99081591693 19 22 15
-47.8997651089783 135.116740400727 2652.91155105072 22 25 18
-37.4246607668505 133.80281222612 2630.85558199295 21 24 17
261.737847753872 143.252523416148 2748.96244125244 22 27 21
213.454607314712 144.319932818407 2780.66328056789 10 13 6
181.657605598789 144.782672736964 2798.37445284509 9 12 5
161.578856799625 144.808743172851 2806.05120310145 12 15 8
170.046954368774 143.728054728116 2788.71697103054 12 15 8
179.964900632774 142.579879593206 2769.96335012804 10 13 6
167.603608873943 142.307073205572 2770.88188609853 8 11 4
185.789765405195 140.811817103968 2744.53402288533 11 14 7
169.605412897282 140.691530493941 2748.85768517344 8 11 4
126.172977336817 141.691754952399 2777.89886406173 8 11 4
96.5673228274491 142.148561066659 2794.72819290333 13 16 9
128.174956234343 140.076455024411 2755.87449665939 11 14 7
97.1577698191299 140.604071377807 2774.1513023021 13 16 9
87.2750986598727 140.2554088389 2773.16085465063 14 17 10
58.7267725065814 140.706139369561 2789.52159597882 17 20 13
45.9596618927427 140.493945965924 2791.38158332365 18 21 14
48.8351225573216 139.607328049474 2778.64025224878 19 22 13
42.7665434272324 139.105758115985 2774.23846917689 18 21 12
42.6061511537346 138.343083462016 2764.23715783275 17 20 11
34.3083455306581 137.938439669076 2761.92525621667 15 18 9
28.9595770064364 137.402898819826 2756.81007051591 15 18 9
16.2850392740226 137.198747123901 2758.7369121739 16 19 8
-7.2990086285003 137.498286046238 2771.2850846815 17 20 9
-9.67641411127573 136.833810728127 2763.38251491217 17 20 13
-9.17547474526415 136.032632235722 2752.62567980531 17 20 13
-26.7959155761039 136.075814581857 2759.61422891058 18 21 14
-40.0208856445594 135.920276782068 2762.37762776655 17 20 13
-50.3275587074412 135.631336699635 2762.31544569873 21 24 17
-44.8430175677219 134.586644489517 2746.52395659252 16 19 12
-58.7195829410296 134.47125641002 2750.05053457874 13 16 9
-60.4409190535353 133.768019824048 2741.38833053447 17 20 13
-44.4394817543332 132.187691881089 2714.69102897227 21 24 17
-74.583244414641 132.882750430518 2734.83717736865 17 20 13
-57.3030161744854 131.221018467813 2706.59641306449 14 17 10
-62.6777641186114 130.684677001377 2701.4620957955 16 19 12
-65.2534338714332 130.005121261661 2693.41601811736 16 19 12
-64.3572455085151 129.144250887376 2681.71007398602 18 21 14
-57.9319890749848 127.991070056418 2664.12961222048 23 26 19
-56.4493457866955 127.085291045442 2651.61353767982 23 26 19
-59.1703842139106 126.394272476932 2643.4620210858 11 14 7
237.938641642358 135.535229286536 2760.07870303652 13 16 9
206.068796562671 136.081803290675 2777.73749424095 12 15 8
168.940339175528 136.868749626682 2800.23126805105 12 15 8
194.322127419686 135.012024477182 2767.98162782308 12 15 8
198.036177231207 134.064305226733 2754.61256732068 10 13 6
177.206067239535 134.173569003242 2762.98039231063 10 13 6
151.880545825907 134.489841358997 2775.50096041547 10 13 6
135.793185582431 134.412646119088 2779.89515273227 10 13 6
129.623567693301 133.901681107043 2775.42007691975 9 12 5
118.158121830147 133.628058606878 2775.75298993534 11 14 7
94.6551130641793 133.902359255163 2787.12445049944 13 16 9
109.604079677526 132.437139017742 2763.37047236109 13 16 9
105.683862034767 131.823025852457 2756.82010796139 14 17 10
69.6023921330489 132.697134795867 2780.07330683929 13 16 9
53.8215706095695 132.645713575985 2784.68984616656 14 17 10
48.5017886970738 132.108981144502 2779.59566744365 16 19 10
55.0324885511135 131.008945866836 2763.32724416284 17 20 11
59.2710678448194 130.008781729571 2749.10282952617 17 20 11
38.4020904663047 130.212119639808 2758.67828632819 15 18 9
27.167444633446 129.958240032819 2759.17861121291 15 18 9
17.4269932424438 129.635078933975 2758.29139087639 17 20 9
9.16738206400636 129.241534988244 2756.00723345126 17 20 9
0.192075227653188 128.885372121432 2754.43947894173 19 22 15
-8.7668169078523 128.530683810411 2752.8839257451 19 22 15
-10.4751768059996 127.81105324848 2744.23104539682 17 20 13
-32.4040895176529 128.120220808322 2755.50844728512 15 18 11
-44.1716409084805 127.919392024624 2756.8580573772 12 15 8
-47.3036170677981 127.275253460769 2749.64391733699 12 15 8
-53.3125063334994 126.779146382035 2745.28543239208 14 17 10
-61.4595844912114 126.395719574891 2743.08290380055 19 22 15
-45.4490131273957 124.730548577768 2716.39179396992 20 23 16
-45.1512354781571 123.888197294621 2705.48717957357 16 19 12
-35.7197421659685 122.54736187974 2685.14490605338 17 20 13
-46.7888141479129 122.308613235893 2685.76533559746 19 22 15
-66.9453475940542 122.572434779083 2695.85727009487 20 23 16
-80.0233550603875 122.457151029349 2698.72740917216 20 23 16
-68.6661368252139 120.986726688573 2676.07477951055 21 24 17
-35.884529141164 118.298115356596 2630.6581908239 22 25 18
-63.5986425286543 118.998440659929 2648.86026614196 13 16 9
243.914932602811 128.226426824221 2765.60935447497 0 3 0
244.576075794529 127.386732037223 2754.96816497065 12 15 8
128.444626209082 131.072523170323 2836.30764992758 13 16 9
203.06582674463 126.030960835762 2750.80716838868 10 13 6
174.566442198204 126.549513041006 2765.96869543311 10 13 6
146.956493167818 127.042458896555 2780.5398269342 11 14 7
133.926532925544 126.856353164657 2782.20910663606 10 13 6
145.214647817656 125.506911936996 2761.97736302507 9 12 5
129.164963724953 125.468017736441 2766.39906158993 11 14 7
86.0147162179321 126.759352304495 2795.64627915046 13 16 9
88.2077969889057 125.848350838827 2783.64518944972 12 15 8
98.6010251921052 124.524268522463 2763.99988845719 13 16 9
80.481700070755 124.612091356654 2770.62730628343 13 16 9
62.4315974878229 124.705716155848 2777.30493439316 13 16 9
51.8843378382115 124.427844838264 2777.06840203972 15 18 9
42.103651720927 124.114224390286 2776.15206301674 14 17 8
50.8175461589682 122.850011262577 2757.76004812376 14 17 8
30.7090155034468 123.071351086732 2766.65152906103 15 18 9
13.6213293898213 123.145764335452 2772.79140499183 16 19 10
11.9776461260885 122.414162505851 2764.1856439563 18 21 10
13.9574428035658 121.486215818558 2752.02955975656 18 21 10
10.06399815234 120.866355508656 2745.49857455937 19 22 15
9.78491887255872 120.049432676017 2735.41124417078 18 21 14
13.8106678468239 118.993397955226 2721.03255577503 16 19 12
-19.7354950405506 119.989060486553 2743.65390077122 13 16 9
-35.1371362071498 120.005204102338 2748.54565826052 10 13 6
-36.8608956215077 119.267642547461 2739.88152365029 12 15 8
-32.8945514844272 118.207109027386 2725.459748633 12 15 8
-51.791498569898 118.430568105884 2733.99450646192 19 22 15
-59.2449586151147 118.013159045971 2731.05929320964 20 23 16
3.41116772084638 113.572435930126 2656.65047033454 17 20 13
-25.4220650645784 114.363421482012 2675.27647348205 16 19 12
-49.189418840117 114.879029709897 2688.92789471319 18 21 12
-54.6089247277342 114.33273986485 2683.76137554231 19 22 13
-77.5156475935721 114.820562185805 2696.80121463935 21 24 15
-80.1024542287188 114.111969475039 2688.74662204253 21 24 15
-66.7307924739853 112.441586776837 2663.8481827625 22 25 16
305.854808840122 117.395561703297 2712.88107099948 8 13 7
249.662560159843 119.27043734193 2751.20354667606 12 15 8
224.98554062837 117.119221456566 2732.06871562225 14 17 10
178.814375746025 118.599934914132 2762.83236931386 12 15 8
167.21844169834 118.352588413796 2763.07082175286 12 15 8
167.068550515626 117.522701323833 2753.07678242929 11 14 7
163.087888669965 116.885783295417 2746.48248522584 10 13 6
154.552760950319 116.483929361862 2743.99855788845 12 15 8
113.58632423349 117.783840433215 2771.12350557267 13 16 9
81.0962515333809 118.663409767758 2790.80473496116 14 17 10
72.0121190082215 118.318340432907 2789.15814657829 16 19 12
56.2134125333862 118.335594635589 2793.76206857721 14 17 10
55.3847705060386 117.551961754661 2784.51155367401 14 17 10
43.3717647047032 117.372700275694 2785.68304339129 14 17 8
35.8405793324237 116.952470097129 2782.69176557819 10 13 4
40.8818695300792 115.838900311269 2767.81364215533 12 15 6
28.1704337427771 115.704074772113 2769.71438125356 13 16 7
8.88511197591724 115.943283720097 2777.96767776381 14 17 8
18.978023562469 114.534038268738 2758.10423947873 13 16 5
34.084965610278 112.825877700116 2733.22821945729 13 16 5
25.7640295050541 112.442824463581 2730.8996594215 15 18 11
29.0694682130193 111.390116411152 2717.23385622096 15 18 11
17.8428882227974 111.174767806202 2717.74022337427 13 16 9
-9.94810083895259 111.934608688946 2734.65154022737 13 16 9
-39.765730184697 112.832805177087 2753.79980745099 11 14 7
-61.5511672985236 113.273900390706 2765.18218057867 12 15 8
-25.33640741225 110.25349467541 2718.54727222193 15 18 11
-39.269132591538 110.222744183023 2722.03327299534 19 22 15
-5.55395832811856 107.30172304427 2677.29226944388 18 21 14
-41.4953831297527 108.611685927592 2703.11956542509 16 19 12
-39.8323626352464 107.628155543656 2690.73385634462 15 18 11
-50.8878387812992 107.428072237945 2691.36433764785 15 18 9
-54.8971156991922 106.791315437884 2684.74929758452 15 18 9
-65.9148879811442 106.594615156633 2685.40712835916 20 23 14
-70.6279664122325 106.001918886589 2679.51744184054 21 24 15
-69.0956429629477 105.008253240605 2667.03664186865 20 23 14
293.831705056937 109.960019366361 2723.88936796876 0 2 0
281.931425189422 109.705861347669 2723.90745360323 14 16 11
245.280073112427 110.754582046169 2745.51308606712 13 16 9
227.331809815096 110.83779267712 2751.02945026933 11 14 7
226.388753259326 110.02435400693 2741.69584286056 10 13 6
222.342731743261 109.373030184482 2735.054092069 13 16 9
222.876198195523 108.47235927432 2724.3200381154 13 16 9
188.251124568142 109.479678905067 2744.92428010737 13 16 9
188.804231471513 108.580743872443 2734.20476720551 12 15 8
171.85891392698 108.64252984588 2739.2127485615 11 14 7
116.264842983023 110.007457987744 2769.32042770185 13 16 9
78.4959581377529 111.278737280828 2793.82276295748 16 19 12
63.418005515226 111.285979571353 2797.71408746407 17 20 13
46.8957738056766 111.383220156161 2803.02895235554 15 18 11
33.4174839422246 111.313504618918 2805.60914899269 13 16 9
61.626457668758 108.828586454742 2769.23004183451 12 15 6
36.2474548199239 109.449959074891 2782.94871660482 8 11 2
40.5517518785814 108.338464432751 2768.77167274452 10 13 4
37.4230477864441 107.659242117765 2761.55943251251 11 14 5
20.3133028110982 107.813145235671 2767.68401461257 11 14 5
22.3173444808888 106.825756379503 2755.54549951589 10 13 2
46.1852171863666 104.50565785128 2722.19574805083 10 13 2
41.4698468438117 103.905024150825 2716.30435987203 14 17 10
36.0187778378349 103.348310671114 2711.11461264827 14 17 10
-4.18209004440318 104.943456040793 2740.03136404488 13 16 9
-16.0331858799991 104.800028660448 2741.32040725843 13 16 9
-34.3248803691758 105.066331762092 2749.05881151833 12 15 8
-42.8012546824321 103.840585453313 2736.73242061415 17 20 13
-38.8600356537754 102.700249585403 2722.29173317792 19 22 15
-36.4030981128134 101.646736895817 2709.24616040408 17 20 13
-13.4564403972113 99.2515466651648 2675.22822017888 16 19 12
-28.8262210375672 99.3415009025578 2680.14344790895 15 18 11
-51.8835719320543 99.9475667162375 2693.07498693708 14 17 8
-47.4664709846409 98.7425957422668 2677.74391244083 14 17 8
-30.5244510379585 96.6889830554461 2649.25598877388 16 19 10
-37.439433314939 96.2223455313977 2645.47584356641 21 24 15
-47.1317385494277 95.9449905169542 2644.6240519001 20 23 14
-71.3547657698561 96.6647746240735 2659.18121654677 16 19 10
259.213560070445 103.85922346182 2754.34380513851 28 33 27
269.937229176064 102.379467868089 2734.93725929227 7 10 3
256.551818199569 102.235970880153 2736.34937546991 14 17 10
246.294288115118 101.921474266545 2735.08765211785 15 18 11
247.610245459931 100.952792979876 2723.68546139628 13 16 9
223.538047753527 101.42954711932 2734.6453302172 13 16 9
184.250221516658 102.796611158892 2759.28207424008 14 17 10
220.744820450327 99.7956427512665 2716.55552999927 14 17 10
198.365688617683 100.197763237109 2726.27199263431 12 15 8
203.408539598145 99.0003051519481 2711.39457574545 11 14 7
160.693708586164 100.621485848938 2739.72407012194 12 15 8
89.4405634838273 103.10291560508 2784.42363807681 17 20 13
49.5672871833479 104.637229748018 2811.10689726759 17 20 13
50.2932908512088 103.727791381335 2800.51266771865 13 16 9
68.8826454742246 101.71723878251 2773.21915022228 11 14 7
27.0782077605611 103.414521011982 2802.20869912173 8 11 2
46.2947422880164 101.348528260732 2774.13452027826 12 15 6
19.5180318440711 102.140084325021 2789.31090225541 12 15 6
35.6207805650275 100.246442161918 2763.92078761286 13 16 7
35.4203998289493 99.3682797261456 2753.89019728744 14 17 8
19.7951498732052 99.4708154049798 2758.62029358627 15 18 9
-0.361012118678339 98.9821089660802 2757.59247256235 15 18 11
1.57762394439631 97.9589223086876 2745.40636222263 14 17 10
-13.1849353825657 98.0258436279485 2749.52662434604 12 15 8
-39.4439430235942 98.861191451131 2765.07852194725 11 14 7
-23.1259425696502 96.8786487440386 2738.60896095165 12 15 8
-34.9228767571959 96.7614304897135 2739.93739985413 12 15 8
-73.1468339701564 98.4342821596479 2767.81728184658 22 25 18
-47.7198152357494 95.8085805459249 2731.89083630722 20 23 16
-1.16561006469929 91.7069170156765 2674.21900836203 17 20 13
-35.4745758236323 92.199191537564 2687.63898615966 14 17 10
-43.0222837055829 91.7895417425827 2684.63578441842 15 18 9
-29.5042636700644 89.8987811293259 2659.84203264497 14 17 8
-12.6123827502505 87.7499674320857 2631.31727991554 16 19 10
-11.2125156178349 86.6839410242926 2618.7403874883 22 25 16
261.045182352338 94.9571597036721 2743.27524678842 15 18 9
258.530658811619 94.1945249773713 2735.27307449291 14 17 8
262.945981078306 93.0134810118218 2721.17586841725 11 14 5
248.040608761139 92.9887519580404 2723.95710149988 16 19 10
210.907055096204 94.320626983792 2746.44994108069 19 22 15
203.819253907662 93.8408704218499 2742.54444930558 13 16 9
198.262020079737 93.2674416070881 2737.27795074728 13 16 9
233.822277987433 90.1452805848952 2695.10850552164 13 16 9
199.280842063485 91.3613696415417 2715.77443572804 13 15 10
166.414969669613 92.4958613431217 2735.18453113061 14 16 11
101.239537523638 95.6959482653111 2784.29360305258 14 16 11
83.8287217589269 95.9054030939468 2790.1999194156 15 18 11
41.714692692957 97.7078120388575 2818.96586590132 13 16 9
62.6716294492935 95.4715170824777 2789.68211142593 10 13 6
58.8464477861708 94.821594458001 2783.20045925407 10 13 6
48.3114086818976 94.6084747276408 2782.9731138143 10 13 6
22.2250821071399 95.4231061424844 2797.41505004375 12 15 8
21.4009458699569 94.5809458149838 2788.16750503095 13 16 9
46.3520088278595 92.0140530042893 2754.3666946054 15 18 11
26.2732981466671 92.4444325637717 2763.28085150593 15 18 11
-12.0462510227901 94.1210362013317 2789.85612474731 16 19 12
-31.9047571306958 94.5699269049626 2798.93000640501 17 20 13
-6.51135417767224 91.9297372087116 2764.21444978955 17 20 13
1.25957115162123 90.4767194224911 2746.37293676206 16 19 12
-14.9505296162555 90.6767338228632 2751.91459260399 12 15 8
-32.5439922804853 90.9828639411488 2758.92432511729 11 14 7
-40.7115381070708 90.6362241696407 2756.70714540938 12 15 8
-56.7595708499298 90.8500549413481 2762.36635780399 15 18 11
-64.1633129884212 90.4566682509086 2759.46760227839 21 24 17
-77.2640241105982 90.473789604591 2762.32195364899 20 23 16
-50.183989297762 86.6505214612334 2714.00146247917 15 18 11
-61.908055132164 86.5615160935618 2715.38316258678 18 21 14
-40.4964402717414 84.0340084551048 2682.72213455809 16 19 12
-33.2994310727439 82.534885396634 2664.46434394748 15 17 12
-24.7877225478261 80.9243036480283 2644.68896911666 15 18 11
-49.7723856623959 80.8410249889123 2648.80876351365 22 25 16
272.352348430329 86.3362390462935 2734.13669540565 29 32 23
258.185192850555 86.2891314610197 2736.21763309765 13 16 7
253.332904800529 85.657560594289 2730.22653917086 26 29 20
220.733714827309 86.7959929688517 2748.59494168252 7 10 1
202.880252631831 87.008735634967 2754.18039085489 10 13 6
218.798587375988 85.0465878966534 2729.89128021992 14 17 10
184.745379520399 85.3833693105184 2739.79076488898 13 16 9
195.910306519311 83.705603570422 2719.46805671687 13 15 10
158.506767235599 85.2376987269408 2743.00122874448 13 15 10
111.341111925452 86.5233765031221 2765.63215847809 14 17 10
93.1630745059393 86.8229545726432 2772.21808708843 12 15 8
47.3601647940094 89.0161130462266 2804.48734211569 10 13 6
74.9257746054774 86.210860073874 2768.87555527268 10 13 6
68.0643116090556 85.7528149552474 2765.13425085607 11 14 7
56.0129183843099 85.6561162978614 2766.27833090786 12 15 8
46.2144799995059 85.4071298002624 2765.34974474802 13 16 9
32.7496647711016 85.4196528957173 2767.94012599057 15 18 11
14.9159836974095 85.7485167133244 2774.77583420301 16 19 12
-13.234217002966 85.899099431838 2781.54248839594 16 19 12
-18.4942024225687 85.3484814970862 2776.49158709403 15 18 11
-6.32416011605974 83.5290990844999 2754.42671788385 15 18 11
2.1135497247009 81.9657234061004 2735.83268108791 12 15 8
-22.7535303505877 82.8430776484826 2749.92375619911 11 14 7
-37.4288969091781 82.9823924162965 2754.1075929082 13 16 9
-82.1943240754985 85.3766160882921 2788.36499623781 17 20 13
-70.2014248402172 83.5431668945028 2766.17164098386 20 23 16
-55.4666583113603 81.4848232761915 2741.02404923993 18 21 14
-56.5545107293559 78.6798037890726 2710.57829338957 17 20 13
-40.7877592552595 76.4814124420501 2683.70773245132 16 18 13
-44.1189803091182 75.7530696782357 2676.34872902409 16 18 13
-60.7693001078684 76.069294908116 2682.80718043278 17 20 13
267.913990531031 77.7195356223957 2728.40522200819 18 21 12
212.803196266059 80.4423863214784 2766.28092560147 8 11 2
205.745681218015 79.969484803471 2762.39771809511 11 14 5
201.601877318814 78.3449579333414 2745.79897683728 15 18 11
179.245315869073 78.919963773186 2755.53297139998 14 17 10
192.02417049127 77.0807530593298 2733.90904831887 13 16 9
183.422371077472 76.7116593369596 2731.37695518447 12 14 9
171.045607756247 76.6086909309868 2732.28513575206 10 12 7
154.171213992044 76.8278328110239 2737.34562278571 10 12 7
144.887841285239 76.5182862636577 2735.55478087309 11 14 7
114.597422456358 77.710019272627 2753.12676310171 10 13 6
96.4249728297499 78.0534734109583 2759.71667018629 10 13 6
61.1535419119087 79.6432527832072 2782.3256719933 11 14 7
88.5687231644043 76.7016060281646 2746.60414541619 12 15 8
63.0999872938349 77.5987157253912 2760.2591674667 13 16 9
22.9477651170362 79.5949890568277 2787.97788385932 14 17 10
22.8295748885925 78.6561881385502 2778.00627356403 15 18 11
18.2622766550642 78.0435777244277 2772.22216535265 15 18 11
7.08605634850956 77.9255539750437 2772.76553228496 15 18 11
-15.0257959666267 78.6383470684144 2783.91236179347 15 18 11
-20.2788860035437 78.0850466345853 2778.86644551424 13 16 9
2.07453865298035 75.4192811166629 2746.88745520254 13 16 9
8.31761830306954 73.9661147271191 2730.40874121906 11 14 7
28.2070037024686 71.4437321185959 2700.349646892 12 15 8
-16.1450228882711 73.9039820110869 2733.67203092788 15 18 11
-64.5713454841841 76.7215825428761 2771.45348962051 22 25 18
-70.5176424206253 76.227439462472 2767.1403891389 16 19 12
-51.4957907590428 73.7495092871256 2737.68766288074 15 18 11
-69.6118289226502 74.2157814539733 2745.5547115195 15 18 11
-41.5692200439715 70.9802078999775 2706.58083297975 15 18 11
-39.1837283461793 69.7874591306977 2693.48246785426 14 17 10
-48.8302193551855 69.5664648165918 2692.66417337578 17 19 14
-46.5151761160325 68.3682180398518 2679.51471081069 19 21 16
-49.1554075035587 67.5701279421992 2671.42123062584 18 20 15
-84.6226282655926 69.494571443247 2697.59539970084 17 20 13
219.863413620486 70.2090256560661 2740.46921677583 20 23 16
218.117922236154 69.348916510893 2731.78870746907 14 17 10
187.306417189796 70.5839589963764 2748.98316254914 14 17 10
187.113530685628 69.6155528475888 2738.95725337315 12 15 8
171.688714177896 69.7554509658063 2742.59780077483 11 13 8
157.83075280085 69.7882214455788 2744.90328454107 9 11 6
144.770996553389 69.7687275165246 2746.55210288154 9 11 6
140.787937843829 69.0791453097085 2739.95580138586 10 13 6
170.585007153301 65.855192252618 2702.25382751454 10 13 6
127.537475950684 68.0920342798313 2731.58029549788 9 12 5
103.369148111344 68.9303164798761 2743.70734537402 11 14 7
73.3500221526286 70.2321643002365 2761.47655134713 13 16 9
39.0174449491716 71.887969988919 2783.53144605493 14 17 10
43.330561540619 70.5826237347403 2769.35951928852 15 18 11
-7.75317000229236 73.5768928512518 2807.68582812018 15 18 11
