ply
format ascii 1.0
comment KinectMotionCapture
element vertex 794
property float x
property float y
property float z
property uchar red
property uchar green
property uchar blue
end_header
4.26523232634368 341.062015018492 2793.05058988475 33 36 29
-1.72425461799364 340.581863067677 2788.70625091253 35 38 31
-20.8975430057932 339.364016917608 2797.03308806182 32 35 28
-26.1194695406495 338.927583269293 2792.0103548236 28 31 24
-5.86773598202606 339.912496296284 2762.23169955389 27 30 23
-10.4518886541078 339.509360986065 2756.436139756 25 28 21
-30.2409090590601 338.259725818068 2765.55178971426 23 26 19
-37.6841917764659 337.698250437812 2762.62351897682 24 27 20
-50.8729781397268 336.818016528464 2765.40947744422 26 29 22
-44.6609374174103 337.014162513977 2748.91661677194 23 26 19
-49.9608742519224 336.571144891803 2743.83700437653 28 31 24
-65.954693384878 335.536848843377 2749.52948984255 24 27 20
-71.942900899268 335.056300186204 2745.186076347 23 26 19
-69.4345801375853 335.043995300211 2732.18273181221 21 24 17
-69.804071535954 334.871866756447 2722.03312575955 21 24 17
-67.3949521554276 334.851480644393 2708.9578270935 20 23 16
-83.2792008407432 333.825692202923 2714.72949113104 19 22 15
-73.9276256325487 334.184349346826 2694.33759705957 23 26 19
-61.1888379157235 334.725794324899 2670.2266138557 31 34 27
-71.5016714014538 334.004556755206 2670.15777629388 21 24 17
179.893574497134 345.733276554826 2803.05396447186 46 51 45
178.3118023551 345.319351243294 2784.61351675923 36 38 33
109.147216964266 341.45368130121 2835.73541790358 47 49 44
106.175842026376 341.133322727645 2828.63904664865 49 51 46
77.2328043179655 339.42718677178 2844.70302267002 44 46 41
49.9429423609694 337.81260125107 2859.49522258268 42 44 39
34.9177015036606 336.853556834685 2863.41986454013 37 39 34
57.0239312470999 337.867722540548 2833.75039019607 36 38 33
69.9118696090357 338.388621839303 2812.21779314537 29 31 26
46.5770378888704 336.988638299112 2823.70268825955 28 30 25
26.3427875065059 335.755292523638 2832.4956640145 30 33 26
25.6373923115705 335.555009982607 2823.33715367779 33 36 29
43.5432034907279 336.334707765557 2796.79758522592 38 41 34
39.7447946419769 335.968332471228 2790.33677746168 46 49 42
4.05472241386207 333.925929868992 2813.85893616005 44 47 40
6.23527679685498 333.874971362668 2801.85312210048 35 38 31
-1.21361996544644 333.318269609583 2798.92051132443 28 31 24
6.03959705001245 333.530544439533 2781.94746663342 26 29 22
-6.56582322152777 332.703751362521 2783.92155368951 21 24 17
-6.7169840414083 332.527168322588 2773.92990309268 19 22 15
-8.3607737495357 332.271847610075 2765.32618287407 24 27 20
-9.30623447396206 332.051989284673 2755.9938392336 25 28 21
-20.4157418520126 331.304016955855 2756.58237697775 26 29 22
-45.9257584221156 329.811213018337 2771.43040501368 27 30 23
-49.738705744667 329.443289437048 2764.95934463416 27 30 23
-37.7893539267964 329.888306695433 2742.74566733273 25 28 21
-43.8240012425257 329.403622497596 2738.36856768679 28 31 24
-62.6881905202548 328.259089825289 2746.91984872469 25 28 21
-80.7637933951917 327.157267076228 2754.80826705726 22 25 18
-73.9751767533292 327.331740642642 2737.49793769249 22 25 18
-65.8549984029837 327.571928938134 2718.6831454268 23 26 19
-62.7512641179027 327.553281400747 2704.87636010589 23 26 19
-80.0542907639712 326.492720165941 2712.08971332584 22 25 18
-72.107216971337 326.718836519892 2693.14936259487 24 27 20
-57.2769585797943 327.291820629934 2666.8492865046 23 26 19
-59.2612307016758 327.00843162624 2657.99860114657 26 29 22
-60.5801780107655 326.757838771718 2648.39535343383 17 20 13
177.182790684834 338.076232190845 2815.87169245456 13 18 12
181.872862704501 338.126324779928 2801.97989428765 35 40 34
161.788219681567 336.933348413796 2809.64649146004 43 45 40
120.220076889094 334.66827740347 2836.31719223193 45 47 42
107.263657791303 333.837772244606 2838.03681394576 56 58 53
94.3458483460793 333.01035840189 2839.78414580181 43 45 40
57.0352784109933 330.97052693131 2863.36691525878 35 37 32
19.9039084294697 328.945079075467 2887.07936896522 31 33 28
12.0267484262251 328.195802086713 2875.18977471326 34 36 31
34.8614355775441 329.143065330245 2844.81299918686 33 35 30
29.6859111810881 328.704039258279 2839.8238907179 33 35 30
24.5049951046328 328.264565198139 2834.8308714359 43 46 39
26.0516154934329 328.155379351155 2823.59995231434 43 46 39
33.519964163339 328.335099074946 2806.78269625274 43 46 39
34.2149803460639 328.180811082284 2796.16953372302 38 41 34
15.5905877081426 327.081545734299 2803.65984112136 31 34 27
0.736226315701582 326.168385815156 2807.70858966367 18 21 14
20.5767982362355 326.944983671264 2778.86585601967 19 22 15
15.27590845981 326.495700787719 2773.78581555857 20 23 16
9.96953174391013 326.045943528976 2768.70179509515 17 20 13
-11.4127976789784 324.818384303589 2779.13260642081 17 20 13
-18.1383918460047 324.301254534621 2775.48979141984 24 27 20
-21.2300275712807 323.959268210856 2768.30613100482 25 28 21
-40.9896555399336 322.815277608566 2777.44362327798 26 29 22
-57.0582415658885 321.851020402185 2783.08196891118 27 30 23
-67.3104984978501 321.167194578369 2783.05723408383 27 30 23
-50.2814354575309 321.787658818744 2755.88099116907 26 29 22
-47.6957783576721 321.714787269764 2742.93369709119 29 32 25
-56.569660239695 321.094860970698 2741.4381316818 26 29 22
-67.5589045213925 320.375009985046 2742.11399315118 24 27 20
-65.057935779721 320.295192696436 2729.10497701656 23 26 19
-66.8485708590323 320.010667991139 2720.39495200758 24 27 20
-75.0028285958202 319.425046585675 2718.18619463045 24 27 20
-81.0395036682083 318.939428915314 2713.80762029221 24 27 20
-75.1836238641173 319.01216694851 2697.05565140682 28 31 24
-51.271539004762 319.928249890624 2661.28426891439 25 28 21
-57.4437159472438 319.431587845832 2656.80741043683 29 32 25
-69.853870134704 318.64392478919 2658.92324824573 15 18 11
192.369778255596 331.114640418698 2803.37833919928 27 32 26
157.581204479774 329.075773522222 2813.96774492144 25 27 22
109.087516995602 326.614675614396 2846.73289624982 31 33 28
93.0905666205786 325.668351611266 2851.18822630118 32 34 29
103.187486569285 325.931160883004 2832.5714941564 21 23 18
74.2464923547224 324.388527173268 2848.63748524416 33 35 30
50.004838651807 323.066873115621 2860.70043913398 43 45 40
41.8112381613058 322.486484652297 2858.46318786095 39 41 36
40.4431741695461 322.219584980703 2850.0592884487 37 39 34
-22.0940548537258 319.152154340523 2897.34369953968 43 45 40
-1.51274833192816 319.891847180434 2869.03804776204 45 47 42
16.662479708359 320.51649254449 2842.69270549434 45 48 41
36.1923114270288 321.197748836092 2814.85955782889 39 42 35
36.9206442299994 321.020891961389 2804.27043291236 31 34 27
13.8052954443748 319.763519954496 2815.91515824532 22 25 18
4.88127061271504 319.150412359642 2814.38327767971 22 25 18
1.14975030551667 318.771767879856 2807.97089670087 24 27 20
5.51353486968598 318.756402789307 2793.84252871512 23 26 19
29.6607552995605 319.625756284125 2760.71143758034 28 31 24
15.5185746584863 318.776013340751 2764.04174573829 32 35 28
-32.9157979547219 316.397843963288 2800.55572009645 34 37 30
-33.0195199888799 316.180041377854 2790.59854457968 34 37 30
-39.6955274477211 315.669072838214 2786.99141277252 32 35 28
-45.6442311530509 315.1904100662 2782.67664598359 30 33 26
-47.9850503309813 314.871076770745 2774.80264109684 30 33 26
-34.517123527968 315.247574086935 2751.2190964077 25 28 21
-34.8004014140462 315.015173199194 2741.13168307868 25 28 21
-40.1264670579402 314.560288564633 2736.03336372 24 27 20
-55.4400845448657 313.668388649072 2740.98433203371 26 29 22
-60.7460979544818 313.21504343097 2735.90026228802 25 28 21
-68.1835729257494 312.668739255447 2732.97627855484 23 26 19
-56.5407484847276 312.950539031888 2710.53956628759 24 27 20
-64.7263929309574 312.3701416489 2708.30808247566 24 27 20
-91.1511669742224 311.003044390427 2724.96398776193 23 26 19
-105.552946885491 310.158108288967 2729.3411678456 28 31 24
-102.463790334818 310.065769470816 2715.52344155305 26 29 22
-50.7587647721053 312.05188306723 2650.5001759312 27 30 23
-65.2694500349746 311.198035645609 2654.79806858672 19 22 15
-73.5098955776576 310.612970989353 2652.5268346498 13 16 9
202.123559086524 323.814104124527 2795.59046696554 35 40 34
199.002345259331 323.447025619258 2788.38553213339 15 20 14
95.6385534390445 318.543592099331 2859.17500011111 24 26 21
111.942275529572 319.016192325143 2835.17759746654 24 26 21
100.542577661071 318.301228979475 2835.5559371282 30 32 27
70.0781798436578 316.775568398289 2852.98803414088 46 48 43
54.2233491522381 315.875719008348 2857.54662518694 47 49 44
79.4312257078103 316.717536505093 2825.18428683794 45 47 42
115.815602983079 318.024652319982 2782.39966186062 43 45 40
33.520734015446 314.093122062498 2837.58938745981 42 44 39
28.3315611832524 313.646348393162 2832.59005122838 26 29 22
32.8657201490845 313.605802689805 2818.5850637376 23 26 19
17.1901451552179 312.720295779036 2823.27367371181 19 22 15
2.31458210270841 311.870217924533 2827.30737224136 18 21 14
-15.4762839000813 310.901271045242 2834.16724986836 20 23 16
2.30243544932973 311.405556058707 2807.53415481685 24 27 20
2.24193155960695 311.168806729984 2797.60791860929 31 34 27
-7.41257046020105 310.536223069834 2796.78173199695 37 40 33
-24.3758089359931 309.604867737454 2803.00672826011 36 39 32
-22.2738564653735 309.455256075103 2790.94343429913 33 36 29
-32.6073247334349 308.796907518208 2790.85995668848 32 35 28
-43.641765056315 308.111071092636 2791.50322687354 29 32 25
-36.5421050452766 308.160975254496 2774.41804299351 25 28 21
-30.2446257585425 308.175223232235 2757.98590273363 25 28 21
-30.5013607392142 307.922486537403 2747.91762791832 21 24 17
-29.3592341266187 307.724405759529 2736.39332683274 22 25 18
-42.5695481795441 306.950160901982 2739.16421627392 21 24 17
-58.5893820693191 306.0655747141 2744.83830692048 25 28 21
-76.6814354657463 305.101033252148 2752.7152007987 22 25 18
-83.3597873602501 304.591879095283 2749.10667312732 21 24 17
-62.4795874089474 305.171599173699 2717.31118644022 22 25 18
-68.5327980678729 304.683727109248 2712.92061368346 21 24 17
-81.6083873213946 303.920150019708 2715.78922204125 20 23 16
-82.0423834015016 303.65285903155 2705.59237315166 21 24 17
-143.213306602365 301.016045200645 2758.80987064456 24 27 20
-123.358357362963 301.541998911137 2727.50621660543 33 36 29
-58.6036818248257 303.799638669513 2648.47653878369 23 26 19
198.669774146182 315.923402421764 2799.22254869516 36 41 35
180.062062225654 314.932103158267 2805.49045854183 19 24 18
125.979151719123 312.543350713238 2842.85007462385 29 31 26
114.545257191838 311.844248815612 2843.20399921614 29 31 26
112.361145204669 311.509317096369 2835.44322123016 42 44 39
126.242523389988 311.801894286933 2813.39430230578 50 52 47
88.0615889823151 310.059237507983 2837.58266785967 42 44 39
57.169209380779 308.10949115199 2836.1753418423 49 51 46
53.4639326814808 307.71546775927 2829.78190751767 50 52 47
39.9561324358522 306.944480268828 2832.3371593683 39 41 36
33.2479496935556 306.435516648135 2828.70671316682 28 31 24
26.5429017394645 305.926802402669 2825.07883518037 27 30 23
15.3632697549209 305.248097814833 2825.6168889555 26 29 22
-4.71655573544649 304.233372739239 2834.5229179672 29 32 25
4.22207138963326 304.318123476003 2816.30064936299 31 34 27
-4.68225643117615 303.727424810313 2814.78316108654 30 33 26
-6.19460462118848 303.414709722123 2806.27443491568 31 34 27
-12.8819343674507 302.907327141002 2802.65911350433 34 37 30
-10.7683659426754 302.727925775542 2790.60408930569 30 33 26
-24.7848414879199 301.947578912261 2794.02558079809 24 27 20
-29.2806128444467 301.521448806946 2788.29426850584 22 25 18
-35.965699697428 301.014173245425 2784.68057355777 19 22 15
-39.7501898539554 300.613551580815 2778.22968228595 21 24 17
-43.5490024792959 300.211754700549 2771.76840239814 23 26 19
-48.0821791960806 299.782527132104 2766.0099584727 21 24 17
-51.189570444705 299.404626091386 2758.81469462745 25 28 21
-54.3158772466965 299.025182501333 2751.60600515759 25 28 21
-62.4540451576299 298.464224382943 2749.409036563 23 26 19
-67.0244147740646 298.031900603688 2743.62332055094 22 25 18
-68.7693391821282 297.700167907026 2734.94619306528 19 22 15
-67.0080972078262 297.492086855838 2722.63532015839 20 23 16
-58.9562127356151 297.504971676576 2703.76986886606 19 22 15
-65.0392219018197 297.01418524626 2699.35767977361 18 21 14
-53.6216515107799 297.139376880949 2676.75717726427 25 28 21
-68.8341174363314 296.325855416832 2681.78186950582 23 26 19
-58.9466950923365 296.391211668371 2660.54190020259 23 26 19
-62.3371954831244 295.990183329409 2653.14128735401 17 20 13
-66.4377697220768 295.563677146913 2646.46112887508 17 20 13
222.456181085581 309.324119205179 2789.25952886055 89 94 88
203.7637491196 308.369233599305 2795.46620778061 31 36 30
170.414582830578 306.888907923493 2814.51241408204 30 35 29
144.94639859436 305.698600392597 2826.92222621508 28 30 25
124.981557606474 304.710224854498 2834.67670678292 34 36 31
145.055346715764 305.153839713132 2807.23638726082 46 48 43
58.3401325305481 300.716167530156 2835.7516837514 38 40 35
41.7932944914146 299.86519031583 2841.04390807934 25 27 22
35.0970281582885 299.359363371458 2837.42211622505 33 35 30
26.1512023260049 298.775788967012 2835.87487571729 37 40 33
20.2168298499927 298.296836529886 2831.57049647513 28 31 24
20.999953454238 298.048588483697 2821.02072896938 24 27 20
15.0435792979682 297.567838729148 2816.70039113589 33 36 29
3.14936473297234 296.884676435619 2817.95544279855 31 34 27
-9.45069542016386 296.179147587208 2819.93402974609 31 34 27
-10.9467440795918 295.85072035446 2811.43703986769 27 30 23
-6.58646260316154 295.718100552567 2797.30553850065 29 32 25
-12.5549423677223 295.236315965907 2792.97641981174 29 32 25
-22.1798969737894 294.632427167025 2792.1715036183 28 31 24
-25.952878614129 294.223992819624 2785.72891554269 28 31 24
-32.6471344610371 293.718195346879 2782.10887575908 29 32 25
-32.8174709146416 293.427466046049 2772.10274616282 28 31 24
-48.1921272111685 292.636315583239 2777.00997645666 29 32 25
-49.829141742137 292.296391996037 2768.41073917832 29 32 25
-52.2116502179417 291.930899229861 2760.50627902302 29 32 25
-51.7544903289946 291.656143669794 2749.72007919786 28 31 24
-50.6247476689543 291.401047959916 2738.18651192891 28 31 24
-49.5401412335048 291.142291978485 2726.62020590749 27 30 23
-49.2097233078073 290.857248368992 2715.74207601737 33 36 29
-51.7476425509351 290.47911145464 2707.72489123511 34 37 30
-64.1735195511335 289.787390931098 2709.82981720935 23 26 19
-59.7023454636141 289.628842774141 2694.5432418242 20 23 16
-54.598260724988 289.486744317207 2678.4805235688 21 24 17
-62.1302028717725 288.9477026638 2675.48809535017 23 26 19
-65.4794795171405 288.538575857749 2668.11761993109 24 27 20
-70.9281079449777 288.063800833234 2662.93005696894 51 54 47
-72.9253142562389 287.694535266358 2654.06956035928 49 52 45
203.399496992124 300.902319085977 2806.28054533966 52 57 51
196.420635725907 300.37586346443 2802.45378989919 30 35 29
177.041767150742 299.446159223799 2809.39802044974 24 29 23
150.779330532431 298.297021515669 2822.46730724329 26 28 23
131.567336414577 297.380798627232 2829.53257693493 32 34 29
128.569949713183 296.988954461751 2822.41728158592 44 46 41
114.82398659825 296.252461226444 2824.80005881015 43 45 40
72.0800377944157 294.594786606833 2853.09183702934 42 44 39
61.6858471095885 293.68009931763 2843.08186557202 42 44 39
40.5700530819479 292.722280290287 2852.47222375193 34 36 31
40.6934457788464 292.432904212237 2842.67932601672 18 20 15
27.2222056790765 291.718582590217 2845.26136812112 21 23 18
20.5533113974821 291.217127598616 2841.65944099594 21 24 17
10.8924782407054 290.623586028999 2840.82856808616 17 20 13
12.4521383412413 290.375399394741 2829.60669214054 16 19 12
10.2442906069249 290.009881876343 2821.82884715882 24 27 20
-9.05815478773908 289.123701127002 2830.06373558814 22 25 18
-20.1420123368474 288.489988802369 2830.67144619013 22 25 18
-4.63375892899043 288.657894065155 2806.09614245831 22 25 18
-8.38098046156799 288.242792237848 2799.67219466247 24 27 20
-12.8758745061126 287.804684467449 2793.94116320614 24 27 20
-23.9619447894344 287.170757413777 2794.54726866224 22 25 18
-21.895603164618 286.92602762708 2782.45767784711 22 25 18
-20.6056529613643 286.655967212326 2771.04017264605 22 25 18
-25.1578386348401 286.213190176136 2765.26758561449 22 25 18
-42.7238421331657 285.392405355889 2772.29151581684 22 25 18
-53.0181108159897 284.784991981828 2772.23671281884 22 25 18
-52.5165869716653 284.488599836954 2761.48256377813 22 25 18
-49.1926212996014 284.270576187927 2747.83441901031 21 24 17
-51.6360881849023 283.885879407883 2739.88567153094 21 24 17
-41.2972459369856 283.860452428963 2718.97248631488 22 25 18
-42.4082239258499 283.508552812209 2709.51948686194 25 28 21
-50.6210522490931 282.956990144013 2707.26844293095 22 25 18
-50.3642502581125 282.640739193905 2696.33678920737 19 22 15
-64.902348074751 281.914824818107 2700.61545792375 22 25 18
-92.6958453826736 280.828822061371 2718.75093803995 28 31 24
-77.0669809972364 280.931381443263 2691.79207457754 25 28 21
-74.7995095108096 280.665284466062 2678.61314223318 19 22 15
-80.2171908060481 280.189811898743 2673.44830445173 58 61 54
-78.7247661386044 279.89846419297 2660.94213838023 59 62 55
-73.1461116629617 279.712758703245 2643.9881883476 41 44 37
192.13243644341 292.845338696081 2816.59872984892 36 41 35
180.520974744592 292.187644109282 2816.82384746827 15 20 14
165.837627763921 291.442384013329 2819.76238182381 28 33 27
139.604170124294 290.366257790069 2832.85304591501 25 27 22
121.964574975842 289.542769095601 2838.58828315778 32 34 29
128.990416678847 289.427159373112 2822.68378507964 42 44 39
110.643516289146 288.586690708053 2829.14152675771 41 43 38
50.5295223917654 286.258370939283 2863.36471898965 46 48 43
49.9380869913324 285.928878213179 2854.28846054197 33 35 30
42.4948397307952 285.407190328848 2851.36012256245 29 31 26
38.0814077243299 284.969677728506 2845.68844216769 23 25 20
35.918590175037 284.593519027078 2837.94289215138 26 28 23
17.9573388036229 283.784231556069 2844.68035697186 23 26 19
-7.4246104557707 282.776967520269 2858.38864646053 24 27 20
-1.32759616741129 282.626423569276 2843.0456812478 29 32 25
-19.8739627517455 281.810023053863 2850.59398416369 29 32 25
-24.2410774208603 281.376238403467 2844.95589907803 24 27 20
-19.7354255716176 281.177407983819 2830.92914994975 24 27 20
-9.38872990315298 281.129236885635 2811.25687374862 24 27 20
-1.34725482931075 281.015269332659 2793.61827055819 23 26 19
-10.9969886448034 280.435756660265 2792.79580933392 22 25 18
-23.5511654744114 279.782201916081 2794.80762686395 24 27 20
-17.1079569610815 279.619394274512 2778.48052648585 27 30 23
-12.1947689826281 279.413279901013 2763.51442994804 30 33 26
-16.0461482733278 278.980934455436 2757.01488862817 26 29 22
-18.466638822539 278.583867761467 2749.0824400521 26 29 22
-49.725583992589 277.463227460683 2769.64600860455 25 28 21
-52.1041628811578 277.069538342193 2761.7439597938 25 28 21
-51.6421875595381 276.744709988883 2750.961291627 24 27 20
-50.5069741507875 276.434085827392 2739.43111448097 25 28 21
-61.5137617263528 275.825206781529 2740.09511501401 23 26 19
-54.0473361481115 275.664641670813 2722.03941014624 24 27 20
-43.837302293251 275.565080733085 2701.03247347403 22 25 18
-52.0582856137097 275.020597043726 2698.77555366795 19 22 15
-76.4300094012225 274.094955966173 2713.21659059684 21 24 17
-83.8752232009836 273.57297434665 2710.28682554325 25 28 21
-82.2346400451637 273.262957306033 2697.888262635 24 27 20
-82.0357823621953 272.916763924365 2686.91445218163 21 24 17
-81.1838745813318 272.583159065502 2675.17907881515 28 31 24
-87.2940758167622 272.088678979436 2670.74715890231 30 33 26
-80.9946475206738 271.873867578265 2653.08052913782 40 43 36
217.496320658916 286.158504826929 2805.30874023708 140 145 139
176.180648306979 284.749447689524 2830.93176146912 19 24 18
189.500882412391 284.752015907576 2809.70962490238 22 27 21
150.751011387634 283.421620784036 2833.4876443474 14 19 13
132.290648189331 282.61523519187 2839.86330705158 24 26 21
123.153014808873 282.047322771063 2838.17680601278 32 34 29
128.641556210623 281.846076678024 2823.62752563195 41 43 38
130.996124203398 281.563208153602 2811.74668308178 40 42 37
51.6999362227035 278.929119572119 2862.94101622126 44 46 41
32.1039901882059 278.116853987485 2870.96351416803 29 31 26
47.4512813564201 278.154456235161 2847.50590209233 26 28 23
49.8270289672953 277.87329150401 2835.64012725234 22 24 19
36.3286516826173 277.21049002545 2838.20275799194 25 27 22
24.375720505708 276.586764683992 2839.41584026646 23 26 19
9.46054213361336 275.895305599117 2843.42132976372 23 26 19
-7.64403100205202 275.155681920481 2849.54513515136 24 27 20
-6.06480979447754 274.853059158709 2838.33716373998 23 26 19
-16.4114914709246 274.273323598576 2838.24450563793 22 25 18
-9.7048454140598 274.084635684419 2822.10824566849 19 22 15
-1.59772405534886 273.923271514002 2804.51699079771 22 25 18
-7.55843335258466 273.440464832088 2800.19349990928 22 25 18
-9.11771560179853 273.055839845734 2791.65038599947 21 24 17
-20.2146361779274 272.458384183676 2792.24881058154 23 26 19
-24.7177213110994 272.007528723629 2786.5117766607 27 30 23
-24.140896777284 271.666770143399 2775.81228444908 29 32 25
-25.779498690814 271.275717746017 2767.21163746574 25 28 21
-39.7321397751407 270.619164814596 2770.68003096183 25 28 21
-30.5804784674426 270.456299663149 2751.37590453049 25 28 21
-58.8753907245292 269.499125126212 2769.14825631263 25 28 21
-59.1060742003764 269.136007124153 2759.09830768606 24 27 20
-61.5146546471344 268.725634910951 2751.17442560235 25 28 21
-65.3699059959862 268.284196011766 2744.67203128475 23 26 19
-51.5019827496519 268.201959027119 2720.14138682187 24 27 20
-35.6365247071835 268.152344655998 2693.35326436054 24 27 20
-54.4586940258369 267.402748885393 2701.93730147381 19 22 15
-72.4994785867112 266.6733822862 2709.8525524321 19 22 15
-76.4527059075049 266.224003090075 2703.27909302237 24 27 20
-69.9432283209096 265.97627934748 2685.76456576374 25 28 21
-60.7291875000637 265.775395107246 2665.27013589232 27 30 23
-66.8824541269741 265.276976415271 2660.80697700833 19 22 15
-58.508150332178 265.051133835449 2640.93900853316 21 24 17
188.200499121841 277.752663301184 2830.96362791336 25 30 24
176.603214724052 277.133270042112 2831.19951144159 28 33 27
164.257966533397 276.499076863581 2832.1278472417 23 28 22
198.486452751353 276.889549748952 2792.71616884461 12 17 11
135.02869341272 275.137857801387 2838.10489571156 22 24 19
128.197768290277 274.629758708607 2834.38547531827 31 33 28
139.058936335796 274.501377402405 2815.08545036511 40 42 37
127.582877121603 273.891807912476 2815.4089678983 37 39 34
90.232368977428 272.376581980945 2829.084266061 39 41 36
46.9546986962337 271.114633862435 2858.22617925301 29 31 26
48.6189039176974 270.790882672086 2847.07970754728 30 32 27
47.970387724467 270.417196222833 2837.96184616482 23 25 20
40.5066706260633 269.903671466378 2835.01900498786 25 27 22
50.3353398378055 269.737440752584 2816.20534450997 23 26 19
28.5996626598886 268.938080589946 2826.38246989689 23 26 19
17.414833335867 268.352147376626 2826.91722591503 20 23 16
13.7086689622317 267.913993809171 2820.5229245683 20 23 16
12.2163833925333 267.517765346332 2812.02831920735 21 24 17
4.03200446104268 266.991681928708 2809.79802790501 18 21 14
-1.92535201519983 266.508589798285 2805.47696610222 19 22 15
-2.73111216785038 266.122176970147 2796.2450507562 24 27 20
-15.3112811609069 265.514852674491 2798.2385546556 25 28 21
-27.8527460413935 264.910660486446 2800.25983737991 23 26 19
-27.9544078662122 264.535490628748 2790.3033582566 22 25 18
-35.3653598146288 264.026282912014 2787.39878952959 22 25 18
-41.3183363374494 263.543568944093 2783.08090476397 23 26 19
-39.3205657780804 263.201042396293 2770.94081548322 24 27 20
-43.1378999514123 262.753915040912 2764.46587932221 25 28 21
-51.2804909387017 262.231259853667 2762.26589835708 25 28 21
-74.4527440263258 261.453064743953 2775.10713077879 24 27 20
-62.530757427413 261.273179132838 2752.8704505899 21 24 17
-47.8726380600953 261.131706837934 2727.67700501399 21 24 17
-63.1491747373534 260.489247117935 2732.65611746175 23 26 19
-52.9012168969913 260.265370162777 2711.67604301083 21 24 17
-37.1139027031311 260.123754477662 2684.8311008782 20 23 16
-67.1618550576976 259.246695655784 2705.03844664846 23 26 19
-73.2325499454745 258.754491395576 2700.63517725765 25 28 21
-67.4277096832405 258.445547907207 2683.844569904 24 27 20
-62.395407336578 258.119830147489 2667.72888499278 24 27 20
-41.4680843866373 258.028114231749 2634.72912118816 22 25 18
-41.5206846860277 257.198452149908 2612.45465599588 24 27 20
195.664919697972 270.251496781504 2825.22083218355 28 30 25
184.047057783658 269.648993880043 2825.44158970687 46 49 42
177.904859313723 269.150260969776 2820.98645277449 24 27 20
199.690967560592 269.166340071272 2792.31519112663 19 22 15
184.184224767194 268.491536274291 2795.89222178963 19 22 15
151.757982575157 267.514121581332 2814.37498617921 29 32 25
151.01812217094 267.113213821354 2805.19076954752 36 39 32
144.877319405478 266.614603313685 2800.73664501109 34 37 30
62.4294167033392 264.399696133337 2854.58879711833 18 21 14
63.331508256983 264.03473231617 2844.12468082961 29 32 25
52.8191365637745 263.473327737939 2843.91200334845 29 32 25
50.6487229386896 263.053659477343 2836.16072639019 23 26 19
56.7475729144316 262.769834827741 2820.81841681341 24 27 20
46.9900998461212 262.221052063769 2819.91800875855 27 30 21
35.7547960427453 261.649653588854 2820.41624837074 26 29 20
28.2852702335417 261.140580592317 2817.4692188844 24 27 18
27.5290860201243 260.738395229607 2808.27316230374 22 25 16
15.5981483105196 260.159219917948 2809.50211928972 20 23 14
-8.88998921210948 259.388202734237 2822.62451198895 17 20 11
-9.63833129162994 258.986661916893 2813.43384912623 19 22 13
-9.68261104145096 258.59361909588 2803.5188769636 22 25 18
-14.9015278398223 258.121256256681 2798.49814355915 24 27 20
-20.8577715386209 257.637720313293 2794.17788618448 26 29 22
-35.5708053575672 257.027452813294 2798.33032583369 26 29 22
-32.7735823701618 256.670404395724 2785.53496097087 26 29 22
-44.5350288091548 256.105051249923 2786.88685580804 23 25 20
-45.4167796498934 255.692749599867 2777.59972205852 23 25 20
-47.77207658333 255.258184943666 2769.71434379125 22 24 19
-58.7743600461905 254.705828100451 2770.38189574782 22 24 19
-64.7316424327453 254.222272423071 2766.06088530626 23 25 20
-65.6903357208742 253.803752422735 2756.7176483604 26 28 23
-46.7447766650246 253.638093883667 2727.22162255289 24 26 21
-33.6331621454147 253.388270132729 2703.37690152277 23 25 20
-49.6534254348147 252.76934297381 2709.05202650373 21 23 18
-70.5506687900947 252.095258807214 2719.83729053234 19 21 16
-64.6352058776947 251.748073305474 2703.12668219526 22 24 19
-65.8056649258314 251.312447482154 2693.63013956332 24 27 20
-64.9116904122913 250.898389784688 2681.92485375962 26 29 22
-52.2213499183306 250.614450274953 2657.77456939483 27 30 23
-75.7577231510222 249.920890318602 2671.58701419859 20 23 16
-34.1229087265886 249.942215707943 2616.54537629091 17 20 13
211.739715705426 262.834408114974 2812.13372640003 28 30 25
193.834216322136 262.151387569388 2817.67691548716 45 48 41
191.556466456688 261.70866211311 2809.84800588537 24 27 20
188.479993570541 261.252503368388 2802.67475903021 21 24 17
181.515861149686 260.737855833151 2798.85903513138 19 22 15
175.326658748912 260.2346952382 2794.36980161933 28 31 24
132.975709729218 259.212680287879 2821.71436240439 31 34 27
119.215741478554 258.609147473589 2824.08766047759 27 30 23
83.3139882173586 257.699364258477 2846.22706738887 22 25 18
102.503468650443 257.559588768526 2819.3780697544 13 16 9
86.5595713251865 256.933054806172 2823.87347889334 18 21 14
53.9869571803981 256.087887180248 2843.48584161731 20 23 16
38.9596358352313 255.484373960848 2847.41077622032 23 26 19
56.4059965102715 255.305941236557 2821.76832580214 24 27 20
45.8983313103003 254.76081539259 2821.55914261337 23 26 17
23.4223820264745 254.066864537249 2832.43490502363 22 25 14
17.4848768035267 253.584232378282 2828.12823614784 20 23 14
24.2148053482225 253.255760049651 2812.00814611509 19 22 13
-1.08048059610555 252.53868372294 2825.78072954829 19 22 13
-22.5583463090746 251.874407043248 2836.14513771558 17 20 11
-21.0481461631435 251.482187167221 2824.88667763658 22 25 16
-15.1646498993414 251.136454931292 2809.38793998401 24 27 20
-24.7710287280278 250.613172812263 2808.59719253376 26 29 22
-33.6244076175469 250.099597318406 2807.11702886897 25 28 21
-32.2440567813087 249.696873136126 2795.76438504787 23 26 19
-37.4573535376528 249.221715146063 2790.74771157384 22 25 18
-39.7743803835138 248.775974822416 2782.89001950282 20 22 17
-46.4538921328539 248.284668518874 2779.28074143082 21 23 18
-48.8039720172544 247.836271067424 2771.3990750479 23 25 20
-44.7083270380526 247.448336258401 2757.07443981555 22 24 19
-52.8572126413573 246.940630315989 2754.86997146981 22 24 19
-53.1357853182299 246.506163927491 2744.78465106874 23 25 20
-52.7387665389696 246.07514459554 2733.9543566399 23 25 20
-53.8021696053082 245.628414340936 2724.5350704507 26 28 23
-64.8063580214688 245.094695405628 2725.20133587064 24 26 21
-72.9583100115241 244.586814708055 2722.99434927352 17 19 14
-78.9881966624408 244.096956268359 2718.62067452654 17 19 14
-72.398751549807 243.705876682619 2701.16339130852 23 26 19
-43.5241901062942 243.47826138675 2660.33777558095 24 27 20
-83.8464451494776 242.724511084836 2691.62470647281 25 28 21
-96.172812753506 242.186411113474 2693.80225257334 22 25 18
-46.1537526936835 242.081118513761 2630.01656892888 23 26 19
-98.6266766746329 241.266733637907 2674.72704518426 22 25 18
196.512317687315 254.933018513986 2825.757537958 25 27 22
205.185433546329 254.606715210977 2808.57574913018 42 45 38
195.873104565118 254.066032075179 2806.7627454439 22 25 18
187.353386617956 253.535535982844 2804.28933738154 19 22 15
185.03699750813 253.07534740219 2796.43232891273 19 22 15
159.546097889942 252.358701540734 2808.82777889333 27 30 23
111.847253568282 251.409971247905 2840.94204728096 29 32 25
73.5927483999843 250.57801208493 2865.08139820633 23 26 19
81.429733760277 250.23801400283 2848.52874227555 19 22 15
96.8161753896575 249.969215987864 2825.09766474991 12 15 8
81.6486042236964 249.386615698034 2828.92103519285 13 16 9
58.1886943416401 248.7266689133 2840.31900691024 17 20 13
44.661320661608 248.168927047839 2842.86114969169 25 28 21
49.2764464515618 247.784035261668 2828.91311259883 25 28 21
34.2782894215583 247.215247998527 2832.85907045309 23 26 17
26.0794496472072 246.710959454067 2830.61840657248 21 24 13
18.6402894700741 246.21418827243 2827.69345209199 20 23 14
20.8983827437184 245.800481202517 2815.74201023602 20 23 14
0.0692000065893872 245.191751659061 2825.34190726407 20 23 14
-23.6368854849285 244.566180179364 2837.79663177541 19 22 13
-30.9858739397142 244.076801661591 2834.9370821461 22 25 16
-19.1765559655588 243.734297850757 2813.85293900261 25 28 21
-28.7704716260297 243.22521383455 2813.07129828517 25 28 21
-26.6287769354188 242.802107896793 2801.03513452816 23 26 19
-31.1064279830418 242.329202607814 2795.31672110901 21 24 17
-28.31636563623 241.904587189302 2782.51552862781 19 22 15
-42.2679545382429 241.366843265978 2785.98558114138 19 21 16
-48.9386144083248 240.878465428125 2782.38244034179 21 23 18
-42.6255464506557 240.469034463952 2765.95974910181 23 25 20
-37.8262308999195 240.045062193326 2750.90970604077 22 24 19
-54.596230590279 239.49530258406 2757.277012558 20 22 17
-48.4361742378712 239.073476817015 2740.74304268079 23 25 20
-58.7356418175289 238.561476954884 2740.68495417977 23 25 20
-55.5175530135163 238.117559838002 2726.95891281582 27 29 24
-65.100312322387 237.609622319943 2726.18536538298 25 27 22
-76.073333239016 237.097192435234 2726.8740381447 19 21 16
-82.0921681560389 236.607751358714 2722.50837714951 20 22 17
-71.9823997143965 236.18162860186 2701.4271018395 23 26 19
-76.6558284893473 235.693097351459 2695.56639134211 23 26 19
-54.1613988542449 235.297242897382 2661.23104283722 25 28 21
-110.816425434449 234.163785006861 2699.20280313557 23 26 19
-130.650534503135 233.636503941339 2709.52446285439 24 27 20
171.884254840884 247.061000463602 2847.38807871594 23 25 20
180.630288464951 246.687954232037 2830.25920724703 21 24 17
188.513794414435 246.30174811166 2813.7397465543 21 24 17
182.344399969841 245.798956231887 2809.26487412002 20 23 16
190.881290081813 245.40886333532 2791.98400923411 18 21 14
144.530458980462 244.603154967076 2822.60583787199 25 28 21
123.806336731895 244.000038974968 2831.04688729484 25 28 21
82.442488295591 243.257865036227 2857.87339917927 22 25 18
87.1970302948508 242.845295880375 2844.0262876805 18 21 14
88.0735582305836 242.402422886156 2833.54324515426 14 17 10
80.5394784208255 241.902767798838 2830.54946679884 12 15 8
57.0805442074009 241.305407020789 2841.9484628097 16 19 12
38.2605575209642 240.743225383159 2849.29970034296 26 29 22
34.6003930444243 240.273565338861 2842.93858571681 26 29 22
24.9091509041084 239.769580713797 2842.08612230947 22 25 16
29.4869029434253 239.342682131595 2828.11077941449 20 23 12
25.0295927944437 238.865243907965 2822.40679410963 19 22 13
21.3076602545565 238.390623925952 2816.00117185012 19 22 13
7.16532535299796 237.866842787004 2819.33272476513 20 23 14
-12.1174966438633 237.324186143018 2827.58357863161 20 23 14
-22.4553361131865 236.824760481376 2827.49773721968 22 25 16
-15.8236311342386 236.393909582576 2811.30592426028 23 26 19
-12.9402888554304 235.943340199502 2798.57222093053 24 27 20
-10.8433506740191 235.485861980879 2786.50373259948 21 24 17
-20.477619840203 234.98671599782 2785.69288910266 19 22 15
-20.6280421570875 234.517556376086 2775.70029190434 17 20 13
-38.9573560478473 233.995602657565 2783.40743238101 18 21 14
-44.9134905687805 233.510535288566 2779.08724639473 21 24 17
-49.428173781223 233.028679870648 2773.34194223483 23 26 19
-43.166516761624 232.567877098167 2756.88172190033 22 25 18
-61.3547247800454 232.057511356478 2764.69121173059 20 23 16
-82.3276928584447 231.548802200268 2775.4224189484 21 24 17
-60.4610203304832 231.102618801651 2743.10181425192 21 24 17
-54.3932951413435 230.626135260021 2726.50092916863 24 27 20
-64.6869570301172 230.130650671965 2726.44713298995 23 26 19
-71.425876305977 229.639158951521 2722.79449371796 20 23 16
-90.8270969057785 229.144392686733 2732.19509159085 22 25 18
-91.2067732592228 228.656917732938 2722.03650495516 23 26 19
-88.8257454289101 228.165875582884 2708.93845815923 23 26 19
-84.4076602313362 227.669448908641 2693.61168608349 23 26 19
-73.1088864310605 227.162385322623 2670.92186289292 21 24 17
-82.0068739472801 226.666576850376 2669.40945147612 21 24 17
-59.8204898044692 226.132587195696 2634.8498000608 24 27 20
191.093716435797 239.583322282059 2831.63261102219 23 25 20
178.708353218701 239.052454460498 2832.53268442386 21 24 17
179.593646032051 238.584978811416 2822.05587112716 22 25 18
183.543998448762 238.127729133342 2808.86059575129 22 25 18
139.434504859231 237.466962814999 2837.40254757944 19 22 15
127.964191188952 236.950800551204 2837.73070330605 24 27 20
112.67442359398 236.422837377219 2841.46576769757 23 26 19
109.718496201017 235.941787148012 2834.37978076271 20 23 16
120.521732769265 235.50405345115 2815.03648759153 17 20 13
108.33014192023 234.989033555539 2816.07681651396 16 19 12
90.8450640385166 234.461886768851 2821.92586212816 12 15 8
59.0067948455335 233.902944575449 2840.83698033844 14 17 10
30.3434486016729 233.363214391027 2857.10932426954 22 25 18
25.9535406396667 232.885165031013 2851.45419715294 22 25 18
30.5806767541088 232.423295472195 2837.51447669302 22 25 16
38.8955916672282 231.96250739404 2820.07233916324 20 23 12
38.151435137912 231.482160123672 2810.88460580199 18 21 12
31.4100404003117 230.992229462179 2807.23047439905 18 21 12
20.9548586534183 230.499100850123 2807.05930648468 19 22 13
14.2310345571324 230.010638414391 2803.41791985145 20 23 14
-4.31429159455465 229.517064809778 2810.96861218111 21 24 15
-11.7331794873645 229.031901924427 2808.05841231047 20 23 16
-15.470956943205 228.547284042061 2801.64095861487 20 23 16
-8.2361204425454 228.058511686879 2784.6507440772 20 23 16
-15.6869319140232 227.57081864546 2781.71738930736 19 22 15
-26.7701385609507 227.086580199954 2782.3263288769 19 22 15
-39.2754319750863 226.606272548337 2784.37475504572 20 23 16
-58.2547917344087 226.137413697663 2792.84596896477 22 25 18
-58.398627501743 225.646394087578 2782.85833024866 22 25 18
-37.7208508749898 225.115363830259 2752.14551303343 22 25 18
-43.0205124420588 224.623474819471 2747.06614711907 20 23 16
-39.7477217137905 224.111510585708 2733.37941567535 20 23 16
-50.0731719340506 223.629357579084 2733.30264298387 20 23 16
-47.5857166262266 223.113357483494 2720.28162132075 24 27 20
-55.775417527347 222.625652602677 2718.0476664039 22 25 18
-57.5989268450057 222.117753237773 2709.31238424426 17 20 13
-67.1918684282038 221.635558169756 2708.53158585405 18 21 14
-75.360512676292 221.149686068272 2706.31290463774 23 26 19
-87.7132113867436 220.682221973948 2708.47201501895 24 27 20
-83.992120185842 220.147192491481 2693.8748182188 25 28 21
-60.1801426384405 219.512654996385 2658.02301160132 22 25 18
-52.4923944207103 218.941631183516 2638.89063255473 21 24 17
-49.7278630818585 218.388693906316 2624.83524549629 24 27 20
226.756168352908 231.999819252112 2801.86590056116 23 25 20
200.213827461083 231.463848399379 2814.73538458438 37 40 33
182.350847401852 230.946313579394 2820.31052953178 21 24 17
165.329408764434 230.434732581915 2825.26042486629 22 25 18
129.783227732807 229.916636804484 2846.42454101996 19 22 15
114.47973194695 229.419831465705 2850.14951689649 23 26 19
106.157488654755 228.928319455618 2847.8194598879 20 23 16
100.918483206085 228.4375542686 2842.78407058062 17 20 13
94.9085094597488 227.946609322601 2838.42482561977 16 19 12
109.509084885692 227.444242539763 2815.6582049464 16 19 12
92.0198365065845 226.957291184483 2821.5041363988 11 14 7
46.5121987104582 226.504450669287 2852.73900120352 12 15 8
27.7201967554754 226.036679739968 2860.11100367469 19 22 15
30.8852140639542 225.541933111276 2847.58156329575 19 22 15
37.0062200062078 225.037543396383 2832.25419784639 24 27 18
40.0550599254603 224.533333671268 2819.64019558918 22 25 14
40.0577356717555 224.031443138071 2809.75871113264 19 22 13
35.5494834246826 223.537753775877 2804.0177144985 19 22 13
34.005697308801 223.035129659658 2795.48523637759 20 23 14
28.7272501520071 222.541359687827 2790.42123971454 21 24 15
-3.90747067281594 222.135784504085 2811.22613770934 22 25 16
-22.3816377325994 221.694157548649 2818.82867790335 20 23 16
-19.4725447423709 221.178708911526 2806.11331318764 20 23 16
-26.1415158010618 220.697027660347 2802.51172504003 20 23 16
-36.4590468127117 220.23121388538 2802.4407759133 21 24 17
-18.3514398966988 219.639047381432 2774.80521362831 21 24 17
-38.1420196569979 219.215581035852 2783.92362340755 21 24 17
-48.4408525274576 218.751397772491 2783.86623722127 22 25 18
-47.8903796742367 218.231817589891 2773.14644187033 22 25 18
-35.8706338507575 217.644745560425 2750.97886142715 21 24 17
-14.6386970339125 216.994105785678 2719.43212428509 21 24 17
-29.3243698536312 216.548395670492 2723.60552649917 21 24 17
-28.2771662394925 216.006790149979 2712.0106736857 22 25 18
-43.6181930965089 215.570397009863 2716.94407959371 28 31 24
-39.0688217437529 215.001076656719 2701.71211043279 25 28 21
-35.9990605745886 214.436501086284 2687.87793204202 17 20 13
-55.5141058586861 214.035926562769 2697.19649307187 17 20 13
-81.2619340048759 213.691233682627 2713.11327293621 22 25 18
-93.5958779245589 213.249556970037 2715.28581520664 25 28 21
-79.3930696833698 212.590188871064 2689.75968163424 26 29 22
-66.7095671995759 211.932342302649 2665.60254633698 23 26 19
-44.4457729882681 211.178305843303 2631.0981910289 22 25 18
-60.3522152171769 210.75890031399 2636.85683794206 23 26 19
237.366048212267 224.21996992008 2793.46116833895 26 28 23
204.542353285766 223.765711448129 2811.65875512568 36 39 32
181.214027502302 223.300860100063 2821.91777205491 23 26 19
179.729020812808 222.785775774591 2813.42813575821 25 28 21
123.225853016432 222.428383150426 2852.74894928256 19 22 15
119.524888586656 221.928872087426 2846.35840117531 22 25 18
118.890619752851 221.417769098162 2837.24987748886 19 22 15
107.473041786494 220.943143375649 2837.61676732047 17 20 13
104.508715060329 220.438284382325 2830.52457093363 17 20 13
95.417004056074 219.957116225657 2828.87209385919 16 19 12
65.0244056700817 219.570557207118 2846.36171510895 11 14 7
42.3625772207208 219.160322308588 2857.10446129953 12 15 8
42.5050109027785 218.647252712416 2847.32423372905 17 20 13
40.3470871532083 218.142837758307 2839.58158168939 17 20 13
42.6813074581926 217.612274109478 2827.68473404146 21 24 15
40.4640202746949 217.103050055181 2819.89902382263 20 23 12
40.4679886610064 216.578740821914 2810.01836287328 19 22 13
33.7221606077591 216.09278701659 2806.36074333176 21 24 15
34.4171775943249 215.559443251591 2795.74566139254 22 25 16
20.2401815105304 215.121759591725 2799.05281825457 20 23 14
-3.50104399316553 214.754636555878 2811.48337811347 17 20 11
-15.3433209049068 214.311154571094 2812.7772945174 16 19 12
-22.7417418681342 213.83757841058 2809.88199024984 17 20 13
-26.4685853744913 213.336330160245 2803.47237857147 21 24 17
-27.2875993563151 212.810547427178 2794.23014930579 23 26 19
-23.0400464123837 212.240010261339 2780.01471048201 24 27 20
-26.1166460962339 211.726447975125 2772.84108094823 23 26 19
-30.6600836458191 211.224171961183 2767.07482872135 22 25 18
-27.2741660876568 210.648888078485 2753.46978460436 22 25 18
-31.8614709849046 210.143089035655 2747.67141967913 19 22 15
-36.4588844147262 209.636526255192 2741.86601747144 21 24 17
-32.4844449798267 209.0439169687 2727.45218655977 28 31 24
-33.5634285708921 208.497215689582 2718.02139381976 25 28 21
-29.699431707483 207.895692085416 2703.5277500553 22 25 18
-43.6109283519921 207.480279418299 2707.02719145686 19 22 15
-50.4120354107602 206.990518671371 2703.32977417863 17 20 13
-81.8531301628003 206.781371608722 2725.00095213398 20 23 16
-85.0605882153794 206.257622807984 2717.73240897935 22 25 18
-81.2901486316566 205.648710454194 2703.17090612077 21 24 17
-78.977384817323 205.05181708987 2690.02283712556 24 27 20
-60.7277158490418 204.249797269508 2660.0191224472 25 28 21
-42.6335350922105 203.435129737715 2629.9023325059 23 26 19
-52.328990581656 202.971425001138 2629.04731325446 23 26 19
178.517740801664 215.675689411172 2824.86528876205 19 22 15
153.736642059476 215.288407755782 2836.54192021099 24 27 20
194.132171711098 214.491195835507 2791.71396536487 19 22 15
162.422990525443 214.152372849921 2809.48474054451 22 25 18
140.101040575782 213.761232118141 2819.23863752239 18 21 14
155.50636267796 213.107037570329 2795.81958922201 16 19 12
111.048225422338 212.887372716865 2825.34607271127 17 20 13
60.101137349934 212.204800638089 2851.40126918521 12 15 8
51.8782324027378 211.736764982073 2849.14334357526 12 15 8
51.9955272435038 211.199127973095 2839.34476788344 17 20 13
47.5473110185614 210.698129395889 2833.64725562036 17 20 13
46.0999663759298 210.169226800005 2825.1845568759 19 22 13
41.6230101249973 209.66594019046 2819.46649324232 18 21 10
39.3812832231748 209.140464942565 2811.6629838346 17 20 11
27.4167543892618 208.708272463544 2812.86862887176 19 22 13
26.6451573027102 208.166406465436 2803.66069166047 21 24 15
20.649677555221 207.675724601803 2799.31195504127 22 25 16
10.2161201101536 207.232146585498 2799.15671402831 17 20 11
-5.35347810569187 206.846953914559 2803.92468302082 17 20 13
-14.9861324963754 206.400621589359 2803.11527762081 18 21 14
-15.8028734411872 205.855232858857 2793.87459681992 23 26 19
-17.3822695686201 205.315856659331 2785.31611808513 26 29 22
-15.3466878262112 204.730455113215 2773.20250320518 28 31 24
-22.0762375178849 204.248340478924 2769.55670364151 25 28 19
-22.2855543248013 203.68445049696 2759.52093274255 25 28 19
-18.922039753787 203.071123722931 2745.89975000435 22 25 16
-22.8135929407294 202.547887968313 2739.37062539241 20 23 14
-33.8943014574364 202.120152977057 2739.981662111 26 29 20
-45.6604666937581 201.70473672906 2741.33089565123 30 33 24
-30.2958011374861 200.91130245002 2715.41130154096 25 28 19
-40.6557505699618 200.474332640048 2715.30974849609 20 23 14
-55.9509157044977 200.112178650765 2720.2767765814 19 22 13
-82.4930463652405 199.923706918196 2736.85357752179 18 21 12
-85.6678999242952 199.391091292649 2729.60862514811 19 22 13
-81.8412644987379 198.747774727267 2715.08768559044 22 25 18
-64.7806381781362 197.888385783069 2686.69179119382 19 22 15
-84.84077175462 197.615190536108 2696.85088791811 21 24 17
-95.0778088193218 197.188670885159 2696.83848960383 24 27 20
-97.6641586774651 196.63619131804 2688.78531335528 24 27 20
-91.9813668788574 195.939962039751 2671.9039743098 21 24 17
167.099796288347 208.711088965118 2844.96080384977 19 22 15
157.898135712015 208.241566382934 2843.2283864942 25 28 21
164.253323576845 207.622792351953 2828.07020513909 23 26 19
168.98753591207 207.013613527675 2814.20736036628 19 22 15
146.617472556263 206.675503461323 2823.92664752002 21 24 17
135.894876251883 206.223799913073 2823.56212938916 16 19 12
122.12472694188 205.807189125672 2825.92899379208 14 17 10
123.71817983361 205.225492557491 2814.72992566841 16 19 12
105.406694628876 204.864015651574 2821.21576675755 15 18 11
85.6412375562892 204.525809580577 2829.11778374016 10 13 6
72.0292335086255 204.122241830395 2831.59935708429 10 13 6
53.1592161039294 203.786273902746 2838.91576657624 14 17 10
51.7293265876715 203.241750911456 2830.46564230501 14 17 10
59.3063257393247 202.580858219079 2813.72259695172 13 16 7
56.2937322605617 202.049105538012 2806.59556922106 18 21 10
32.305688128182 201.792266297647 2818.84776359782 17 20 11
26.332244721937 201.302757249306 2814.5150075332 16 19 10
22.5899164753098 200.78249944724 2808.09407434903 17 20 11
20.3168666602211 200.240278024409 2800.26806794737 19 22 13
15.0620729971287 199.738585189794 2795.22117807583 16 19 10
5.37724767869996 199.30109997477 2794.37370319224 21 24 17
-11.6395474646975 198.974918982019 2800.56323488846 22 25 18
-16.1292122079901 198.464812270367 2794.83562957538 21 24 17
-21.3597500163356 197.965256193965 2789.80633411369 22 25 18
-23.6810568809116 197.419309220969 2781.94503179933 22 25 18
-23.8463008944838 196.836506438737 2771.94140888879 24 27 18
-24.0477307748042 196.250761839365 2761.91124469328 26 29 20
-19.9534039842231 195.589879573348 2747.58427134519 24 27 18
-25.9995727182902 195.094941976964 2743.19876764174 24 27 18
-33.4822108060813 194.624755748554 2740.24242975397 24 27 18
-35.2335690991592 194.054645747811 2731.55913630269 23 26 17
-28.4536946547365 193.329236808176 2714.23791145013 19 22 13
-33.1308778653792 192.804315298648 2708.37458943538 19 22 13
-54.1203284860032 192.58038026967 2719.09529054367 20 23 14
-108.228727637138 192.989074997734 2763.86170219095 15 18 9
-87.3718645297337 191.993416734845 2732.04131852579 14 17 8
-77.9189815230645 191.20259805174 2711.71733679479 20 23 16
-76.963930189732 190.569908231431 2700.0552194664 19 22 15
-69.7740229520471 189.807388770556 2681.79601153491 19 22 15
-89.7961541091568 189.591885458443 2691.98294924503 22 25 18
-63.9193240750529 187.799002435328 2642.80051355436 22 25 18
206.516030718426 201.233212352012 2821.62122982532 16 18 13
183.927479317823 200.934106665978 2831.18232789751 13 16 9
166.106145293134 200.582015673906 2836.78850094971 23 26 19
161.561551829035 200.060827559799 2831.02102050519 22 25 18
149.257291496475 199.643239898282 2831.98046090502 19 22 15
