ply
format ascii 1.0
comment KinectMotionCapture
element vertex 792
property float x
property float y
property float z
property uchar red
property uchar green
property uchar blue
end_header
-5.00813885192164 -53.5655663077038 2807.21698907122 9 12 5
-47.8046977829201 -59.0629091890161 2786.76179837289 11 14 7
-49.2512175411712 -57.6588600247654 2795.07558045361 11 14 7
-32.3642783741152 -53.2359072699137 2815.91214405467 11 14 7
-42.0706652733114 -53.2132130528858 2818.46249110639 10 13 6
-44.2690358414284 -51.9565639690606 2826.1277485055 13 16 9
-44.7744231588905 -50.4287391019206 2834.9059253249 15 18 11
-60.3784085694796 -51.3581680749723 2833.53401952262 16 19 12
-97.0800844720965 -55.6841462680963 2818.18934291457 13 16 9
-117.887479112897 -57.4106867195615 2813.60051837851 12 15 8
-106.6169301616 -53.9755715840922 2830.24120155003 10 15 9
-124.944540132555 -55.2878260181085 2827.37941083956 13 18 14
-55.7962041061222 -42.6767807360461 2881.54732567295 24 29 25
166.127073052772 -79.6453547768206 2660.97019481078 24 27 20
162.159870907074 -78.6482409383872 2667.59613083305 23 26 19
146.589671990008 -79.864269828053 2664.81612456805 21 24 17
153.475250412398 -76.8039764588416 2680.19857167705 17 20 11
194.655936162795 -67.28418856634 2722.91916169048 17 20 9
190.054164338636 -66.4516022650221 2728.78298040654 18 21 10
191.711948435282 -64.4476113609063 2739.59344685503 18 21 12
189.486649095981 -63.179177457729 2747.28404097284 17 20 11
185.705855873798 -62.2047378624498 2753.72822142168 17 20 11
177.207439850866 -62.1056780924927 2756.48465805852 17 20 11
171.063325097768 -61.5681378510093 2761.08949730439 15 18 9
159.374682997761 -62.0468086803501 2761.43095097138 11 14 5
108.17848629747 -66.3489099781978 2750.5569778811 13 16 7
175.470467945368 -52.5251703442695 2810.64011015388 17 20 11
180.612430549246 -49.9792826122393 2823.57895667942 18 21 12
152.067869721076 -53.477815358595 2811.34779836818 15 18 11
160.451886032913 -50.3603638727788 2826.65073587503 14 17 10
117.24427307368 -56.4202509875792 2803.85271521784 14 17 10
89.2279530778697 -59.7395232533802 2792.48742064822 14 17 10
108.144802576343 -54.7643394097382 2815.47769956399 14 17 10
86.5295305540093 -56.9300557278093 2808.92186273427 10 13 6
70.5420786268687 -58.0899598582954 2806.5478996615 9 12 5
71.659582495768 -56.2608942118865 2816.50415476392 8 11 4
76.0841118316282 -53.8687815671147 2828.76090386124 10 13 6
55.9337686810828 -55.7284247236194 2823.53929000402 10 13 6
29.1330071777791 -58.7093906500557 2813.7510828303 7 10 3
1.40775599182996 -61.8185431856302 2803.48294418505 9 12 5
-14.0227580432639 -62.8025834228131 2801.94685026352 9 12 5
-25.3560990874373 -63.0780084139911 2803.32269224334 10 13 6
-42.5287456676555 -64.3320242887181 2800.72264533846 10 13 6
-53.0956802512157 -64.4588472759632 2802.73238037976 11 14 7
-46.9983551381388 -61.78692536475 2816.12081933189 11 14 7
-29.1380681777382 -57.1683800266059 2837.37917284675 12 15 8
-18.7123548955186 -53.8174646713694 2853.45398785767 14 17 10
-55.25916623934 -58.2626085773716 2837.97314109374 15 18 11
-77.6330760301129 -60.3299002734218 2832.15609566665 13 16 9
-91.6434565156767 -61.0018368895272 2831.99781583554 13 16 9
-113.30504247375 -62.9136201538188 2826.86734755192 16 18 13
-114.690090741793 -61.5027239587997 2835.11941338799 21 23 18
161.580810740972 -88.2119572707925 2658.24870900961 24 26 21
171.500507056607 -84.4997236672637 2676.18985082906 22 24 19
176.854328314053 -81.6984541100639 2690.29748257525 18 21 14
176.831205814082 -79.9536706200401 2699.98160622971 17 20 13
194.729563447396 -74.76933188576 2723.95234962216 17 20 11
189.347841726527 -74.0831701767437 2729.19506444652 18 21 12
173.802572441595 -75.3365290198074 2726.39582003908 16 19 10
177.802938475407 -72.8596296999768 2739.06157597407 16 19 10
184.20808489985 -69.9425348746488 2753.52535452365 16 19 10
189.884584310196 -67.1813101108822 2767.31848069693 16 19 10
171.926895670226 -68.873120109651 2762.72854146534 15 18 9
158.657423449528 -69.6691974858933 2761.85287672471 13 16 7
158.839988844595 -67.9492385577886 2771.33641831819 13 16 7
135.981680860012 -70.5090756563839 2763.23902897623 11 14 5
159.289471245391 -64.519689202676 2790.22127156873 11 14 5
183.537559711647 -58.4011883784044 2817.66794837888 16 19 10
179.88408649359 -57.4360770464583 2823.98707689472 18 21 12
178.64931531396 -56.0325088074217 2832.09099842918 18 21 14
133.148878651784 -62.6733998708148 2807.4045919379 15 18 11
99.5620830008459 -67.0999309445459 2791.81547350081 13 16 9
106.294601281041 -64.222986135657 2805.96010111308 13 16 9
112.620124061446 -59.7985282321121 2828.78195326189 10 13 6
88.5461990661578 -62.4508236999577 2820.48844557057 9 12 5
84.8051058961223 -61.4734854000145 2826.89311269545 8 11 4
85.1665716289252 -59.7747823879082 2836.20214522402 9 12 5
56.8307087056197 -63.1276886143634 2825.15913258981 9 12 5
30.0326248110894 -66.1787227332442 2815.37862255924 8 11 4
6.43327440089481 -68.6418946696583 2808.00315007378 9 12 5
-7.33210352635449 -69.3723741307889 2807.61023168739 9 12 5
14.4895080164615 -63.9386779173514 2831.89933681999 10 13 6
-25.841489041853 -69.2456596972028 2813.21839939988 10 13 6
-47.1900153992846 -71.2487574391506 2807.79055454487 11 14 7
-23.5592339282054 -65.5478297772349 2833.07778698031 11 14 7
-3.97307928640345 -60.5755570479476 2855.40386625604 13 16 9
2.31947712929959 -57.8901827670349 2868.59644938424 14 17 10
-33.3377627078466 -62.2992405575263 2853.6438207695 15 18 11
-82.6060824197716 -68.9545097907026 2829.86694645594 13 16 9
-85.6560818307357 -67.8151242127532 2836.97830606263 13 16 9
-75.1589068037255 -64.4212350210885 2852.97614483231 18 21 14
-95.109627470007 -66.1040629396317 2848.94707900002 24 27 20
-101.528817156229 -65.5304463267351 2853.81940180692 46 48 43
174.748819702947 -93.2824546368897 2670.01124635893 23 25 20
166.170694225193 -93.1954153069316 2672.84861227851 22 24 19
177.702967448005 -89.1310495665824 2691.97021505027 18 21 14
205.618011684991 -81.8718276886721 2724.10908408927 17 20 13
203.361010068266 -80.5775362215763 2731.82699945857 17 20 13
191.761520215615 -81.110994586623 2732.08802119987 17 20 13
160.585755575956 -85.437997569606 2716.92415959608 17 20 11
174.742074518758 -80.9525260183709 2737.62921055957 16 19 10
192.925018940776 -75.7223921460295 2761.31058656247 17 20 11
200.198106040828 -72.6232932423336 2776.30249638507 17 20 11
185.424672919524 -73.7576293067795 2774.13612506033 15 18 9
170.605570961857 -74.8858967981178 2772.01454447476 13 16 7
150.979414830634 -76.9106766479746 2766.29647444761 14 17 8
152.761524438339 -74.8720126100742 2776.97869699371 11 14 5
180.893697337643 -67.8905297004795 2807.52575659978 10 13 4
187.970397573929 -63.2541633866103 2830.98726777767 14 17 8
180.329061437527 -63.0325124811459 2834.29140181865 18 21 14
153.352841936181 -66.3835144283894 2823.31520887529 18 21 14
113.358870357231 -72.0998560300491 2802.94319405719 17 20 13
98.2794021131372 -73.1936507910888 2801.07472814648 15 18 11
113.161290415843 -68.7988674495413 2821.07268168748 13 16 9
84.2424162515227 -72.4046956354535 2809.22908027152 12 15 8
106.549442151606 -66.6922240324312 2834.41220605049 11 14 7
103.667810633871 -65.5670760967413 2841.35847816757 9 12 5
85.2423307171506 -67.2398944365319 2837.23025563011 8 11 4
43.7761140099218 -73.0189829148507 2816.91222878943 8 11 4
22.7064388092306 -75.1089924590145 2811.22066398201 11 14 7
18.0553284979101 -74.2608856293531 2817.13084477587 10 13 6
29.9393213563324 -70.4894996455939 2834.52957771246 9 12 5
18.2479681464698 -69.2428825138614 2844.53810549444 10 13 6
-7.15884389907062 -72.0371875888184 2836.17225398791 11 14 7
-2.62426975981667 -69.5925784258505 2848.31196800623 12 15 8
8.64746731747079 -65.9944021030495 2864.92737097881 14 17 10
-11.0134588687187 -67.7600537492404 2860.62277625462 15 18 11
-62.6621432416514 -75.0064460687763 2835.04594117656 15 18 11
-56.8819967070171 -70.7033906937477 2857.01073176453 16 19 12
-64.9289952170307 -70.4275921902293 2860.70969154795 20 21 13
-78.9212491191944 -71.1545910498918 2860.54154992711 26 27 19
210.250096719518 -93.733377795756 2700.00715812509 24 27 20
190.180455860756 -96.006098820743 2693.34921126799 22 25 16
184.744139690599 -95.3127892542047 2698.64508273732 18 21 12
185.516460570942 -93.3765362169638 2708.92826740056 17 20 11
173.095857350248 -94.0810221599723 2708.61303533823 15 18 9
184.037034976447 -90.1352012165159 2726.92221632692 17 20 11
173.169990644562 -90.5288214101069 2727.85248797761 17 20 9
181.87060438972 -87.0598179513278 2744.20632748463 16 19 8
211.070224731471 -79.5927623870703 2776.45544720972 17 20 11
205.785239755594 -78.9175870209009 2781.60372479294 17 20 11
184.709174118145 -81.3146520051879 2774.54664128393 16 19 10
170.680083170933 -82.3213967289857 2773.0395163922 14 17 8
151.054474101159 -84.3945115291049 2767.32804700949 14 17 8
143.291272407418 -84.1655615207953 2770.75211654619 12 15 6
106.014526333186 -89.5820509190711 2751.88860440438 10 13 4
152.511335603008 -78.9794269283559 2796.25538474643 11 14 7
161.602359644045 -75.5589791957356 2812.22837973145 13 16 9
183.615643988997 -69.7173969797784 2837.68411272476 16 19 12
180.802352297126 -68.593168933158 2844.56265834371 18 21 14
129.57630610946 -76.5531718367595 2815.83745215519 19 22 15
128.289744982093 -75.1146959041585 2823.98764253148 16 19 12
104.316248993521 -77.903412868628 2815.6145703895 13 16 9
105.454518400992 -76.0110543468051 2825.54051250381 12 15 8
89.5130416638841 -77.2807311638021 2823.13711974283 11 14 7
98.0257366059174 -74.0398782250422 2838.29403878682 9 12 5
88.5933488322048 -74.1049748017602 2840.58527609745 8 11 4
33.184782828676 -82.5473767228559 2810.41669716633 9 12 5
17.0259923002885 -83.7887141822647 2808.2249116679 12 15 8
22.25597882813 -81.1459808276202 2821.06203539498 10 13 6
24.2314701700144 -79.1052628535525 2831.55192344946 9 12 5
4.70374590019373 -80.9337908556875 2827.12435035118 9 12 5
-6.5852564532789 -81.2699412961004 2828.46513855057 9 12 5
-9.57737221180555 -80.1211794365869 2835.51763302438 11 14 7
-0.0434777924764873 -76.7555158554009 2851.05894825059 12 15 8
-16.3601649276446 -77.9759454686008 2849.0208662463 14 17 10
-46.1360350383333 -81.5483460060727 2838.02333388197 15 18 11
-65.9425973063481 -83.3405721558655 2833.86728563995 15 18 11
-60.5544937900704 -80.7173002093771 2846.55027324774 15 18 11
-60.1785969265798 -78.9804650906548 2855.8393395415 16 19 12
-46.2409650384847 -74.9046610739655 2873.98794218837 22 25 16
-83.9283145417324 -79.7559778916019 2858.28278953823 29 32 23
196.46231971808 -104.098324510966 2689.72450217734 24 27 18
187.939003030874 -104.039321986316 2692.51124814327 22 25 16
178.627071558198 -104.136469078125 2694.68760761844 18 21 10
164.640463650158 -105.179470833411 2693.14331737223 17 20 9
164.614235981308 -103.376224631337 2702.82222158397 15 18 9
174.753760715011 -99.5280359149393 2720.52497642832 14 17 6
184.189989466114 -95.8470803429014 2737.533584406 16 20 5
174.107913977346 -96.1021028589639 2739.08113287501 16 20 6
188.359083417838 -91.4927115059541 2759.67334275756 16 20 6
196.407377370737 -88.1482760022612 2775.27610939101 16 20 6
174.519126885539 -90.752403691638 2767.63923190177 16 19 8
163.631176586806 -91.1610495194564 2768.59248426876 16 19 10
144.782262897055 -93.1243618667633 2763.51076329716 16 19 10
132.231249457536 -93.8345798083124 2763.32587769682 14 17 10
135.592973978917 -91.4337461101247 2775.21980940045 12 14 9
142.195674622058 -88.417986957181 2789.47283114595 10 12 7
168.087024699632 -81.6937643941918 2818.03201811117 9 11 6
173.24826632166 -79.0080300526397 2830.93105101888 10 13 6
181.681270282315 -75.7113857322971 2846.15885844359 14 17 10
165.969499254696 -77.045682001663 2843.53691524425 21 24 17
150.208172329818 -78.3734950874625 2840.96322357176 23 26 19
126.28781262 -81.2306510854946 2832.54750157875 22 25 18
108.782086295948 -82.8496793618288 2828.91490929715 19 21 16
96.9229805566907 -83.3895921001415 2829.43502524723 15 17 12
99.7354160156316 -81.1744318757357 2840.48494225047 12 14 9
84.576081384403 -82.32124011178 2838.70362021128 12 14 9
24.2359096777447 -91.8408302178421 2805.08961284089 10 12 7
17.1045425107721 -91.4410945339348 2809.27792862173 11 13 8
6.66851976588623 -91.6477223694783 2811.16979923572 10 13 6
-2.96360610375723 -91.6998175524618 2813.65711998597 12 15 6
-18.4128549903586 -92.8088686291256 2812.15810659642 12 15 6
-18.9614783947811 -91.1922112455876 2820.96608808219 11 14 7
-3.67267017226247 -86.7124201832143 2840.54740002343 11 14 7
-22.4886497888792 -88.4197160802373 2836.81204522852 12 15 8
-38.0211525138692 -89.5176967416649 2835.39406792867 11 14 7
-49.4086323050276 -89.8592116374993 2836.83343854361 13 16 9
-41.5017713936638 -86.7506574786461 2851.1946041201 14 17 10
-57.948717990453 -87.9886908298504 2849.28847351157 15 18 11
-61.7865220472584 -86.9799220063178 2855.78453055901 18 21 14
-89.2989019073487 -90.1472396928993 2846.730513642 22 25 18
-96.5645732378331 -89.7290691301008 2851.04947077554 15 20 13
196.537131933743 -111.652846612062 2690.7667676086 24 27 18
208.85896491388 -107.25015959052 2710.4715692916 22 25 16
194.955791967358 -108.333399936978 2708.85037414141 18 21 12
184.890219442272 -108.607207538231 2710.38397350891 17 20 11
174.024218865084 -109.038434002915 2711.3187668862 15 18 9
168.590421022315 -108.344188823995 2716.61199933611 14 17 6
184.264885117637 -103.329272954528 2738.56507671726 16 20 6
185.938586487612 -101.203599857791 2749.3420903451 16 20 6
169.578107245157 -102.7514003988 2745.97897051315 16 20 6
181.517492661877 -98.5582061500445 2764.67760190285 16 20 6
159.592812034 -101.214102401291 2757.08421361267 16 19 8
147.876755250222 -101.795326677649 2757.46838566258 16 19 10
148.031786471998 -99.994603240192 2766.96733213795 16 19 10
137.079778391313 -100.413173801042 2767.98566170057 15 18 11
134.871775588245 -99.0898992501781 2775.65063683645 14 17 10
155.059585418387 -93.3506211317565 2800.10005703194 11 13 8
164.155666188059 -89.8327309794849 2816.0536286636 10 12 7
156.456567256768 -89.6267222872061 2819.41743392607 9 12 5
160.018075926341 -87.2206596787832 2831.11254202854 11 14 7
163.622954948039 -84.8200957810823 2842.76505759527 20 23 16
166.462632187658 -82.58148003111 2853.78445639115 23 26 19
140.959950178626 -85.8179798262254 2844.1619142024 25 28 21
115.361300732041 -89.0419816571016 2834.63315974612 21 23 18
95.3699036335065 -91.1630088578863 2829.29200471521 19 21 16
96.5449252211208 -89.2309077861151 2839.1759152818 16 18 13
105.938450481925 -85.7499108076779 2854.83957293172 13 15 10
64.5248138937582 -91.8905889921705 2834.52311389818 9 11 6
20.4737978429224 -98.4737471642768 2812.63994421249 10 12 7
8.3964675645829 -99.0062445639132 2813.37532653001 11 14 7
-16.107174709477 -101.849191166183 2805.53671260331 12 15 8
-34.9004399787574 -103.602368326522 2801.7855833564 13 16 9
-26.3546484891881 -100.272236885696 2816.89644171581 12 15 8
-6.92258088518471 -94.9543807533917 2839.32479246384 12 15 8
-2.38886528680826 -92.410993768796 2851.45075970705 12 15 8
-30.4161185970107 -95.8425948008873 2841.53017138256 12 15 8
-57.7090192823033 -99.1080343302702 2832.27271076599 13 16 9
-43.9419629864988 -94.8853735669473 2850.56899213456 13 16 9
-58.7103621056504 -95.8526078650593 2849.79017156289 16 19 12
-37.2342807528674 -90.2759284905446 2872.98435111559 19 22 15
-117.975139778946 -103.084094077645 2828.93987012511 21 26 20
-93.9403815816058 -97.0546444448052 2853.77739229567 20 25 19
201.98542547109 -116.217238519719 2705.86922853206 22 25 16
199.674468675467 -114.871815329704 2713.63316494529 18 21 12
185.741520392847 -115.980386691301 2712.04561889898 17 20 11
165.54363529245 -118.389212744092 2705.53513673328 15 18 9
171.785247836758 -115.247279790715 2720.12773802418 14 17 6
179.64976449875 -111.787181930771 2735.89624122048 16 20 6
200.903572211676 -105.57335249469 2762.05078991795 16 20 6
178.295464467774 -108.461256053098 2753.75343611785 16 19 8
180.017343694425 -106.316697984901 2764.47981723128 16 19 8
158.879120050121 -108.866779181206 2757.50707327124 16 19 8
168.530808737581 -105.108977785662 2774.29070640988 15 18 9
185.397689665119 -99.9094442191391 2796.4493191522 15 18 9
164.197810358255 -102.451118824626 2789.53655768607 16 19 12
133.353474703231 -106.911602371418 2775.48021988788 15 18 11
149.540569988541 -101.887304227293 2796.92319806518 11 14 7
143.400274208121 -101.363102336466 2801.52587857514 10 13 6
141.576859002134 -98.2364198392556 2818.46178838499 11 14 7
154.013847540555 -94.0455445121461 2836.66629741253 15 18 11
151.167431751883 -92.8911796209457 2843.5732815368 18 21 14
136.981197056628 -93.964208365053 2842.23199945915 21 24 17
112.186388814665 -97.0953649556113 2833.30820563548 16 18 13
68.5595895955133 -103.859966457639 2811.03026176778 15 17 12
86.0045466356985 -98.732672951185 2832.62585127603 14 16 11
51.9841670544468 -103.573110176349 2817.52846323971 10 12 7
29.317313422399 -106.187644177121 2810.66628823344 6 8 3
31.245782950359 -104.066741861517 2821.1910184336 10 12 7
7.65154804568313 -106.825065454631 2813.85375161951 10 13 6
-3.63088968531811 -107.217444682492 2815.19633164197 12 15 8
-27.3646497473496 -109.957618708706 2807.99493287363 14 17 10
-6.34757329538616 -104.235741641138 2831.62345092256 13 16 9
-9.33975485167471 -103.061143140773 2838.67219209029 12 15 8
-20.6609092981518 -103.448110792027 2840.05241855489 13 16 9
-31.1721391792501 -103.675864098299 2842.02175546026 13 16 9
-41.7056068782689 -103.900666552211 2844.01273871286 13 16 9
-58.1411224483408 -105.209311399427 2842.1056932741 14 17 10
-13.167340995242 -95.196044651728 2880.9867472232 18 21 14
-89.4723271546924 -107.497772980796 2839.54808781093 21 24 17
-114.509656136492 -110.332718306442 2832.23825008915 19 24 18
-114.203809827544 -108.528466673154 2841.5869134877 18 23 17
170.506333609638 -132.435445882319 2671.50876118195 24 27 20
187.392902449346 -126.899132333636 2695.01529476187 22 25 16
183.497268403711 -125.870704409776 2701.56587223666 18 21 12
159.437388813395 -129.163888963062 2691.93589321779 17 20 11
158.619422083935 -127.467030271546 2700.99948288866 15 18 9
170.34482248506 -121.269543498062 2729.5334119103 16 20 6
179.819787942668 -117.438175194547 2746.48166067176 16 20 6
190.940552766627 -113.286283477386 2764.58205174793 16 19 8
170.642186711905 -115.732241483271 2758.17683674171 16 19 8
188.955552744162 -110.111192673887 2781.67092510069 15 18 7
190.766448227238 -107.952971674448 2792.3068923803 15 18 9
191.026337174699 -106.127034286775 2801.69798697315 15 18 9
171.431439813823 -108.396758690844 2795.9854170651 15 18 11
145.389167465928 -111.965011560205 2785.53081970121 15 18 11
137.628475658137 -111.766791135157 2788.95693870305 12 15 8
140.271926116337 -109.44878852153 2800.15946024987 11 14 7
108.42224985561 -114.131523019158 2785.71737981056 12 15 8
150.508296313326 -103.852893573258 2826.00986749002 9 12 5
152.475645500002 -101.713364094641 2836.49323652777 13 16 9
141.536210445554 -102.169446442759 2837.50462511526 16 19 12
113.542339365308 -106.017639136511 2826.19521264888 19 22 15
103.322323965802 -106.299986952026 2827.88343831371 13 15 10
80.8590108859359 -108.997247555353 2820.83137148597 11 13 8
11.9504378447162 -119.020684698906 2790.13206872229 8 10 5
-1.78470078666537 -119.91432481512 2789.73323734165 5 7 2
25.5672257425381 -112.792962805567 2818.20026258008 7 9 4
15.1513191115944 -113.049286915883 2820.07950268325 8 11 4
-15.1202222957272 -117.135487364877 2808.23287148668 10 13 6
-12.3741334480112 -114.828594213188 2819.33545141105 15 18 11
6.18604945662371 -109.501896989103 2841.21070484317 15 18 11
-21.7427267541037 -113.091049648495 2831.21561336485 15 18 11
-44.7703514682067 -115.714545691006 2824.7130139621 16 19 12
-38.6162908017931 -112.781674428188 2838.00654547085 16 19 12
-44.9769414547014 -112.228910263141 2842.82415797697 16 19 12
3.25515470661975 -101.4084853484 2884.01833474235 21 24 17
-46.7626864869288 -109.071774004775 2859.71782185282 23 26 19
-32.855529033438 -104.741849759596 2877.85912720495 24 27 20
-79.7517591432806 -111.742498075963 2856.02884552341 16 21 15
152.872710124516 -143.981498263334 2658.13443227357 24 27 20
171.257835159736 -138.021889771213 2682.92447106827 22 25 18
171.190795216069 -136.136855505497 2692.63147639014 18 21 12
175.030845220624 -133.410771553935 2705.41926129034 17 20 11
132.25137220645 -140.808720785978 2680.97694701749 16 19 10
202.346898681374 -123.766401791414 2746.30220695745 14 17 8
179.019391305164 -126.948957985296 2737.34586784004 16 20 6
199.486064975251 -120.718112933461 2762.86262805974 16 19 8
186.30244315696 -121.71215068787 2761.93097105786 16 19 8
184.106065092913 -120.357626959282 2769.58012188321 16 19 8
189.820448410647 -117.33359227163 2783.29678558445 15 18 7
190.841611269515 -115.317820545819 2793.32077581502 18 21 12
177.614550504465 -116.305541824994 2792.43132075714 17 20 11
161.963623350189 -117.787382487776 2789.77076568905 16 19 10
154.235295884933 -117.601188151721 2793.16652387102 15 18 11
140.102837098045 -118.740613687114 2791.78165493816 15 18 11
129.132899989455 -119.211912439809 2792.82558149427 15 18 11
156.683634060812 -111.740588434586 2822.46037299201 13 16 9
152.194480482384 -110.895530800797 2828.21051686777 10 13 6
146.903020635539 -110.215868364812 2833.36456090662 10 13 6
129.479076783932 -112.005911415634 2829.6760333299 14 17 10
124.971065394385 -111.158035893213 2835.44414896616 16 19 12
74.1400110695176 -119.667167522345 2807.82511816435 13 15 10
56.495816215024 -121.428396033642 2804.35138215505 10 12 7
22.4611255062426 -126.455139670259 2789.29574128618 7 9 4
12.0307428416906 -126.725768524863 2791.19113269769 6 8 3
17.1681607681631 -123.893485962083 2804.09216312416 5 7 2
-3.13940889446673 -126.117622802893 2799.08054952503 6 8 3
-16.9207374300724 -127.031592622297 2798.73059012335 6 9 2
-15.0394043254978 -124.854906315272 2809.29354479718 9 12 5
9.24173756513813 -118.304512226093 2835.22631827265 15 18 11
6.26593982236079 -117.114966659309 2842.25658090148 16 19 12
-40.8016956557486 -124.49462392146 2819.23561532341 17 20 13
-33.8456786163053 -121.357998355959 2833.11992466141 18 21 14
-71.9765388024269 -126.931349403636 2816.54465385982 20 23 16
15.9332144656013 -106.530860205465 2893.4412477281 23 26 17
-23.9520529506421 -112.41565893482 2875.82000459483 24 27 18
-39.5253214412872 -113.635384891828 2874.46084004642 23 26 17
-58.527125408312 -115.488849021813 2870.93161517945 15 20 14
-62.3322774648098 -114.460507479996 2877.39201762669 16 21 15
142.170379432736 -154.10016497755 2650.41945756533 23 26 19
150.492401941805 -150.290139581485 2667.09850303101 19 22 15
186.744631685908 -140.302585134327 2706.14219327385 17 20 11
185.192772127242 -138.749849046648 2714.53860347125 19 22 13
182.105732668215 -137.542107649499 2721.67664143299 16 19 12
179.031085613369 -136.335781089738 2728.80258266653 14 17 8
231.466203984031 -123.000830232941 2779.62189495501 19 22 11
213.872217750922 -123.185602514251 2784.36709524843 15 18 7
184.181856254527 -127.782025076581 2770.60218293869 15 18 7
185.159366795432 -125.73887284786 2780.66547373992 17 20 11
175.880868306354 -125.904394485987 2782.81840165424 18 21 12
176.103921284983 -124.035083858056 2792.2400022047 18 21 12
162.835348983569 -125.043886787298 2791.39488457475 18 21 12
158.297982448356 -124.190305642232 2797.19130701608 16 19 10
153.765333836363 -123.33715710208 2802.98310842871 14 17 8
158.049540289159 -120.632538175973 2815.33334977336 14 17 8
162.381092313372 -117.933904357936 2827.63712302006 14 17 10
152.270851371852 -118.262433685152 2829.22350447459 12 15 8
118.737252615269 -123.448452369324 2813.69381267216 10 13 6
111.761119350489 -123.094306380038 2817.7347170303 10 13 6
117.751096198726 -120.065430106835 2831.17733453949 12 15 8
83.9717807109586 -125.219366627267 2815.88690135369 17 19 14
39.4666526661425 -132.521630407387 2793.14370792614 12 14 9
20.0915967183866 -134.642916836741 2788.60780249488 7 9 4
19.4785046204196 -132.935266206604 2797.46635358426 8 10 5
4.94114179567706 -134.050138899662 2796.4799314472 7 9 4
-17.039920626825 -136.649939421859 2790.35148734802 6 8 3
-28.3808441458628 -137.090156854927 2791.75887724642 6 8 3
17.6044816951428 -124.277021382391 2841.97483067564 8 10 5
-13.5784051164083 -128.677960536804 2829.6631257051 11 13 8
-47.3769044523915 -133.556512375203 2815.76828778814 17 20 13
-77.1359288124036 -137.597597942329 2804.82329878707 18 21 14
-45.9779265648956 -129.662681131137 2835.05856664156 23 26 19
-33.0831694704954 -125.349053748618 2852.79069986776 27 30 21
-22.6218765653319 -121.536532461391 2868.76229647398 24 27 18
-42.3912612379374 -123.605409665541 2864.61021923515 20 23 14
-88.3819071979772 -130.714532910304 2843.31362097062 17 20 11
-104.958320029271 -132.108345505599 2841.55907635107 16 21 15
-59.7079423369911 -121.643514259145 2880.09872511011 19 24 20
133.00879337777 -163.943826895801 2643.96767370304 20 23 16
128.185169169405 -163.053242701479 2650.04322305294 20 23 16
177.534705944164 -149.944863055876 2699.70864696836 19 22 15
203.887976651375 -142.10058991511 2730.4777534111 18 21 14
194.625768365435 -142.282804203357 2732.61697207928 16 19 12
204.836825521842 -138.117432479561 2750.20181466047 16 19 12
194.804264356309 -138.474198781599 2751.71489451968 13 16 7
223.927721748583 -130.162821482045 2783.91519263774 14 17 8
199.807905841167 -133.640747453364 2774.37203596869 15 18 9
203.156846507174 -131.05851923305 2786.25219004053 16 19 10
194.708213248234 -131.069962772314 2788.97552399764 16 19 10
183.87062299122 -131.596247905652 2789.89581729474 16 19 10
175.386653534444 -131.602750262891 2792.65351031412 18 21 12
164.502329223554 -132.122581918015 2793.6195952383 18 21 12
169.535095647186 -129.207759030517 2806.61234673018 16 19 10
166.628064749159 -128.012405770274 2813.57346449106 15 18 9
180.555841113968 -123.22633502981 2833.04378602437 15 18 9
135.958292481935 -130.920896781078 2809.03343975724 14 17 10
145.907790119267 -126.993186604096 2825.49623176254 12 15 8
121.235748179418 -130.39800010225 2816.49097555748 11 14 7
99.7066639910469 -133.110608398969 2809.93038333015 10 13 6
121.882527004765 -126.643652697541 2835.13190553198 11 14 7
114.120844503018 -126.467184814402 2838.56222332375 15 17 12
16.9060895198738 -143.015283097153 2787.3405151975 9 11 6
0.7329531728959 -144.497321337084 2785.19855077924 6 8 3
3.38122847502431 -142.096029073823 2796.38397101088 7 9 4
3.60204410260456 -140.204634372948 2805.80419142567 5 7 2
-18.4064655484928 -142.854253070587 2799.7103659348 6 8 3
15.6962088449828 -134.082941561935 2832.56622500194 6 8 3
-51.684782296411 -144.05080385469 2804.5928626864 10 12 7
-41.4699264960232 -140.155160523107 2820.79688957881 14 17 10
-19.5039307455098 -133.933768766124 2844.82619800144 16 19 12
-7.44097231504659 -129.727537791564 2861.98294557965 20 23 16
2.19071870461374 -126.030737391641 2877.37854330083 22 25 16
-41.0175595146991 -132.804642684167 2857.52053346702 20 23 14
-49.8858211024977 -132.757951921609 2860.65197233351 17 20 11
-79.0181198300131 -136.682728866391 2850.48435446879 16 19 10
-74.4313627066817 -133.981179550087 2862.53461221206 20 25 19
117.688816696606 -175.273524778942 2632.5149480112 14 16 11
115.141826562326 -173.842546584116 2640.50062402658 18 21 14
171.421048319683 -158.942237982917 2695.77345722508 19 22 15
190.775749381942 -152.577829921489 2720.95743496813 16 19 12
204.034396589631 -147.643141835792 2741.07058390928 17 20 13
201.793972895465 -146.250427914511 2748.75749036066 17 20 13
204.25952360201 -143.802041031399 2760.11739825263 13 16 7
199.712802460154 -142.942533598995 2765.92223405395 15 18 9
192.814459344913 -142.610664496597 2769.8895219998 17 20 11
207.169536953218 -137.539068935533 2790.31023595558 17 20 11
213.729069046149 -134.23237012751 2804.56312395562 15 18 9
181.573023869988 -139.508345524362 2789.0960438064 15 18 9
183.395774142098 -137.252744733941 2799.70550857269 16 19 10
182.868901016324 -135.525063710137 2808.47548246469 17 20 11
152.074327671187 -140.422042402576 2794.43424374906 16 19 10
164.307414013294 -135.906547278022 2812.79358984946 16 19 10
158.203020100141 -135.398368604888 2817.36332534107 17 20 11
164.140181385859 -132.287046110888 2830.84586612718 15 18 11
142.765334923454 -135.073379328476 2824.14301006902 15 18 11
136.644099236039 -134.562532020447 2828.72907526836 13 16 9
103.829265432479 -139.752126608696 2813.90307707706 11 14 7
151.147118084772 -127.846365795318 2857.26194614979 10 13 6
145.893653226318 -127.16981261978 2862.37872015083 11 13 8
93.3927013313749 -136.469700464496 2833.70063926763 16 18 13
27.6026642135454 -148.488676314477 2795.94879602775 16 18 13
9.81812951316119 -150.35167056283 2792.62912264952 3 5 0
5.10372335502618 -149.466938474189 2798.59708179966 6 8 3
4.50601381069937 -147.727688539296 2807.43568742244 5 7 2
21.2431825279182 -142.405494486754 2828.28806782312 6 8 5
30.6496195842558 -138.631340081728 2843.89557532957 7 9 4
-47.6622440607311 -152.913611927048 2799.07418543943 7 9 4
-45.7909065492732 -150.661009278066 2809.63618332478 8 10 5
-51.3724126581203 -149.940757279703 2815.07224846988 8 11 4
-11.0822778394244 -139.897546851214 2851.51492267044 8 11 4
11.8668991962223 -133.43627994908 2875.94937341886 15 18 11
8.1364613647219 -132.400284142922 2882.33479008127 17 20 11
-29.1782438833215 -138.115681938424 2866.38696912619 18 21 10
-64.9554093497455 -143.475044082738 2851.69388300263 18 21 10
-46.8747406808605 -138.04791175249 2872.61388541882 18 21 10
-77.731108170608 -142.379302032806 2861.38457195939 16 21 15
-106.1599005882 -146.192494693906 2851.9191169805 19 24 20
145.189429874129 -172.661001557251 2675.67083631676 16 19 12
171.459079584454 -164.583829958693 2706.48855735521 15 18 11
194.778192623145 -157.244853012984 2734.67699681797 17 20 13
194.8533674366 -155.300365334554 2744.23399359527 17 20 13
177.762169199289 -157.296287890487 2740.2458114476 14 17 8
155.912123363975 -160.356890571546 2732.63812513869 16 19 10
166.185001760931 -156.090043161952 2750.14658025208 17 20 11
169.450015394146 -153.436909496119 2762.09959531427 16 19 10
186.177315982398 -147.763891612468 2784.32683262158 13 16 7
182.440844068196 -146.725174400827 2790.71783899477 15 18 9
181.092481873394 -145.154986177145 2798.90959388352 16 19 10
170.222420382605 -145.713677794813 2799.86725910199 17 20 9
144.977803849664 -149.45406171165 2790.06326577569 16 19 8
130.823628468527 -150.707922287789 2788.71653734901 16 19 8
170.295139215638 -140.133370271942 2827.31049461729 17 20 11
144.946326318696 -143.859734049087 2817.60789765023 16 19 12
158.135921973405 -139.127434129914 2836.40228152717 16 19 12
134.301343940585 -142.489282935327 2827.97597043734 14 17 10
141.111706460969 -139.172073765993 2841.97788884616 12 15 8
135.009876232 -138.665604053408 2846.54533114509 11 14 7
128.905110973121 -138.158616911601 2851.11561149631 10 12 7
86.9549406205525 -145.338324011848 2830.06825928252 16 18 13
84.8414242293649 -143.946940276995 2837.62934150699 11 13 8
12.5691526840721 -155.608728107464 2804.84441348561 6 8 3
2.12067295216611 -155.939551306537 2806.76701009235 6 8 3
9.78395757057005 -152.451314674873 2821.3135957828 6 8 5
16.6843360014934 -149.14418390729 2835.22795448715 8 10 7
28.6126632517565 -144.806846369611 2852.49901532474 8 10 7
-88.8734820097103 -167.422599457731 2781.21048334966 9 11 6
-75.4186348887123 -162.722308706514 2799.74619954048 8 11 4
-41.8579121786018 -153.900496755791 2831.71585137972 7 10 3
6.93204760171762 -142.007025502197 2873.61437486216 12 15 6
-5.18852536433112 -142.680710498903 2874.413903115 15 18 9
-23.2177623649199 -144.550669894137 2871.3382521839 20 23 12
-35.4118937773018 -145.214668898102 2872.20939347585 20 23 12
-39.199490171109 -144.165113455899 2878.6495653273 18 21 12
-75.9568138190776 -149.774242283172 2863.54945901436 17 22 16
-120.484076888116 -156.898993552477 2843.63616619893 17 22 18
172.414555639031 -175.940181975973 2688.79704687877 14 16 11
157.647930659294 -177.429808446402 2686.67642673566 16 19 12
133.526997671387 -181.102144788444 2677.16345095393 15 18 11
150.528809417163 -175.107812748204 2700.4878516915 17 20 13
178.558488805758 -166.581061869242 2732.32520825553 13 16 9
138.762333257489 -173.880192375976 2710.57378538592 14 17 8
145.021227355612 -170.453923251388 2725.10720107649 15 18 9
159.97911536891 -165.042208440709 2746.29629307209 15 18 9
180.550545410967 -158.376966716671 2771.64482502739 14 17 8
189.411227321625 -154.438024696536 2787.7699199237 13 16 7
192.012854256963 -151.951212560971 2798.98936071536 15 18 9
181.169307051253 -152.532118454338 2799.92364227505 16 19 10
168.709374015425 -153.46921520461 2799.68218291827 17 20 9
148.244163666032 -156.198330527505 2793.48449729087 16 19 8
141.289544058953 -155.867845352217 2797.50753532686 16 19 8
128.721417508119 -156.790359089575 2797.37135836693 17 20 9
122.542235434831 -156.277073351358 2802.01426694314 16 19 12
106.701871330785 -157.907103512262 2799.56372790967 15 18 11
163.424432684882 -143.473383303349 2850.21421410031 14 17 10
154.938186461575 -143.509350115247 2852.97818497405 13 16 9
139.141395277697 -145.144370395762 2850.48545276622 13 16 9
91.6022999004742 -153.701711805821 2825.27255856274 11 13 8
92.7364080381818 -151.588270536581 2835.16995694592 11 13 8
80.8384764095442 -152.313330440159 2835.75599224827 19 21 16
10.4260733828818 -161.873548415938 2813.56677357271 9 11 6
-12.3893602317486 -164.862070895517 2806.90707817741 7 9 6
5.19894901797624 -159.220375451936 2828.28428844079 11 13 10
-2.77572130532544 -159.038212136154 2831.92526450545 13 15 12
-29.0228612999344 -162.713526582835 2823.10683671534 13 15 10
-32.0693770072982 -161.471856485349 2830.19961934554 12 15 8
-29.2656500146946 -159.007339660907 2841.221329188 8 11 4
-29.765773857275 -157.246440652447 2849.95983104274 10 13 4
-31.0794359888931 -155.662949313057 2858.11549990309 12 15 6
-37.4116468711647 -155.126995896623 2862.90701807586 19 22 11
-41.2214057666773 -154.068779120698 2869.36791747778 20 23 12
-44.1789368398391 -152.837914168476 2876.37393404653 19 22 11
-80.9465818321233 -158.544925688142 2861.29888184226 17 22 16
-114.466712267897 -163.540820973472 2848.56153427828 17 22 18
169.405092537278 -184.297694226772 2687.35274977476 15 18 11
143.799038201274 -188.413579626374 2676.54592132539 16 19 12
152.222160750214 -184.371239796101 2693.09023698502 16 19 12
158.383383146823 -180.892291735575 2707.71319403731 16 19 12
149.000531341169 -179.118688772269 2719.60218547639 15 18 9
142.749340406305 -178.600598708499 2724.31622768141 16 19 10
195.400234162046 -164.291942391254 2774.77735858095 16 19 10
210.5470212091 -158.833691495271 2795.7719930305 16 19 10
202.906201701237 -158.705925121973 2799.08949014455 16 19 10
181.012128874649 -161.872664458576 2791.54121024015 16 19 10
184.419235589825 -159.177000836348 2803.34683886245 18 21 10
177.53314142171 -158.860800646602 2807.30394143918 17 20 9
161.075385400336 -160.731826300018 2804.08519141717 16 19 8
146.161997412217 -162.231565584321 2802.11180378041 17 19 8
126.397255106313 -164.816310231623 2796.61445226791 16 19 8
107.366135266734 -167.210434164878 2791.77700061885 16 19 10
116.439367398955 -163.24811804403 2807.6879131632 15 18 11
161.888196435961 -151.144592499421 2850.03936429681 14 17 10
192.216793584397 -142.508985387688 2880.99468195513 14 17 10
119.310334225138 -155.063554488936 2846.13764585453 12 15 8
86.2997748075274 -160.501351293824 2831.54302811255 9 11 6
55.6074260126955 -165.382471861129 2818.81484440106 13 15 10
67.353777722984 -160.908175484867 2836.24670502541 21 23 18
39.805031738978 -165.053741630014 2825.95613774228 10 12 7
2.28526830971054 -171.335022161833 2808.87900833804 10 12 7
-26.3184759854243 -175.629325168417 2798.24114389905 7 9 4
-29.4182565822898 -174.372625580732 2805.38459799983 9 11 6
-17.5994790261713 -169.906945360201 2822.74547431068 14 16 11
-17.3188537799658 -167.945235314631 2832.09624815479 15 17 12
-36.978204961041 -170.25573804312 2827.87028033726 13 16 9
-14.1719503132567 -163.499607900637 2852.40341231346 12 15 8
-40.5490987999371 -167.224695734454 2843.72144136274 10 13 4
-54.4551145038725 -168.280629397101 2843.51628035645 10 13 4
-62.5207540107224 -168.093572994444 2847.24686696905 16 19 10
-57.9718888520318 -165.255878990727 2859.31462986801 19 22 11
-67.7170624365036 -165.422348465763 2861.93111314066 21 24 15
-69.8708113543822 -164.001376492042 2869.52777373009 18 23 17
169.483011302809 -191.922751376938 2688.40235540552 23 26 19
157.030792336225 -192.911447050041 2688.16052432021 19 22 13
144.544216816502 -193.895516689584 2687.95212607432 20 23 14
175.568801605003 -184.371011212691 2722.33634256443 15 18 11
178.713400960571 -181.613331861623 2734.39314113577 14 17 10
184.246054711011 -178.299774467725 2748.24747365424 14 20 10
198.451755291958 -172.938030283926 2768.77397520865 15 21 11
239.458142679334 -161.24530550744 2809.92957763296 18 21 12
212.985163732042 -165.605418955043 2798.60246777722 17 20 11
197.457976229204 -167.346855524504 2795.85774340967 15 18 9
173.177423788183 -171.125721299603 2786.51867926618 13 15 4
171.012706484101 -169.696496718236 2794.12501189344 13 15 4
176.020278795418 -166.601281646782 2807.11611962528 15 17 6
167.529553424438 -166.658618490099 2809.88803468218 17 17 7
168.611972688938 -164.496024851246 2819.82983402379 18 18 8
147.300398285009 -167.505216920852 2813.09708631723 18 20 9
136.349035033246 -168.108265997335 2814.14170355726 16 19 8
139.053236889227 -165.578484317159 2825.25259721447 15 18 9
149.057857843619 -161.399307170322 2841.62348424272 15 18 9
167.224069631196 -155.393906708417 2863.78998261789 14 17 8
158.752889765474 -155.452351290228 2866.5426524224 14 17 8
108.013400842153 -165.028081694322 2838.99033865641 13 16 7
109.18611768448 -162.875620116658 2848.84363084062 12 15 6
80.998657614761 -167.299369720807 2837.81186000456 15 18 11
45.3377290793582 -173.349919536577 2821.68825896647 20 23 16
25.9410079279769 -175.740542145943 2817.21367517247 17 20 13
-10.7882701279283 -181.940664904102 2800.75649634118 3 6 0
-43.5429942426335 -187.213951731146 2787.30042517631 9 12 5
-45.0313113114684 -185.580831913064 2795.62185606173 10 13 6
-24.1408019845242 -179.061529417592 2819.25819800681 15 18 11
-26.3661189007602 -177.620950256156 2826.92302874279 16 19 12
-11.9357998669485 -172.571221376947 2845.85534941908 13 16 9
-29.9332439159237 -174.565439254005 2842.76683080838 12 15 8
-31.2714342595211 -172.951097872988 2850.94195908115 11 14 7
-66.0998633493666 -178.531445911928 2836.75667248917 9 12 5
-70.8336760776835 -177.630293409178 2842.74113787836 12 15 8
-62.9379615391668 -174.040032981235 2857.04217599166 21 24 15
-43.169399072363 -167.951094631655 2879.02207890967 18 21 14
-91.769856454337 -176.360320258671 2856.25848857839 14 16 11
-110.05898080844 -178.316103033607 2853.45359428921 23 25 22
179.59363296986 -197.063564920869 2697.54334112271 25 28 21
164.072482591721 -198.842693497704 2694.79785482132 23 26 19
158.584530255212 -198.138319030087 2700.14336637961 24 27 20
177.979274366946 -191.345081148266 2725.22419992241 19 22 15
181.909231783903 -188.368095378951 2737.88596009593 19 22 15
194.482587720874 -183.30945185265 2757.24404567967 15 21 11
214.196866246341 -176.556420945543 2782.01385724134 16 22 12
219.114688966024 -173.415424232924 2795.08732113784 18 21 12
216.998219427426 -171.981962504387 2802.64511677225 17 20 11
176.225509659831 -179.800256106155 2780.52291159756 16 19 10
148.728852862416 -184.390877261418 2768.82982644253 14 16 5
167.91818884903 -177.859495403715 2792.73642617835 14 16 5
172.122773707168 -174.915803988416 2805.13039813402 16 18 7
172.389663599038 -172.916909080562 2814.48897763963 16 18 7
167.890832155096 -172.04650011011 2820.24464702042 19 19 9
160.193146432226 -171.925584685339 2823.61962569381 18 20 9
146.864913868527 -173.11214654336 2822.8600242783 17 20 9
152.813444076493 -169.811167096147 2836.30358218369 16 19 10
171.724522563806 -163.532870223202 2859.10699226221 15 18 9
156.789217050335 -165.092707224208 2857.16425146841 15 18 9
145.861269244778 -165.716352906769 2858.18899883559 15 18 9
112.15573813556 -171.537933841537 2842.92397422403 13 16 7
88.0891718114025 -175.115684990571 2834.75994120901 12 15 6
100.673244268008 -170.344905088582 2852.73302193057 13 16 9
38.8726429182045 -182.421385973967 2818.11299364805 15 18 11
7.15643543521916 -187.626974722925 2805.03256368713 15 18 11
-15.6381574410385 -190.786817874779 2798.37783209308 7 10 3
-45.9309163058981 -195.59444952659 2786.6592352042 6 9 2
-41.6423401407013 -192.658591461771 2798.97062247412 7 10 3
-44.758520611742 -191.382487574378 2806.12749394537 11 14 7
-27.9422403619729 -185.703655889018 2826.84894238036 13 16 9
-27.6591600629508 -183.70352926937 2836.19126252586 15 18 11
-8.16906601912271 -177.497754756891 2858.43042037055 16 19 12
-27.0087735209295 -179.713835079783 2854.79382583235 15 18 11
-45.9094538529161 -181.921874995653 2851.21658984721 15 18 11
-55.6346625621091 -182.117086041727 2853.81783353721 15 18 11
-50.2293518967059 -179.033711956809 2866.41573129643 16 19 12
-86.1065768832923 -184.862839751543 2851.89143691351 17 20 13
-100.98522998448 -186.136377215442 2851.26703380801 16 18 15
-107.431208696509 -185.591903023689 2856.17060359265 22 24 21
190.475376242834 -201.939509407977 2707.29635347273 27 29 24
183.492100871728 -201.628778115805 2711.3507667213 24 27 20
192.01373404545 -197.452303134747 2727.77777259956 26 29 22
157.063847432464 -204.091291494892 2709.61815806353 20 23 16
178.089791913703 -196.834868797676 2735.84522133183 20 23 16
199.248627019132 -189.595274490515 2761.94247163252 19 22 15
210.356615881543 -184.871484639506 2779.97102313295 18 21 12
216.050007178814 -181.501809690605 2793.65778458315 16 19 10
192.669745311365 -185.232774164086 2784.83488595962 15 18 9
169.990012959458 -188.760644464625 2776.70324325908 16 19 10
159.092846070323 -189.408957082124 2777.70107048343 18 19 11
138.6520770474 -192.345347926472 2771.50974948908 18 19 11
183.331368145563 -179.632813061301 2814.53535186022 17 19 8
186.016349268319 -177.046740279307 2825.65701218938 17 19 8
172.762579726361 -178.269991951047 2824.82889063096 16 18 7
159.470796886748 -179.488127114067 2824.0377606213 16 18 7
146.943788059702 -180.51138508145 2823.87530526502 17 20 9
157.720386173493 -176.03542666112 2840.85265273719 17 20 11
158.08872697116 -174.029196435597 2850.10974367886 16 19 10
162.528000988428 -171.081613470926 2862.26975281888 16 19 10
140.266006826146 -174.367626948629 2855.10479074766 15 18 9
121.173342217107 -176.889161773991 2850.34762308068 14 17 8
98.7577072299399 -180.154967782984 2843.33190412275 12 15 6
70.5469154650125 -184.725881204033 2832.3450527528 11 14 7
45.5015236752772 -188.53189600232 2823.76949800276 13 16 9
7.23971444152482 -195.32520978877 2806.08766218354 13 16 9
-38.5761002067579 -203.783302425078 2783.39992161119 8 11 4
-6.28686168932102 -194.455376561289 2815.14012547471 9 12 5
-29.1661301405135 -197.660123130441 2808.57611468377 9 12 5
-36.1577053976956 -195.286097635683 2822.25319460987 10 13 6
-23.4157842640368 -190.474819951322 2840.06320586514 11 14 7
-27.264104458415 -189.388655615394 2846.55826656972 12 15 8
-7.70226046103817 -183.110696766142 2868.71550683642 15 18 11
-24.8823912438083 -184.9968289749 2866.21631837342 15 18 11
-40.4366236679183 -186.506060908789 2864.88070174449 14 17 10
-40.0463232834212 -184.499932403008 2874.11566368396 15 18 11
-79.2731904086335 -191.166543473437 2857.37341801104 18 21 14
-100.053900636729 -193.760636071194 2852.88631928704 13 15 12
-87.0081928207331 -188.987832431593 2870.40035232297 24 26 23
192.86822124624 -208.899517388281 2710.19997494666 26 28 23
181.24929198354 -209.771733479035 2710.53036855343 25 28 21
168.048899121344 -211.031581839992 2709.65465213763 26 29 22
171.915568866383 -207.981339163119 2722.36843056598 22 25 18
188.300996372142 -201.81004066938 2744.86184508346 21 24 17
185.260840846166 -200.532067944051 2751.94260860498 19 22 15
180.003557046657 -197.785296419284 2766.67657625304 16 19 10
166.768751920729 -199.039066987228 2765.83413342869 15 18 9
180.327825614647 -193.685732225592 2785.58674079003 14 17 8
167.873988408739 -194.743777624748 2785.35676649951 16 17 9
145.076100927976 -198.314954825624 2777.34885432954 16 17 9
171.484333968055 -189.882583467701 2806.55955238586 17 19 8
171.74917152822 -187.844923187133 2815.91444038204 17 19 8
167.24866869687 -186.9682002382 2821.67083627197 18 20 9
168.35865597536 -184.743141799633 2831.57569005605 18 20 9
165.48684465804 -183.484075305949 2838.49241746456 17 20 9
163.43231142127 -182.034198482612 2845.98662113382 17 20 11
150.907366955011 -183.081245257239 2845.82563181209 16 19 10
145.625860136102 -182.39862128748 2850.96935463367 16 19 10
148.450611945523 -179.801745847041 2861.95062397659 15 18 9
131.002835740202 -181.989020618526 2858.34447295425 15 18 9
87.4363774005018 -190.277964528794 2836.23224468547 15 18 9
79.6083287726197 -190.154000712077 2839.73622509966 14 17 10
53.7668411012246 -194.217578860639 2830.57236376153 15 18 11
12.2448338296524 -201.881617660763 2810.58867045234 14 17 10
-17.1142012613199 -206.674827781525 2799.35764987474 9 12 5
-18.5646137316824 -205.0049264556 2807.63634248473 8 11 4
3.1347883614754 -198.034044778636 2831.81960806724 8 11 4
16.683156954862 -192.97129823775 2850.20888524606 9 12 5
-7.85539945768132 -196.609814458136 2842.52252641711 10 13 6
-44.9602584029014 -203.0666489933 2826.47590900756 12 15 8
-30.515061864187 -197.823150131625 2845.36515482475 13 16 9
-13.4690315061921 -192.027291730123 2865.84082366641 12 15 8
-17.2595364457511 -190.942594458394 2872.27835195773 13 16 9
-28.5977689603945 -191.547746167941 2873.70778470502 13 16 9
-35.7542665277411 -191.212330515371 2877.93089965946 15 18 11
-48.8222207386961 -192.186057355425 2878.29829038707 23 26 19
-106.731319566093 -203.060892445379 2849.55538075706 29 31 28
-105.564395947157 -200.839280254635 2859.40454310931 19 21 18
185.22971171628 -218.431065399177 2705.02377975806 20 22 19
161.987992938859 -222.305305421811 2696.08448186168 21 23 18
172.00551288932 -217.626772139742 2713.78566469517 25 27 22
208.535878156288 -206.213123731982 2752.34204834565 23 26 19
200.849782264747 -206.119704126497 2755.70958201528 24 27 20
165.862045137776 -210.868461499656 2747.22755703481 21 24 17
165.947166356838 -208.789923751335 2756.75486434251 18 21 14
171.570706701476 -205.334858920874 2770.49803039207 17 20 13
188.297700469625 -199.130314620308 2792.64735084598 14 17 8
189.312299861845 -196.872208636385 2802.64204179845 15 18 9
175.291213398369 -198.349103693817 2801.19645635004 16 17 9
150.893466189926 -202.36995851474 2792.00987206034 16 17 9
153.498544907264 -199.718883303079 2803.20126932854 17 19 8
161.735370865456 -195.703370829677 2818.51763601067 17 19 8
177.246365901847 -189.937855093778 2839.10519293367 17 19 8
168.776721994096 -190.038980346976 2841.8626456938 17 20 9
156.268792322657 -191.112319841288 2841.68864648178 17 20 11
150.179995977453 -190.624048754886 2846.24583569047 16 19 10
149.747951026254 -188.774656446117 2854.90331708654 15 18 9
146.098210650992 -187.70459247448 2861.20356472199 15 18 9
133.519990699762 -188.768038807695 2861.097902592 16 19 10
111.135100225152 -192.150246209841 2854.06919579568 17 20 11
104.996271677869 -191.654488392859 2858.67496118513 18 21 14
102.945708913729 -190.192656650387 2866.16311734255 17 20 13
54.1595384510227 -199.725927251435 2840.91591972461 15 18 11
5.16874610607632 -209.232517480521 2815.86797131329 9 12 5
-2.82219108721948 -209.094417089614 2819.53161310138 7 10 3
-1.73759879099045 -206.841537724968 2829.45757255752 10 13 6
9.31463313902015 -202.29037994984 2846.15009714376 11 14 7
-54.2458882134817 -214.993804836546 2811.9534481722 13 16 9
-27.4061891228672 -206.804261070393 2839.35433671441 16 19 12
-29.5967135245667 -205.3229863904 2846.97860318926 16 19 12
