ply
format ascii 1.0
comment KinectMotionCapture
element vertex 759
property float x
property float y
property float z
property uchar red
property uchar green
property uchar blue
end_header
-169.270187616348 470.84566950798 2665.99988937378 206 208 205
-160.739526152611 467.148631811142 2644.99998092651 191 191 189
-152.903124690056 465.217113494873 2634.0000629425 184 184 182
-145.624041557312 464.874565601349 2631.99996948242 168 169 164
-138.618424534798 465.414732694626 2634.99999046326 166 167 162
-131.595999002457 465.9543633461 2638.00001144409 163 164 159
-124.603971838951 466.670155525208 2641.99995994568 161 162 157
-117.634207010269 467.562198638916 2647.0000743866 158 160 157
-110.845416784286 469.336897134781 2657.00006484985 153 155 152
-104.079782962799 471.464395523071 2668.99991035461 151 153 150
-97.357302904129 474.121421575546 2684.00001525879 144 146 143
-90.3850495815277 475.894778966904 2694.00000572205 137 139 134
-83.2655653357506 477.137684822083 2700.99997520447 132 134 129
-77.2880613803864 485.799551010132 2750 216 218 213
-69.0890699625015 480.858564376831 2721.99988365173 205 207 202
-61.0423274338245 475.916892290115 2694.00000572205 158 161 154
-53.4469150006771 473.624587059021 2680.99999427795 152 155 148
-45.9393337368965 471.508324146271 2668.99991035461 149 152 145
-38.395531475544 468.154817819595 2650.00009536743 148 149 144
-30.990382656455 465.33077955246 2634.0000629425 154 155 150
-23.7626973539591 464.272826910019 2628.00002098084 155 156 151
-16.6244823485613 464.804321527481 2631.00004196167 152 153 148
-9.44829545915127 464.275240898132 2628.00002098084 155 156 151
-2.28667538613081 463.392347097397 2622.99990653992 160 161 156
4.83290432021022 461.095601320267 2609.99989509583 162 163 158
11.8999583646655 459.505051374435 2601.0000705719 173 174 169
18.9179498702288 457.913875579834 2592.00000762939 177 178 173
25.9369667619467 457.20562338829 2588.00005912781 177 178 173
32.9341068863869 456.496804952621 2584.00011062622 176 177 172
39.893876761198 455.610752105713 2578.9999961853 173 174 168
46.8262806534767 454.724311828613 2573.99988174438 169 170 164
53.8567826151848 454.897254705429 2575.00004768372 164 165 159
60.9161853790283 455.246329307556 2576.99990272522 157 158 152
67.9599195718765 455.418318510056 2578.00006866455 157 158 152
74.921615421772 455.059736967087 2575.99997520447 156 157 151
81.8085446953774 454.347401857376 2572.00002670288 158 159 153
88.777020573616 454.164564609528 2571.00009918213 160 161 155
95.8142504096031 454.334408044815 2572.00002670288 160 161 155
102.936550974846 454.857140779495 2575.00004768372 160 161 155
109.989449381828 455.026030540466 2575.99997520447 161 162 156
116.865761578083 454.487890005112 2572.99995422363 161 162 157
123.725324869156 453.949242830276 2569.9999332428 162 163 158
130.720764398575 453.940063714981 2569.9999332428 164 165 160
137.983679771423 454.813480377197 2575.00004768372 168 169 164
145.048141479492 454.979956150055 2575.99997520447 171 171 169
152.294650673866 455.675721168518 2579.99992370605 169 171 168
159.438952803612 456.017792224884 2582.00001716614 171 173 170
167.044907808304 457.595646381378 2591.00008010864 174 176 173
174.430519342422 458.466470241547 2595.99995613098 177 179 176
182.052507996559 459.866583347321 2604.00009155273 177 179 176
189.5722001791 460.912942886353 2609.99989509583 167 169 168
197.2746104002 462.312072515488 2618.00003051758 158 163 159
204.629570245743 462.827622890472 2621.00005149841 155 160 156
212.404161691666 464.225620031357 2628.99994850159 162 164 161
220.38859128952 465.97620844841 2638.99993896484 171 171 169
228.857904672623 468.609035015106 2654.00004386902 155 155 153
237.05230653286 470.535039901733 2664.99996185303 154 154 152
246.314108371735 474.402546882629 2687.00003623962 151 151 149
293.47425699234 479.764342308044 2717.99993515015 205 210 206
299.861550331116 478.155821561813 2709.00011062622 113 115 112
306.312441825867 476.723402738571 2700.99997520447 115 115 113
312.254458665848 474.58478808403 2688.99989128113 140 140 138
318.487048149109 472.975462675095 2680.0000667572 149 148 146
324.061930179596 470.48345208168 2665.99988937378 150 149 147
330.305576324463 469.050168991089 2657.99999237061 140 139 137
336.250960826874 467.263758182526 2648.00000190735 143 142 140
343.048870563507 466.712266206741 2644.99998092651 161 161 159
349.829614162445 466.160446405411 2641.99995994568 165 165 163
357.133656740189 466.314136981964 2642.99988746643 166 168 165
364.717811346054 466.820329427719 2645.99990844727 174 176 173
373.301148414612 468.56102347374 2655.99989891052 181 183 180
386.808693408966 476.299107074738 2700.00004768372 197 199 196
-169.726729393005 464.837521314621 2673.00009727478 205 207 204
-160.994112491608 460.675597190857 2648.9999294281 190 190 188
-153.088226914406 458.599865436554 2637.00008392334 183 183 181
-145.689830183983 457.914888858795 2632.99989700317 167 168 163
-138.680979609489 458.446770906448 2635.99991798401 164 165 160
-131.605476140976 458.804309368134 2638.00001144409 163 164 159
-124.66012686491 459.68309044838 2642.99988746643 161 162 157
-117.642715573311 460.38755774498 2647.0000743866 159 161 158
-110.770002007484 461.787194013596 2654.99997138977 154 156 153
-104.009337723255 463.882178068161 2667.00005531311 152 154 151
-97.3280966281891 466.672420501709 2683.00008773804 144 146 143
-90.4587209224701 468.940377235413 2696.00009918213 136 138 133
-83.333283662796 470.164269208908 2703.00006866455 131 133 128
-77.0688578486443 476.953893899918 2742.00010299683 210 212 207
-68.7133595347404 470.871031284332 2707.00001716614 206 208 203
-60.8881711959839 467.396855354309 2687.00003623962 139 142 135
-53.2913319766521 464.965730905533 2673.00009727478 147 150 143
-45.8394102752209 463.229835033417 2663.00010681152 145 148 141
-38.4418144822121 461.493402719498 2653.00011634827 149 150 145
-31.0632511973381 459.234565496445 2640.00010490417 156 157 152
-23.8096509128809 458.018839359283 2632.99989700317 155 156 151
-16.6320186108351 457.846403121948 2631.99996948242 153 154 149
-9.44898836314678 457.151561975479 2628.00002098084 155 156 151
-2.28422717191279 455.760270357132 2619.99988555908 159 160 155
4.82770381495357 453.498870134354 2607.00011253357 164 165 160
11.8871042504907 451.932609081268 2598.00004959106 174 175 170
18.9193356782198 450.887739658356 2592.00000762939 176 177 172
25.9589105844498 450.538247823715 2589.99991416931 176 177 172
32.9620093107224 449.840277433395 2585.99996566772 174 175 170
39.9277396500111 448.967903852463 2581.00008964539 172 173 167
46.8842834234238 448.268920183182 2576.99990272522 166 167 161
53.965300321579 448.787063360214 2579.99992370605 162 163 157
61.0152073204517 448.956906795502 2581.00008964539 156 157 151
68.0176019668579 448.778241872787 2579.99992370605 156 157 151
74.9561563134193 448.251157999039 2576.99990272522 157 158 152
81.878125667572 447.723686695099 2573.99988174438 158 159 153
88.8179987668991 447.369605302811 2572.00002670288 161 162 156
95.8957076072693 447.710812091827 2573.99988174438 160 161 155
102.983988821507 448.051482439041 2575.99997520447 159 160 154
110.082820057869 448.391705751419 2578.00006866455 159 160 154
116.874203085899 447.51387834549 2572.99995422363 161 162 157
123.73424321413 446.983426809311 2569.9999332428 162 163 158
130.679294466972 446.800380945206 2569.00000572205 163 164 159
137.832820415497 447.312533855438 2572.00002670288 168 169 164
145.058527588844 447.998076677322 2575.99997520447 171 171 169
152.364581823349 448.857098817825 2581.00008964539 167 169 166
159.51207280159 449.193745851517 2582.99994468689 173 175 172
167.056769132614 450.57338476181 2591.00008010864 177 179 176
174.510091543198 451.604694128037 2596.99988365173 175 177 174
182.205229997635 453.157156705856 2605.99994659424 175 177 174
189.803496003151 454.361259937286 2612.99991607666 171 173 172
197.514578700066 455.73878288269 2621.00005149841 157 159 156
204.87816631794 456.246316432953 2624.00007247925 156 158 155
212.25742995739 456.753373146057 2627.00009346008 158 160 157
220.23694217205 458.477050065994 2637.00008392334 168 168 166
228.78760099411 461.243242025375 2653.00011634827 154 154 152
237.068712711334 463.313341140747 2664.99996185303 148 148 146
246.056094765663 466.599881649017 2684.00001525879 143 143 141
297.489374876022 478.830933570862 2755.00011444092 214 219 215
299.992352724075 470.989912748337 2710.00003814697 167 169 166
305.99257349968 468.884199857712 2697.99995422363 132 132 130
311.810702085495 466.604501008987 2684.99994277954 152 152 150
318.032681941986 465.019762516022 2676.00011825562 148 147 145
323.961734771729 463.087230920792 2664.99996185303 139 138 136
330.202907323837 461.675822734833 2657.00006484985 156 155 153
336.145788431168 459.916561841965 2647.0000743866 159 158 156
342.811644077301 459.199696779251 2642.99988746643 155 155 153
349.719732999802 458.829998970032 2641.00003242493 159 159 157
357.156455516815 459.154784679413 2642.99988746643 165 167 164
365.01669883728 460.000514984131 2648.00000190735 173 175 172
373.18417429924 461.193174123764 2654.99997138977 180 182 179
386.689692735672 468.812257051468 2698.99988174438 197 199 196
-169.802218675613 457.762897014618 2674.00002479553 205 207 204
-161.248624324799 454.179495573044 2653.00011634827 191 191 189
-153.157144784927 451.622635126114 2638.00001144409 184 184 182
-145.755529403687 450.948417186737 2634.0000629425 165 166 161
-138.743504881859 451.472103595734 2637.00008392334 161 162 157
-131.664767861366 451.824098825455 2638.99993896484 161 162 157
-124.621883034706 452.346831560135 2641.99995994568 161 162 157
-117.517791688442 452.697902917862 2644.00005340576 160 162 159
-110.652774572372 454.075813293457 2651.99995040894 156 158 155
-103.8998067379 456.138104200363 2664.00003433228 154 156 153
-97.2988307476044 459.227383136749 2681.99992179871 144 146 143
-90.4988050460815 461.802542209625 2697.00002670288 136 138 133
-83.5551247000694 464.034736156464 2710.00003814697 130 132 127
-77.0182013511658 469.177424907684 2740.00000953674 215 217 212
-68.5914009809494 462.675809860229 2701.99990272522 207 209 204
-60.8472563326359 459.769487380981 2684.99994277954 147 150 143
-53.2951913774014 457.718759775162 2673.00009727478 148 151 144
-45.8771660923958 456.352412700653 2664.99996185303 141 144 137
-38.4735837578774 454.643040895462 2654.99997138977 145 146 141
-31.100807711482 452.590644359589 2642.99988746643 156 157 152
-23.8385125994682 451.393961906433 2635.99991798401 155 156 151
-16.6458673775196 451.052963733673 2634.0000629425 156 157 152
-9.44967567920685 450.026482343674 2628.00002098084 157 158 153
-2.28439341299236 448.656916618347 2619.99988555908 160 161 156
4.82805445790291 446.430712938309 2607.00011253357 167 168 163
11.8971187621355 445.231318473816 2599.99990463257 176 177 172
18.9134124666452 443.689078092575 2591.00008010864 176 177 172
25.9407497942448 443.173766136169 2588.00005912781 176 177 172
32.9389087855816 442.486643791199 2584.00011062622 173 174 169
39.961576461792 442.312717437744 2582.99994468689 167 168 162
46.9604656100273 441.967099905014 2581.00008964539 160 161 155
53.9901368319988 441.963493824005 2581.00008964539 158 159 153
60.9959699213505 441.788077354431 2579.99992370605 156 157 151
68.0225268006325 441.783457994461 2579.99992370605 154 155 149
74.9615803360939 441.264629364014 2576.99990272522 155 156 150
81.9158405065537 440.916508436203 2575.00004768372 157 158 152
88.8589397072792 440.567970275879 2572.99995422363 160 161 155
95.9771201014519 441.074967384338 2575.99997520447 159 160 154
103.071354329586 441.410332918167 2578.00006866455 158 159 153
110.090702772141 441.402673721313 2578.00006866455 158 159 153
116.927996277809 440.709710121155 2573.99988174438 161 162 157
123.839393258095 440.358728170395 2572.00002670288 161 162 157
130.739495158195 440.007239580154 2569.9999332428 162 163 158
137.842640280724 440.340131521225 2572.00002670288 168 169 164
145.012527704239 440.843760967255 2575.00004768372 172 172 170
152.493447065353 442.202836275101 2582.99994468689 169 171 168
159.708619117737 442.705452442169 2585.99996566772 175 177 174
167.262017726898 444.063484668732 2594.00010108948 179 181 178
174.589559435844 444.736242294312 2598.00004959106 176 178 175
182.427778840065 446.60672545433 2608.99996757507 175 177 174
189.962059259415 447.620838880539 2615.00000953674 170 172 171
197.528347373009 448.634386062622 2621.00005149841 166 168 165
204.970479011536 449.305057525635 2625 158 160 157
212.433725595474 449.975281953812 2628.99994850159 161 163 160
220.419198274612 451.671928167343 2638.99993896484 162 162 160
228.889614343643 454.223811626434 2654.00004386902 170 169 167
237.351879477501 456.603825092316 2667.99998283386 155 154 152
246.347963809967 459.83898639679 2687.00003623962 142 142 140
300.122946500778 463.817328214645 2710.99996566772 191 193 190
305.445730686188 460.71782708168 2693.00007820129 143 143 141
311.250537633896 458.473592996597 2680.0000667572 151 151 149
317.459225654602 456.913441419601 2671.0000038147 133 132 130
323.37498664856 455.010920763016 2660.00008583069 152 151 149
329.975754022598 454.134523868561 2654.99997138977 159 158 156
336.167514324188 452.744752168655 2647.0000743866 158 157 155
343.222796916962 452.551901340485 2645.99990844727 150 150 148
350.13934969902 452.187806367874 2644.00005340576 151 151 149
357.854872941971 452.849447727203 2648.00000190735 164 166 163
365.453273057938 453.339695930481 2651.00002288818 172 174 171
373.910427093506 454.855591058731 2660.00008583069 180 182 179
385.710835456848 460.303723812103 2691.99991226196 197 199 196
-170.004621148109 451.018482446671 2677.00004577637 204 206 203
-161.138355731964 446.649521589279 2651.00002288818 192 192 190
-153.051778674126 444.133162498474 2635.99991798401 185 185 183
-145.599767565727 443.301171064377 2631.00004196167 165 166 161
-138.595417141914 443.816632032394 2634.0000629425 161 162 157
-131.474494934082 443.994611501694 2634.99999046326 161 162 157
-124.536372721195 444.8461830616 2640.00010490417 161 162 157
-117.526143789291 445.528745651245 2644.00005340576 158 160 157
-110.61891913414 446.716338396072 2651.00002288818 154 156 153
-103.868208825588 448.746055364609 2663.00010681152 152 154 151
-97.3057597875595 451.954931020737 2681.99992179871 142 144 141
-90.6394943594933 455.163389444351 2700.99997520447 133 135 130
-83.8694423437119 458.371460437775 2720.00002861023 127 129 124
-76.7144933342934 459.893822669983 2729.00009155273 208 210 205
-68.5709267854691 455.180376768112 2700.99997520447 180 182 177
-60.8516149222851 452.488631010056 2684.99994277954 143 146 139
-53.3189587295055 450.638949871063 2674.00002479553 163 166 159
-45.8976738154888 449.294239282608 2665.99988937378 150 153 146
-38.4908393025398 447.61198759079 2655.99989891052 142 143 138
-31.126581132412 445.760667324066 2644.99998092651 156 157 152
-23.8583143800497 444.582939147949 2638.00001144409 155 156 151
-16.6533831506968 444.078803062439 2634.99999046326 157 158 153
-9.44675970822573 442.731499671936 2627.00009346008 158 159 154
-2.28106998838484 440.878033638 2615.9999370575 160 161 156
4.82654990628362 439.192622900009 2605.99994659424 167 168 163
11.9025530293584 438.349425792694 2601.0000705719 175 176 171
18.929373472929 437.000066041946 2592.99993515015 175 176 171
25.932589545846 435.987263917923 2586.99989318848 175 176 171
32.9030342400074 434.973984956741 2581.00008964539 172 173 168
39.9489812552929 435.139924287796 2582.00001716614 164 165 159
46.9456352293491 434.799700975418 2579.99992370605 158 159 153
53.9940111339092 434.964686632156 2581.00008964539 157 158 152
61.0239952802658 434.960514307022 2581.00008964539 156 157 151
68.0801346898079 435.124456882477 2582.00001716614 153 154 148
75.0251263380051 434.613823890686 2578.9999961853 153 154 148
81.9535106420517 434.102684259415 2575.99997520447 156 157 151
88.9343693852425 433.928072452545 2575.00004768372 160 161 155
95.983974635601 434.0900182724 2575.99997520447 160 161 155
103.03870588541 434.251457452774 2576.99990272522 159 160 154
110.013127326965 434.075444936752 2575.99997520447 159 160 154
116.936288774014 433.730393648148 2573.99988174438 161 162 157
123.896323144436 433.553397655487 2572.99995422363 161 162 157
130.901366472244 433.544397354126 2572.99995422363 162 163 158
137.959539890289 433.703422546387 2573.99988174438 169 170 165
145.13535797596 434.199005365372 2576.99990272522 172 172 170
152.386099100113 434.862613677979 2581.00008964539 167 169 166
159.719809889793 435.694068670273 2585.99996566772 171 173 170
167.273700237274 437.030583620071 2594.00010108948 175 177 174
174.937769770622 438.534915447235 2602.9999256134 179 181 178
182.650253176689 440.038770437241 2611.99998855591 179 181 178
190.120533108711 440.868258476257 2617.00010299683 172 174 173
197.391256690025 441.191762685776 2618.99995803833 165 167 164
204.906538128853 442.020267248154 2624.00007247925 154 156 153
212.529137730598 443.016648292542 2630.00011444092 157 159 156
220.434293150902 444.517880678177 2638.99993896484 155 155 153
228.560224175453 446.35546207428 2650.00009536743 173 172 170
237.279057502747 449.203014373779 2667.00005531311 156 155 153
246.547996997833 452.892035245895 2688.99989128113 152 152 150
299.699872732162 455.796182155609 2707.00001716614 210 212 209
305.465787649155 453.419208526611 2693.00007820129 138 138 136
311.386972665787 451.378703117371 2680.99999427795 130 130 128
317.598700523376 449.843108654022 2671.99993133545 150 149 147
323.517441749573 447.970569133759 2661.00001335144 151 150 148
329.624086618423 446.434557437897 2651.99995040894 158 157 155
336.061954498291 445.403277873993 2645.99990844727 159 158 156
342.985183000565 445.045113563538 2644.00005340576 155 155 153
350.293874740601 445.191532373428 2644.99998092651 157 157 155
357.877373695374 445.674240589142 2648.00000190735 163 165 162
365.751892328262 446.493208408356 2653.00011634827 171 173 170
373.65248799324 447.311669588089 2657.99999237061 179 181 178
-169.571831822395 442.598789930344 2670.00007629395 205 207 204
-161.02796792984 439.128994941711 2648.9999294281 189 189 187
-152.946323156357 436.653316020966 2634.0000629425 187 187 185
-145.665273070335 436.332076787949 2631.99996948242 169 170 165
-138.605132699013 436.673581600189 2634.0000629425 162 163 158
-131.533607840538 437.014520168304 2635.99991798401 161 162 157
-124.497920274734 437.520772218704 2638.99993896484 160 161 156
-117.44549125433 438.026636838913 2641.99995994568 157 159 156
-110.543243587017 439.195156097412 2648.9999294281 159 161 158
-103.797510266304 441.192269325256 2661.00001335144 154 156 153
-97.3126366734505 444.681167602539 2681.99992179871 134 136 133
-90.7130241394043 448.169618844986 2703.00006866455 125 127 122
-84.1220691800117 452.320903539658 2727.9999256134 179 181 176
-76.4669254422188 451.000183820724 2720.00002861023 180 182 177
-68.4996321797371 447.357386350632 2697.99995422363 125 127 122
-60.8106106519699 444.874823093414 2683.00008773804 144 147 140
-53.2828643918037 443.054914474487 2671.99993133545 154 157 150
-45.8837300539017 441.897749900818 2664.99996185303 150 153 146
-38.4356081485748 439.74506855011 2651.99995040894 147 148 143
-31.0934912413359 438.089400529861 2641.99995994568 155 156 151
-23.8509718328714 437.262266874313 2637.00008392334 154 155 150
-16.654571518302 436.932057142258 2634.99999046326 155 156 151
-9.44024045020342 435.274809598923 2625 157 158 153
-2.27948883548379 433.451235294342 2614.00008201599 160 161 156
4.83059883117676 432.456195354462 2608.00004005432 169 170 165
11.9171300902963 431.792318820953 2604.00009155273 174 175 170
18.9453233033419 430.298864841461 2595.00002861023 176 177 172
25.9344391524792 428.970694541931 2586.99989318848 173 174 169
32.9181253910065 428.139567375183 2582.00001716614 161 162 157
39.9518199265003 428.136974573135 2582.00001716614 160 161 156
46.9489805400372 427.802264690399 2579.99992370605 156 157 152
53.9978481829166 427.964478731155 2581.00008964539 155 156 151
61.0519722104073 428.126275539398 2582.00001716614 155 156 151
68.1113302707672 428.287506103516 2582.99994468689 154 155 150
75.0886350870132 427.950859069824 2581.00008964539 152 153 148
81.9911286234856 427.2820353508 2576.99990272522 152 153 148
88.9751836657524 427.110224962235 2575.99997520447 158 159 154
95.9534794092178 426.937937736511 2575.00004768372 159 160 155
103.005990386009 427.096754312515 2575.99997520447 160 161 156
109.978161752224 426.923513412476 2575.00004768372 158 159 154
116.944499313831 426.749706268311 2573.99988174438 159 160 155
123.856864869595 426.409780979156 2572.00002670288 162 163 158
130.859658122063 426.400899887085 2572.00002670288 163 164 159
137.915596365929 426.557332277298 2572.99995422363 165 166 161
145.14547586441 427.210569381714 2576.99990272522 168 168 166
152.396693825722 427.863448858261 2581.00008964539 170 172 169
159.730896353722 428.681463003159 2585.99996566772 177 179 176
167.220786213875 429.830580949783 2592.99993515015 181 183 180
174.882635474205 431.310683488846 2601.99999809265 178 180 177
182.592898607254 432.790249586105 2611.00006103516 178 180 177
189.915642142296 433.274775743485 2614.00008201599 176 178 177
197.32940196991 433.924525976181 2618.00003051758 167 169 166
204.764321446419 434.573829174042 2621.99997901917 163 165 162
212.543621659279 435.885637998581 2630.00011444092 156 156 154
220.198631286621 436.865359544754 2635.99991798401 158 157 155
228.230625391006 438.507527112961 2645.99990844727 164 163 161
236.939132213593 441.309243440628 2663.00010681152 166 165 163
246.289506554604 445.104539394379 2686.00010871887 153 152 150
256.330579519272 449.893325567245 2714.99991416931 148 148 146
298.944383859634 447.298496961594 2700.00004768372 209 211 208
305.48557639122 446.119278669357 2693.00007820129 121 121 119
311.407089233398 444.111526012421 2680.99999427795 135 135 133
317.619115114212 442.60048866272 2671.99993133545 149 148 146
323.538154363632 440.757989883423 2661.00001335144 151 150 148
329.893678426743 439.57781791687 2654.00004386902 157 156 154
336.210280656815 438.397407531738 2647.0000743866 157 156 154
343.136519193649 438.044846057892 2644.99998092651 154 154 152
350.315809249878 438.023120164871 2644.99998092651 158 158 156
357.899695634842 438.49790096283 2648.00000190735 163 165 162
365.636646747589 439.137846231461 2651.99995040894 170 172 169
373.394340276718 439.777463674545 2655.99989891052 183 185 182
383.608818054199 443.23143362999 2677.00004577637 193 195 192
-169.710457324982 435.683220624924 2671.99993133545 205 207 204
-160.795867443085 431.291997432709 2644.99998092651 191 191 189
-153.014913201332 429.672122001648 2634.99999046326 187 187 185
-145.619988441467 429.030150175095 2631.00004196167 169 170 165
-138.614729046822 429.529130458832 2634.0000629425 163 164 159
-131.592631340027 430.027663707733 2637.00008392334 159 160 155
-124.648123979568 430.851846933365 2641.99995994568 156 157 152
-117.631494998932 431.5125644207 2645.99990844727 158 160 157
-110.634408891201 432.335883378983 2651.00002288818 153 155 152
-103.84377092123 434.137284755707 2661.99994087219 151 153 150
-97.2105786204338 436.91673874855 2678.99990081787 132 134 131
-90.6522497534752 440.511286258698 2700.99997520447 120 122 117
-84.2821672558784 445.736408233643 2733.00004005432 216 218 213
-76.3317123055458 442.806273698807 2714.99991416931 166 168 163
-68.5298293828964 440.201729536057 2698.99988174438 135 137 132
-60.7922226190567 437.43360042572 2681.99992179871 139 142 135
-53.226787596941 435.317307710648 2668.99991035461 153 156 149
-45.835305005312 434.179067611694 2661.99994087219 150 153 146
-38.4528152644634 432.714104652405 2653.00011634827 147 148 143
-31.1427619308233 431.574791669846 2645.99990844727 154 155 150
-23.8888338208199 430.761218070984 2641.00003242493 153 154 149
-16.6810303926468 430.43640255928 2638.99993896484 154 155 150
-9.45169664919376 428.643196821213 2628.00002098084 156 157 152
-2.27964948862791 426.360100507736 2614.00008201599 162 163 158
4.83093922957778 425.38133263588 2608.00004005432 169 170 165
11.9133945554495 424.565225839615 2602.9999256134 174 175 170
18.946660682559 423.259288072586 2595.00002861023 177 178 173
25.9262416511774 421.789795160294 2585.99996566772 170 171 166
32.9204462468624 421.13533616066 2582.00001716614 159 160 155
39.954636245966 421.132743358612 2582.00001716614 159 160 155
46.9704866409302 420.966625213623 2581.00008964539 156 157 152
54.0644116699696 421.452343463898 2584.00011062622 155 156 151
61.1035600304604 421.448349952698 2584.00011062622 155 156 151
68.116120994091 421.280711889267 2582.99994468689 155 156 151
75.0066190958023 420.460253953934 2578.00006866455 154 155 150
81.9332376122475 419.965475797653 2575.00004768372 155 156 151
88.8777896761894 419.633328914642 2572.99995422363 157 158 153
95.885656774044 419.626891613007 2572.99995422363 157 158 153
102.893203496933 419.620007276535 2572.99995422363 156 157 152
109.900385141373 419.612646102905 2572.99995422363 156 157 152
116.952627897263 419.767796993256 2573.99988174438 157 158 153
123.913608491421 419.596463441849 2572.99995422363 160 161 156
130.868718028069 419.424563646317 2572.00002670288 162 163 158
137.871533632278 419.415324926376 2572.00002670288 165 166 161
145.155504345894 420.220911502838 2576.99990272522 168 168 166
152.407184243202 420.863002538681 2581.00008964539 172 174 171
159.86542403698 421.993762254715 2588.00005912781 172 174 171
167.167738080025 422.634780406952 2592.00000762939 176 178 175
174.692958593369 423.764497041702 2598.99997711182 182 184 181
182.185724377632 424.730688333511 2605.00001907349 179 181 178
189.783230423927 425.859391689301 2611.99998855591 174 176 175
197.267413139343 426.661491394043 2617.00010299683 174 174 172
204.778164625168 427.463084459305 2621.99997901917 171 171 169
212.477117776871 428.590267896652 2628.99994850159 164 164 162
219.879254698753 429.064869880676 2631.99996948242 163 162 160
227.814629673958 430.517107248306 2641.00003242493 159 158 156
236.332073807716 432.946801185608 2655.99989891052 158 157 155
245.572239160538 436.516910791397 2677.99997329712 156 155 153
255.308955907822 440.738350152969 2703.9999961853 155 155 153
298.852950334549 439.815253019333 2698.99988174438 209 211 208
305.618703365326 438.981145620346 2694.00000572205 137 137 135
311.891674995422 437.494933605194 2684.99994277954 145 145 143
317.877113819122 435.682594776154 2674.00002479553 151 150 148
323.680251836777 433.707177639008 2661.99994087219 157 156 154
329.914510250092 432.383239269257 2654.00004386902 154 153 151
336.231380701065 431.22199177742 2647.0000743866 155 154 152
342.898428440094 430.549174547195 2642.99988746643 158 158 156
350.072711706162 430.527746677399 2642.99988746643 158 158 156
357.651442289352 430.994629859924 2645.99990844727 166 168 165
365.383356809616 431.623995304108 2650.00009536743 172 174 171
373.276561498642 432.415902614594 2654.99997138977 183 185 182
383.775383234024 436.138838529587 2677.99997329712 191 193 190
-169.849038124084 428.755581378937 2674.00002479553 204 206 203
-160.867616534233 424.277126789093 2645.99990844727 189 189 187
-152.909204363823 422.203212976456 2632.99989700317 185 185 183
-145.629942417145 421.892642974854 2631.00004196167 170 171 166
-138.518959283829 422.062665224075 2631.99996948242 166 167 162
-131.551757454872 422.713339328766 2635.99991798401 161 162 157
-124.562337994576 423.363536596298 2640.00010490417 157 158 153
-117.595128715038 424.173623323441 2644.99998092651 157 159 156
-110.642045736313 425.14368891716 2651.00002288818 151 153 150
-103.928983211517 427.235960960388 2664.00003433228 146 148 145
-97.1810296177864 429.488122463226 2677.99997329712 128 130 127
-90.658538043499 433.183252811432 2700.99997520447 109 111 106
-84.0721279382706 437.198758125305 2726.0000705719 208 210 205
-76.2245506048203 434.798538684845 2710.99996566772 132 134 129
-68.4584230184555 432.397842407227 2696.00009918213 142 144 139
-60.7057809829712 429.515331983566 2677.99997329712 140 143 136
-53.1906075775623 427.754998207092 2667.00005531311 151 154 147
-45.7696206867695 426.314979791641 2657.99999237061 149 152 145
-38.4120084345341 425.034701824188 2650.00009536743 148 149 144
-31.0978516936302 423.754006624222 2641.99995994568 154 155 150
-23.8633640110493 423.114389181137 2638.00001144409 153 154 149
-16.6632309556007 422.794938087463 2635.99991798401 156 157 152
-9.44875925779343 421.352356672287 2627.00009346008 158 159 154
-2.28416942991316 420.069605112076 2618.99995803833 165 166 161
4.83683403581381 418.786376714706 2611.00006103516 169 170 165
11.9233811274171 417.82346367836 2605.00001907349 176 177 172
18.947983160615 416.218459606171 2595.00002861023 178 179 174
25.9380787611008 414.933741092682 2586.99989318848 168 169 164
32.9482443630695 414.450526237488 2584.00011062622 158 159 154
39.9883762001991 414.448022842407 2584.00011062622 158 159 154
47.0283627510071 414.445012807846 2584.00011062622 156 157 152
54.0891028940678 414.601892232895 2585.00003814697 155 156 151
61.0605143010616 414.116710424423 2582.00001716614 157 158 153
68.0681094527245 413.951873779297 2581.00008964539 156 157 152
75.0118270516396 413.465797901154 2578.00006866455 157 158 153
81.9389149546623 412.97921538353 2575.00004768372 158 159 154
88.8839364051819 412.652522325516 2572.99995422363 160 161 156
95.8550274372101 412.485837936401 2572.00002670288 159 160 155
102.940306067467 412.799745798111 2573.99988174438 158 159 154
109.993405640125 412.952840328217 2575.00004768372 158 159 154
117.14244633913 413.426131010056 2578.00006866455 158 159 154
124.066598713398 413.097113370895 2575.99997520447 160 161 156
131.030350923538 412.928074598312 2575.00004768372 161 162 157
137.880951166153 412.437826395035 2572.00002670288 164 165 160
145.165413618088 413.229942321777 2576.99990272522 166 166 164
152.535662055016 414.181977510452 2582.99994468689 172 174 171
159.814491868019 414.81277346611 2586.99989318848 170 172 169
167.050078511238 415.282815694809 2589.99991416931 173 175 172
174.435883760452 416.073024272919 2595.00002861023 184 186 183
181.988179683685 417.183339595795 2601.99999809265 180 182 179
189.3600076437 417.81222820282 2605.99994659424 175 177 176
196.979105472565 418.921589851379 2612.99991607666 172 172 170
204.713776707649 420.190811157227 2621.00005149841 166 166 164
212.491288781166 421.459406614304 2628.99994850159 164 164 162
220.144525170326 422.406941652298 2634.99999046326 164 163 161
228.002235293388 423.674583435059 2642.99988746643 162 161 159
236.347645521164 425.743132829666 2655.99989891052 161 160 158
245.03818154335 428.292095661163 2671.99993133545 155 154 152
254.381418228149 431.802034378052 2694.00000572205 148 148 146
265.786468982697 438.516885042191 2736.00006103516 143 143 141
298.539906740189 432.015746831894 2696.00009918213 216 218 215
305.524677038193 431.515842676163 2693.00007820129 140 140 138
311.330616474152 429.413318634033 2680.0000667572 141 141 139
317.421615123749 427.791297435761 2670.00007629395 152 151 149
323.214173316956 425.848662853241 2657.99999237061 156 155 153
329.686433076859 424.867033958435 2651.99995040894 155 154 152
336.252242326736 424.045383930206 2647.0000743866 156 155 153
343.308866024017 423.864215612412 2645.99990844727 158 158 156
350.226640701294 423.522621393204 2644.00005340576 159 159 157
357.808470726013 423.981606960297 2647.0000743866 166 168 165
365.405589342117 424.440175294876 2650.00009536743 173 175 172
373.861521482468 425.859332084656 2658.99991989136 184 186 183
385.374873876572 430.641144514084 2688.99989128113 190 192 189
-169.669881463051 421.027600765228 2671.0000038147 204 206 203
-161.000043153763 417.413175106049 2648.00000190735 188 188 186
-152.919515967369 415.059119462967 2632.99989700317 185 185 183
-145.418390631676 414.123386144638 2627.00009346008 171 172 167
-138.37043941021 414.448142051697 2628.99994850159 167 168 163
-131.460875272751 415.245532989502 2634.0000629425 163 164 159
-124.570816755295 416.20010137558 2640.00010490417 160 161 156
-117.603152990341 416.996479034424 2644.99998092651 139 141 138
-110.733084380627 418.265521526337 2653.00011634827 160 162 159
-103.975102305412 420.164734125137 2664.99996185303 145 147 144
-97.1150994300842 421.905845403671 2676.00011825562 115 117 114
-90.698316693306 426.011502742767 2701.99990272522 109 111 106
-83.9236825704575 429.013103246689 2720.99995613098 215 217 212
-76.0891959071159 426.65359377861 2706.00008964539 122 124 119
-68.3869495987892 424.608796834946 2693.00007820129 134 136 131
-60.6646239757538 421.932816505432 2676.00011825562 142 145 138
-53.194273263216 420.517653226852 2667.00005531311 147 150 143
-45.7727760076523 419.101893901825 2657.99999237061 146 149 142
-38.4291559457779 418.001055717468 2651.00002288818 149 150 145
-31.0882274061441 416.426628828049 2641.00003242493 154 155 150
-23.8559674471617 415.797889232636 2637.00008392334 154 155 150
-16.6580602526665 415.483891963959 2634.99999046326 159 160 155
-9.45300981402397 414.38102722168 2628.00002098084 160 161 156
-2.28607188910246 413.277685642242 2621.00005149841 162 163 158
4.8371683806181 411.700785160065 2611.00006103516 163 164 159
11.915048584342 410.438746213913 2602.9999256134 175 176 171
18.9419910311699 409.018635749817 2594.00010108948 175 176 171
25.959923863411 408.228665590286 2588.99998664856 159 160 155
32.9760201275349 407.753586769104 2585.99996566772 154 155 150
40.0220826268196 407.751113176346 2585.99996566772 158 159 154
47.0498017966747 407.590448856354 2585.00003814697 156 157 152
54.0719069540501 407.429367303848 2584.00011062622 156 157 152
61.064712703228 407.110035419464 2582.00001716614 158 159 154
68.0727884173393 406.947940587997 2581.00008964539 158 159 154
75.046069920063 406.627714633942 2578.9999961853 154 155 150
81.944540143013 405.991673469543 2575.00004768372 157 158 153
88.959127664566 405.985832214355 2575.00004768372 158 159 154
95.9733948111534 405.979543924332 2575.00004768372 156 157 152
103.067323565483 406.288087368011 2576.99990272522 155 156 151
110.129065811634 406.438529491425 2578.00006866455 156 157 152
117.286756634712 406.903803348541 2581.00008964539 160 161 156
124.26770478487 406.737983226776 2579.99992370605 159 160 155
131.191909313202 406.414091587067 2578.00006866455 159 160 155
138.158366084099 406.247317790985 2576.99990272522 162 163 158
145.456910133362 407.026022672653 2582.00001716614 162 162 160
152.782186865807 407.804161310196 2586.99989318848 163 165 162
159.948825836182 408.108949661255 2588.99998664856 165 167 164
167.125806212425 408.4133207798 2591.00008010864 168 170 167
174.514785408974 409.190058708191 2595.99995613098 179 181 178
182.000353932381 410.123944282532 2601.99999809265 183 185 182
189.517959952354 411.05729341507 2608.00004005432 177 179 178
196.992158889771 411.832571029663 2612.99991607666 175 175 173
204.805418848991 413.237780332565 2621.99997901917 167 167 165
212.424471974373 414.169758558273 2628.00002098084 164 164 162
220.158994197845 415.25873541832 2634.99999046326 163 162 160
227.930903434753 416.347175836563 2641.99995994568 163 162 160
236.452102661133 418.695896863937 2657.00006484985 162 161 159
245.237544178963 421.359121799469 2674.00002479553 148 147 145
254.303514957428 424.33688044548 2693.00007820129 142 142 140
264.443516731262 428.889632225037 2721.99988365173 141 141 139
299.001753330231 425.334006547928 2700.00004768372 208 210 207
305.770874023438 424.52734708786 2694.9999332428 146 146 144
311.58247590065 422.46025800705 2681.99992179871 150 150 148
317.203640937805 420.235514640808 2667.99998283386 149 148 146
323.112607002258 418.483138084412 2657.00006484985 153 152 150
329.582512378693 417.518079280853 2651.00002288818 160 159 157
336.399972438812 417.025148868561 2648.00000190735 159 158 156
343.58936548233 417.004406452179 2648.00000190735 156 156 154
350.645363330841 416.825920343399 2647.0000743866 160 160 158
358.100444078445 417.119383811951 2648.9999294281 162 164 161
365.70331454277 417.57008433342 2651.99995040894 170 172 169
374.305695295334 419.122517108917 2661.99994087219 183 185 182
385.541170835495 423.508405685425 2690.00005722046 189 191 188
-169.427052140236 413.159787654877 2667.00005531311 204 206 203
-160.949975252151 410.072386264801 2647.0000743866 189 189 187
-152.813568711281 407.60400891304 2631.00004196167 188 188 186
-145.317375659943 406.684339046478 2625 173 174 169
-138.27446103096 407.003670930862 2627.00009346008 166 167 162
-131.319954991341 407.632350921631 2631.00004196167 164 165 160
-124.343231320381 408.260643482208 2634.99999046326 163 164 159
-117.433220148087 409.198373556137 2641.00003242493 144 146 143
-110.657073557377 410.755455493927 2651.00002288818 156 158 155
-103.94311696291 412.776947021484 2664.00003433228 147 149 146
-97.1942469477654 414.952963590622 2677.99997329712 103 105 102
-90.9058824181557 419.607788324356 2707.99994468689 151 153 148
-83.6209282279015 420.078545808792 2710.99996566772 218 220 215
-75.8693963289261 418.069511651993 2697.99995422363 124 126 121
-68.2646185159683 416.524827480316 2687.99996376038 130 132 127
-60.6234073638916 414.35980796814 2674.00002479553 145 148 141
-53.1978942453861 413.27890753746 2667.00005531311 143 146 139
-45.7242280244827 411.422699689865 2654.99997138977 145 148 141
-38.3737906813622 410.185903310776 2647.0000743866 151 152 147
-31.0432612895966 408.638596534729 2637.00008392334 154 155 150
-23.839496076107 408.330529928207 2634.99999046326 154 155 150
-16.6591983288527 408.331900835037 2634.99999046326 158 159 154
-9.46084968745708 407.557994127274 2630.00011444092 158 159 154
-2.28884466923773 406.628608703613 2624.00007247925 159 160 155
4.83935140073299 404.768884181976 2611.99998855591 161 162 157
11.9204418733716 403.52863073349 2604.00009155273 175 176 171
18.9505871385336 402.132898569107 2595.00002861023 173 174 169
26.0018073022366 401.821434497833 2592.99993515015 156 157 152
33.0420359969139 401.509523391724 2591.00008010864 155 156 151
40.0712452828884 401.197075843811 2588.99998664856 157 158 153
47.0712073147297 400.729268789291 2585.99996566772 155 156 151
54.0755838155746 400.41595697403 2584.00011062622 155 156 151
61.1398257315159 400.566965341568 2585.00003814697 157 158 153
68.2092979550362 400.717586278915 2585.99996566772 157 158 153
75.2257779240608 400.55775642395 2585.00003814697 155 156 151
82.1410566568375 399.932622909546 2581.00008964539 158 159 154
89.1033560037613 399.616956710815 2578.9999961853 160 161 156
96.0544422268867 399.300813674927 2576.99990272522 158 159 154
103.194274008274 399.758964776993 2579.99992370605 157 158 153
110.264651477337 399.906754493713 2581.00008964539 159 160 155
117.430999875069 400.363951921463 2584.00011062622 160 161 156
124.372400343418 400.045990943909 2582.00001716614 158 159 154
131.251603364944 399.572670459747 2578.9999961853 158 159 154
138.328462839127 399.71861243248 2579.99992370605 162 163 158
145.635634660721 400.483787059784 2585.00003814697 162 162 160
153.028637170792 401.403486728668 2591.00008010864 155 157 154
160.083025693893 401.393055915833 2591.00008010864 162 164 161
167.330414056778 401.847034692764 2594.00010108948 166 168 165
174.795225262642 402.765154838562 2599.99990463257 173 175 172
182.432070374489 403.992742300034 2608.00004005432 183 185 182
189.893782138824 404.755055904388 2612.99991607666 178 180 179
197.38207757473 405.516862869263 2618.00003051758 175 175 173
204.975083470345 406.433135271072 2624.00007247925 171 170 168
212.438315153122 407.039105892181 2628.00002098084 168 167 165
220.173314213753 408.109277486801 2634.99999046326 167 166 164
227.945700287819 409.178972244263 2641.99995994568 165 161 160
236.467361450195 411.487102508545 2657.00006484985 163 159 158
244.886472821236 413.484990596771 2670.00007629395 145 144 142
253.753215074539 416.101664304733 2687.00003623962 145 145 143
263.391673564911 419.80168223381 2710.99996566772 148 148 146
299.684941768646 418.938964605331 2706.00008964539 208 210 207
305.789917707443 417.217195034027 2694.9999332428 137 137 135
311.020880937576 414.411604404449 2677.00004577637 143 143 141
316.866546869278 412.534683942795 2664.99996185303 150 149 147
322.52436876297 410.502761602402 2651.99995040894 157 156 154
329.353958368301 410.018533468246 2648.9999294281 159 158 156
336.166352033615 409.53403711319 2645.99990844727 159 158 156
343.739897012711 409.977823495865 2648.9999294281 157 157 155
350.931435823441 409.957021474838 2648.9999294281 159 159 157
358.392268419266 410.245358943939 2651.00002288818 158 160 157
365.862965583801 410.533368587494 2653.00011634827 168 170 167
374.468475580215 412.058919668198 2663.00010681152 182 184 181
-168.929904699326 404.703557491302 2658.99991989136 206 208 205
-160.717323422432 402.279019355774 2642.99988746643 189 191 188
-152.765572071075 400.310635566711 2630.00011444092 185 187 184
-145.382344722748 399.711579084396 2625.99992752075 169 171 168
-138.230964541435 399.720907211304 2625.99992752075 165 167 164
-131.178930401802 400.034189224243 2628.00002098084 167 167 165
-124.257110059261 400.803714990616 2632.99989700317 165 165 163
-117.352105677128 401.725083589554 2638.99993896484 161 161 159
-110.580950975418 403.254866600037 2648.9999294281 154 154 152
-103.832989931107 405.088782310486 2661.00001335144 146 146 144
-97.2007662057877 407.683402299881 2677.99997329712 114 116 113
-91.4155542850494 414.54029083252 2723.00004959106 208 213 209
-83.6265310645103 412.719219923019 2710.99996566772 203 208 204
-75.7619962096214 410.136520862579 2694.00000572205 167 174 167
-68.2184174656868 408.923417329788 2686.00010871887 115 120 114
-60.6501549482346 407.252967357636 2674.99995231628 147 152 146
-53.1815253198147 405.886590480804 2665.99988937378 140 145 139
-45.7445345818996 404.367446899414 2655.99989891052 142 147 141
-38.3763760328293 403.000056743622 2647.0000743866 150 152 147
-31.0924481600523 402.08888053894 2641.00003242493 156 158 153
-23.868253454566 401.634037494659 2638.00001144409 151 153 148
-16.6729688644409 401.483118534088 2637.00008392334 151 153 148
-9.4686821103096 400.722682476044 2631.99996948242 149 151 146
-2.28725443594158 399.200618267059 2621.99997901917 157 159 154
4.83597256243229 397.373527288437 2609.99989509583 152 154 149
11.9120888411999 396.154940128326 2601.99999809265 176 178 173
18.9591683447361 395.240426063538 2595.99995613098 156 158 153
26.0135903954506 394.934445619583 2594.00010108948 162 164 159
33.0570191144943 394.627958536148 2592.00000762939 151 153 148
40.0894246995449 394.320994615555 2589.99991416931 154 155 149
47.1289865672588 394.165813922882 2588.99998664856 154 155 149
54.18386682868 394.16241645813 2588.99998664856 150 151 145
61.2622052431107 394.310832023621 2589.99991416931 155 156 150
68.3193877339363 394.306480884552 2589.99991416931 158 159 153
75.3181278705597 393.997222185135 2588.00005912781 157 158 152
82.3056995868683 393.68748664856 2585.99996566772 158 159 153
89.2820805311203 393.377304077148 2584.00011062622 157 158 153
96.2099656462669 392.914444208145 2581.00008964539 156 157 152
103.241175413132 392.90776848793 2581.00008964539 156 157 152
110.357448458672 393.205165863037 2582.99994468689 157 158 153
117.393359541893 393.197625875473 2582.99994468689 155 157 154
124.428831040859 393.189638853073 2582.99994468689 157 159 156
131.260305643082 392.572283744812 2578.9999961853 156 158 155
138.444855809212 393.02009344101 2582.00001716614 160 162 159
145.814299583435 393.924057483673 2588.00005912781 160 162 159
153.215914964676 394.827544689178 2594.00010108948 157 159 156
160.526067018509 395.426064729691 2598.00004959106 155 157 154
167.728453874588 395.719736814499 2599.99990463257 156 158 155
175.210103392601 396.621763706207 2605.99994659424 168 170 167
182.72377550602 397.523283958435 2611.99998855591 175 177 174
190.26954472065 398.424386978149 2618.00003051758 188 190 187
197.696477174759 399.020582437515 2621.99997901917 176 176 174
205.066442489624 399.464130401611 2625 168 168 166
212.452039122581 399.907261133194 2628.00002098084 169 169 167
220.103919506073 400.806456804276 2634.0000629425 172 172 170
227.960288524628 402.009397745132 2641.99995994568 162 162 160
236.482471227646 404.27702665329 2657.00006484985 152 152 150
244.718596339226 405.935496091843 2667.99998283386 156 158 155
253.297060728073 408.049792051315 2681.99992179871 149 151 148
263.311177492142 412.293523550034 2710.00003814697 161 163 160
301.032572984695 413.422793149948 2717.99993515015 211 211 209
306.149154901505 410.362094640732 2697.99995422363 123 123 121
311.62092089653 407.909721136093 2681.99992179871 140 140 138
317.123681306839 405.609250068665 2667.00005531311 156 155 153
323.152124881744 404.069125652313 2657.00006484985 161 160 158
329.622596502304 403.137028217316 2651.00002288818 158 157 155
336.313605308533 402.508795261383 2647.0000743866 158 157 155
343.500941991806 402.488529682159 2647.0000743866 158 158 156
350.819826126099 402.619928121567 2648.00000190735 158 158 156
358.143091201782 402.751088142395 2648.9999294281 156 158 155
365.7466173172 403.185993432999 2651.99995040894 167 169 166
374.349743127823 404.684633016586 2661.99994087219 182 184 181
-168.686717748642 396.887391805649 2654.99997138977 206 208 205
-160.606130957603 394.805163145065 2641.00003242493 190 192 189
-152.717426419258 393.021434545517 2628.99994850159 187 189 186
-145.336464047432 392.433047294617 2625 169 171 168
-138.187363743782 392.442315816879 2625 163 165 162
-131.137609481812 392.750054597855 2627.00009346008 166 166 164
-124.265268445015 393.655359745026 2632.99989700317 167 167 165
-117.359817028046 394.560366868973 2638.99993896484 146 145 143
-110.504753887653 395.7639336586 2647.0000743866 156 156 154
-103.722766041756 397.415578365326 2657.99999237061 160 160 158
-97.098283469677 399.963974952698 2674.99995231628 112 114 111
-83.7246179580688 405.807226896286 2713.99998664856 208 213 209
-75.6826549768448 402.373462915421 2690.99998474121 196 203 196
-68.1213438510895 401.032447814941 2681.99992179871 119 126 119
-60.6315098702908 399.840444326401 2674.00002479553 148 153 147
-53.1252175569534 398.199379444122 2663.00010681152 139 144 138
-45.7131303846836 396.856874227524 2654.00004386902 147 152 146
-38.3499301970005 395.513832569122 2644.99998092651 150 152 147
-31.1062913388014 395.067572593689 2641.99995994568 155 157 152
-23.8879397511482 394.770324230194 2640.00010490417 151 153 148
-16.674080863595 394.323110580444 2637.00008392334 151 153 148
-9.46571677923203 393.426716327667 2631.00004196167 149 151 146
-2.28653475642204 391.931742429733 2621.00005149841 153 155 150
4.8344423994422 390.137284994125 2608.99996757507 155 157 152
11.9083058089018 388.940423727036 2601.0000705719 170 172 167
18.9604312181473 388.191699981689 2595.99995613098 154 156 151
26.0253492742777 388.040691614151 2595.00002861023 159 161 156
33.0719724297524 387.739688158035 2592.99993515015 151 153 148
40.1230528950691 387.587696313858 2592.00000762939 152 153 147
47.1867434680462 387.584835290909 2592.00000762939 153 154 148
54.2502589523792 387.581467628479 2592.00000762939 149 150 144
61.337236315012 387.727171182632 2592.99993515015 152 153 147
68.3239176869392 387.274295091629 2589.99991416931 154 155 149
75.3813236951828 387.269556522369 2589.99991416931 159 160 154
82.3748111724854 386.965364217758 2588.00005912781 159 160 154
89.3916487693787 386.810183525085 2586.99989318848 158 159 154
96.2535962462425 386.056482791901 2582.00001716614 157 158 153
103.287994861603 386.049926280975 2582.00001716614 157 158 153
110.321991145611 386.042922735214 2582.00001716614 157 158 153
117.35562235117 386.035472154617 2582.00001716614 156 158 155
