ply
format ascii 1.0
comment KinectMotionCapture
element vertex 783
property float x
property float y
property float z
property uchar red
property uchar green
property uchar blue
end_header
-31.0592725872993 351.333498954773 2637.00008392334 146 148 143
-23.8880068063736 351.601600646973 2638.99993896484 146 148 143
-16.6867729276419 351.46963596344 2638.00001144409 149 151 146
-9.48372855782509 351.070761680603 2634.99999046326 131 133 128
-2.2952628787607 350.40494799614 2630.00011444092 147 149 144
4.86594811081886 349.73868727684 2625 144 146 141
12.0136151090264 349.471658468246 2622.99990653992 144 146 141
19.1576387733221 349.337488412857 2621.99997901917 152 154 149
26.3061728328466 349.336117506027 2621.99997901917 153 155 150
33.4290862083435 349.067807197571 2619.99988555908 146 148 143
40.5409745872021 348.799109458923 2618.00003051758 145 147 142
47.6418063044548 348.529994487762 2615.9999370575 145 147 142
54.7734312713146 348.526865243912 2615.9999370575 145 147 142
61.8101917207241 347.990423440933 2611.99998855591 147 149 144
68.8249245285988 347.453594207764 2608.00004005432 148 150 145
75.8758187294006 347.182720899582 2605.99994659424 149 151 146
83.0110535025597 347.311168909073 2607.00011253357 148 150 145
90.1514366269112 347.439140081406 2608.00004005432 139 141 136
97.259633243084 347.433507442474 2608.00004005432 143 145 140
104.407504200935 347.560614347458 2608.99996757507 153 155 150
111.688666045666 348.086953163147 2612.99991607666 160 162 157
118.99121850729 348.612904548645 2617.00010299683 153 155 152
126.170560717583 348.738729953766 2618.00003051758 135 137 134
133.405819535255 348.997354507446 2619.99988555908 136 138 135
140.65146446228 349.255561828613 2621.99997901917 156 158 155
148.02023768425 349.77975487709 2625.99992752075 160 162 159
155.410304665565 350.303530693054 2630.00011444092 160 162 159
162.697955965996 350.560456514359 2631.99996948242 142 144 141
169.995903968811 350.816935300827 2634.0000629425 146 148 145
177.236899733543 350.939869880676 2634.99999046326 154 156 153
184.832662343979 351.728320121765 2641.00003242493 152 154 151
192.314997315407 352.249920368195 2644.99998092651 152 154 149
199.818447232246 352.771103382111 2648.9999294281 148 153 147
207.421123981476 353.425055742264 2654.00004386902 158 163 156
215.454697608948 354.744344949722 2664.00003433228 141 146 139
223.709136247635 356.329500675201 2676.00011825562 144 149 143
232.632383704185 358.846187591553 2694.9999332428 142 147 141
243.439093232155 364.025294780731 2733.99996757507 137 142 136
265.597283840179 353.848576545715 2657.99999237061 171 176 172
271.800011396408 352.502077817917 2648.00000190735 160 165 161
277.736693620682 350.88911652565 2635.99991798401 167 167 165
284.039616584778 349.808424711227 2628.00002098084 172 172 170
290.741264820099 349.25988316536 2624.00007247925 175 175 173
297.647207975388 348.977267742157 2621.99997901917 175 177 174
304.425179958344 348.561257123947 2618.99995803833 182 184 181
311.304777860641 348.278045654297 2617.00010299683 183 185 182
318.537563085556 348.393797874451 2618.00003051758 192 194 191
326.147884130478 348.908394575119 2621.99997901917 188 193 189
335.304290056229 351.019382476807 2638.00001144409 169 174 170
347.142964601517 355.791032314301 2674.00002479553 181 186 182
-74.7593119740486 346.75607085228 2657.00006484985 35 38 31
-67.0841112732887 344.541668891907 2640.00010490417 25 28 21
-60.1818710565567 346.242070198059 2653.00011634827 32 35 28
-52.7694523334503 345.070868730545 2644.00005340576 131 132 126
-45.4748347401619 344.421237707138 2638.99993896484 153 154 148
-38.2508337497711 344.162702560425 2637.00008392334 128 130 125
-31.0611501336098 344.164818525314 2637.00008392334 159 161 156
-23.8622911274433 344.035893678665 2635.99991798401 149 151 146
-16.6751276701689 344.037115573883 2635.99991798401 152 154 149
-9.47350449860096 343.515843153 2631.99996948242 138 140 135
-2.29452853091061 343.124657869339 2628.99994850159 147 149 144
4.86809527501464 342.733025550842 2625.99992752075 143 145 140
12.0235020294786 342.602014541626 2625 146 148 143
19.1734116524458 342.470586299896 2624.00007247925 153 155 150
26.3378620147705 342.599749565125 2625 150 152 147
33.45662727952 342.206418514252 2621.99997901917 145 147 142
40.5898801982403 342.073678970337 2621.00005149841 146 148 143
47.6811043918133 341.679483652115 2618.00003051758 145 147 142
54.7557920217514 341.284900903702 2615.00000953674 144 146 141
61.8139132857323 340.889871120453 2611.99998855591 146 148 143
68.8554495573044 340.494453907013 2608.99996757507 148 150 145
76.0550796985626 340.881615877151 2611.99998855591 151 153 148
83.1752344965935 340.876877307892 2611.99998855591 149 151 146
90.3642550110817 341.132760047913 2614.00008201599 140 142 137
97.4892303347588 341.127187013626 2614.00008201599 142 144 139
104.613848030567 341.121166944504 2614.00008201599 149 151 146
111.780822277069 341.245234012604 2615.00000953674 161 163 158
118.952840566635 341.368913650513 2615.9999370575 159 161 158
126.226261258125 341.753154993057 2618.99995803833 137 139 136
133.617430925369 342.397958040237 2624.00007247925 133 135 132
140.820756554604 342.520356178284 2625 152 154 151
148.085385560989 342.772841453552 2627.00009346008 157 159 156
155.419483780861 343.155324459076 2630.00011444092 158 160 157
162.83118724823 343.667984008789 2634.0000629425 145 147 144
170.199528336525 344.049662351608 2637.00008392334 144 146 143
177.381828427315 344.039559364319 2637.00008392334 154 156 153
184.843465685844 344.550877809525 2641.00003242493 150 152 149
192.326202988625 345.061808824539 2644.99998092651 153 155 150
199.754610657692 345.441818237305 2648.00000190735 163 168 162
207.589462399483 346.473723649979 2655.99989891052 134 139 132
215.467169880867 347.505122423172 2664.00003433228 158 163 156
223.554849624634 348.797023296356 2674.00002479553 134 139 133
231.955170631409 350.479692220688 2687.00003623962 140 145 139
241.04879796505 353.074938058853 2707.00001716614 140 145 139
261.29812002182 350.554287433624 2687.99996376038 197 202 198
264.613002538681 345.323085784912 2648.00000190735 155 160 156
270.891457796097 344.134449958801 2638.99993896484 168 173 169
277.330785989761 343.206375837326 2631.99996948242 167 169 166
283.731192350388 342.278093099594 2625 171 171 169
290.535748004913 341.871052980423 2621.99997901917 173 173 171
297.436594963074 341.594099998474 2619.99988555908 173 175 172
304.441928863525 341.447323560715 2618.99995803833 179 181 178
311.440765857697 341.300129890442 2618.00003051758 180 182 179
318.676561117172 341.413408517838 2618.99995803833 186 188 185
326.538801193237 342.178165912628 2625 193 198 194
335.57665348053 344.115614891052 2640.00010490417 198 203 199
-74.5104849338531 338.381975889206 2648.00000190735 29 32 25
-68.3078542351723 343.497723340988 2687.99996376038 26 29 22
-60.3442378342152 339.923352003098 2660.00008583069 19 22 15
-52.7725853025913 337.882071733475 2644.00005340576 16 17 11
-45.4085990786552 336.734801530838 2634.99999046326 24 25 19
-38.2240936160088 336.737275123596 2634.99999046326 158 160 155
-31.0276560485363 336.61150932312 2634.0000629425 131 133 128
-23.8365512341261 336.485296487808 2632.99989700317 125 127 122
-16.6571401059628 336.486518383026 2632.99989700317 143 145 140
-9.46686789393425 336.103916168213 2630.00011444092 135 137 132
-2.29379208758473 335.848659276962 2628.00002098084 145 147 142
4.86653111875057 335.4651927948 2625 142 144 139
12.0196370407939 335.336893796921 2624.00007247925 153 155 150
19.1818568855524 335.463732481003 2625 155 157 152
26.3394266366959 335.46245098114 2625 150 152 147
33.4586165845394 335.077315568924 2621.99997901917 153 155 150
40.5768044292927 334.81952548027 2619.99988555908 152 154 149
47.702144831419 334.689110517502 2618.99995803833 146 148 143
54.800920188427 334.430545568466 2617.00010299683 144 146 141
61.9122423231602 334.299296140671 2615.9999370575 145 147 142
68.9914971590042 334.039896726608 2614.00008201599 149 151 146
76.1469379067421 334.163427352905 2615.00000953674 152 154 149
83.2756981253624 334.15874838829 2615.00000953674 146 148 143
90.4387235641479 334.281444549561 2615.9999370575 141 143 138
97.6441577076912 334.531515836716 2618.00003051758 141 143 138
104.74007576704 334.397822618485 2617.00010299683 140 142 137
111.91564053297 334.519267082214 2618.00003051758 153 155 150
119.141712784767 334.768086671829 2619.99988555908 162 164 161
126.426443457603 335.144281387329 2622.99990653992 151 153 150
133.828938007355 335.775583982468 2628.00002098084 139 141 138
140.936270356178 335.639894008636 2627.00009346008 142 144 141
148.094013333321 335.631549358368 2627.00009346008 149 151 148
155.36941587925 335.878312587738 2628.99994850159 157 159 156
162.778794765472 336.380153894424 2632.99989700317 154 156 153
170.273914933205 337.009370326996 2638.00001144409 147 149 146
177.593871951103 337.254911661148 2640.00010490417 154 156 153
184.924095869064 337.500035762787 2641.99995994568 156 158 155
192.337244749069 337.872534990311 2644.99998092651 165 167 162
199.916929006577 338.500052690506 2650.00009536743 161 166 160
207.835808396339 339.638084173203 2658.99991989136 156 161 154
215.883836150169 340.903401374817 2668.99991035461 131 136 129
223.734721541405 341.785103082657 2676.00011825562 139 144 138
231.709286570549 342.794090509415 2684.00001525879 151 156 150
240.349948406219 344.696581363678 2698.99988174438 75 80 74
258.590698242188 339.674532413483 2660.00008583069 203 208 204
264.127999544144 337.489277124405 2642.99988746643 155 160 156
270.393192768097 336.325377225876 2634.0000629425 173 178 174
276.713818311691 335.288941860199 2625.99992752075 169 171 168
283.206254243851 334.507584571838 2619.99988555908 173 175 172
289.997607469559 334.109038114548 2617.00010299683 175 177 174
296.998679637909 333.965480327606 2615.9999370575 176 178 175
303.993403911591 333.821594715118 2615.00000953674 179 181 178
310.981720685959 333.677470684052 2614.00008201599 178 180 177
318.206965923309 333.788365125656 2615.00000953674 175 180 176
326.058626174927 334.537088871002 2621.00005149841 177 182 178
336.738497018814 338.093310594559 2648.9999294281 187 192 188
-106.201060116291 340.165197849274 2720.00002861023 15 20 13
-94.1014662384987 324.038028717041 2591.00008010864 22 27 20
-67.8543895483017 333.936929702759 2670.00007629395 13 16 9
-60.9829984605312 336.191922426224 2687.99996376038 31 34 27
-53.0351512134075 332.318007946014 2657.00006484985 20 21 15
-45.5318912863731 330.444753170013 2641.99995994568 14 15 9
-38.2263213396072 329.571634531021 2634.99999046326 127 129 124
-31.0059059411287 329.198449850082 2631.99996948242 152 154 149
-23.8107852637768 328.949898481369 2630.00011444092 125 127 122
-16.6264809668064 328.70090007782 2628.00002098084 143 145 140
-9.45302192121744 328.451484441757 2625.99992752075 129 131 126
-2.29130778461695 328.326761722565 2625 144 146 141
4.86681563779712 328.326672315598 2625 142 144 139
12.0249213650823 328.326225280762 2625 156 158 153
19.1829819232225 328.325301408768 2625 154 156 151
26.3208970427513 328.07382941246 2622.99990653992 141 143 138
33.4478057920933 327.82194018364 2621.00005149841 146 148 143
40.5791737139225 327.694714069366 2619.99988555908 151 153 148
47.7231442928314 327.692151069641 2619.99988555908 147 149 144
54.8250563442707 327.439039945602 2618.00003051758 146 148 143
61.9868524372578 327.560722827911 2618.99995803833 147 149 144
69.0746903419495 327.306807041168 2617.00010299683 150 152 147
76.2678533792496 327.552765607834 2618.99995803833 155 157 152
83.407923579216 327.548146247864 2618.99995803833 148 150 145
90.5131176114082 327.418088912964 2618.00003051758 145 147 142
97.6871252059937 327.537775039673 2618.99995803833 145 147 142
104.786150157452 327.406853437424 2618.00003051758 141 143 138
111.964844167233 327.525705099106 2618.99995803833 150 152 147
119.103103876114 327.519088983536 2618.99995803833 159 161 158
126.385539770126 327.887266874313 2621.99997901917 159 161 158
133.78569483757 328.505128622055 2627.00009346008 145 147 144
140.998005867004 328.622341156006 2628.00002098084 138 140 137
148.158863186836 328.614115715027 2628.00002098084 145 147 144
155.378296971321 328.730523586273 2628.99994850159 151 153 150
162.66442835331 328.971654176712 2631.00004196167 157 159 156
170.089945197105 329.462349414825 2634.99999046326 150 152 149
177.402138710022 329.702645540237 2637.00008392334 153 155 152
184.724554419518 329.942524433136 2638.99993896484 157 159 156
192.057237029076 330.182015895844 2641.00003242493 164 166 161
199.701845645905 330.921202898026 2647.0000743866 159 164 158
207.847476005554 332.410007715225 2658.99991989136 151 156 149
215.734153985977 333.398371934891 2667.00005531311 135 140 133
223.412737250328 334.011167287827 2671.99993133545 148 153 147
231.031522154808 334.498703479767 2676.00011825562 5 10 4
239.739865064621 336.485654115677 2691.99991226196 14 19 13
252.756297588348 344.221651554108 2753.99994850159 7 12 6
257.535457611084 331.070452928543 2648.9999294281 171 176 172
263.642728328705 329.681575298309 2638.00001144409 138 143 139
269.997239112854 328.667372465134 2630.00011444092 168 173 169
276.518076658249 327.902853488922 2624.00007247925 169 171 168
282.897263765335 327.01313495636 2617.00010299683 174 176 173
289.68071937561 326.622992753983 2614.00008201599 175 177 174
296.787530183792 326.607376337051 2614.00008201599 177 179 176
304.125845432281 326.841294765472 2615.9999370575 179 181 178
311.236143112183 326.825112104416 2615.9999370575 177 179 176
318.588852882385 327.058464288712 2618.00003051758 184 189 185
326.573401689529 327.91605591774 2625 178 183 179
336.629033088684 330.771923065186 2648.00000190735 178 183 179
-98.3563289046288 331.30556344986 2707.99994468689 38 41 34
-87.2783586382866 317.852944135666 2598.00004959106 28 31 22
-81.4300552010536 322.751551866531 2638.00001144409 22 23 15
-75.2507671713829 327.160537242889 2674.00002479553 22 23 15
-60.1243302226067 324.231803417206 2650.00009536743 23 24 16
-53.5971112549305 328.517347574234 2684.99994277954 22 23 15
-45.655146241188 324.115455150604 2648.9999294281 22 23 15
-38.1995029747486 322.160184383392 2632.99989700317 0 5 0
-30.9723429381847 321.672707796097 2628.99994850159 9 14 8
-23.7849913537502 321.429580450058 2627.00009346008 117 122 116
-16.6211109608412 321.430742740631 2627.00009346008 124 129 123
-9.45356488227844 321.309089660645 2625.99992752075 130 135 129
-2.29231221601367 321.309447288513 2625.99992752075 137 142 136
4.86524170264602 321.064680814743 2624.00007247925 138 143 137
12.0164481922984 320.941776037216 2622.99990653992 145 150 144
19.1621575504541 320.818543434143 2621.99997901917 126 131 125
26.2923017144203 320.572555065155 2619.99988555908 114 119 113
33.41144323349 320.326179265976 2618.00003051758 135 140 134
40.5505262315273 320.324063301086 2618.00003051758 143 148 142
47.7258823812008 320.566236972809 2619.99988555908 147 152 146
54.8910237848759 320.685684680939 2621.00005149841 145 150 144
62.0614103972912 320.804715156555 2621.99997901917 143 148 142
69.2106261849403 320.800989866257 2621.99997901917 147 152 146
76.3013288378716 320.552170276642 2619.99988555908 157 162 156
83.3489820361137 320.180594921112 2617.00010299683 157 162 156
90.4145538806915 319.931000471115 2615.00000953674 150 152 147
97.6553782820702 320.292711257935 2618.00003051758 149 151 146
104.872159659863 320.531666278839 2619.99988555908 144 146 141
112.099468708038 320.770263671875 2621.99997901917 150 152 147
119.246304035187 320.763766765594 2621.99997901917 156 158 155
126.4408826828 320.879191160202 2622.99990653992 165 167 164
133.691385388374 321.116536855698 2625 150 152 149
140.898630023003 321.231186389923 2625.99992752075 135 137 134
148.110806941986 321.34547829628 2627.00009346008 142 144 141
155.268803238869 321.337014436722 2627.00009346008 148 150 147
162.488028407097 321.450501680374 2628.00002098084 159 161 158
169.905811548233 321.930557489395 2631.99996948242 153 155 152
177.277460694313 322.287887334824 2634.99999046326 151 153 150
184.524819254875 322.400212287903 2635.99991798401 156 158 153
191.849708557129 322.63445854187 2638.00001144409 158 160 155
199.637427926064 323.602080345154 2645.99990844727 128 133 126
207.546234130859 324.691623449326 2654.99997138977 134 139 132
215.584218502045 325.902998447418 2664.99996185303 137 142 135
223.006919026375 326.135635375977 2667.00005531311 8 13 7
230.871438980103 326.97930932045 2674.00002479553 18 20 15
239.396706223488 328.678488731384 2687.99996376038 10 15 9
252.770036458969 336.735308170319 2753.99994850159 16 18 13
256.9659948349 323.136359453201 2642.99988746643 176 181 177
263.25711607933 322.022169828415 2634.0000629425 149 154 150
269.395679235458 320.785492658615 2624.00007247925 166 171 167
276.005893945694 320.15985250473 2618.99995803833 171 173 170
282.587945461273 319.533884525299 2614.00008201599 174 176 173
289.474368095398 319.274395704269 2611.99998855591 174 176 173
296.576052904129 319.259107112885 2611.99998855591 176 178 175
303.90927195549 319.487899541855 2614.00008201599 179 181 178
311.014443635941 319.4719851017 2614.00008201599 177 179 176
318.727046251297 320.066750049591 2618.99995803833 186 191 187
326.963543891907 321.150064468384 2628.00002098084 176 181 177
-105.393014848232 322.857409715652 2698.99988174438 32 35 28
-88.8286903500557 316.28891825676 2644.00005340576 27 30 21
-81.8359330296516 317.131072282791 2651.00002288818 25 26 18
-74.4106993079185 316.298007965088 2644.00005340576 24 25 17
-66.6675120592117 313.789665699005 2622.99990653992 20 21 13
-52.72176861763 315.949738025665 2641.00003242493 23 25 14
-38.2451787590981 315.356612205505 2635.99991798401 31 36 30
-30.9740900993347 314.521104097366 2628.99994850159 5 10 4
-23.7953867763281 314.403027296066 2628.00002098084 0 3 0
-16.6157204657793 314.164876937866 2625.99992752075 131 136 130
-9.44329798221588 313.806653022766 2622.99990653992 132 137 131
-2.28807679377496 313.567727804184 2621.00005149841 120 125 119
4.86180745065212 313.687294721603 2621.99997901917 138 143 137
12.0125459507108 313.686847686768 2621.99997901917 123 128 122
19.1559307277203 313.566327095032 2621.00005149841 106 111 105
26.2737143784761 313.206166028976 2618.00003051758 124 129 123
33.413328230381 313.204526901245 2618.00003051758 133 138 132
40.5837893486023 313.441663980484 2619.99988555908 136 141 135
47.7650053799152 313.678473234177 2621.99997901917 137 142 136
54.8941157758236 313.555985689163 2621.00005149841 144 149 143
62.041237950325 313.552737236023 2621.00005149841 154 159 153
69.1617131233215 313.429445028305 2619.99988555908 150 155 149
76.2764886021614 313.305765390396 2618.99995803833 153 158 152
83.3217948675156 312.942415475845 2615.9999370575 161 166 160
90.4196202754974 312.817990779877 2615.00000953674 140 145 139
97.6235494017601 313.05205821991 2617.00010299683 118 123 117
104.79798167944 313.166081905365 2618.00003051758 107 112 106
112.062968313694 313.518911600113 2621.00005149841 106 111 105
119.071021676064 313.153684139252 2618.00003051758 129 134 130
126.303285360336 313.386112451553 2619.99988555908 168 173 167
133.444145321846 313.378989696503 2619.99988555908 156 161 155
140.638157725334 313.491076231003 2621.00005149841 138 143 137
147.837087512016 313.602775335312 2621.99997901917 117 122 116
155.100047588348 313.833683729172 2624.00007247925 129 131 126
162.373319268227 314.064204692841 2625.99992752075 133 135 130
169.786021113396 314.533561468124 2630.00011444092 161 164 157
177.152588963509 314.882874488831 2632.99989700317 154 157 150
184.534907341003 315.23185968399 2635.99991798401 163 166 159
191.932886838913 315.580457448959 2638.99993896484 64 67 60
199.421927332878 316.048204898834 2642.99988746643 15 18 9
207.166627049446 316.874355077744 2650.00009536743 13 16 9
214.625090360641 317.221760749817 2653.00011634827 21 24 17
222.34995663166 317.927479743958 2658.99991989136 22 23 18
229.675024747849 318.03497672081 2660.00008583069 16 16 14
238.69700729847 320.413738489151 2680.0000667572 16 16 14
248.46950173378 323.628813028336 2707.00001716614 207 209 206
256.493449211121 315.35342335701 2638.00001144409 170 175 169
262.871205806732 314.383536577225 2630.00011444092 157 162 156
269.101828336716 313.293814659119 2621.00005149841 163 168 162
275.493383407593 312.442988157272 2614.00008201599 170 174 173
282.386481761932 312.18945980072 2611.99998855591 173 178 174
289.489418268204 312.174707651138 2611.99998855591 171 176 172
296.591341495514 312.159657478333 2611.99998855591 172 174 171
303.924947977066 312.383353710175 2614.00008201599 173 175 170
311.387360095978 312.726199626923 2617.00010299683 171 173 168
319.473534822464 313.666135072708 2625 183 185 180
328.473210334778 315.442144870758 2640.00010490417 179 184 180
-95.7518592476845 308.155566453934 2635.99991798401 21 24 17
-88.4303897619247 307.692974805832 2631.99996948242 20 23 14
-82.210898399353 311.32173538208 2663.00010681152 29 30 22
-74.3303596973419 308.754026889801 2641.00003242493 27 28 20
-66.1882534623146 304.432272911072 2604.00009155273 21 22 14
-58.8603466749191 303.266584873199 2594.00010108948 18 19 11
-51.3072498142719 300.463706254959 2569.9999332428 15 17 6
-45.0741946697235 305.727422237396 2615.00000953674 14 17 8
-37.6233868300915 303.157567977905 2592.99993515015 19 24 18
-31.022934243083 307.836025953293 2632.99989700317 13 18 12
-23.8329265266657 307.720601558685 2631.99996948242 8 13 7
-16.6356228291988 307.370960712433 2628.99994850159 75 80 74
-9.44742280989885 306.787133216858 2624.00007247925 127 132 126
-2.28820368647575 306.436717510223 2621.00005149841 130 135 129
4.85836854204535 306.319683790207 2619.99988555908 142 147 141
12.0086297392845 306.436151266098 2621.00005149841 103 108 102
19.1350653767586 306.08457326889 2618.00003051758 96 101 95
26.2651368975639 305.966436862946 2617.00010299683 139 144 138
33.4024168550968 305.964797735214 2617.00010299683 141 146 140
40.586031973362 306.313455104828 2619.99988555908 140 145 139
47.7312095463276 306.311070919037 2619.99988555908 139 144 138
54.8552609980106 306.191354990005 2618.99995803833 138 143 137
62.0209872722626 306.305021047592 2619.99988555908 138 143 137
69.1127330064774 306.067615747452 2618.00003051758 143 148 142
76.1933177709579 305.829882621765 2615.9999370575 146 151 145
83.1671357154846 305.240988731384 2611.00006103516 154 159 153
90.3208553791046 305.353164672852 2611.99998855591 177 182 176
97.5542813539505 305.698722600937 2615.00000953674 181 186 180
104.803718626499 306.043952703476 2618.00003051758 169 174 168
111.940830945969 306.038081645966 2618.00003051758 112 117 111
119.032047688961 305.914908647537 2617.00010299683 110 115 109
126.165568828583 305.908292531967 2617.00010299683 142 147 141
133.298605680466 305.901288986206 2617.00010299683 164 169 163
140.484824776649 306.010812520981 2618.00003051758 140 145 139
147.675946354866 306.119918823242 2618.99995803833 114 119 113
154.931113123894 306.345582008362 2621.00005149841 156 159 152
162.258416414261 306.68768286705 2624.00007247925 103 106 99
169.666036963463 307.146340608597 2628.00002098084 123 126 119
177.027568221092 307.487696409225 2631.00004196167 146 149 142
184.474810957909 307.945549488068 2634.99999046326 44 47 40
192.08861887455 308.636754751205 2641.00003242493 14 17 10
199.28166270256 308.626383543015 2641.00003242493 11 14 5
206.239491701126 308.265119791031 2638.00001144409 14 17 10
213.665634393692 308.604627847672 2641.00003242493 20 23 16
221.190944314003 309.060603380203 2644.99998092651 17 19 14
228.823646903038 309.633076190948 2650.00009536743 19 21 18
237.996965646744 312.191396951675 2671.99993133545 24 26 23
246.92203104496 314.281821250916 2690.00005722046 140 142 141
254.715532064438 314.852982759476 2694.9999332428 219 221 218
256.409555673599 308.063894510269 2637.00008392334 126 131 127
262.584954500198 306.882381439209 2627.00009346008 156 161 157
268.910348415375 305.934190750122 2618.99995803833 168 175 168
275.296717882156 305.102646350861 2611.99998855591 169 173 172
282.400906085968 305.088460445404 2611.99998855591 173 177 176
289.725840091705 305.307596921921 2614.00008201599 175 179 178
296.947091817856 305.409580469131 2615.00000953674 180 185 181
304.05655503273 305.394500494003 2615.00000953674 189 191 188
311.522006988525 305.729478597641 2618.00003051758 188 190 187
319.854706525803 306.881546974182 2628.00002098084 171 173 170
329.609394073486 309.317648410797 2648.9999294281 172 177 173
-113.974563777447 311.476677656174 2727.9999256134 42 45 38
-94.7762131690979 297.900378704071 2608.99996757507 19 22 15
-89.3087536096573 303.500235080719 2657.99999237061 20 23 14
-81.7831158638 302.477151155472 2648.9999294281 25 26 18
-73.8277435302734 299.512445926666 2622.99990653992 26 27 19
-59.2946819961071 298.377722501755 2612.99991607666 23 24 16
-52.5079295039177 300.321966409683 2630.00011444092 16 18 7
-45.3696846961975 300.553023815155 2631.99996948242 12 15 6
-37.9011258482933 298.271387815475 2611.99998855591 5 10 4
-23.9519458264112 302.043110132217 2644.99998092651 3 8 2
-16.6555140167475 300.559669733047 2631.99996948242 9 14 8
-9.42633394151926 298.961639404297 2618.00003051758 4 9 3
-2.28221691213548 298.505216836929 2614.00008201599 25 30 24
4.84936079010367 298.619300127029 2615.00000953674 43 48 42
12.0047014206648 299.189835786819 2619.99988555908 122 127 121
19.1287975758314 298.846393823624 2617.00010299683 153 158 152
26.2565240263939 298.730999231339 2615.9999370575 137 142 136
33.391460776329 298.72938990593 2615.9999370575 117 122 116
40.5882373452187 299.184143543243 2619.99988555908 137 142 136
47.6973615586758 298.953384160995 2618.00003051758 136 141 135
54.7953918576241 298.722267150879 2615.9999370575 138 143 137
61.9296543300152 298.719137907028 2615.9999370575 142 147 141
69.0108761191368 298.48724603653 2614.00008201599 140 145 139
76.1683136224747 298.597544431686 2615.00000953674 137 142 136
83.203487098217 298.250734806061 2611.99998855591 141 146 140
90.3948843479156 298.474460840225 2614.00008201599 148 153 147
97.5595414638519 298.583626747131 2615.00000953674 152 157 151
104.769319295883 298.806577920914 2617.00010299683 159 164 158
111.94684356451 298.91499876976 2618.00003051758 168 173 167
119.038425385952 298.794686794281 2617.00010299683 162 167 161
126.268744468689 299.016535282135 2618.99995803833 126 131 125
133.356675505638 298.895478248596 2618.00003051758 109 114 108
140.492305159569 298.888236284256 2618.00003051758 165 170 164
147.458255290985 298.538118600845 2615.00000953674 148 150 145
154.8210978508 298.986822366714 2618.99995803833 119 122 115
162.205174565315 299.43510890007 2622.99990653992 106 109 102
169.675007462502 299.997180700302 2628.00002098084 31 34 27
176.969632506371 300.216466188431 2630.00011444092 7 8 2
184.554517269135 300.891906023026 2635.99991798401 24 25 19
192.535117268562 302.137672901154 2647.0000743866 11 12 6
198.009252548218 299.502283334732 2624.00007247925 4 7 0
204.530164599419 298.57873916626 2615.9999370575 6 12 2
212.05860376358 299.138695001602 2621.00005149841 16 21 14
220.700636506081 301.181852817535 2638.99993896484 13 18 12
227.108433842659 300.143271684647 2630.00011444092 13 18 14
238.276451826096 305.266797542572 2674.99995231628 5 10 6
247.210115194321 307.308524847031 2693.00007820129 148 153 149
251.703977584839 303.872525691986 2663.00010681152 209 214 210
256.519883871078 301.006942987442 2638.00001144409 145 150 146
262.598305940628 299.738764762878 2627.00009346008 161 166 162
269.026666879654 298.926711082459 2619.99988555908 173 178 172
275.52142739296 298.228561878204 2614.00008201599 176 178 177
282.739490270615 298.328727483749 2615.00000953674 172 176 175
289.851188659668 298.314481973648 2615.00000953674 170 174 173
296.961903572083 298.299968242645 2615.00000953674 169 173 172
304.187893867493 298.399239778519 2615.9999370575 162 166 165
311.775356531143 298.840373754501 2619.99988555908 157 161 160
320.113867521286 299.965590238571 2630.00011444092 179 184 180
-119.949288666248 300.369024276733 2694.9999332428 135 138 131
-112.434640526772 299.929261207581 2690.99998474121 28 31 24
-104.667983949184 298.708885908127 2680.0000667572 23 26 19
-96.2343662977219 295.258909463882 2648.9999294281 21 24 17
-88.8766646385193 294.817894697189 2644.99998092651 24 27 18
-81.38607442379 293.819189071655 2635.99991798401 21 22 14
-73.8598182797432 292.48571395874 2624.00007247925 23 24 16
-66.5766671299934 291.932046413422 2618.99995803833 28 29 21
-60.0694082677364 295.056492090225 2647.0000743866 27 28 20
-52.7503155171871 294.502109289169 2641.99995994568 21 23 12
-45.3203767538071 293.055534362793 2628.99994850159 19 20 12
-38.0337461829185 292.165964841843 2621.00005149841 12 17 11
-24.7410945594311 304.542720317841 2732.00011253357 20 25 19
-16.7196858674288 294.511258602142 2641.99995994568 19 24 18
-9.40523017197847 291.167736053467 2611.99998855591 0 5 0
-2.27797264233232 290.833622217178 2608.99996757507 20 25 19
4.84034605324268 290.945023298264 2609.99989509583 15 20 14
11.9961770251393 291.83641076088 2618.00003051758 6 11 5
19.1005766391754 291.278183460236 2612.99991607666 29 34 28
26.2278094887733 291.27699136734 2612.99991607666 104 109 103
33.3677120506763 291.386902332306 2614.00008201599 121 126 120
40.5749082565308 291.942298412323 2618.99995803833 145 150 144
47.6634614169598 291.605561971664 2615.9999370575 153 158 152
54.7564141452312 291.379928588867 2614.00008201599 158 163 157
61.8619173765183 291.265398263931 2612.99991607666 154 159 153
68.988136947155 291.261970996857 2612.99991607666 150 155 149
76.1432200670242 291.369646787643 2614.00008201599 129 134 128
83.3034515380859 291.476875543594 2615.00000953674 118 123 117
90.503416955471 291.695266962051 2617.00010299683 97 102 96
97.6766347885132 291.80184006691 2618.00003051758 97 102 96
104.934990406036 292.130887508392 2621.00005149841 98 103 97
112.038269639015 292.013794183731 2619.99988555908 92 97 91
119.135662913322 291.896283626556 2618.99995803833 99 104 98
126.323580741882 292.001366615295 2619.99988555908 102 107 101
133.46554338932 291.994631290436 2619.99988555908 75 80 74
140.499651432037 291.764616966248 2618.00003051758 101 106 100
147.353172302246 291.199952363968 2612.99991607666 48 50 45
154.770061373711 291.749387979507 2618.00003051758 18 21 14
162.399142980576 292.632699012756 2625.99992752075 14 17 10
169.490113854408 292.512744665146 2625 13 16 9
176.642313599586 292.503863573074 2625 14 15 9
184.353977441788 293.386042118073 2632.99989700317 0 1 0
192.108601331711 294.267863035202 2641.00003242493 24 25 17
196.812003850937 290.581077337265 2608.00004005432 16 19 8
203.055083751678 289.345324039459 2596.99988365173 7 13 3
210.451185703278 289.780527353287 2601.0000705719 10 16 6
225.824579596519 291.318237781525 2615.00000953674 10 15 11
236.863240599632 296.208262443542 2658.99991989136 4 9 5
248.14061820507 301.097601652145 2703.00006866455 216 221 217
250.771373510361 295.51562666893 2653.00011634827 216 221 217
256.240993738174 293.498039245605 2634.99999046326 131 136 132
262.511402368546 292.482793331146 2625.99992752075 154 159 153
269.040018320084 291.801393032074 2619.99988555908 165 167 162
275.851309299469 291.453957557678 2617.00010299683 166 168 165
282.537162303925 290.994822978973 2612.99991607666 174 176 175
289.643704891205 290.980905294418 2612.99991607666 174 178 177
296.862840652466 291.078060865402 2614.00008201599 176 180 179
304.435282945633 291.508942842484 2618.00003051758 174 178 177
312.147468328476 292.050838470459 2622.99990653992 170 174 173
320.494413375854 293.149083852768 2632.99989700317 148 153 149
-119.64388936758 292.273223400116 2687.99996376038 70 73 66
-112.607583403587 293.04027557373 2694.9999332428 26 29 22
-104.360945522785 290.544897317886 2671.99993133545 30 33 26
-96.4573323726654 288.701504468918 2654.99997138977 18 21 14
-88.7468531727791 287.183880805969 2641.00003242493 25 28 19
-73.0473250150681 282.190054655075 2595.00002861023 22 23 15
-66.8851956725121 286.108464002609 2631.00004196167 20 21 13
-59.6867278218269 286.002963781357 2630.00011444092 19 20 12
-53.2123036682606 289.812028408051 2664.99996185303 22 24 13
-45.0469106435776 284.159630537033 2612.99991607666 24 25 17
-37.9486568272114 284.37927365303 2615.00000953674 22 24 19
-16.7711898684502 288.189798593521 2650.00009536743 10 12 7
-9.43813100457191 285.036712884903 2621.00005149841 8 10 5
-2.2457845043391 279.708176851273 2572.00002670288 19 21 16
4.79052402079105 280.90438246727 2582.99994468689 14 16 11
11.9509790092707 283.622711896896 2608.00004005432 9 11 6
19.0577134490013 283.513188362122 2607.00011253357 11 13 8
26.219142600894 284.055769443512 2611.99998855591 13 15 10
33.3566851913929 284.162968397141 2612.99991607666 14 16 11
40.5460372567177 284.596085548401 2617.00010299683 3 5 0
47.6295053958893 284.267574548721 2614.00008201599 4 6 1
54.6754710376263 283.829897642136 2609.99989509583 4 6 1
61.7941096425056 283.826917409897 2609.99989509583 5 7 2
68.9653232693672 284.041076898575 2611.99998855591 7 9 4
76.2636959552765 284.689784049988 2618.00003051758 11 13 8
83.4352076053619 284.794390201569 2618.99995803833 6 8 3
90.6810387969017 285.116195678711 2621.99997901917 3 5 0
97.7936163544655 285.002589225769 2621.00005149841 6 8 3
105.060525238514 285.323619842529 2624.00007247925 8 10 5
112.215109169483 285.318076610565 2624.00007247925 10 12 7
119.323767721653 285.20342707634 2622.99990653992 7 12 6
126.474738121033 285.197168588638 2622.99990653992 5 10 4
133.523344993591 284.973114728928 2621.00005149841 5 10 4
140.131190419197 283.878922462463 2611.00006103516 19 21 16
146.627560257912 282.67565369606 2599.99990463257 13 16 9
154.48234975338 284.081429243088 2612.99991607666 19 22 15
162.469267845154 285.59547662735 2627.00009346008 10 13 6
170.208990573883 286.565512418747 2635.99991798401 5 6 0
176.180198788643 284.600019454956 2618.00003051758 5 6 0
184.153273701668 285.895496606827 2630.00011444092 15 16 8
191.97279214859 286.864429712296 2638.99993896484 16 17 9
196.972817182541 283.702403306961 2609.99989509583 14 17 6
202.283337712288 281.192481517792 2586.99989318848 14 20 10
210.704460740089 283.030033111572 2604.00009155273 14 20 10
219.635590910912 285.410553216934 2625.99992752075 8 13 6
235.360532999039 287.127077579498 2641.99995994568 16 21 15
247.510209679604 292.983770370483 2696.00009918213 216 219 212
250.311076641083 287.755399942398 2648.00000190735 224 227 220
255.864530801773 285.895764827728 2631.00004196167 135 136 130
262.124329805374 284.905254840851 2621.99997901917 167 168 160
268.745064735413 284.349173307419 2617.00010299683 171 171 163
275.759220123291 284.227401018143 2615.9999370575 175 172 167
282.442688941956 283.779472112656 2611.99998855591 164 163 159
289.43595290184 283.657222986221 2611.00006103516 157 156 154
296.422779560089 283.534646034241 2609.99989509583 156 156 154
304.100930690765 284.0636074543 2615.00000953674 174 176 175
312.043279409409 284.809470176697 2621.99997901917 179 183 182
321.118235588074 286.532580852509 2638.00001144409 164 168 167
-119.82798576355 285.38054227829 2691.99991226196 27 30 23
-112.780421972275 286.128461360931 2698.99988174438 22 25 18
-104.366227984428 283.27152132988 2671.99993133545 26 29 22
-96.57122194767 281.792342662811 2657.99999237061 17 20 13
-89.1210287809372 281.160891056061 2651.99995040894 24 27 18
-80.3137123584747 275.758177042007 2601.0000705719 21 22 14
-72.6006254553795 273.4295129776 2578.9999961853 23 24 16
-66.0496279597282 275.447458028793 2598.00004959106 23 24 16
-60.0302033126354 280.433714389801 2644.99998092651 21 22 14
-52.4761974811554 278.634130954742 2628.00002098084 17 19 8
-45.2560968697071 278.318554162979 2625 16 17 9
-37.834495306015 276.412159204483 2607.00011253357 14 17 10
-30.8762732893229 277.792245149612 2619.99988555908 17 20 13
-23.6839856952429 277.263522148132 2615.00000953674 25 28 21
-16.442934051156 275.462031364441 2598.00004959106 22 25 18
-9.26935859024525 272.917956113815 2573.99988174438 20 23 16
-2.24153301678598 272.176057100296 2566.99991226196 20 23 16
4.77036647498608 272.706151008606 2572.00002670288 18 21 14
11.8553526699543 274.296134710312 2586.99989318848 13 16 9
19.0075132995844 275.673747062683 2599.99990463257 12 15 8
26.1401757597923 276.096731424332 2604.00009155273 10 13 6
33.256258815527 276.201248168945 2605.00001907349 9 12 5
40.4086597263813 276.517480611801 2608.00004005432 8 11 4
47.5043766200542 276.409238576889 2607.00011253357 8 11 4
54.5525625348091 276.08859539032 2604.00009155273 11 14 7
61.5604855120182 275.661557912827 2599.99990463257 16 19 12
68.6255693435669 275.552242994308 2598.99997711182 14 17 10
75.8014544844627 275.866657495499 2601.99999809265 18 21 14
83.2801535725594 277.134925127029 2614.00008201599 15 18 11
90.6164646148682 277.766674757004 2619.99988555908 7 10 3
97.9105159640312 278.186023235321 2624.00007247925 7 10 3
105.185970664024 278.498947620392 2627.00009346008 10 13 6
112.220779061317 278.175503015518 2624.00007247925 16 19 12
118.829354643822 276.897609233856 2611.99998855591 12 14 9
125.757813453674 276.467472314835 2608.00004005432 13 16 9
132.918700575829 276.56701207161 2608.99996757507 13 16 9
139.869838953018 276.242226362228 2605.99994659424 14 17 10
146.522119641304 275.387138128281 2598.00004959106 16 19 12
154.017075896263 276.12167596817 2605.00001907349 8 9 3
161.364078521729 276.537865400314 2608.99996757507 18 19 13
167.892813682556 275.575816631317 2599.99990463257 9 10 2
175.71784555912 276.73327922821 2611.00006103516 19 20 12
183.392107486725 277.572363615036 2618.99995803833 16 17 9
190.672799944878 277.775168418884 2621.00005149841 29 30 22
196.227803826332 275.540173053741 2599.99990463257 24 27 16
202.449679374695 274.364769458771 2588.99998664856 21 24 13
210.633844137192 275.83834528923 2602.9999256134 15 18 7
219.479009509087 278.053253889084 2624.00007247925 15 21 11
227.228656411171 278.784215450287 2631.00004196167 15 18 11
236.441016197205 281.210154294968 2654.00004386902 21 24 17
244.676038622856 282.364130020142 2664.99996185303 183 184 176
249.755918979645 279.915452003479 2641.99995994568 224 224 216
255.682289600372 278.526127338409 2628.99994850159 165 162 153
262.136876583099 277.77224779129 2621.99997901917 178 174 165
268.860548734665 277.336001396179 2618.00003051758 190 183 173
275.877743959427 277.217239141464 2617.00010299683 186 179 171
282.67228603363 276.886373758316 2614.00008201599 180 175 171
289.449572563171 276.555269956589 2611.00006103516 174 169 165
296.663820743561 276.647537946701 2611.99998855591 155 154 152
304.231405258179 277.057260274887 2615.9999370575 156 158 155
312.533855438232 278.1021296978 2625.99992752075 173 175 172
-119.700357317925 277.742058038712 2688.99989128113 14 17 10
-111.57414317131 275.785207748413 2670.00007629395 30 33 26
-104.097969830036 275.274038314819 2664.99996185303 25 28 21
-96.6123417019844 274.659186601639 2658.99991989136 19 22 15
-88.7893810868263 272.907733917236 2641.99995994568 21 24 15
-81.1823233962059 271.569043397903 2628.99994850159 20 21 13
-72.6886987686157 266.717821359634 2582.00001716614 18 19 11
-66.5614157915115 270.44004201889 2618.00003051758 19 20 12
-59.738140553236 271.889358758926 2631.99996948242 22 23 15
-52.6385642588139 272.305309772491 2635.99991798401 23 25 14
-44.9307709932327 269.208639860153 2605.99994659424 22 24 13
-37.8509014844894 269.417285919189 2608.00004005432 32 35 28
-30.5478274822235 267.766118049622 2592.00000762939 34 37 30
-23.6127134412527 269.317060709 2607.00011253357 23 26 19
-16.5070500224829 269.421309232712 2608.00004005432 25 28 21
-9.35265235602856 268.285572528839 2596.99988365173 11 14 7
-2.25649075582623 266.942918300629 2584.00011062622 17 20 13
4.78544365614653 266.529589891434 2579.99992370605 15 18 11
11.9109423831105 268.492043018341 2598.99997711182 10 13 6
19.081573933363 269.627630710602 2609.99989509583 13 16 9
26.0712094604969 268.283516168594 2596.99988365173 22 25 18
33.0408848822117 267.352342605591 2588.00005912781 24 27 20
40.1007793843746 267.350524663925 2588.00005912781 21 24 17
47.2151935100555 267.658293247223 2591.00008010864 18 21 14
54.3248280882835 267.862379550934 2592.99993515015 19 22 15
61.3504610955715 267.652958631516 2591.00008010864 20 23 16
68.3913305401802 267.546415328979 2589.99991416931 20 23 16
75.4847675561905 267.646193504334 2591.00008010864 17 20 13
82.6152041554451 267.848879098892 2592.99993515015 15 18 11
90.4480218887329 270.117193460464 2615.00000953674 11 14 7
97.3929464817047 269.596070051193 2609.99989509583 9 12 5
104.790762066841 270.314186811447 2617.00010299683 9 12 5
110.601082444191 267.106860876083 2585.99996566772 9 12 5
117.743328213692 267.307877540588 2588.00005912781 11 14 7
124.992430210114 267.715096473694 2592.00000762939 11 14 7
132.262900471687 268.121987581253 2595.99995613098 11 14 7
139.876693487167 269.148170948029 2605.99994659424 9 12 5
146.980494260788 269.141227006912 2605.99994659424 11 12 6
154.142886400223 269.237250089645 2607.00011253357 47 48 40
161.000832915306 268.816530704498 2602.9999256134 42 43 35
167.642682790756 268.085718154907 2595.99995613098 7 8 0
175.659075379372 269.523203372955 2609.99989509583 20 21 13
183.260947465897 270.237475633621 2617.00010299683 24 25 17
189.88174200058 269.505709409714 2609.99989509583 46 47 39
196.614652872086 268.980205059052 2605.00001907349 30 32 21
202.928587794304 267.938166856766 2595.00002861023 16 19 8
212.667033076286 271.335542201996 2628.00002098084 18 21 10
220.995128154755 272.77073264122 2641.99995994568 22 25 16
228.448644280434 273.069858551025 2644.99998092651 16 19 10
240.194126963615 278.324007987976 2696.00009918213 18 19 11
243.769437074661 274.080067873001 2654.99997138977 114 114 104
249.200463294983 272.107183933258 2635.99991798401 216 213 204
255.499809980392 271.166414022446 2627.00009346008 81 73 62
262.149184942245 270.638316869736 2621.99997901917 94 84 74
268.975794315338 270.316421985626 2618.99995803833 113 101 89
276.206821203232 270.40708065033 2619.99988555908 138 125 116
283.334225416183 270.39423584938 2619.99988555908 189 178 172
290.238946676254 270.174771547318 2618.00003051758 200 191 186
297.472476959229 270.264595746994 2618.99995803833 190 185 181
304.826825857162 270.457327365875 2621.00005149841 165 166 161
313.262164592743 271.578431129456 2631.99996948242 153 155 152
-129.022493958473 274.63835477829 2730.99994659424 201 206 200
-119.439035654068 269.81720328331 2683.00008773804 50 53 46
-112.624287605286 271.029531955719 2694.9999332428 41 44 37
-104.923330247402 270.1296210289 2686.00010871887 26 29 22
-97.2710698843002 269.22932267189 2677.00004577637 18 21 14
-89.4322469830513 267.624646425247 2661.00001335144 17 20 11
-81.0627415776253 264.008074998856 2625 22 23 15
-74.0717574954033 264.615267515183 2631.00004196167 21 22 14
-66.9460296630859 264.819800853729 2632.99989700317 19 20 12
-59.8999336361885 265.426337718964 2638.99993896484 20 21 13
-51.982119679451 261.808186769485 2602.9999256134 27 29 18
-44.3122498691082 258.491367101669 2569.9999332428 29 31 20
-36.4593975245953 252.659648656845 2512.00008392334 47 50 43
-29.9246609210968 255.37696480751 2539.00003433228 38 41 34
-23.7135011702776 263.324201107025 2618.00003051758 21 24 17
-16.4572186768055 261.514693498611 2599.99990463257 22 25 18
-9.37832146883011 261.917650699615 2604.00009155273 19 22 15
-2.26970040239394 261.415034532547 2598.99997711182 15 18 11
4.82277618721128 261.515557765961 2599.99990463257 12 15 8
11.9390226900578 262.01805472374 2605.00001907349 8 11 4
19.0459489822388 262.01730966568 2605.00001907349 11 14 7
26.0222852230072 260.708659887314 2592.00000762939 18 21 14
32.9658910632133 259.701400995255 2582.00001716614 19 22 15
40.1647202670574 260.705441236496 2592.00000762939 17 20 13
47.3815016448498 261.507958173752 2599.99990463257 18 21 14
54.3693751096725 261.002629995346 2595.00002861023 22 25 18
61.2587258219719 260.195225477219 2586.99989318848 21 24 17
68.1305900216103 259.488046169281 2579.99992370605 18 21 14
75.0805512070656 259.182900190353 2576.99990272522 20 23 16
82.2050124406815 259.480834007263 2579.99992370605 20 23 16
89.4147157669067 259.979575872421 2585.00003814697 17 20 13
97.0618203282356 261.584252119064 2601.0000705719 14 17 10
103.194065392017 259.165793657303 2576.99990272522 10 13 6
111.205227673054 261.473715305328 2599.99990463257 10 13 6
119.386926293373 263.881802558899 2624.00007247925 12 15 8
123.792842030525 258.143872022629 2566.99991226196 11 14 7
139.292970299721 260.947078466415 2595.00002861023 9 12 5
147.100359201431 262.247532606125 2608.00004005432 12 13 7
154.505014419556 262.743175029755 2612.99991607666 35 36 28
161.132231354713 261.931300163269 2605.00001907349 32 33 25
167.844370007515 261.320263147354 2598.99997711182 15 16 8
175.398200750351 262.016028165817 2605.99994659424 18 18 10
183.199599385262 263.013035058975 2615.9999370575 17 17 9
190.327242016792 263.004302978516 2615.9999370575 28 28 20
196.24650478363 261.386722326279 2599.99990463257 27 29 18
203.172728419304 261.176407337189 2598.00004959106 21 23 12
213.890880346298 265.690445899963 2642.99988746643 19 21 10
222.260236740112 267.087757587433 2657.00006484985 10 12 1
228.372916579247 265.770584344864 2644.00005340576 19 19 9
238.156050443649 268.674850463867 2673.00009727478 22 20 8
244.974374771118 268.161207437515 2667.99998283386 33 25 12
248.45564365387 264.129638671875 2628.00002098084 217 208 193
255.317032337189 263.816684484482 2625 107 90 74
262.361139059067 263.70444893837 2624.00007247925 129 108 91
269.501596689224 263.69246840477 2624.00007247925 141 118 100
276.535630226135 263.579666614532 2622.99990653992 138 115 99
283.995926380157 263.868570327759 2625.99992752075 126 107 93
291.360676288605 264.056712388992 2628.00002098084 82 65 55
299.076050519943 264.545947313309 2632.99989700317 50 37 28
306.585043668747 264.833986759186 2635.99991798401 199 194 190
315.656632184982 266.42769575119 2651.99995040894 184 183 179
-121.136389672756 266.229063272476 2720.99995613098 17 20 13
-113.089330494404 264.766901731491 2706.00008964539 40 43 36
-105.943985283375 265.359044075012 2711.99989318848 32 35 28
-98.0751067399979 264.091789722443 2698.99988174438 26 29 22
-89.9742543697357 261.943519115448 2677.00004577637 25 28 19
-81.2210142612457 257.348597049713 2630.00011444092 19 20 12
-73.8500356674194 256.667256355286 2622.99990653992 21 22 14
-66.9492185115814 257.649093866348 2632.99989700317 19 20 12
-59.2672191560268 255.499273538589 2611.00006103516 18 19 11
-51.5652075409889 252.664059400558 2582.00001716614 30 32 21
-44.3660877645016 251.785606145859 2572.99995422363 36 38 27
-37.157841026783 250.51537156105 2559.99994277954 23 24 18
-30.4211284965277 252.572029829025 2581.00008964539 16 17 11
-23.5696993768215 254.628300666809 2601.99999809265 19 20 14
-16.432685777545 254.042088985443 2595.99995613098 16 17 11
-9.35715902596712 254.238396883011 2598.00004959106 14 15 9
-2.27504898793995 254.923701286316 2605.00001907349 9 10 4
4.83970157802105 255.315065383911 2608.99996757507 9 10 4
11.9762597605586 255.70610165596 2612.99991607666 11 12 6
19.0541688352823 255.020350217819 2605.99994659424 13 14 8
26.1038467288017 254.432171583176 2599.99990463257 13 14 8
33.3505123853683 255.605071783066 2611.99998855591 13 14 8
41.1739051342011 260.006904602051 2657.00006484985 11 12 6
47.6935766637325 256.090521812439 2617.00010299683 10 11 5
54.5395836234093 254.718124866486 2602.9999256134 20 21 15
61.2853206694126 253.247559070587 2588.00005912781 21 22 16
68.160243332386 252.559542655945 2581.00008964539 20 21 15
75.0841051340103 252.164751291275 2576.99990272522 24 25 19
82.0814594626427 252.063244581223 2575.99997520447 24 25 19
