ply
format ascii 1.0
comment KinectMotionCapture
element vertex 785
property float x
property float y
property float z
property uchar red
property uchar green
property uchar blue
end_header
-2.04907101169116 453.346063236198 2748.28280394782 196 198 197
-7.39156874407465 452.94883407834 2743.17257017685 199 201 200
-12.7397846882609 452.551032552301 2738.05848272997 183 183 183
-15.9361922556811 452.395964780828 2730.80011222698 180 180 180
-21.3019240935628 451.996579976565 2725.67331911534 177 177 177
-24.5290182093325 451.838821726673 2718.39239517374 180 180 180
-29.1999429197385 451.518312866715 2712.53464546974 183 183 183
-30.3294816873636 451.59885882154 2703.07038133424 180 180 180
-32.1988960615658 451.596519319743 2694.30438237982 146 146 146
-32.6841442898922 451.75197287706 2684.07222652166 150 150 150
-38.1311567849227 451.345331315179 2678.88647457013 146 146 146
-44.285061074707 450.858401673513 2674.42291162501 169 169 169
-44.8463574003595 451.007391190181 2664.13588861352 208 208 208
-46.141003137991 451.073979136911 2654.55186421185 213 215 214
-43.2988031334471 451.612867807908 2640.55831114037 165 167 166
-41.9000351445571 451.989047313334 2627.98763250079 179 181 180
-35.7184707492069 452.912769582357 2610.2413275768 176 178 175
359.170264520743 480.63656393347 2647.14936892742 197 201 200
319.287075793491 476.561590912448 2671.32695698476 110 114 113
255.728033666322 469.948815374258 2716.6176394501 121 123 122
206.309485107909 464.840528144193 2749.93426181867 188 190 189
181.628523879983 462.375418372716 2761.6729604797 194 196 195
166.210061895669 460.900343579428 2765.30993425484 138 140 139
153.126306212688 459.674231138897 2766.9352431317 134 136 135
144.633950874541 458.940022260056 2764.48063896314 122 124 121
130.857445818415 457.637605264832 2766.83840916698 112 114 111
118.632757711582 456.500752827465 2767.85159547649 103 105 102
105.689756985086 455.285580093585 2769.57899603693 101 103 100
96.5354296440219 454.477335930971 2767.87917586217 127 129 126
85.1541181754953 453.42848271419 2768.26915299954 148 150 147
73.8025215745735 452.381872437582 2768.68068243951 147 149 146
63.2239942888519 451.417834551467 2768.41800794043 154 156 153
52.6707500065307 450.455725382961 2768.17367139941 154 156 153
42.142837698397 449.495533963291 2767.94770826087 148 150 147
33.1139217456364 448.696717660021 2766.33884923186 142 144 141
26.3054960511182 448.137879783413 2762.63548215208 149 151 148
19.5000673103194 447.579160628272 2758.93458270639 154 156 153
13.428366835476 447.099846313421 2754.53064963417 163 165 162
5.89963918240599 446.462277648028 2751.53975813487 165 167 164
-2.34725252743995 445.746326041603 2749.2631882656 174 176 173
-9.13475252886453 445.188630749215 2745.57499645474 178 180 177
-14.476171031941 444.788168661647 2740.46582314172 171 171 171
-16.2270506702804 444.77886782263 2731.78571728644 174 174 174
-21.5904617757365 444.376444857555 2726.66059113438 197 197 197
-25.5297236980234 444.129423168935 2720.09828052073 203 203 203
-30.9085281677102 443.725514194425 2714.9619878635 201 201 201
-31.319916754047 443.864651827428 2704.78329179268 199 199 199
-33.1841095044947 443.845783027828 2696.02099438061 200 200 200
-34.3698695737777 443.901939483576 2686.51585068609 190 190 190
-39.1065224575895 443.569743192233 2680.61039402733 162 162 162
-43.852826421066 443.236635209797 2674.69764200004 146 146 146
-44.4130533636635 443.363307427721 2664.41128116564 170 170 170
-45.0094346728918 443.486905956782 2654.09840121343 156 158 157
-43.5574563313743 443.836817619188 2641.56645731924 171 173 172
-42.1550621051146 444.182607863604 2628.99854796594 173 175 174
-38.040043465452 444.828642700324 2613.45786326739 183 185 182
292.728786063976 465.574297175278 2695.2481544382 134 138 137
241.554181315014 460.442594240179 2729.76202332841 161 163 162
212.897743639206 457.634687872899 2744.7928500392 205 207 206
188.960928198018 455.312329266144 2755.83668229549 187 189 188
172.757591001903 453.788765420686 2760.13947430212 114 116 115
157.371670534316 452.348563219039 2763.79992027673 115 117 116
147.349842801644 451.463579284321 2762.70617295886 101 103 100
135.078803338656 450.344524451511 2763.68584832948 98 100 97
122.087087189445 449.149661214071 2765.37803691196 129 131 128
109.886402369828 448.036051980777 2766.40874144804 147 149 146
98.4699656895915 447.003142659997 2766.7733363288 136 138 135
85.587128032147 445.816711459838 2768.54449596348 126 128 125
74.234450058178 444.78871339411 2768.95533576757 137 139 136
64.3984571745779 443.918037356966 2767.99637657003 134 136 133
54.5836006248592 443.048973624485 2767.0524532416 136 138 135
42.571887918303 441.949877056698 2768.22051568184 141 143 140
32.0682834189152 441.007442143789 2768.01226373282 157 159 156
24.5292750770552 440.374298083687 2765.01394195431 160 162 159
19.1955216000004 439.971663925349 2759.91031418027 162 164 161
13.1260149074737 439.492034444857 2755.50796983129 160 162 159
6.32720980104517 438.935872809308 2751.81159047682 156 158 155
-2.64611561648942 438.151462496723 2750.24310318234 145 147 144
-9.43180908236796 437.596164305308 2746.55652758647 143 145 142
-13.3277560387064 437.34422773405 2740.02559202117 152 152 152
-15.7992285186288 437.242267168492 2732.05768032623 150 150 150
-19.7281942281315 436.9874914145 2725.50279438109 155 155 155
-25.8163185248046 436.505651710614 2721.08694253833 154 154 154
-30.4801323506696 436.173785084521 2715.23429013696 153 153 153
-33.0220003323121 436.065808043221 2707.21531676588 170 170 170
-34.1704216012899 436.105348578964 2697.73715660164 188 188 188
-36.7631168518319 435.993085088972 2689.68161022394 199 199 199
-40.0825873798785 435.804483487734 2682.33356442202 185 185 185
-42.7193242333228 435.688443033389 2674.24607221541 140 140 140
-43.2804586126543 435.792597577835 2663.95864502727 163 163 163
-43.8780305253532 435.893735954325 2653.64508269312 181 183 182
-42.4266448342743 436.212936092288 2641.11255361406 164 166 165
-41.717724533278 436.454522467329 2629.27643902892 177 179 178
-34.147159611627 437.425843632271 2610.06692359156 175 177 174
255.347207159264 453.698508513936 2728.61050890303 199 203 204
231.224591083913 451.423963413243 2739.51989249926 179 181 180
211.041430385787 449.540855712424 2747.11128197815 129 131 130
188.638949704072 447.43424455398 2756.79840579087 135 137 136
173.199292249151 446.022140307094 2760.42033347526 131 133 132
157.811443129409 444.614073395225 2764.07954410035 139 141 140
147.029770531895 443.666168724501 2763.66968694733 127 129 126
134.759670173239 442.568533447594 2764.650151589 127 129 126
121.768786949971 441.397874187781 2766.34306657519 124 126 123
108.816428400357 440.230186496636 2768.06392397105 127 129 126
97.4032475707482 439.216166070455 2768.43097476339 135 137 134
84.5234093879288 438.054114362529 2770.20443226817 135 137 134
72.4281111254679 436.970027630756 2771.31168330588 139 141 138
64.0854964411712 436.262616521462 2768.9657650689 153 155 152
56.4964196367686 435.630684171628 2765.93144820796 187 189 186
46.6972577823577 434.775975780027 2764.99897501174 190 192 189
34.7074299598606 433.699950802033 2766.18301913362 188 190 187
26.4263691907614 432.997093103678 2763.88174570732 190 192 189
21.0885053398986 432.59087449887 2758.77482560264 189 191 188
15.0145026773174 432.110343100326 2754.36921746063 191 193 190
6.75447228515624 431.408920249872 2752.08319667117 194 196 193
-1.49351347281312 430.708323789576 2749.80591147991 191 193 190
-7.55755757898169 430.228300426087 2745.40752508127 188 190 187
-10.7358428276252 430.040363006758 2738.16212534266 186 188 185
-13.9328533849528 429.850848884781 2730.90314324186 182 182 182
-18.5830649983163 429.514308553054 2725.06003322436 193 193 193
-24.6734497991172 429.031807772602 2720.64253934543 196 198 195
-28.6262122454641 428.76618745312 2714.07034770804 201 201 201
-31.8826378234691 428.571486653007 2706.76826811923 218 218 218
-35.1577405646319 428.37521305057 2699.45264108969 194 196 193
-37.7451306409176 428.249179824373 2691.40057632258 162 164 161
-41.0598696693261 428.049486137279 2684.05619877914 135 135 135
-41.5857991100304 428.13417378182 2673.79448827566 169 169 169
-42.84758584624 428.144520849916 2664.2337047172 132 134 131
-43.4440394050959 428.223330958888 2653.92084000454 149 151 150
-43.3814750327493 428.370056850659 2642.85072435495 170 172 171
-42.6666559729578 428.584220729252 2631.0187470056 168 170 167
-35.0887219566975 429.500756356356 2611.81429608263 181 183 180
250.392686868365 445.211494843326 2733.62172837047 198 202 203
222.43051371473 442.629479864366 2747.92194980495 141 145 144
204.575138338362 441.018955148973 2753.49677686292 141 145 144
185.252800261991 439.265900718247 2760.47781714744 149 153 152
171.349633893824 438.034085998044 2762.74412547754 129 134 130
158.250759027088 436.879098495213 2764.35883439726 135 140 136
144.431136700714 435.653842670752 2766.68573880828 128 133 129
131.411425458138 434.50504426503 2768.35786647759 150 155 151
118.430093627379 433.359220596099 2770.05783126921 159 164 160
107.745531924304 432.434750832272 2769.71819610142 180 185 179
96.3354678377395 431.439603453845 2770.08789636004 178 183 177
81.2139492306794 430.084671954082 2773.94044479888 182 187 181
69.8744270405958 429.094989922338 2774.36101558974 187 189 184
61.5401041626211 428.395897750173 2772.02115039718 186 188 183
56.1845462270316 427.985298766697 2766.9016757624 171 173 168
47.8656871408765 427.287295038635 2764.57302611573 167 169 164
35.135099406518 426.16087334471 2766.45485892881 174 176 171
26.8536609479604 425.465692001457 2764.15335058961 156 158 153
20.0500253601765 424.913784124679 2760.45349106225 143 145 140
13.2498122310678 424.362078825453 2756.75611357431 52 54 49
2.81033528651786 423.456249270494 2756.5945344717 15 17 12
-2.5198169462477 423.047110994128 2751.49348437186 11 13 8
-4.23501142699889 422.989993487703 2742.83900524803 10 12 7
-5.97774184774713 422.930585519234 2734.16455313201 4 9 3
-12.7856567507174 422.377793275865 2730.46158695825 8 10 7
-17.4380364978135 422.03509834203 2724.61716851708 15 17 14
-24.2458933521184 421.482131569804 2720.91424354002 13 18 12
-28.198221991218 421.207823796528 2714.34232237509 11 13 10
-33.5866446206072 420.79335259408 2709.19900380886 14 16 13
-37.5632038037987 420.516887709106 2702.60950647923 26 31 25
-39.4346697252186 420.446513035047 2693.84167570289 130 135 129
-42.038067485838 420.304884722534 2685.77822210862 164 166 163
-43.2602783052929 420.298826973914 2676.24604488317 164 166 163
-44.5145927354862 420.290089217448 2666.69087596743 174 176 171
-45.8007994505454 420.278693150466 2657.11257418891 148 150 147
-42.9465426167601 420.673978526326 2643.12703399126 174 176 173
-40.1506373355887 421.064521839716 2629.09916948835 167 169 164
-33.9583171972531 421.78966071685 2611.35965576797 181 183 178
246.980625611122 436.905384015661 2737.28195235929 192 196 197
223.647840958865 434.828690320333 2747.52957266012 199 203 202
202.714950452419 432.973241820643 2755.81293820646 168 172 171
182.630414491308 431.195397112927 2763.4766505168 154 158 157
168.734528439098 429.990997152531 2765.74837536447 151 156 152
155.64317669851 428.860700441918 2767.3683685456 136 141 137
144.10895311792 427.874523164948 2767.64810837264 132 137 133
130.332823145373 426.679496191579 2770.00669443421 130 135 131
118.864660626272 425.698481007501 2770.33405500453 97 102 96
106.673433901239 424.649728163096 2771.37194442561 54 59 53
93.7655516542661 423.533752255663 2773.12530557281 28 33 27
79.3993070801782 422.281399559727 2776.29085122916 31 36 30
68.0652546096705 421.31080070661 2776.71548379653 44 46 41
61.2250329414321 420.758553099587 2772.98939499488 51 53 48
55.1300734903708 420.2756966574 2768.56858305286 50 52 47
55.6908194097892 420.413626586412 2757.85956528518 40 42 37
48.0990783268869 419.791266027622 2754.82307103788 30 32 27
31.6918880873764 418.345632550332 2760.21381146181 25 27 22
21.2096772716377 417.452546585096 2760.02131821278 26 28 23
4.17531416753425 415.946679445947 2766.19184469944 27 29 24
-2.59318948005238 415.399619065936 2762.51747761881 29 31 26
2.2644255440647 415.939914275054 2747.5148757721 25 27 22
-0.18731853161702 415.797059141701 2739.56105847938 20 22 17
-4.10625348423288 415.517092495321 2733.01331644714 28 33 27
-17.3972540145195 414.359350063329 2735.72377204813 36 41 35
-22.7514967772582 413.944660620504 2730.60523009124 49 54 48
-22.3878023845463 414.066044676074 2719.75328165845 47 52 46
-41.3216780339123 412.377816721274 2728.2515861116 40 45 39
-44.5350681155143 412.163630779374 2720.98060517647 20 25 19
-40.6789806704735 412.613350483882 2706.48625798343 22 27 21
-39.7122323636629 412.792451308672 2694.83673192039 20 25 19
-42.3127268973453 412.636854097857 2686.77531218206 22 27 21
-44.2340157011958 412.545311675673 2677.97125651616 23 28 22
-46.1828171975416 412.451495610706 2669.14724479587 16 21 15
-49.5547730596659 412.22400105764 2661.76124873174 24 26 21
-44.5985858425466 412.780850248929 2645.59485671434 32 34 29
-40.4075840126157 413.266529980929 2630.10873609878 159 161 156
-34.9012733479821 413.877051536184 2613.10608106359 160 162 157
219.470840433738 426.54099052834 2751.87040573376 188 192 191
202.390157421442 425.080515904175 2756.77254722329 33 37 36
185.369717218899 423.624782618286 2761.7186785041 38 42 41
169.937844691675 422.31020314723 2765.34644915391 104 109 105
155.319189915092 421.067687946659 2768.32936157366 81 86 82
142.267147628574 419.964562882018 2769.97798864669 60 65 61
130.768106159381 418.999756331143 2770.28334098404 61 66 62
115.523015711783 417.699845277021 2774.04658824793 70 75 69
104.847344992859 416.807845042263 2773.71385728588 36 41 35
52.9034199079263 412.225260046837 2811.37821520167 58 63 57
88.0635460559915 415.431503341631 2768.95076053972 72 77 71
75.2113941886043 414.343969614453 2770.74466589367 56 58 53
44.5370905395768 411.660695882099 2789.25377077977 41 43 38
43.3653103906075 411.742130202866 2759.99683101291 31 33 28
46.8272120301521 412.115187981669 2746.45167291558 31 33 28
-7.9997346701961 407.386173349453 2768.43874441137 26 28 23
-4.10678374954654 407.860814983077 2744.09036458535 31 33 28
-18.8448929106093 406.600163239195 2748.22162673653 22 27 21
-39.2909772001648 404.826011294461 2758.09333691073 21 26 20
-46.7301658934451 404.219962630722 2755.16780824628 27 32 26
-78.49072384017 401.426851789125 2776.59401775115 31 36 30
-77.534707288524 401.637100567353 2755.05598779266 36 41 35
-26.0729322395494 406.33196328106 2692.34017828887 37 42 36
-36.4568450710272 405.461492719476 2692.21905789789 23 28 22
-49.6334483717866 404.339095914202 2695.01262152449 22 27 21
-51.5296314495206 404.23263502826 2686.22668997028 17 22 16
-56.9540426268631 403.808273261648 2681.05723243995 5 10 4
-58.1963284800011 403.761004356274 2671.51058812855 36 38 33
-51.1219156445679 404.464218293853 2653.17508006872 32 34 29
-41.3584173861425 405.410890631168 2631.84973959091 9 11 6
-35.1541313492847 406.03719683625 2614.11839959876 194 196 191
223.769460528647 419.01135046675 2748.77295044329 140 145 141
214.360808265308 418.245607553917 2746.88897998201 42 47 43
145.741939243203 412.526245068849 2767.51882170389 49 54 48
140.293354464819 412.098700222749 2762.33182409134 46 51 45
119.732519172342 410.375584140556 2770.88557069212 46 51 45
9.85686298899768 401.259730546067 2792.46855458645 28 30 25
6.80211149220344 401.036101297281 2785.31223183773 22 24 19
-2.13843355586452 400.306841860223 2783.76808155972 26 28 23
41.5803788782707 404.102930257781 2731.49133483201 29 31 26
53.6539891220404 405.180693748282 2709.37094009972 30 32 27
3.11630010953579 400.875817226865 2748.05611520315 28 30 25
-23.968404139139 398.586067898691 2764.22894958528 30 32 27
-43.702871521776 396.92766101762 2773.38178120731 27 32 26
-36.7100367583855 397.568231225179 2756.22214926547 36 41 35
-76.4628689804869 394.186334549442 2785.43818709749 45 50 44
-55.8887102669259 395.995909099765 2754.66240514748 43 48 42
-76.1493994276323 394.290605405542 2764.66886093707 34 39 33
-77.8287197500902 394.184880001369 2756.04014154759 29 34 28
-70.6664336152993 394.880122003199 2727.88741235071 30 35 29
-60.7277148319785 395.855805177712 2685.69214483491 13 18 12
-70.3325474173408 395.067562123225 2684.90088173305 24 26 21
-63.2157143256653 395.721513952067 2666.59616997699 34 36 31
-49.9406024941365 396.907268415764 2641.64191201793 17 19 14
-36.0987899535101 398.142626793638 2615.8636821213 2 4 0
107.391153648728 401.648484350677 2792.77282403446 41 46 40
99.0120285195295 400.976747332668 2790.40061929311 31 36 30
62.6297285458848 398.053734462233 2783.77356642133 33 35 30
31.2403066655711 395.491544864019 2802.9999167844 29 31 26
28.9490950263742 395.319249558035 2795.16261823755 24 26 21
27.3750948708793 395.205903027917 2786.61020908225 22 24 19
11.7532725716467 393.938335156191 2791.33585031785 15 17 12
-10.4337744893377 392.13110193138 2802.41569959727 20 22 17
0.482616873317632 393.043947013114 2781.92594459295 18 20 15
8.3714819069951 393.708170778487 2764.18065281999 16 18 13
5.9682181926326 393.526586011021 2756.26178380258 15 17 12
-10.2694183636758 392.207798251101 2761.77607980848 18 20 15
-26.4463139391515 390.893741598208 2767.33413773464 17 19 14
-38.2276014876453 389.940862193035 2768.6696864312 22 24 19
-59.3386457774672 388.220668425155 2779.29495732528 21 23 18
-63.8420801587656 387.865855527436 2773.55815670153 21 23 18
-59.049155184427 388.27555266085 2758.50799815219 23 25 20
-57.8917428464285 388.386308697703 2746.99634233451 27 29 24
-71.0088693127373 387.32288047982 2749.83332067522 29 31 26
-39.1351100554014 389.976259456692 2696.37486279444 22 24 19
-82.4748262167199 386.472067267677 2698.28757301402 41 43 38
279.402444559526 407.560716316988 2701.35040894693 38 43 39
97.9705699512494 393.288339283595 2811.83912663635 23 28 22
110.851403344205 394.292674629012 2790.30353326387 31 36 30
58.674562955928 390.185256678178 2817.92027625571 20 25 18
93.986560732553 392.949451554064 2775.60067751601 24 29 22
68.3819695337617 390.933723670914 2789.1424610432 22 27 20
55.5871616260077 389.923110524413 2790.97832587518 26 29 22
59.9580852665529 390.259236545181 2776.85691353003 24 27 20
50.9020153299038 389.541869275633 2775.22878255402 24 27 20
36.680717014931 388.419252878178 2778.50005998684 24 27 20
4.79314581944479 385.910838713003 2798.6008947697 20 23 16
-12.2243191835567 384.568958595875 2804.78479615409 24 27 20
-10.1015859665536 384.728420646467 2792.73783764192 23 26 19
-15.3430909667109 384.310138787062 2787.70100349877 25 28 21
-27.1532604726676 383.37660662615 2789.0157130456 29 32 25
-17.8448729724301 384.099313737382 2769.82968637403 28 31 24
-15.1536598967854 384.302900446502 2756.96001791424 26 29 22
-25.5241015917524 383.482055579077 2756.84891440153 29 32 25
-47.3962594972126 381.759269161295 2768.15746128958 30 33 26
-54.8076081201752 381.170416385109 2765.25190710978 28 31 24
-50.7548314954889 381.480358210786 2750.89973057513 26 29 22
-73.1764955234662 379.714468928298 2763.04474705262 23 26 19
-84.1118175839874 378.849126351485 2763.7589609473 10 12 7
-60.9652731711006 380.655604523884 2729.90749961058 20 22 17
-68.4106869572512 380.063596286798 2726.97723488397 23 25 20
-130.938786969131 375.128393670684 2749.55630371073 37 39 34
254.638753905236 397.632707975806 2733.98872378724 148 153 149
187.316431392007 392.557732794765 2782.73459087334 26 31 27
127.344436682679 387.977718366222 2805.93310297588 25 30 24
94.5490117457908 385.492871494916 2825.37593458003 28 33 27
88.5132202423371 385.012246800269 2820.99802605018 24 29 23
131.746582077104 388.219731974447 2772.0717887962 34 39 33
93.821991802562 385.351690440531 2796.4402833872 26 31 24
73.4141063239915 383.795257979322 2805.10545638057 21 26 19
53.8397848291194 382.301560134343 2813.14047330589 33 38 31
103.271132185899 385.969895579391 2757.593409232 34 39 32
52.9361346298667 382.145786276261 2784.07670515556 28 31 24
22.9286927642112 379.813178318201 2782.07391348975 45 48 41
5.85625506832255 378.507534915598 2788.21785306497 42 45 38
-11.8852070099358 377.152193501196 2795.11188196372 38 41 34
-20.7779383740228 376.457990886905 2793.60227593832 36 39 32
-25.2778354033318 376.091817400584 2787.86827654992 31 34 27
-23.2425427641194 376.213412788433 2775.75773869472 28 31 24
-24.1569459506625 376.114508849594 2766.44852198408 26 29 22
-35.22243565268 375.257903558502 2767.0684188336 32 35 28
-39.05237087513 374.941185793213 2760.58530293046 32 35 28
-42.1779864702887 374.676850694318 2753.37740310136 30 33 26
-48.1871189768879 374.197325223006 2749.01882581504 29 32 25
-61.3372038929341 373.185302623857 2751.83217225176 27 30 23
-68.7500622290345 372.601087535754 2748.92584161651 30 33 26
-62.6732955291498 373.022143399213 2732.33605713135 28 31 24
-65.8683155516362 372.751889939008 2725.07810905107 23 26 19
-78.2489886768456 371.797190028869 2727.21417775953 23 26 19
-65.987730546675 372.677808823877 2703.99377777875 19 22 15
-74.8648220851731 371.983793243628 2702.49580482108 17 20 13
-88.6148136339884 370.927056676714 2706.10907628121 25 28 21
-100.228283508314 370.029481025687 2707.5665597156 26 29 22
241.937381122824 388.737742976426 2745.73326792672 120 125 119
227.090845973056 387.624943631466 2748.55134756009 0 3 0
143.853464250902 381.580731494423 2801.81179329287 44 49 43
101.771332725229 378.528062199895 2829.34093995161 38 43 37
116.323270797329 379.514581427179 2806.54660252364 30 35 29
124.672788795005 380.058033617007 2789.13463618326 29 34 27
109.43475659749 378.920334142263 2792.90411623391 37 42 35
103.320035315061 378.432792496885 2788.46895478711 24 29 22
82.1288995593195 376.871879876016 2797.8016413525 14 19 12
76.0558793173893 376.387589524375 2793.39672634835 18 23 16
92.4626938771889 377.502499871021 2768.24227443304 19 24 17
75.1140806233237 376.215669060824 2774.1861037419 21 24 17
1.9576350215913 370.961938824628 2832.28836589447 25 28 21
33.1835167261212 373.129543906601 2793.17940466719 31 34 27
35.3063625083037 373.227725389817 2781.13221735776 30 33 26
13.7516644258397 371.643988963681 2791.43656533285 22 25 18
7.7478989075308 371.164920682206 2787.08188100664 32 35 28
-3.3946668522058 370.321152051839 2787.64596879725 36 39 32
-9.38523430684679 369.843040941056 2783.30085687731 37 40 33
-21.9430018302393 368.899194254108 2785.30889552788 38 41 34
-22.0969330206147 368.834828377451 2775.31580503241 39 42 35
-32.4395059660714 368.048181726735 2775.22507739168 40 43 36
-40.5878794967369 367.417101481683 2773.02035534316 36 39 32
-47.2825701966784 366.888985181514 2769.39959279902 34 37 30
-43.1958105915791 367.123833816398 2755.07167089029 30 33 26
-49.9169265833661 366.593457285255 2751.43174063963 28 31 24
-70.2032960769858 365.103817000119 2761.42067258553 26 29 22
-56.9417787459927 365.986238366829 2737.6903543472 28 31 24
-51.6073750899697 366.307359507621 2721.79694548885 27 30 23
-67.5702442729353 365.123564658103 2727.5108155162 25 28 21
-69.366240360166 364.94042404842 2718.7974177286 26 29 22
-60.6429623952354 365.499257303846 2699.18610813763 24 27 20
-57.6207483968871 365.654992134245 2685.32111030221 23 26 19
-78.4125609569268 364.130959441858 2696.17879268448 23 26 19
-99.8089196722038 362.565112480103 2707.83275701181 22 25 18
255.535352717417 381.720533728966 2734.55808910098 101 106 99
236.792531803673 380.372496505479 2740.72595412998 21 26 20
166.52894961935 375.457630515051 2782.40000930171 37 42 36
111.379243505547 371.425439228656 2791.80538543522 42 47 40
93.1622668892311 370.1192424144 2798.35495262444 37 42 35
41.1499331610412 366.457465052377 2826.09320726236 40 45 38
73.4045294444567 368.560315694031 2786.49461856397 38 43 36
34.4384956047548 365.856697422947 2812.57905458372 37 40 33
53.7841994007198 367.086287053042 2784.61520607408 36 39 32
23.203573563007 364.950215874929 2803.1949916936 33 36 29
43.8767793989125 366.267162987301 2773.72355249045 32 35 28
7.52441790833869 363.744288362894 2797.9982065122 33 36 29
8.16720833957252 363.711988669895 2787.34809679248 23 26 19
3.63065051924805 363.330953341026 2781.58715145911 25 28 21
-3.84360196493438 362.752376637415 2778.63634345523 23 26 19
-14.2289988831703 361.978354257535 2778.51463574714 20 23 16
-24.5889271954196 361.206310080628 2778.41110631802 18 21 14
-33.4730973700597 360.533527544454 2776.9081094555 18 21 14
-44.5099346181852 359.716605710095 2777.54897808486 27 28 22
-50.4707247577942 359.240048076572 2773.22546024473 26 27 21
-51.4016675476794 359.100186627958 2763.90404616479 28 29 23
-58.0964978570075 358.574150051403 2760.28319294904 30 31 25
-55.5022043972295 358.669291541929 2747.34271609492 34 35 29
-38.0081717571392 359.759384413321 2719.27088169838 31 32 26
-46.2164371774083 359.130838086431 2717.02275557573 31 32 26
-61.4892464872099 358.030851800228 2722.00225260944 31 32 26
-54.8363842013673 358.394106490258 2704.59476270548 30 31 25
-54.5932503015516 358.328911980311 2693.65447234129 27 28 22
-67.0099082369122 357.419677343987 2695.76497966052 27 28 22
-50.0363324498012 358.467674617781 2667.31564176165 28 31 24
-85.4571521626488 356.027428867915 2693.50104545889 34 37 30
-83.8889775969471 356.049156356636 2681.05167236983 32 35 28
242.827802048366 372.917708505304 2746.29862146472 120 125 118
160.853119426454 367.452261893395 2798.00698854867 41 46 40
139.983906172829 365.7242411737 2776.69422010141 51 56 49
108.712714161065 363.526602285395 2784.8919112467 38 43 36
35.4715753226289 358.746846878853 2841.69984713427 39 44 37
40.0940756575365 358.850661611516 2817.87874941367 34 39 32
46.0686350384307 359.134967747543 2802.44921662662 32 35 28
57.1886470393634 359.746023196379 2782.10554194449 37 40 33
40.712561181742 358.597938165588 2787.44755112907 37 40 33
28.7422929146972 357.737534525225 2788.64657207768 33 36 29
20.4993999075609 357.114659131402 2786.37337240271 25 28 21
11.5321801765247 356.44592205523 2784.80989715843 22 25 18
-1.09003809414987 355.545358648938 2786.7714333252 27 30 23
-3.42472131159011 355.298020845544 2778.90224119851 29 32 25
-18.9200745704536 354.216009134217 2783.72050241899 31 34 27
-22.7166263574028 353.875862457937 2777.26117373161 36 39 32
-34.5075248927174 353.029489411779 2778.59029469442 37 40 33
-34.6922539839232 352.917569679478 2768.57493175075 35 36 30
-39.2395117042463 352.529342162947 2762.80619340167 34 35 29
-47.3909947930475 351.913334297604 2760.59929351267 33 34 28
-53.3804221704735 351.433851822318 2756.2550011128 33 34 28
-43.6530943274294 351.944923586849 2736.13627015539 35 36 30
-36.1607781108262 352.313495397185 2718.10230862374 29 30 24
-38.6935648664462 352.049740176618 2710.08912938001 30 31 25
-63.1922711615343 350.40450178693 2724.43446907697 29 30 24
-49.4736718221902 351.16183981704 2699.79953466313 27 28 22
-51.3549852884607 350.937867997092 2691.02408166857 23 24 18
-53.9649136963138 350.667654339032 2682.9549480816 23 24 18
-83.8589345318859 348.68753990482 2703.2682949009 22 25 18
-73.8867770815093 349.205479378216 2682.09204430787 23 26 19
-75.1305839295862 349.020056638263 2672.54359761837 32 35 28
-94.408051322217 347.707176869093 2682.02976292598 48 51 44
233.984603926867 364.442650944872 2754.66639356735 19 24 17
188.21979858021 361.420702796776 2774.58560599595 32 37 31
145.141123569434 358.688001368958 2802.6292888216 37 42 36
115.280837153814 356.760004672238 2819.26195006385 37 42 36
131.335994188158 357.613199153241 2795.08657956736 29 34 27
132.807384501616 357.582145565033 2783.80181479101 36 41 34
119.820145331765 356.676854463821 2785.49842109431 29 34 27
97.7941353621463 355.226871750754 2795.46178251303 30 35 28
71.3341014446356 353.511330904129 2809.61999449309 28 33 26
63.7921430693096 352.937530268518 2806.62012923553 27 32 25
44.2608621389597 351.642439599287 2814.68705869208 32 35 28
40.5076991867714 351.297354152659 2808.25915848113 35 38 31
19.5954026673721 349.921459117192 2817.79491871022 39 42 35
37.4179225025997 350.871195899125 2791.19553738963 40 43 36
21.0110119168396 349.76645341449 2796.58820722062 39 42 35
13.5308329522084 349.197408266491 2793.63285678677 40 43 36
-1.30809604801718 348.188310291859 2797.69230665437 33 36 29
0.0620586657098521 348.14879411187 2786.3341111666 28 31 24
1.38707736116173 348.105613943052 2774.94317705711 28 31 24
-7.55324312710015 347.449331941748 2773.39926473538 28 31 24
-20.1162429433175 346.577538096535 2775.40387534707 24 27 20
-16.6770980081272 346.658733445619 2761.84074208835 21 24 17
-24.1474379549 346.090171712764 2758.89252661712 26 27 21
-32.3313694305063 345.479346670052 2756.66213045206 26 27 21
-38.3461459803367 344.997384954416 2752.29944933829 26 27 21
-36.4772551011019 344.982490318858 2740.06788642423 26 27 21
-43.9477226017955 344.413704571783 2737.11987182879 26 27 21
-30.7509437509204 345.06697362583 2713.34116810597 27 28 22
-45.3717534382752 344.074746674548 2717.55882277343 28 29 23
-25.9575981948963 345.091406924968 2687.17314991413 28 29 23
-72.3402413984973 342.227374828448 2723.93696908774 25 26 20
-40.3765854876941 343.980147779279 2680.42029392712 20 21 15
-54.2406711716585 343.033349758337 2683.9514129742 20 21 15
-68.057322406391 342.090285327533 2687.51723165421 25 28 21
-80.4323374350573 341.232746619181 2689.65789417825 16 19 12
-80.2636749644021 341.110896567945 2678.6636253913 28 31 24
-80.8280642353041 340.945193463817 2668.37247178061 27 30 23
184.107672669874 353.683688366638 2798.73831584457 18 25 18
136.229618528655 350.803669922014 2830.71288885424 29 34 28
147.088754655423 351.284381633351 2811.41447609603 31 36 30
105.053451373257 348.465491131625 2819.21669523123 35 37 32
110.408004529192 348.629024573408 2804.57242606884 47 49 44
99.0027425137097 347.839169676051 2804.94635282114 32 34 29
65.6865326939911 345.807127677956 2825.24898652477 36 38 33
93.631934852449 347.249559342567 2789.93374014234 41 43 38
83.7694438430407 346.547850416407 2788.95642773963 40 42 37
61.1782952422422 345.127204472687 2799.74499885265 42 45 38
19.9881252403258 342.658928351232 2827.92400199902 37 40 33
24.4842466421402 342.771229648236 2813.89191998949 34 37 30
28.1741321593953 342.83660024059 2800.51047377427 36 39 32
-2.28861625492005 340.979888985768 2819.17712626672 34 37 30
-11.1768673284964 340.338372861529 2817.67132944401 22 25 18
-15.6278307662698 339.946124448358 2811.97237650874 22 25 18
-4.66254907753583 340.417256266359 2791.51582578041 27 30 23
13.5241506329717 341.289903433507 2763.94501912011 30 33 26
-2.02366761879347 340.273974879084 2768.72558207179 33 36 29
-1.49987423035269 340.1562322426 2757.98848159385 31 34 27
-18.4354632679593 339.064448506663 2764.23300340035 29 32 25
-11.4281459577785 339.306749391223 2747.08155837609 27 30 23
-29.7490781106202 338.139281847835 2754.79150529867 24 27 20
-45.8388873165481 337.097426104317 2760.41436722091 25 28 21
-48.2456237537294 336.815466713195 2752.49247233536 26 29 22
-39.239704379054 337.164579952887 2733.08528773797 25 28 21
-37.4527716418691 337.112282306553 2720.79382768702 23 26 19
-32.8741945155642 337.212781272537 2705.58671765856 23 26 19
-47.482519459408 336.253969276478 2709.81359203636 23 26 19
-41.5668650375736 336.426056967996 2693.10545827263 22 25 18
-46.9870305045159 335.973123144722 2687.93893382528 20 23 16
-59.4278094589813 335.134694935774 2690.0323139515 19 22 15
-66.9345738083087 334.567581058489 2687.05770098719 18 21 14
-80.7076553633792 333.657709061884 2690.65527238404 18 21 14
-79.840393637201 333.548932737704 2678.93216822105 21 24 17
-56.8524953301419 334.645776923367 2643.72677539427 23 26 19
-69.9557302619369 333.771659624583 2646.57478290194 18 21 14
164.407768512637 344.901401289648 2816.52625906413 41 48 41
159.816193830375 344.492138410927 2810.72528785531 49 54 48
137.506982386735 343.133533010483 2820.48381332581 46 51 45
134.481590196285 342.808853603281 2813.34855640286 36 41 35
126.844661427512 342.237348569352 2810.27956223097 33 38 32
110.818845047283 341.218591666702 2814.71359981221 45 47 42
89.5212315988743 339.920551465421 2823.97042992646 48 50 45
78.9353465741214 339.194515648327 2823.70362717274 41 43 38
66.8613764654156 338.390126037016 2824.82775616532 41 43 38
63.1210317051241 338.02853588556 2818.40935901268 35 37 32
66.1376738337065 338.024282753722 2805.77454826859 36 37 32
73.6012800258927 338.25363216881 2788.95381119084 39 40 35
44.3356433566335 336.541994197424 2806.0189371013 31 34 27
17.4426219978803 334.959101644274 2821.09897576374 33 36 29
14.4333648192365 334.471226886163 2804.09370685093 33 36 29
-23.3300873035092 332.324029864036 2829.81770177579 38 41 34
-17.4262448096869 332.469128258446 2814.33619969348 43 46 39
3.10074437503793 333.376866608593 2784.75669219642 37 40 33
11.0150436553482 333.62160593957 2767.02771348027 34 37 30
4.23785899916851 333.098164658222 2763.34746746366 31 34 27
-2.53583795956502 332.574965688979 2759.6694565037 25 28 21
-2.77288957310295 332.391409600924 2749.61550651768 23 26 19
-14.6260498251858 331.604302300825 2750.90008730298 25 28 21
-34.3816664834473 330.408950791293 2760.04022730753 26 29 22
-54.77388254597 329.183010723406 2769.95376451034 26 29 22
-55.717119498309 328.963168252851 2760.62303301003 26 29 22
-40.9644232713347 329.550934203259 2735.50184195353 27 30 23
-19.9263624851171 330.458154518312 2703.82245080784 24 27 20
-38.8447101509382 329.309229835002 2712.33474350504 25 28 21
-41.3940078478587 329.001386610295 2704.30937181317 24 27 20
-41.8483457611703 328.799984355876 2694.098110434 24 27 20
-43.7467110629317 328.523715324176 2685.30973682728 22 25 18
-59.0043291272573 327.565660117042 2690.30096522793 21 24 17
-59.5168728835065 327.359412694207 2680.04719017228 21 24 17
-84.4697423114709 325.910835685902 2695.29962455679 21 24 17
-102.353872183808 324.824028608543 2703.32662733549 25 28 21
-61.2729679894728 326.722784031911 2649.12799426343 26 29 22
-15.6591549473268 328.841379040463 2589.57063172461 24 27 20
142.234122577152 336.319380432919 2846.10823481652 108 115 108
155.541629867233 336.80491065857 2824.87961308455 31 38 31
114.681036152469 334.573338933769 2850.82806985697 37 42 36
129.460799174042 335.130430076189 2828.19671245899 40 45 39
125.692428885959 334.75785152499 2821.75764886772 44 49 43
115.784378956163 334.078832446587 2820.74742475989 42 47 41
96.7357013257999 332.945676966963 2827.92998725232 48 50 45
105.166484378061 333.179492252679 2810.57536331233 39 41 36
80.1132773751401 331.750740373214 2823.28479353021 34 36 31
61.9807790327087 330.667794275854 2829.89673163191 33 35 30
51.4645018405853 329.963181882257 2829.6802031184 28 30 25
11.6263776533394 327.813608069077 2856.37057968452 32 33 28
46.2632962815275 329.33538552354 2814.79063968026 38 39 34
58.2192815353619 329.735544144497 2793.81658050948 30 33 26
46.1999924567977 328.956811187196 2794.9807733808 26 29 22
34.9586453417006 328.21720544444 2795.47378006438 36 39 32
54.1478044239838 328.964877814389 2767.39400794502 43 46 39
27.3505751713055 327.465870312656 2782.54391324379 46 49 42
2.88660736759905 326.084233537628 2795.68073417946 36 39 32
4.98758598683224 325.996079955691 2783.6167510731 28 31 24
3.37533558683933 325.726342457782 2775.03611582519 24 27 20
-2.64714054142123 325.242382882675 2770.66784300315 22 25 18
-13.7686859071138 324.512198634566 2771.2477442533 19 22 15
-19.7779896949928 324.029224018186 2766.88902533092 18 21 14
-30.8554765399207 323.302511917914 2767.50088313014 22 25 18
-47.6765383991407 322.301150307256 2773.82859166125 25 28 21
-58.6770294416883 321.580566596405 2774.49659087931 25 28 21
-52.4332234552132 321.684846730292 2758.02599772924 25 28 21
-26.9591379002394 322.703506332947 2722.15242581762 27 30 23
-32.3327825154887 322.248019575031 2717.01961239734 26 29 22
-46.2395792060228 321.38718304162 2720.52020473614 26 29 22
-57.2651723284998 320.664368724549 2721.16970114527 26 29 22
-49.1926774360303 320.845278005591 2702.32004186345 25 28 21
-46.8416583486508 320.753320590674 2689.20226253221 24 27 20
-43.1411754287652 320.723009341602 2674.59297732372 23 26 19
-65.3891226931818 319.472085200884 2686.86653319038 24 27 20
-87.5365365281686 318.229204571443 2699.2130086275 23 26 19
-63.7005213940518 319.13912128347 2663.38645033466 24 27 20
-22.8184428665159 320.623420571159 2597.92566637472 25 28 21
-46.3580605571776 319.315192382085 2611.73264578588 9 12 5
162.851770289375 329.734774123617 2828.90774714107 7 14 7
129.630304633122 327.978741259479 2848.04542432222 30 35 29
130.547173460244 327.817191511242 2837.59305072677 22 27 21
122.181010531922 327.222984127487 2835.23063526434 17 22 16
118.435035219487 326.843374000434 2828.80777065253 23 28 22
85.5737117167736 325.116270223915 2848.20666909813 27 32 26
89.5189022610126 325.093597095024 2835.00985298664 35 37 32
79.7004479688148 324.434872459731 2834.06438698691 17 19 14
77.4949734328447 324.126802308757 2826.28855336956 33 35 30
56.4085780272978 322.745027692798 2825.81719383175 35 37 32
35.3664589603757 321.575985986763 2835.25989067848 37 38 33
26.4181636255758 320.961005560193 2833.71040642092 35 38 31
39.9335806944623 321.367836265881 2811.39677318982 44 47 40
43.6350567277324 321.325453149516 2798.02318339323 54 57 50
46.5343633330408 321.244688109003 2785.30292607636 51 54 47
37.5133750267311 320.62378802555 2783.7010096252 38 41 34
27.030219782028 319.937582704441 2783.50858515368 17 20 13
1.82743731586577 318.590748387317 2797.34503648396 22 25 18
-10.0314215246187 317.846191250955 2798.62570176588 20 23 16
-0.603688177042816 318.054913010228 2779.52329353186 21 24 17
-6.61296555655078 317.571462582699 2775.1645913434 24 27 20
-14.8086689765539 316.990623709499 2772.92581333048 29 32 25
-41.8742273691382 315.572332698283 2789.11694106046 29 32 25
-49.9884389153629 314.997994757995 2786.93727117448 33 36 29
-58.8122808869547 314.392711840978 2785.47805493567 33 36 29
-66.1804333150742 313.852150520164 2782.60435368213 30 33 26
-51.3009201275179 314.289830190728 2757.57433473017 29 32 25
-32.9744048150011 314.873880748811 2728.86838495565 28 31 24
-36.9019843675549 314.479110574386 2722.31379476593 25 28 21
-51.5057314915388 313.618097503004 2726.54418859686 25 28 21
-62.5149020287266 312.915349908943 2727.20598620746 25 28 21
-67.8429625820263 312.460155148523 2722.10592464851 25 28 21
-56.2763482117186 312.735795151682 2699.61422935115 24 27 20
-67.986121233941 312.002730236654 2701.00273385773 24 27 20
-72.6639322664719 311.573550449825 2695.13914719516 24 27 20
-83.6298080092228 310.87409364562 2695.83234679472 24 27 20
-128.637713188191 308.718758715024 2732.3612959624 25 28 21
-92.9949756139081 310.014755407432 2684.09824874707 25 28 21
-74.8918175447966 310.554161068121 2653.99511977572 25 28 21
-49.3682802199014 311.402469178865 2615.68616590816 13 16 9
130.644686617424 320.724417874912 2857.38987225096 28 35 28
139.34667745858 320.874696438492 2840.23142949503 36 43 36
146.418992514448 320.951702709192 2824.36159658016 19 24 18
133.386247229611 320.163220068847 2826.02610066446 18 23 17
101.956067678536 318.588787111236 2843.9928714751 25 30 24
89.8190458197061 317.84342832459 2845.0715919112 24 29 23
78.479680656232 317.13332935336 2845.49398715433 26 28 23
57.269656114785 316.005108313005 2854.81517250402 27 29 24
33.868223896337 314.78734737334 2866.25271048907 41 43 38
62.1093212976227 315.52574703213 2821.26707737304 44 46 41
50.8348610488549 314.820820201096 2821.7365497719 45 46 41
20.8256430385791 313.331725183146 2839.49850707555 53 56 49
19.3945891530025 313.042668658832 2831.0491271932 47 50 43
23.9059224293192 313.000267195676 2817.02728899615 37 40 33
20.9144725554822 312.643488180456 2809.91647499204 17 20 13
22.3550952416751 312.469700933121 2798.60868313195 16 19 12
20.7923102797776 312.169969832118 2790.06346003523 26 29 22
-6.60680389730484 310.804015538956 2806.01305115439 23 26 19
-8.14767975632047 310.506007043786 2797.48371915925 24 27 20
-3.85222569093724 310.446112379414 2783.30559138562 26 29 22
-1.81192521726792 310.291536089655 2771.19757942951 29 32 25
-39.8931641068758 308.500012325361 2797.92804212954 33 36 29
-45.0945977845643 308.052042911839 2792.92010616989 32 35 28
-65.5092206821342 306.987578689313 2802.81821808679 32 35 28
-72.8411593550566 306.454936804705 2799.97051459371 30 33 26
-72.2481237866255 306.241656434301 2789.28341980931 28 31 24
-62.3673012058923 306.399504697508 2769.27417131632 27 30 23
-48.292370899383 306.721167740853 2744.89534204535 25 28 21
-35.7683467897725 306.975876228637 2721.86225637167 22 25 18
-53.9311469775716 306.00563998389 2729.68813002284 23 26 19
-69.8936107275059 305.125615535411 2735.40383261422 23 26 19
-81.5560920572302 304.417934356217 2736.82674845157 23 26 19
-71.3500950577428 304.572785614693 2715.81817402468 22 25 18
-72.4807568501651 304.278404161475 2706.3511967033 22 25 18
-79.9426221780208 303.735000683975 2703.40954657273 21 24 17
-81.8148891989359 303.409809749951 2694.63984436768 22 25 18
-91.365341861863 302.785095149832 2693.889125213 24 27 20
-69.6963596548488 303.370107658882 2660.19510268829 24 27 20
-44.7499298851182 304.07408800367 2622.70239129553 24 27 20
-34.4694340974985 304.205650515261 2600.51237356172 25 28 21
171.471503458594 314.843490714176 2822.72969866038 30 37 30
166.88874225094 314.410584174944 2816.93529124462 33 40 33
163.841876774302 314.037898184794 2809.78393023842 29 34 28
151.529966522554 313.299807472012 2810.73620163743 23 28 22
129.26420280843 312.172555705028 2820.52710066901 29 34 28
143.097289999293 312.461239456428 2798.44315485113 31 36 30
152.995390643555 312.591658278914 2779.68162376582 37 39 34
36.7211478454856 307.319418970539 2854.69644858531 42 44 39
0.803137194198555 305.441279401077 2868.17331989329 47 48 43
18.2329412539373 305.860902035173 2842.52189649963 51 54 47
14.5661835546216 305.469952436171 2836.1564009895 42 45 38
13.1242224735364 305.162969360691 2827.69872896981 32 35 28
13.887125659636 304.938339933 2817.13442288438 26 29 22
13.1254918836112 304.654382981859 2807.93501464969 26 29 22
1.23583031164198 303.95018257576 2809.19326031198 21 24 17
0.443336181678244 303.663708788837 2799.97146799986 24 27 20
-7.73458782750858 303.099746554446 2797.74566414478 25 28 21
-12.234718314162 302.673298783866 2792.01119021703 28 31 24
-22.5920148402026 302.028979782557 2791.9102155791 31 34 27
-27.8230712074308 301.575363897864 2786.88077689914 31 34 27
-51.2228566794273 300.45182348184 2799.55502252056 23 26 19
-51.3395208815734 300.187934934779 2789.58823151553 21 24 17
-52.936647876042 299.868252867254 2781.01801209093 18 21 14
-58.1610795913075 299.41508963851 2775.99337805535 19 22 15
-59.08459485953 299.117876589585 2766.6765513275 20 23 16
-44.298724726842 299.387640132321 2741.57779799833 18 21 14
-43.1947457036077 299.158445390962 2730.02568531275 20 23 16
-47.8246725739679 298.721319213868 2724.19677065121 21 24 17
-59.5536729063719 298.02979725737 2725.5718417706 21 24 17
-75.488454400118 297.189945235034 2731.30781530151 21 24 17
-75.8637783439513 296.904972518233 2721.15311505717 20 23 16
-72.7643616292069 296.741140421929 2707.34275892599 20 23 16
-70.4232708253394 296.547923214065 2694.21726946934 18 21 14
-69.531920535862 296.301394888303 2682.51092987891 21 24 17
-61.7292598331769 296.294061799374 2663.46470854966 23 26 19
-40.8621066054167 296.449121976233 2619.30636330505 25 28 21
-55.3941201168375 295.65855088995 2623.58940964216 11 14 7
171.119236150043 307.187950368655 2823.67088685577 18 25 18
154.913345522129 306.329929270364 2827.97519893042 30 37 30
158.085028128958 306.170720089507 2815.4519954548 26 31 25
156.578958494809 305.841602400674 2806.94773766067 24 29 23
139.676076655018 304.961919825354 2811.98171284085 30 35 29
137.392663985123 304.604667761946 2804.14913109085 35 40 34
154.188365584027 304.922136859951 2779.27255249232 42 44 39
33.9245020366921 300.129773517948 2867.45430084199 40 42 37
34.8580807200975 299.893708410111 2857.01366314298 37 39 34
2.51811691154424 298.494795019638 2876.79216870625 45 47 42
30.5784475030428 299.202304729197 2841.55651387303 42 43 38
30.656639046255 298.931786537941 2831.73094437579 29 32 25
19.468177044188 298.271016025522 2832.26268792241 35 38 31
20.999953454238 298.048588483697 2821.02072896938 41 44 37
19.5093916311273 297.720637484784 2812.52771902794 34 37 30
17.2492820501131 297.365169523371 2804.71174474419 29 32 25
7.56693886991089 296.756707313143 2803.86549766041 31 34 27
-9.47144138613232 295.900586349412 2810.0366975974 28 31 24
-13.9413929508434 295.470542658352 2804.32378832315 29 32 25
-21.3545256586936 294.941374204732 2801.41753761202 29 32 25
-22.1798969737894 294.632427167025 2792.1715036183 30 33 26
-33.2419402433639 293.981760847633 2792.79523645876 30 33 26
-36.2804758929449 293.597974533797 2785.64985769664 30 33 26
-35.7155395964801 293.331994028968 2774.94212621375 30 33 26
-33.0243210398955 293.133785354991 2762.07042655438 29 32 25
-41.9083700404266 292.555012904089 2760.56769923616 29 32 25
-53.6474683539974 291.88422921382 2761.93555515691 30 33 26
-57.4799295626145 291.470899811291 2755.44982427848 31 34 27
-55.6189435177341 291.24020949113 2743.21114345659 30 33 26
-60.9202491460832 290.777506570349 2738.13073356042 30 33 26
-56.3002103291368 290.631040520593 2722.95213459283 29 32 25
-67.2982337025676 289.985371960342 2723.62230213689 30 33 26
-67.6966060772914 289.676072123072 2713.45077037146 33 36 29
-69.5363082192553 289.319637096225 2704.70451688464 35 38 31
-70.7033551655209 288.982864052781 2695.21094846698 24 27 20
-85.1646389876395 288.230628047273 2699.54546244005 20 23 16
-71.7416123891905 288.344618050065 2674.69300235391 24 27 20
-73.7024695501993 287.978310238696 2665.85887100061 22 25 18
-76.3823155122394 287.588561790652 2657.73874169624 27 30 23
-67.3691269147409 287.55419423325 2637.09955320155 26 29 22
190.146400581381 300.467560077274 2817.66798585783 178 185 178
178.540442526149 299.791740355431 2817.89700137849 53 60 53
161.537640033496 298.941769725934 2822.85869244186 45 52 45
163.147561690862 298.697697779179 2811.67327301313 22 27 21
143.900420926177 297.778635088359 2818.71304976626 22 27 21
132.413143553271 297.112394352458 2819.02814796576 30 35 29
113.291043080959 296.20343807229 2826.15891476331 34 39 33
44.3581724278941 292.841278226108 2849.04343743327 42 44 39
30.117280351825 292.102188749205 2852.30245356998 44 46 41
42.2870960020036 292.187482358945 2831.48210424054 38 39 34
40.0805426615869 291.822078012453 2823.7049036888 18 21 14
33.3579175600107 291.316277693188 2820.06400393561 19 22 15
26.6383307492717 290.810722665776 2816.42560242376 21 24 17
23.6445053046639 290.419102500601 2809.31259536338 21 24 17
5.78680439842305 289.574826961778 2816.12494890448 20 23 16
1.31926048497366 289.138963885334 2810.4140499887 20 23 16
-12.7500360869508 288.413687809226 2813.797529336 25 28 21
-20.1513576356041 287.890423725918 2810.89987069304 25 28 21
-20.2103189727771 287.586234707155 2800.97441111941 25 28 21
-20.3057938784417 287.279092439526 2791.02276159899 25 28 21
-34.2892921309268 286.56071284131 2794.4684729111 25 28 21
-34.4156274936878 286.251055596538 2784.49443924787 25 28 21
-28.0565142965838 286.128654380932 2768.10658104686 24 27 20
-28.9975934963393 285.790549176357 2758.77652024636 23 26 19
-53.7382924387546 284.764216841338 2772.94956919008 23 26 19
-60.4149745708369 284.262010615776 2769.34228715776 24 27 20
-70.6671669168855 283.657965663959 2769.31770877894 25 28 21
-65.1947645637607 283.501279070227 2753.52221240781 24 27 20
-63.3508090497155 283.238476495204 2741.27102313577 24 27 20
-58.0105225244914 283.071076687638 2725.37940443994 25 28 21
-61.9328190739967 282.641679811814 2718.8284686208 25 28 21
-68.6887694109277 282.132990366826 2715.16369053633 27 30 23
-72.6308525338499 281.701968153958 2708.5984027752 28 31 24
-72.3849782362893 281.38480766789 2697.65882272647 21 24 17
-95.9176007957288 280.418556951771 2711.47289971788 22 25 18
-111.685247731478 279.668100667923 2717.33048546375 24 27 20
