ply
format ascii 1.0
comment KinectMotionCapture
element vertex 791
property float x
property float y
property float z
property uchar red
property uchar green
property uchar blue
end_header
-76.6872069743019 -256.921950874899 2848.93710270926 14 17 10
-86.4792449977623 -257.22568865345 2851.62041125792 13 16 9
-41.4769238598782 -244.135046024955 2890.01829006691 12 14 9
142.144035987052 -270.191326934659 2735.62055491469 11 13 10
149.234325643346 -266.024228123294 2750.63579753926 6 8 3
172.915012222608 -257.328228540993 2778.26495962014 10 12 7
138.357865582319 -264.618374358381 2761.22849859099 10 13 6
160.601981634035 -256.371631654226 2787.5164399351 9 12 3
163.161973655727 -253.524285300996 2798.72360016958 10 13 6
190.399861427317 -244.01590712082 2828.36831479227 11 14 7
151.912073580966 -250.159770525593 2817.89977502374 11 13 8
159.387683523245 -246.040140088971 2832.53974255529 11 13 8
161.308452659491 -243.426555457029 2842.99930112707 9 12 5
157.633438613394 -242.313753701536 2849.31799142349 12 15 8
145.096316159647 -243.550501151618 2849.19713270035 16 19 12
153.542896043531 -239.237646705107 2864.26160146175 17 20 13
171.779643496481 -232.377173069913 2886.23133959492 17 20 13
177.133886213773 -228.93531716461 2898.82696512504 13 16 9
171.955029781368 -228.262508559313 2903.87020530195 14 17 10
148.822336718778 -232.259202481898 2896.25798905169 13 16 9
169.780368442585 -224.796583391305 2919.68752063573 10 13 6
176.923477480917 -220.94973566831 2933.2810743284 11 14 7
70.6975946258468 -246.297261274382 2868.21895329223 12 15 8
35.6732385426115 -253.204209301236 2853.00704884017 14 17 10
-1.14150264452384 -260.514925724607 2836.79854357828 8 11 4
-27.3417038808392 -265.066773301756 2828.06305612119 9 12 5
-49.4893908763636 -268.553466943668 2822.23115510195 9 12 5
-37.6167033800123 -263.410262734301 2839.43869813754 10 13 6
-44.8339719789117 -263.107271691689 2843.72661412588 12 15 8
-51.2224654888982 -262.593543500409 2848.57764450055 14 17 10
-63.4762247899729 -263.545652635206 2849.55024187695 16 19 12
-75.7598362767928 -264.493716621436 2850.5522228859 19 22 15
-73.771263869979 -261.885082570683 2860.94518350142 18 21 14
-31.2714243691836 -249.262240548688 2897.6461384997 16 18 13
-4.60834071027705 -240.629111929139 2923.73993781113 13 18 14
150.056390599554 -275.59433813184 2742.73213921689 14 16 13
154.02581333792 -272.262250900967 2755.30188805991 12 14 9
130.498653431929 -276.591451498736 2746.71328039811 11 13 8
163.684993610847 -265.178413867097 2781.50553623665 6 9 2
142.493062434851 -268.847512984201 2774.75151500953 10 13 4
178.306116579811 -256.812093203048 2811.09448303508 12 15 8
204.78497134865 -247.41536080161 2840.0921826877 13 16 9
92.0959118215991 -273.863621573666 2774.52555753436 12 14 9
141.855942616976 -258.182328683958 2820.56926072981 11 13 8
152.561492197315 -253.154752841385 2837.53563163188 12 15 8
134.385120776338 -255.929863896328 2833.32295905756 11 14 7
138.726633157368 -252.642722059397 2845.53019813651 11 14 7
146.34888775848 -248.497676220794 2860.02078896872 13 16 9
171.049738504547 -239.830732124451 2886.64086949731 17 20 13
173.152974717391 -237.215059131129 2896.91892690577 18 21 14
161.451236486716 -238.262322279384 2897.35742292052 20 23 16
146.45507947336 -240.165247599754 2895.52615471142 20 23 16
145.319534693947 -238.41213627702 2903.47954280652 18 21 14
121.245121123724 -242.666007706063 2895.42323250496 16 19 12
40.3704709488615 -261.687725419051 2848.17924044049 16 19 12
6.09959715085662 -268.468116423843 2833.61765902781 16 19 12
-26.6545497157713 -274.803357165028 2820.3179709718 8 11 4
-42.9812108813445 -276.853179025225 2818.41237713904 8 11 4
-61.8463470444794 -279.535917270709 2814.8700054746 9 12 5
-40.0242043859236 -271.776675434111 2838.81486857392 12 15 8
-30.5764299170548 -267.224405117998 2854.26632222682 15 18 11
-35.2608815336612 -266.292367529335 2860.19754434217 13 16 9
-76.7866477290289 -274.696686262359 2841.74390606838 13 16 9
-83.2257172385771 -274.178426642839 2846.64415157316 14 17 10
-80.4134624995339 -271.3312157536 2857.6008312217 15 18 11
-48.8923631457188 -261.300751143956 2887.16615507462 15 20 14
-78.0509914632321 -266.496643103455 2877.21255312604 16 21 17
172.162160886222 -274.698237607781 2770.24354381288 9 11 6
147.10680876779 -279.537895799879 2760.41408038294 9 11 6
141.677160605707 -278.835328430174 2765.70196212242 10 13 6
146.529064925739 -275.260502603995 2778.77676421071 9 12 3
168.080462488816 -267.057931765923 2804.3418666771 13 16 9
154.797271571307 -268.57084431753 2803.58577273107 14 17 10
135.102603604989 -271.839897818196 2798.11963907116 15 18 11
136.90124087673 -269.161883944919 2808.69095377609 14 16 11
159.549731186353 -260.776858592627 2834.55690738935 13 15 10
151.038023246456 -260.966529893546 2837.36921742241 15 18 11
156.99116253219 -257.209139535101 2850.74040327009 13 16 9
158.161219453098 -254.772053919615 2860.5542694871 10 13 6
154.51345450473 -253.650847649649 2866.84499668508 11 14 7
152.494659057355 -252.093687694011 2874.28751795907 13 16 9
139.93370975778 -253.374429546287 2874.19682199949 14 17 10
120.825795469246 -256.393743742837 2869.52836906336 16 19 12
120.422292960264 -254.398388271972 2878.13627194276 18 21 14
113.498700908765 -254.145216059835 2882.13992597957 17 20 13
72.1307732572791 -263.010974530817 2862.18084297246 16 19 12
58.5370582790588 -264.480082053254 2861.72662964492 16 19 12
0.41924462126941 -277.642626228972 2830.69528069522 19 22 15
-30.6960010144102 -283.632060842774 2818.5508481303 10 13 6
-53.6532415428432 -287.444351921502 2812.15405957789 9 12 5
-55.9503408439239 -285.848923026409 2819.86728456016 9 12 5
-49.9153808076946 -282.099134907623 2833.15834480076 11 14 7
-22.1541696865604 -272.756593213936 2860.89065500178 14 17 10
-20.1357270869145 -270.103046009348 2871.24731592974 14 17 10
-79.2100545729451 -283.13975819308 2841.14720143788 16 19 12
-91.5299708798782 -284.125395052898 2842.1904490822 19 22 15
-71.0710277735727 -276.746627467762 2864.71140478147 20 23 16
-89.2778942560275 -279.232826235175 2861.90322246179 22 25 18
-108.386963763186 -281.925353874908 2858.60452708216 18 23 19
167.64840044987 -281.249309328859 2777.11126735092 5 7 2
152.014302428706 -283.463394096342 2774.54222606375 9 12 5
141.866047637972 -284.105387634661 2776.21234786402 11 14 5
139.622632937992 -282.510475840942 2783.87233967115 11 14 5
150.905261112454 -277.12430984999 2801.62957284885 14 17 10
171.033318351878 -269.29693134778 2825.82970792542 16 19 12
181.703443298939 -264.156947230435 2842.81464211808 17 19 14
157.229485650616 -268.810866269875 2833.79730253681 17 19 14
149.514710453068 -268.788161387951 2837.20376678652 18 21 14
149.028605911494 -266.7670607235 2845.889889577 18 21 14
160.66157220558 -261.424706606211 2863.30570719876 16 19 12
153.786695937192 -261.183969010527 2867.26316141567 14 17 10
115.306159282908 -269.565159286985 2848.61596545048 10 13 6
112.402388285989 -268.208067458459 2855.54994119161 12 15 8
115.209766728007 -265.308142876304 2866.50367201438 13 16 9
81.3350863127611 -272.328789201803 2851.58383650528 16 19 12
81.6806657349525 -270.087617726624 2860.82880561519 16 19 12
71.3952104859197 -270.707921789576 2862.63196380375 18 21 14
56.1561514503608 -272.642630915413 2861.04626068402 20 23 16
22.7482665886325 -279.396528306729 2847.04071207351 22 25 18
-42.1682173942868 -294.458433550212 2811.70497992807 12 15 8
-38.6668246983986 -291.320892758525 2823.35133408306 10 13 6
-54.2024629910394 -293.2160740323 2822.05463419258 9 12 5
-34.0278758413612 -285.717238338477 2844.83987570431 9 12 5
-57.0727073315842 -289.573740975121 2838.53660072074 11 14 7
-20.8840662348759 -277.954355148869 2871.73393851043 14 17 10
-20.5068020937249 -275.715602324153 2880.94746385951 18 21 14
-67.9405389004764 -285.867389078494 2858.69976184106 21 24 17
-79.3946120857618 -286.660170821289 2860.2719577237 21 24 17
-97.6202892350422 -289.183920100786 2857.48800462355 21 24 17
-103.226748520631 -288.45169177624 2862.94707854624 11 16 12
185.667966974183 -285.779878925622 2782.55908807342 12 14 9
182.680305568249 -284.407110574585 2789.57405124765 10 12 7
148.151852035435 -292.098572417779 2772.56874971396 12 15 8
132.458882470088 -294.339437411046 2770.06212684612 13 16 7
126.228818452446 -293.860807278609 2774.76102187064 13 16 7
146.219370445429 -285.929439364704 2799.08233209999 13 16 9
167.13148203951 -277.788433321913 2823.87444491612 15 18 11
151.439649936427 -280.028291818256 2821.36654377164 16 18 13
142.902351117725 -280.235893753077 2824.20657822352 16 18 13
141.572345277632 -278.418004853209 2832.34383277092 18 21 14
149.914842479208 -273.90776799454 2847.48214629817 18 21 14
139.779042596984 -274.56501243972 2849.14215426754 18 21 14
114.264303275999 -279.475958274394 2839.77940540316 17 20 13
141.315306692833 -269.827261630767 2868.17171278545 14 17 10
134.412923493818 -269.587613395552 2872.15630495611 13 16 9
119.363220675126 -271.579730697036 2870.39139105912 13 16 9
93.6595020427631 -276.465276974941 2861.21220955918 13 16 9
85.0365895088414 -276.65944538133 2864.13561206823 13 16 9
111.653922246426 -267.282394252448 2891.58180061658 16 19 12
71.0340679780836 -276.152312815219 2872.29739385891 18 21 14
-32.1715062521122 -299.593083084768 2819.54092228276 11 14 7
-26.1639005204595 -295.763907710651 2832.8477501925 10 13 6
-7.65777066790685 -288.622719902633 2854.50883603051 9 12 5
-54.7275873222106 -298.956854885624 2831.92636906751 9 12 5
-60.3179280290389 -298.227159799069 2837.36981141469 11 14 7
-44.1874627493877 -291.764032702372 2857.23911857422 12 15 8
-44.7018119746154 -289.719292461341 2865.94979483401 14 17 10
-56.9414944450757 -290.757662086152 2866.92150081426 16 19 12
-61.6407415150815 -289.814222792112 2872.86539202449 16 19 12
-84.0407047944134 -293.480870055837 2867.31060215112 13 18 12
-81.6387457137369 -288.519775018073 2886.86441189002 19 25 23
191.243188184374 -291.594889065057 2787.80164570388 20 21 16
152.073641572728 -300.77361581226 2767.12236587643 8 9 4
157.699640053957 -296.862012923727 2780.79595267641 16 17 11
148.356457435407 -297.308666420052 2783.05466405336 14 15 7
129.482499113872 -300.497731837434 2778.1789785398 14 15 7
156.631571801162 -290.4241909108 2807.82801920502 15 16 10
160.840330939288 -286.990670453222 2820.14544952042 14 15 9
158.708189430679 -285.387142383965 2827.69367192184 14 15 10
147.787488258417 -286.290771591116 2828.75260471769 13 14 9
150.481049876413 -283.323131801854 2839.80934905121 16 19 12
141.953575504368 -283.541892065038 2842.64161472037 16 19 12
147.924272686373 -279.672463057095 2855.97880605404 17 20 13
143.443485996873 -278.757638641996 2861.71032998559 17 20 13
147.068716862305 -275.578273982295 2873.22752945813 17 20 13
147.489086479312 -273.309279147708 2882.39378067662 18 21 14
131.656751768267 -275.563504099427 2880.02752405468 15 18 11
122.30269116771 -276.005113739532 2882.29662979082 14 17 10
115.383638576661 -275.767727755745 2886.29810927396 14 17 10
115.016565736951 -273.727254102812 2894.86316850564 16 19 12
109.742827415884 -273.039624139754 2899.9984372104 17 20 13
-8.96436707891501 -301.070408465749 2836.39073953941 10 13 6
-23.5929545533029 -302.815833424938 2835.58810017756 10 13 6
-16.6954703392195 -298.732530876248 2849.39027718974 9 12 5
-14.7276579919016 -295.998948859598 2859.78538559644 10 13 6
-55.228323164453 -304.666609867285 2841.76963804412 11 14 7
-54.958640547274 -302.3756111319 2851.08227151407 10 13 6
-52.1491228275384 -299.419228228619 2862.02553348725 12 15 8
-45.9429274765846 -295.576964885155 2875.13322457318 16 19 12
-54.8228504882595 -295.746061618082 2878.30779886157 18 21 14
-58.6586506252011 -294.57986277848 2884.77859789934 19 24 18
-71.7812199615167 -295.856113946728 2885.24493521738 15 20 16
-68.845469080193 -292.915615254814 2896.06519347453 21 27 25
126.963271935317 -318.060943838555 2739.34921400547 11 12 7
171.03978366284 -302.719540619951 2782.5848396078 16 17 12
186.966123864431 -295.76047978253 2804.0004565148 13 14 8
189.555962593454 -292.753906244611 2815.15444481932 15 16 8
205.660534974737 -285.817343889847 2836.39639980303 15 16 10
184.524660870439 -289.761021972877 2829.62729572628 15 16 10
162.515359839609 -293.925418423469 2822.34123025982 15 16 10
156.394692243111 -293.464930103405 2826.93383653092 14 15 10
191.092851386195 -281.250478635177 2861.52363233392 15 18 11
154.575290139787 -289.549072481737 2843.74912153176 15 18 11
148.470559475517 -289.089826670463 2848.32608583582 15 18 11
148.813012241143 -286.792211160973 2857.5658173583 15 18 11
151.607852801777 -283.809741780893 2868.51979839755 15 18 11
145.530730836326 -283.353298343285 2873.06976104516 16 19 12
128.893872742367 -285.872338829373 2870.12463833811 15 18 11
121.971490118777 -285.640017142935 2874.13017309372 12 15 8
89.7479255495952 -292.487950541511 2860.37938472376 11 14 7
96.6556752626024 -288.366387077413 2874.16605083917 11 14 7
106.081738310756 -283.568575548705 2889.60277336979 13 16 9
102.43045507149 -282.422483163691 2895.89331612572 14 17 10
-23.943293572843 -315.163428968999 2817.92254157387 19 22 15
-48.5070986735003 -319.660797980968 2810.38819313298 12 15 8
-39.2286081304314 -314.842832957172 2825.9688165069 9 12 5
-21.5846825610471 -307.76732097467 2847.07854364243 9 12 5
-30.4374653356407 -307.950997311836 2850.22865997532 9 12 5
-44.3052310704148 -309.489606876248 2850.05685547171 10 13 6
-49.0223881189436 -308.538130799842 2856.01734372245 9 12 5
-32.8034510443724 -301.945781687217 2875.77969812425 9 12 5
-32.42764840265 -299.649232073804 2884.98613242374 10 13 6
-62.3041257438954 -305.461365289853 2874.41987388036 10 13 6
-63.6283173693024 -303.612500581988 2882.54643877374 9 14 8
-77.6071072408824 -305.135816475672 2882.48262248136 10 15 11
-108.562185278475 -311.141728168734 2871.59882358866 14 20 18
154.516298868545 -317.45363492705 2761.49409550038 18 19 14
163.253429546198 -312.5220758628 2777.59550807386 17 18 13
171.272353786815 -307.834121875952 2793.0288678207 17 18 12
182.520725105621 -302.216813672968 2810.78595584448 16 17 9
192.2663072167 -297.078138033765 2827.27225881531 16 17 11
187.784126618454 -296.159203429451 2833.00422159269 16 17 11
161.004329305874 -301.782947633285 2822.1688888252 15 16 10
170.050829324773 -296.889652379845 2837.96874844403 15 16 11
158.357563464208 -298.06727275703 2838.41809801153 15 16 11
169.099538818179 -292.719459181337 2855.3009665848 15 18 11
153.378781072018 -295.058896071514 2852.83650667462 15 18 11
156.151350302478 -292.046522860621 2863.80818370082 16 19 12
143.608714939618 -293.449706013067 2863.71773634404 16 19 12
133.462013426445 -294.152574289152 2865.39531297638 15 18 11
102.179927104807 -300.874787085678 2852.10795065665 13 16 9
105.775417973469 -297.631230179693 2863.64519479965 12 15 8
89.3792901994508 -297.85582842419 2870.04094667299 9 12 5
70.9146925806032 -300.848081487792 2866.14658046797 10 13 6
53.2107518154761 -303.60175669498 2862.87885621936 11 14 7
-51.7199906146724 -328.394787964184 2809.20154711818 12 15 8
-42.4496412916482 -323.52699990633 2824.78289102128 10 13 6
-47.210062518853 -322.56741609557 2830.78514292141 10 13 6
-46.1457953386311 -320.004481481417 2840.68545948773 11 14 7
-48.3828190357078 -318.360913567656 2848.3322514232 11 14 7
-37.2391809073682 -313.061760511143 2864.82345492735 13 16 9
-20.1566896197152 -306.174327073719 2885.10158321327 13 16 9
-2.9688806485515 -299.300465447863 2905.2771353904 13 16 9
-50.4396836203416 -309.983959868812 2883.14482678269 12 15 8
-75.3415180817947 -314.497270953483 2875.94850272544 9 14 8
-69.0679856233296 -310.587620089186 2888.97902938005 9 14 10
-65.2798923555062 -307.366263420511 2900.32863552087 2 8 8
142.826406868201 -328.549486798412 2753.48730199214 21 22 17
157.041257112334 -321.902212727739 2773.81437919789 16 17 12
158.734735225415 -319.06505299489 2784.46659681337 17 18 12
169.95163412676 -313.386842791642 2802.2459361239 16 17 9
171.739836959116 -310.561241317399 2812.80579899842 16 17 11
183.098271669596 -304.900739567648 2830.44754630188 16 17 11
163.476059866347 -308.468346319316 2824.95358864106 15 16 10
135.002108920949 -314.623716747621 2813.04499312153 15 16 11
146.434666366206 -308.971910689258 2830.61442067301 15 16 11
179.611472978073 -296.969633617715 2863.91180699297 14 17 10
163.91656423331 -299.347091308453 2861.42729809999 15 18 11
161.070944644059 -297.956435507687 2868.29856789323 15 18 11
149.348478725337 -299.150289770419 2868.77965075332 15 18 11
122.204407721541 -304.797075529974 2858.30945267804 15 18 11
109.572423519318 -306.212097583594 2858.30914198199 16 19 12
127.022244556994 -298.961627195498 2879.58575901096 14 17 10
138.054452745533 -293.595708493651 2896.17774615934 14 17 10
105.820491526413 -300.619119771095 2882.46321737033 13 16 9
68.540781514161 -309.025664795297 2865.46148669619 14 17 10
-11.4112226445933 -327.175936707227 2828.50878225743 13 16 9
-24.386284777195 -328.544612473049 2828.84230305678 9 12 5
-31.602630725958 -328.282527726568 2833.13568661458 9 12 5
-50.4382925572258 -331.268042083407 2829.60879667992 9 12 5
-58.527058418413 -331.232037842264 2833.38467354774 11 14 7
-46.6269745219372 -325.637418303476 2850.49795472248 11 14 7
-42.9971060439134 -322.366158722106 2861.99730478986 13 16 9
-27.6033541491119 -315.865970746987 2881.17545448982 16 19 12
-38.9639326902071 -316.763591783437 2882.67030401049 19 22 15
-54.556070558077 -318.810292977749 2881.45176576953 19 22 15
-84.5246292694224 -324.76564052791 2870.9981124039 15 20 14
-85.8771355844863 -322.885461470652 2879.14816595551 16 21 17
-102.452883828317 -325.143619710861 2877.52071129962 16 22 20
120.150229734823 -343.093008279117 2737.0611964327 12 13 8
122.507263464489 -339.975355178409 2748.4299460322 19 20 15
152.507815860809 -328.460621678958 2780.70273051574 17 18 12
161.336893426853 -323.442988566404 2796.69977892108 15 16 8
177.369800625556 -316.278293001874 2817.97918050173 15 16 10
168.084171953412 -316.784461505811 2820.18987409322 16 17 11
177.894607241382 -311.550795678102 2836.59773739231 15 16 10
139.875939335638 -320.654200835278 2817.59864197611 15 16 11
148.118227485289 -315.901293641256 2832.8005980037 14 15 10
162.043374384505 -309.488691640518 2852.03346786728 13 16 9
169.628389666147 -304.992437331678 2866.50879159371 13 16 9
166.796448985201 -303.595250338945 2873.36551272146 13 16 9
142.966503093275 -308.375131523639 2865.14418641362 13 16 9
128.768508746959 -310.295961558055 2863.93988650377 14 17 10
122.6483971018 -309.840834072371 2868.53307087795 15 18 11
134.431159458348 -304.176052561247 2885.75248416729 15 18 11
124.268158433076 -304.907765689919 2887.45050971272 14 17 10
123.078562427887 -303.03740477725 2895.44057987784 14 17 10
89.9395105810079 -310.373973187399 2881.25385678963 15 18 11
36.9497200807745 -323.351387772598 2853.60507455602 15 18 11
1.85510878509776 -331.118266734152 2838.59003198508 16 19 12
-6.96075251294959 -331.3386766517 2841.70891395311 11 14 7
-20.7561829507394 -332.967045099869 2841.4785457541 9 12 5
-48.6897605250833 -338.580922747477 2831.78713772786 10 13 6
-52.6175601001442 -337.380688278413 2838.34426311651 12 15 8
-47.3706875615876 -333.604801084118 2850.9971391427 12 15 8
-47.0840167912705 -331.239402438595 2860.28190685123 14 17 10
-49.2809339848526 -329.578734754613 2867.88600725528 16 19 12
-58.1741692461812 -329.78785726518 2871.08005443882 19 22 15
-76.3334919753058 -332.560446448053 2868.26698884759 18 21 14
-84.4342315214606 -332.529638733381 2872.05586164793 14 19 13
-98.4602551038423 -334.126460560988 2872.04981327355 13 18 14
-120.145596219911 -337.810417178116 2867.20486066059 15 21 19
106.10835064318 -355.11588120633 2727.27557054494 22 23 18
127.311515023242 -346.134465111411 2753.07169856307 13 14 8
131.29689814979 -342.510548278717 2765.58246621698 12 13 5
151.141707710278 -334.04238277744 2789.96916238729 14 15 7
165.563844203305 -327.28583155998 2810.07458801105 15 16 8
157.838310849681 -327.317495982566 2813.49977102825 15 16 10
165.233878582063 -322.75438356335 2828.15367521412 14 15 9
157.523412713037 -322.787416762344 2831.56409830093 14 15 10
159.405552385937 -319.923963245227 2842.02474814676 13 14 9
178.973023968749 -311.76313203173 2865.3153595845 13 16 9
185.794397903428 -307.469534172051 2879.16203367412 14 17 10
160.429980139767 -312.802393903291 2869.71237197081 14 17 10
141.433774363041 -316.200689830991 2864.98900416545 14 17 10
136.142453583187 -315.510666413149 2870.14137876013 14 17 10
118.672649282422 -318.416352941049 2866.66328290606 14 17 10
81.6123614761035 -327.061432144278 2849.47891798526 14 17 10
103.140722718801 -318.463355358561 2873.59153093428 16 19 12
119.07359426643 -311.55448740213 2893.59117128627 16 19 12
97.4019319424828 -315.639223090423 2887.3749610845 18 21 14
66.6156671361691 -322.336668648676 2875.00882724317 18 21 14
6.06119440305797 -337.593579877877 2842.45525967441 20 23 16
7.16147458212335 -334.970391572058 2852.3112471732 12 15 8
-11.5652790969709 -338.055818471859 2848.69097686368 9 12 5
-35.3295567484571 -342.557760389085 2841.7802710377 9 12 5
-61.6719998788353 -347.759982863769 2833.28249485195 11 14 7
-48.1141051102352 -341.576643778082 2851.49668930922 11 14 7
-22.7737565100501 -332.091456725411 2877.36080306356 12 15 8
-59.2367030003755 -340.12047762258 2862.3263727145 14 17 10
-89.1296416660117 -346.241406242426 2851.8217624934 17 20 13
-94.7449216580529 -345.50591356551 2857.28911303815 17 20 13
-102.888233452922 -345.477391851975 2861.12026073877 18 21 14
-96.6796465589117 -341.445419403683 2874.19720022226 11 16 12
112.471057563421 -360.839802466993 2733.13958964535 13 14 8
80.1944884713826 -368.476100561647 2718.14070834822 11 12 4
84.8519932415397 -364.558955093008 2731.35795736962 15 16 8
114.858829609158 -352.801973769648 2763.58869765419 14 16 5
117.303414745253 -349.640428452987 2774.86402016251 13 15 4
158.945302353192 -332.087590733172 2824.4414802476 15 16 8
137.648002537714 -336.277605058118 2817.86908267735 14 15 9
156.287394276646 -328.260799699501 2840.68533091834 15 16 10
186.275174979469 -316.847339836225 2871.5688567638 14 17 10
162.555994743928 -321.76549107812 2863.25797477582 13 16 9
160.51282567298 -320.106249780289 2870.70961184054 12 15 8
148.789521084398 -321.363848516528 2871.20061107555 13 16 9
144.325874901061 -320.43322892692 2876.91277971121 15 18 11
130.123717982795 -322.411900303308 2875.72082437993 13 16 9
119.135264426973 -323.416257481438 2876.86192384434 13 16 9
96.699428212649 -327.803564128633 2870.03236015014 14 17 10
126.175372024576 -314.578548195126 2908.24128482916 18 21 14
2.29678284149104 -344.044214366489 2849.980933441 9 10 4
-12.3037111543312 -345.968967026777 2849.17690139554 7 8 2
-46.0214057127182 -353.411234388709 2835.58040133268 8 9 3
-64.9067080585404 -356.518335185743 2832.12077558555 11 12 6
-63.8554459749909 -353.866146434271 2842.0211525246 13 14 8
-37.7177738039141 -344.03683714172 2868.45956038738 13 14 6
-64.1691385333996 -349.291314434976 2860.07766819907 15 16 8
-87.360512652896 -353.577552056902 2853.98308901383 18 19 11
-89.6078104033728 -351.887784174097 2861.63325490095 18 19 11
-140.520069936238 -361.610209224458 2847.02704585237 14 19 15
122.756848974592 -365.276291451503 2742.00253035485 19 20 12
112.533139920457 -366.052273420242 2743.76738278559 16 17 9
104.666519049627 -363.628111764772 2756.88873867922 15 17 6
123.844281724003 -352.795952151325 2790.09055656112 17 19 8
121.599465036922 -351.100881969558 2797.73713719615 17 18 10
135.336953121201 -344.470100881364 2817.12377042123 14 15 9
143.566671330528 -339.57759250826 2832.31757559208 15 16 10
142.2371072953 -337.649841412356 2840.43815383612 14 17 10
138.515272318272 -336.46286427141 2846.79271276151 13 16 9
132.383587199369 -336.014343456783 2851.39802838731 13 16 9
138.368927426014 -331.880928967511 2864.68166202233 13 16 9
143.599424118348 -327.99981137567 2877.3352464991 15 18 11
127.77217985177 -330.497836014791 2874.99996847788 14 17 10
134.682426547559 -326.133222988163 2888.74823243327 14 17 10
127.783451664346 -325.934339102624 2892.73546504903 14 17 10
104.523809391047 -330.621151272749 2885.35131041726 15 18 11
123.800582083337 -322.603910618592 2907.53456561286 16 19 12
119.368766723984 -321.673103985528 2913.21476028282 17 20 13
-6.9380700915409 -356.79350366517 2835.5292235393 17 18 13
-0.916313962461945 -352.662629108007 2848.77740888772 10 11 5
-21.3160464673989 -356.317408620495 2844.06842487352 11 12 6
-52.5656190219208 -363.119584133887 2832.17784151674 13 14 8
-78.1156873635451 -368.208011904981 2824.29331596253 10 11 5
-59.5987824719506 -360.441360282859 2845.85092090692 11 12 6
-56.8360725848454 -357.288577714583 2856.81163596512 13 14 6
-60.7303143778868 -356.075236902169 2863.33350086833 15 16 8
-73.8451449630047 -357.520141521066 2863.81708039838 17 18 10
-49.1516796840239 -348.101664770254 2888.91650928913 17 18 10
-36.1183777316905 -342.076168620891 2906.2580519672 15 18 11
-72.8425830088888 -350.268796795403 2891.50723653975 15 20 16
103.224199077077 -379.192368325976 2728.03009485441 18 19 11
132.337551695996 -364.957754909371 2769.2840163585 14 16 5
144.276935157781 -358.736462011524 2787.68255975286 16 18 7
138.07636605351 -358.283516069436 2792.35596200451 16 18 7
108.041085537785 -365.332120040944 2779.29599072116 18 20 9
127.258409816016 -356.875750050896 2802.89028526438 18 19 11
148.991656986996 -347.686204123067 2828.12893389466 14 15 9
158.854592054023 -342.253326037865 2844.4552206524 15 18 11
134.299491975933 -347.539687540131 2835.61193142319 14 17 10
116.084631286745 -350.82318159252 2831.51261804619 14 17 10
118.765317111738 -347.635851884636 2842.54967815846 13 16 9
141.684972496339 -338.245744600788 2867.99781017316 14 17 10
138.823916532228 -336.81095060435 2874.87788490878 15 18 11
145.717342931762 -332.40383991248 2888.63623268865 15 18 11
142.090665347225 -331.222313333108 2894.89710450723 15 18 11
127.052119471325 -333.503798370715 2893.16354218415 15 18 11
106.244208682161 -337.508298044614 2887.49466440957 15 18 11
105.853592474967 -335.333385377483 2896.06323252561 16 19 12
-14.8593878998113 -364.499911635765 2840.28348500086 10 11 5
-23.7084338537072 -364.757757053747 2843.44051493133 12 13 7
-29.254832017124 -364.031390292014 2848.84081360827 13 14 8
-58.0746944529977 -370.172313609964 2838.6908251954 12 13 7
-47.0104244049874 -364.538502071631 2855.21137999912 12 13 7
-39.2082879044797 -359.893787339688 2869.44949460187 15 16 10
-57.2916095517426 -362.83676565635 2866.58614225242 15 16 8
-51.1019592762563 -358.688861471014 2879.66475141793 16 17 9
-30.5617942295155 -350.400036211566 2901.97054640284 16 17 9
-30.1291358369098 -347.976765448428 2911.10179277064 14 17 10
-86.2684377676865 -361.870824254695 2883.88184508403 14 19 15
93.1090572305795 -390.193524284164 2721.27937378514 19 20 12
92.2515450124273 -387.946454485808 2730.30091174956 16 17 9
94.5721739105063 -384.688082441698 2741.68501368662 21 23 12
120.646537978359 -373.836221348568 2770.86931119964 18 20 9
133.405962768616 -367.305703255843 2789.82508524334 17 19 8
117.658526010575 -369.886261587249 2787.42275563005 19 21 10
133.713312788229 -362.359336739797 2808.62689313554 19 20 12
161.84731112038 -351.06184595857 2838.53423598126 15 16 10
153.336735136175 -351.377941702399 2841.36410744303 16 17 11
147.217809738137 -350.936467623276 2845.95813182381 14 17 10
120.994096588483 -356.781940815678 2836.0202800275 14 17 10
130.940359887427 -351.307763464078 2852.25771660559 14 17 10
143.384808338435 -345.090023314678 2870.15524809409 14 17 10
141.337715101267 -343.396599666919 2877.60606761947 14 17 10
136.871288868657 -342.456564855152 2883.31926747744 15 18 11
136.478361043546 -340.265675064008 2891.88776965228 15 18 11
123.873897779144 -341.827519786305 2891.88183058446 15 18 11
112.870684069674 -342.885152065299 2893.04546113628 15 18 11
87.0886567283904 -348.429798138178 2884.04145600377 15 18 11
55.4600090196926 -355.706147328091 2871.18013538144 16 19 12
-7.5828283938546 -372.427072673751 2837.06320341904 18 20 15
-24.6744311647955 -375.184160219551 2834.60483215006 9 11 6
-21.1364996959986 -371.722474513137 2846.16699428657 10 12 7
-15.0672224427293 -367.521668384665 2859.35765460048 12 15 8
-36.3725373998625 -371.51046051447 2854.18038494953 13 16 9
-46.0867916523888 -372.021726648469 2856.8171256641 14 17 10
-18.2415692640188 -361.395174293348 2884.27623521983 15 18 11
-25.3946734762276 -361.171047820894 2888.51242901468 15 18 11
-35.0717276421073 -361.686738257181 2891.11288340323 15 18 9
-38.8810360969303 -360.47304798662 2897.55035659628 15 18 9
-62.0665790828365 -364.928317746363 2891.47496988533 15 18 11
-79.4192842875594 -367.649658677967 2889.27059385893 13 18 14
116.773909619432 -392.739756531387 2730.74743674784 14 15 9
97.9025892685579 -396.385632192672 2725.93664804496 19 20 12
92.3374297689064 -395.662649726983 2731.3560772036 14 15 7
83.6190090079989 -395.964219161834 2734.39019461902 19 21 10
96.2277362548414 -389.352343715273 2753.48358896969 19 21 10
60.5908501148216 -398.350545400581 2736.35486581887 17 19 8
106.623107449253 -381.016548047895 2780.18805905694 19 21 10
163.259860070291 -360.39747506613 2831.42647146715 16 17 9
165.921863627088 -357.154688733245 2842.47388688296 15 16 10
156.621094184128 -357.737305034926 2844.71057659283 14 17 10
144.895510245976 -359.080517556613 2845.21683077775 14 17 10
156.456396088578 -353.047809700774 2862.60219137232 14 17 10
168.099698175898 -347.025416306792 2879.90757373249 14 17 10
159.62713799021 -347.355932911289 2882.70148849927 14 17 10
142.231763975083 -350.471922389071 2879.18090279742 14 17 10
120.719874486433 -354.846110612476 2872.8488167666 15 18 11
134.121544505217 -348.333962326355 2891.16954685364 15 18 11
152.507084103606 -340.317305475588 2912.82098665449 15 18 11
126.855097725094 -345.946100459717 2903.70028609593 15 18 11
124.873737050626 -344.249156642728 2911.08497409337 16 19 12
45.6896382787351 -366.234259655808 2865.43438302543 16 19 12
-29.7253690834807 -386.915288652839 2822.9331713308 17 19 14
-34.4885553967549 -385.931916150519 2828.93465304405 6 8 3
-17.7374176816931 -378.418830494882 2849.44934920124 6 8 3
-18.2946127859367 -376.18836217863 2858.17512152385 8 10 5
-37.1134276108838 -379.475090256213 2854.67602151925 10 13 6
-32.6665367672043 -375.742603000942 2866.71279636867 14 17 10
-34.0175794722355 -373.767091993996 2874.84764435534 14 17 10
-29.4899447554942 -370.044918171048 2886.805425824 14 17 10
-49.2431331072312 -373.568150921767 2882.85221851376 14 17 10
-65.6979911290483 -376.085179001932 2881.14297892962 15 18 11
-88.1018523413148 -380.339460460178 2875.67891183859 14 19 12
-126.631739068197 -389.312125252406 2860.00229737757 14 19 15
124.685312016986 -397.812569680519 2737.81116348626 16 19 12
107.403443167168 -400.987714080449 2734.18660854901 17 20 11
90.063854884896 -404.155038271446 2730.61787619597 12 15 6
104.205717472555 -396.958008752511 2750.93651545038 19 22 11
83.6670643614021 -401.154371152367 2745.02861804828 16 19 8
74.1482433446694 -401.723208840633 2747.47979972125 17 20 9
166.528301240652 -366.746045342117 2834.78715209566 15 18 9
154.830873464023 -368.114832252037 2835.26922667938 13 16 9
140.702503442165 -370.251613472766 2834.02736843514 12 15 8
145.781782011081 -366.211116111101 2846.8075584835 14 17 10
156.540211049945 -360.378795512123 2863.602478378 14 17 10
161.735391111977 -356.352879890851 2876.26973170522 14 17 10
158.903022255011 -354.897112359445 2883.11821984006 14 17 10
133.407977824683 -360.614420537111 2873.85475581827 13 16 9
118.369736514868 -362.992430008144 2872.13549516766 15 18 11
133.392279011636 -355.906234240791 2891.59564959157 14 17 10
155.037687391754 -346.789540071032 2915.51538157998 14 17 10
172.724019752054 -338.964969494672 2936.4726254542 15 18 11
85.2069012881325 -361.549505547142 2893.51712911168 17 20 13
-12.3437285576369 -389.338848475456 2835.7882691482 15 17 12
-22.017855110652 -389.882459463738 2838.39028086128 5 7 2
-8.54737491497826 -383.315712242949 2856.63461172677 6 8 3
-47.2263736707492 -392.736949122191 2839.75545715556 7 9 4
-52.8141943125187 -392.004181022357 2845.19594285087 7 10 3
-49.2375243863243 -388.487437101909 2856.71149954653 9 12 5
-43.1124752299965 -384.217726505993 2869.83625564406 13 16 9
-57.0188884432614 -386.01691211406 2869.74134168336 13 16 9
-78.5131711634954 -390.081951953289 2864.76298919278 14 17 10
-61.4027022881527 -382.54200089424 2884.91723134302 14 17 10
-75.3687310137092 -384.332963393813 2884.88030109546 13 18 11
-128.227797323571 -397.690699797572 2859.99173784248 16 21 17
116.943945918387 -408.077578392205 2732.84551156208 14 17 10
100.427919502113 -411.02831896822 2729.84420629763 16 19 10
96.4421973621796 -409.781980951679 2736.45203556527 15 18 9
120.060314919338 -399.380220575611 2763.89088106767 19 22 11
139.080455494512 -390.564963529073 2787.62793859272 16 19 8
147.921663134565 -385.15944251292 2803.55594983449 17 20 9
145.713616229034 -383.41463848835 2811.15866689264 18 21 10
154.668621867752 -378.023273573715 2826.97542946312 15 18 9
148.529552530685 -377.587250306992 2831.59026270083 14 17 10
126.385542434355 -382.352274543583 2824.52673785223 12 15 8
137.845880519439 -376.193405538708 2841.99329729365 12 15 8
140.544797282749 -372.900313755752 2852.99662222617 12 15 8
144.445707909639 -366.846928051746 2873.73466731509 13 16 9
123.775448313012 -371.073844939738 2867.96197303858 13 16 9
128.195706427668 -367.275332789751 2880.01509828902 13 16 9
116.390177540018 -368.648978564073 2880.60523701205 14 17 10
143.703252953433 -357.631513316673 2908.53499962573 15 18 11
135.200278008901 -357.977786345849 2911.36178333234 16 19 12
36.0083944726357 -384.393752960628 2860.72770323922 17 20 13
15.7405425646746 -388.306707469034 2855.9262558363 11 13 10
-4.59640103747549 -392.210526051871 2851.19172937927 5 7 2
-64.7091067435333 -408.418895437505 2819.75735288185 7 9 4
-81.1309229078723 -411.010586200876 2818.02633735675 7 9 4
-45.2430240965915 -397.465665410894 2851.23772345493 7 9 4
-32.4856538793576 -391.107915436765 2868.80416345478 11 13 8
-48.8664017037785 -393.704429703973 2867.0330793728 13 15 10
-69.481178536813 -397.570641403013 2862.56922498217 14 17 10
-75.0656901104083 -396.837494384643 2868.00636871986 14 17 10
-84.8534439372415 -397.378119310786 2870.7204348149 14 17 10
-87.0753207900146 -395.625615950143 2878.3357472566 13 18 12
-101.105948809059 -397.434646325702 2878.3656354866 11 17 13
106.073034168367 -419.455279719312 2725.4840251027 23 26 19
93.4530171626618 -421.1160887919 2725.50815801767 16 19 10
94.955314504686 -418.010136539642 2736.310493548 21 24 15
130.394959197413 -403.543591878022 2772.66494348401 18 21 10
165.246732066759 -389.367157144292 2808.22878979192 17 20 9
142.459931449046 -394.472993515647 2800.43702800021 17 20 9
150.563475838367 -389.289430383353 2815.71310787321 17 20 9
181.822880600129 -376.479004981727 2847.96123996904 15 18 9
161.383830382829 -380.788731117846 2841.97119053166 14 17 10
138.471547669516 -385.876936890106 2834.30109067901 14 17 10
132.316741882045 -385.440698858562 2838.93151870245 13 16 9
157.512354096278 -374.775108297029 2866.18214186424 13 16 9
162.7089148114 -370.679121818768 2878.83732989848 13 16 9
146.145764497212 -373.657209581232 2875.88686126349 13 16 9
133.57777178204 -375.320419840007 2875.85968818317 12 15 8
122.599033556192 -376.4563818652 2877.01059132021 13 16 9
127.053026407074 -372.629525791603 2889.02636610136 14 17 10
101.377939490414 -378.456433315318 2879.95788566549 15 18 11
132.015084824745 -366.296117778878 2910.08619789017 16 19 12
120.21200027492 -367.69069775218 2910.67666557308 16 19 12
45.9535985917245 -388.840390042372 2868.51344273117 17 20 13
10.0665821741925 -397.739687392171 2853.03573178565 9 14 10
-48.2452007099385 -413.626096238318 2822.59924531182 4 9 5
-95.2231587039698 -425.850748221069 2800.20531677019 5 10 6
-72.7469261827887 -416.296060447752 2824.65220215908 5 10 4
-22.7127712636319 -398.220630874216 2867.23602505558 5 10 4
-28.229887493477 -397.496599282472 2872.60759147672 7 12 6
-39.5909773685785 -398.579983075889 2874.13006657199 9 14 8
-51.8149772203667 -399.917621082672 2875.13043121623 12 17 11
-66.5856805569089 -402.024329117991 2874.52231248723 12 17 10
-68.7870348675492 -400.263651139041 2882.11603753619 12 17 10
-81.927003895109 -401.848533484117 2882.645268558 12 17 11
-83.2763856939303 -399.831629353707 2890.77234935468 13 19 15
88.3000039908848 -435.921028972501 2703.0562172418 12 14 9
107.723966526374 -426.62327802523 2727.73820836257 26 29 22
91.9704582902079 -429.378591662366 2725.36773657468 16 19 10
101.333075433784 -423.575370444903 2742.13577203126 21 24 15
137.575263828322 -408.703798169005 2779.05033062081 17 20 9
172.443403961177 -394.392160398768 2814.57827888634 17 20 9
147.298003408296 -400.35884671219 2805.00447130512 16 19 8
156.207285604 -394.864638496157 2820.85177557739 16 19 8
189.071288850347 -381.400068776001 2854.24365404854 15 18 9
194.189323397862 -377.259876007482 2866.97062389964 15 18 11
160.957316918343 -385.86862093052 2851.64766179305 14 17 10
135.609702882796 -391.807279361873 2842.27051268065 15 18 11
155.988644565212 -382.630066132133 2866.02201081334 14 17 10
162.792906348133 -377.968940164951 2879.83135702884 14 17 10
154.308269872056 -378.339962687938 2882.64358832955 13 16 9
152.286552385287 -376.595149369904 2890.06127614685 11 14 7
134.04798030361 -380.131120218734 2886.02316233535 14 17 10
132.019985882264 -378.384896420681 2893.44687477313 14 17 10
116.959533398925 -380.855710734599 2891.76304881943 14 17 10
96.9485744302991 -384.899292744786 2886.7258096179 15 18 11
65.3966592998607 -392.614785258676 2873.85319760255 15 18 11
36.1855364879302 -399.525873326321 2862.78831938094 15 18 11
-17.8358765657505 -414.294911169565 2835.01150756849 10 15 11
-54.7552014958046 -423.52813740192 2819.19133946151 4 9 5
-56.2529991492466 -421.479536915069 2827.46077684619 5 10 6
-48.3845467081316 -413.991299382193 2851.13180821945 5 10 4
-48.1306975114864 -411.431057870958 2860.42037054537 6 11 5
-57.8678245942563 -412.00505637864 2863.08943397791 7 12 6
-70.1342731072394 -413.358529312407 2864.13395332353 10 15 9
-55.5897723415355 -406.375231678729 2882.66744707664 11 16 9
-64.4918691478189 -406.688070586322 2885.88528530151 11 16 9
-69.195141892747 -405.699320521777 2891.82681499635 11 16 10
-93.3194059686739 -410.682678441617 2885.34473408635 14 20 16
94.5067059921674 -438.917595582597 2718.59075277268 24 27 20
95.9791595302089 -435.759349700454 2729.41499466588 14 17 8
109.283327767056 -428.556460823544 2749.14736362379 20 23 14
128.988306702355 -419.207924034322 2773.5427951801 18 21 10
125.899699706479 -417.688659104842 2780.63634668707 16 19 8
136.291343134986 -411.594686228562 2797.75681802242 16 19 8
176.940116202854 -395.291524532001 2837.16920687147 16 19 8
182.785478385846 -390.838897007546 2850.5446612259 16 19 10
199.858763970679 -382.635298659125 2872.05464947147 15 18 11
182.641351733529 -385.97665122514 2868.39031581735 15 18 11
152.535689599218 -393.596635727875 2855.48468431467 15 18 11
146.426447457196 -393.171229483398 2860.07113005603 15 18 11
147.56666704664 -390.338311708826 2869.85645920601 14 17 10
147.930749417333 -387.776487523761 2879.03532444205 13 16 9
141.845220780283 -387.353140280064 2883.59886448383 12 15 8
151.988998053755 -381.596356719729 2899.5980598492 14 17 10
123.155843755561 -388.635586172347 2888.17679254679 14 17 10
115.414433578249 -388.740388391881 2891.62888906105 14 17 10
71.694117343788 -400.542362128979 2870.18833038841 14 17 10
28.6119378646879 -412.054636264479 2849.48852216942 14 17 10
-9.71970903709884 -421.951196236295 2832.3346946179 15 18 11
-32.563665796518 -426.79005689389 2825.97714014365 10 15 11
-34.0332687280012 -424.731683844953 2834.21713537222 4 9 5
-50.3709649490105 -427.438707899621 2832.41963370996 5 10 6
-66.758281920027 -430.13912265735 2830.67042933479 4 9 5
-65.7439260437012 -427.286593241366 2840.57784442047 4 9 3
-64.697975855323 -424.438210658999 2850.45416094543 6 11 5
-65.2899803031248 -422.120886168062 2859.20166215609 8 13 7
-77.3057127231027 -420.915445746975 2869.53838918878 12 17 11
-55.1525346370312 -411.507535806062 2892.91085678916 13 18 12
-76.6870151640027 -415.770272382888 2888.00164080638 16 21 15
-104.206079316806 -421.859596261497 2879.38613272993 14 20 16
104.765580323771 -443.108181942632 2727.44407823959 21 23 18
122.737955442564 -431.574074423677 2760.32220687149 20 23 14
116.460470253759 -431.13182216304 2765.07323061156 15 18 7
125.985158712194 -425.246439889856 2781.66852133047 14 17 6
94.3896778755868 -433.507339624512 2767.50287233668 15 18 7
174.111972493086 -401.133681924499 2845.0921294893 17 20 11
185.576945353176 -394.749635054477 2862.52080534049 15 18 11
195.524297380096 -388.917595208774 2878.70426887526 14 17 10
148.610673508693 -402.307544444995 2853.58452954655 14 17 10
127.219101492473 -407.019813891374 2847.1829347441 14 17 10
129.924171091258 -403.619083583609 2858.16424089307 14 17 10
135.899661659154 -399.143793962182 2871.4071263896 14 17 10
138.691485626323 -395.753794030129 2882.30387011315 13 16 9
113.92841105618 -401.525874910183 2873.7388917409 14 17 10
111.038555551082 -400.020579624769 2880.63714478673 14 17 10
91.0359016987226 -404.161933948756 2875.60577134526 14 17 10
97.1217780674576 -399.699747685822 2888.74131662242 14 17 10
46.7270394659303 -413.758306400903 2862.92613007488 14 17 10
-10.4502715587809 -429.933268959332 2832.82299154644 14 17 10
-5.30563539148332 -425.722718714568 2845.51314679159 11 16 12
-16.6131679077197 -426.869772219526 2846.99218683533 4 9 5
-45.3162717602074 -433.626441538121 2836.81692457115 5 10 6
-67.4946463573178 -438.232386789396 2831.180921693 4 9 5
-54.0179008489794 -431.356164930292 2849.373290794 4 9 5
-31.2893616984233 -421.559669061726 2873.53389283927 7 12 6
-38.482655730379 -421.366505976883 2877.81457209441 8 13 7
-66.6025875704586 -427.822978900676 2868.4330896647 9 14 8
-84.7617285059519 -431.076422812648 2865.69091366867 10 15 9
-60.9455679770985 -421.046154910891 2890.15418736259 12 17 11
-76.5948375245813 -423.501266038237 2889.05274453378 17 22 16
-111.713764575994 -432.045430984371 2875.59363971452 19 25 21
119.718602205848 -445.572720979673 2739.88306834639 29 31 26
134.618667281619 -435.049652042423 2770.29316437407 15 18 9
126.005900971185 -435.438959558555 2773.23533300841 17 20 11
107.105207810275 -439.398443565711 2768.50006311666 17 20 11
130.124385139811 -428.797620674571 2795.08733444854 15 18 9
120.725232847389 -429.461152422743 2797.43367904994 16 19 10
147.129850217426 -417.789744263941 2826.16890145346 17 20 13
161.720553742531 -410.245184909089 2845.99047026393 15 18 11
159.119934844655 -406.125022493692 2862.13407177126 13 16 9
136.146701012214 -411.440358275957 2854.55806699721 13 16 9
131.621371148813 -410.470325702957 2860.32566321729 14 17 10
140.023574148106 -405.140165135601 2875.28350363873 13 16 9
136.347826148175 -403.902669723212 2881.58449309412 13 16 9
135.11545505278 -401.849685522767 2889.59004791397 14 17 10
99.7357974440454 -411.213518750297 2873.67718037103 15 18 11
105.801073810339 -406.711159349357 2886.82690634088 14 17 10
77.5912065029756 -413.60861441737 2876.1826609683 13 16 9
62.3829134729919 -416.155596507771 2874.65723826899 13 16 9
27.4184966981732 -425.194393841981 2859.70089959421 14 17 10
7.13273589272756 -429.345906298736 2854.95215690983 15 17 12
3.28087318379966 -428.08321445669 2861.42464469541 7 9 4
-12.1415924562065 -430.601414583831 2860.10730676032 7 9 4
-82.3239399126221 -450.915525134942 2822.27513479024 7 9 4
-7.04474048895554 -421.426541436696 2890.53236016385 9 11 6
-11.6772927166382 -420.438981900783 2896.40383929924 9 11 6
-62.3266353712339 -434.231472317143 2872.21906287951 8 10 5
-50.2829871345489 -427.861702690767 2889.07521569772 9 11 6
-46.5633050172731 -424.184649551594 2900.42540338301 11 13 8
-78.1877161807696 -431.767214628543 2889.02204370077 13 18 12
-104.864262086475 -437.727790474783 2880.96812080699 13 18 12
135.452952405546 -447.655238790092 2752.90663463089 22 24 19
138.595301756945 -443.88063677522 2764.81570460601 28 31 24
115.844129856615 -446.62411677786 2766.55811079767 15 18 9
142.750570440097 -434.531087639742 2796.14960925304 15 18 9
131.002025200222 -436.043447075763 2796.70366419007 16 19 10
144.633674050367 -428.687775925664 2816.08825890467 16 19 10
125.722246891363 -432.690310268144 2811.37001085247 13 16 9
129.886523761474 -428.665857542243 2823.64427318639 12 15 8
132.498140368326 -425.19977282108 2834.70872018409 12 15 8
149.582368898901 -416.770894282359 2856.17420776703 12 15 8
152.30788788486 -413.319050828264 2867.12765287154 13 16 9
164.741615358418 -406.566422225221 2884.95711201127 14 17 10
146.570157286413 -410.282911859129 2880.87869575164 14 17 10
134.814230191982 -411.791451222593 2881.43951637432 12 15 8
132.766324324432 -409.99934569849 2888.87621987346 14 17 10
124.226939697801 -410.404567619244 2891.74787155306 15 18 11
117.303461513757 -410.259322714368 2895.76736412669 14 17 10
89.1219134259953 -417.235428224005 2885.10695969332 13 16 9
57.5552945794837 -425.292059280076 2872.29936881294 13 16 9
49.6810553105394 -425.402511398195 2875.88386378932 14 17 10
30.2716723198455 -429.335842893812 2871.64986508858 11 13 8
1.72092600020424 -436.262738464901 2861.3484689078 7 9 4
-20.3211304874396 -440.993840701165 2855.59559827952 8 10 5
-44.0977248940335 -446.259510879265 2848.81033971885 8 10 5
-27.2443723283082 -438.177730978516 2869.13948225724 8 10 5
-13.6170510948785 -431.197246734766 2887.1669175024 11 13 8
-39.9695332725023 -437.268010265123 2878.8071423857 10 12 7
-49.6835990894464 -437.897987955623 2881.46157933915 9 11 6
-46.8365760516316 -434.458041825949 2892.29612754336 9 11 6
-50.6749549088559 -433.190432291184 2898.75416099004 10 12 7
-79.7802113525652 -440.042895488602 2888.99273832929 11 13 8
-99.704198051628 -443.906989316903 2885.25951542121 14 19 13
145.709411348143 -451.597320861307 2761.72562978942 20 22 17
126.91513373824 -455.662801297116 2756.90035390828 28 31 24
130.857888802867 -451.579345656241 2769.38587006468 14 17 10
165.588708875611 -436.564517051797 2804.94591003968 15 18 9
144.416130951692 -441.468386489625 2798.3551692613 14 17 8
139.008798077775 -440.763295637772 2803.62051862019 17 20 11
147.895200708037 -435.023516883593 2819.45424742088 16 19 10
142.524129581581 -434.322407712919 2824.68417681923 11 14 7
123.588711446907 -438.366956757236 2819.99562407311 11 14 7
120.58563478941 -436.824331335398 2827.00079001914 12 15 8
106.369603962536 -439.18418079782 2825.87928748084 13 16 9
142.747945433035 -423.998262631334 2861.19527455018 15 18 11
180.93989862674 -408.282201962782 2897.46578217343 16 19 12
131.310307051615 -422.885087855346 2870.97124463684 16 19 12
123.565961211318 -423.021893873653 2874.43098645532 14 17 10
111.75282904139 -424.544083555064 2875.05029223266 14 17 10
116.178535101914 -420.519034870285 2887.06486343341 15 18 11
106.789714602739 -421.207161791622 2889.40458356723 14 17 10
72.045357973078 -430.468298331127 2874.26258355267 13 16 9
73.2097499753168 -427.550122055617 2884.0113079702 15 18 11
77.6904065235295 -423.531398026764 2895.97190946375 17 20 13
43.5312336253064 -432.484748926693 2881.62056992986 11 13 8
2.63657346743251 -443.625056298899 2862.94461195739 7 9 4
-40.9049073229015 -455.569547607414 2842.76477823959 8 10 5
-63.9003926481307 -460.61278449605 2836.58756274689 11 13 8
-23.8295905550192 -444.756212024518 2872.38882521513 11 13 8
-31.8482912418361 -444.854408336992 2876.11496111227 12 14 9
-58.2425103758109 -450.98672194123 2867.80572848425 12 14 9
-83.0592276879876 -456.55807923773 2860.68126060755 14 16 11
-51.7767241867118 -443.770375027084 2890.07599486025 16 18 13
-63.1914806400671 -444.957926696105 2891.66749546957 16 18 13
-70.4203498496456 -444.775243838873 2895.98471253306 15 17 12
-108.899763673537 -454.69529607548 2880.39800118378 16 21 15
