ply
format ascii 1.0
comment KinectMotionCapture
element vertex 761
property float x
property float y
property float z
property uchar red
property uchar green
property uchar blue
end_header
89.2963856458664 527.245044708252 2588.00005912781 163 162 158
96.22573107481 526.626646518707 2585.00003814697 163 162 158
103.338196873665 527.026236057281 2586.99989318848 161 160 156
110.546566545963 527.832925319672 2591.00008010864 167 166 162
117.73095279932 528.435170650482 2594.00010108948 163 164 159
124.835096299648 528.629541397095 2595.00002861023 161 162 157
131.791815161705 528.212130069733 2592.99993515015 164 165 160
139.004975557327 528.812766075134 2595.99995613098 165 166 161
146.29028737545 529.616594314575 2599.99990463257 159 160 155
153.714910149574 530.827283859253 2605.99994659424 158 159 154
161.109983921051 531.833648681641 2611.00006103516 154 155 150
168.467342853546 532.635807991028 2615.00000953674 157 158 153
175.845950841904 533.437430858612 2618.99995803833 162 163 158
183.3156645298 534.442186355591 2624.00007247925 156 157 152
190.739408135414 535.242676734924 2628.00002098084 150 151 146
198.259636759758 536.246299743652 2632.99989700317 142 143 137
206.196576356888 538.26767206192 2642.99988746643 150 151 145
214.429438114166 540.899395942688 2655.99989891052 143 144 138
222.815811634064 543.734133243561 2670.00007629395 141 142 137
231.105297803879 546.160936355591 2681.99992179871 139 140 135
239.370465278625 548.383474349976 2693.00007820129 134 135 130
247.877940535545 551.012694835663 2706.00008964539 117 119 114
255.983710289001 552.623093128204 2713.99998664856 215 217 214
265.781849622726 557.694315910339 2739.00008201599 221 223 220
268.333435058594 547.698020935059 2690.00005722046 113 115 112
274.614334106445 545.642197132111 2680.0000667572 140 142 139
280.629754066467 543.178915977478 2667.99998283386 142 141 137
286.902993917465 541.326224803925 2658.99991989136 142 141 136
293.237239122391 539.676785469055 2651.00002288818 139 138 133
299.753844738007 538.434147834778 2644.99998092651 148 149 144
306.469172239304 537.598311901093 2641.00003242493 162 163 158
313.399523496628 537.169337272644 2638.99993896484 164 165 160
320.439666509628 536.94349527359 2638.00001144409 164 165 160
327.349334955215 536.51374578476 2635.99991798401 158 158 156
334.50111746788 536.490678787231 2635.99991798401 160 160 158
341.652065515518 536.467313766479 2635.99991798401 176 178 175
349.993109703064 538.275182247162 2644.99998092651 189 191 188
360.54265499115 543.338477611542 2670.00007629395 192 194 191
-99.0311652421951 549.185514450073 2732.00011253357 214 216 213
-90.826541185379 544.569373130798 2709.00011062622 189 191 186
-83.3013206720352 543.570995330811 2703.9999961853 166 168 163
-75.5783692002296 540.96382856369 2690.99998474121 173 174 169
-67.8751915693283 537.954032421112 2676.00011825562 192 193 188
-60.5025105178356 537.154912948608 2671.99993133545 167 168 162
-53.2709434628487 537.561416625977 2674.00002479553 170 171 165
-45.9251217544079 536.761164665222 2670.00007629395 156 157 151
-38.5430119931698 535.156190395355 2661.99994087219 172 173 168
-31.2043204903603 533.550620079041 2654.00004386902 184 185 180
-23.8910000771284 531.542420387268 2644.00005340576 183 184 179
-16.6067779064178 528.729498386383 2630.00011444092 181 182 177
-9.42385755479336 527.323186397552 2622.99990653992 183 184 179
-2.28336616419256 526.921629905701 2621.00005149841 179 180 175
4.84254630282521 526.117384433746 2617.00010299683 179 180 175
11.9238113984466 524.307370185852 2608.00004005432 177 178 173
18.9852211624384 523.30094575882 2602.9999256134 173 174 169
25.9993281215429 521.891951560974 2595.99995613098 173 174 169
33.0261960625649 521.286487579346 2592.99993515015 169 170 165
40.0366298854351 520.680487155914 2589.99991416931 167 166 162
47.1033230423927 520.878195762634 2591.00008010864 165 164 160
54.1544146835804 520.874202251434 2591.00008010864 164 163 159
61.1108466982841 520.065605640411 2586.99989318848 164 163 159
68.1243389844894 519.859552383423 2585.99996566772 164 163 159
75.1321837306023 519.652903079987 2585.00003814697 165 164 160
82.1661129593849 519.646763801575 2585.00003814697 164 163 159
89.1998261213303 519.640207290649 2585.00003814697 163 162 158
96.121534705162 519.029855728149 2582.00001716614 164 163 159
103.226393461227 519.424259662628 2584.00011062622 163 162 158
110.384441912174 520.018935203552 2586.99989318848 168 167 163
117.694675922394 521.216213703156 2592.99993515015 168 169 164
124.844737350941 521.608889102936 2595.00002861023 163 164 159
131.903633475304 521.598994731903 2595.00002861023 166 167 162
139.015659689903 521.789610385895 2595.99995613098 167 168 163
146.301507949829 522.582650184631 2599.99990463257 161 162 157
153.726682066917 523.77712726593 2605.99994659424 160 161 156
161.060571670532 524.569094181061 2609.99989509583 154 155 150
168.351292610168 525.159478187561 2612.99991607666 153 154 149
175.657853484154 525.749385356903 2615.9999370575 165 166 161
183.329522609711 527.343571186066 2624.00007247925 160 161 156
190.826401114464 528.334319591522 2628.99994850159 155 156 151
198.425158858299 529.525458812714 2634.99999046326 148 149 143
206.290066242218 531.31890296936 2644.00005340576 145 146 140
214.526236057281 533.915579319 2657.00006484985 148 149 143
222.832426428795 536.511540412903 2670.00007629395 139 140 135
231.122463941574 538.905918598175 2681.99992179871 141 142 137
239.477068185806 541.299700737 2694.00000572205 128 129 124
249.361917376518 546.907544136047 2721.99988365173 121 123 118
268.452733755112 540.622651576996 2690.99998474121 212 214 211
274.736732244492 538.594007492065 2680.99999427795 104 106 103
281.07076883316 536.765992641449 2671.99993133545 139 138 134
287.355244159698 534.937620162964 2663.00010681152 135 134 129
293.258130550385 532.506346702576 2651.00002288818 135 134 129
299.435138702393 530.677556991577 2641.99995994568 156 157 152
306.142717599869 529.852688312531 2638.00001144409 162 163 158
313.302785158157 529.830813407898 2638.00001144409 161 162 157
320.340633392334 529.607832431793 2637.00008392334 161 162 157
326.999574899673 528.781950473785 2632.99989700317 160 160 158
334.270536899567 528.95987033844 2634.0000629425 160 160 158
341.157138347626 528.534948825836 2631.99996948242 176 178 175
349.355429410934 530.117869377136 2640.00010490417 190 192 189
359.621852636337 534.712076187134 2663.00010681152 191 193 190
-98.8938137888908 540.999412536621 2727.9999256134 214 216 213
-90.8671095967293 537.43714094162 2710.00003814697 188 190 185
-83.3694040775299 536.650538444519 2706.00008964539 166 168 163
-75.6684988737106 534.276843070984 2694.00000572205 174 175 170
-67.9058358073235 530.910968780518 2677.00004577637 193 194 189
-60.5072192847729 529.924273490906 2671.99993133545 167 168 162
-53.2352477312088 529.928684234619 2671.99993133545 170 171 165
-45.8770953118801 528.940916061401 2667.00005531311 156 157 151
-38.5170616209507 527.5559425354 2660.00008583069 172 173 168
-31.2067549675703 526.368677616119 2654.00004386902 183 184 179
-23.9199753850698 524.982511997223 2647.0000743866 183 184 179
-16.6333373636007 522.405803203583 2634.0000629425 182 183 178
-9.42818820476532 520.423471927643 2624.00007247925 184 185 180
-2.28005973622203 519.035637378693 2617.00010299683 179 180 175
4.83737327158451 518.440544605255 2614.00008201599 178 179 174
11.9201689958572 517.051517963409 2607.00011253357 173 174 169
18.9940016716719 516.455352306366 2604.00009155273 172 173 168
26.0314047336578 515.46186208725 2598.99997711182 173 174 169
33.0415144562721 514.468014240265 2594.00010108948 168 169 164
40.0397516787052 513.671815395355 2589.99991416931 167 166 162
47.0706336200237 513.470053672791 2588.99998664856 165 164 160
54.0959239006042 513.267815113068 2588.00005912781 164 163 159
61.115600168705 513.064980506897 2586.99989318848 164 163 159
68.0769458413124 512.465000152588 2584.00011062622 164 163 159
75.1380175352097 512.657761573792 2585.00003814697 165 164 160
82.1407064795494 512.453377246857 2584.00011062622 164 163 159
89.241236448288 512.843430042267 2585.99996566772 164 163 159
96.1289629340172 512.042999267578 2582.00001716614 164 163 159
103.274308145046 512.630224227905 2585.00003814697 163 162 158
110.307611525059 512.622058391571 2585.00003814697 169 168 164
117.567539215088 513.604760169983 2589.99991416931 169 170 165
124.66187030077 513.79382610321 2591.00008010864 164 165 160
131.8628937006 514.378905296326 2594.00010108948 167 168 163
139.026299118996 514.765083789825 2595.99995613098 169 170 165
146.368965506554 515.745759010315 2601.0000705719 164 165 160
153.797388076782 516.92408323288 2607.00011253357 162 163 158
161.072790622711 517.506897449493 2609.99989509583 154 155 150
168.299645185471 517.891049385071 2611.99998855591 152 153 148
175.671130418777 518.671154975891 2615.9999370575 165 166 161
183.343350887299 520.243763923645 2624.00007247925 161 162 157
191.058486700058 521.815776824951 2631.99996948242 156 157 152
198.590651154518 522.792458534241 2637.00008392334 147 148 142
206.383496522903 524.363458156586 2644.99998092651 141 142 136
214.461430907249 526.528418064117 2655.99989891052 149 150 144
222.848951816559 529.28763628006 2670.00007629395 139 140 135
231.398075819016 532.244265079498 2684.99994277954 144 145 140
240.561485290527 536.389768123627 2706.00008964539 129 130 125
269.070744514465 534.531593322754 2697.00002670288 213 215 212
275.166451931 532.13369846344 2684.99994277954 113 115 112
281.406551599503 530.131876468658 2674.99995231628 139 138 134
287.483692169189 527.931690216064 2664.00003433228 133 132 127
293.05773973465 524.938464164734 2648.9999294281 147 146 141
299.229651689529 523.134112358093 2640.00010490417 158 159 154
305.816054344177 522.122025489807 2634.99999046326 162 163 158
313.087224960327 522.298514842987 2635.99991798401 162 163 158
319.876968860626 521.682024002075 2632.99989700317 161 162 157
326.649636030197 521.065294742584 2630.00011444092 160 160 158
333.912789821625 521.240532398224 2631.00004196167 160 160 158
341.439783573151 521.811723709106 2634.0000629425 176 178 175
349.776208400726 523.571133613586 2642.99988746643 190 192 189
360.186368227005 528.301298618317 2667.00005531311 191 193 190
-98.2126072049141 529.899597167969 2709.00011062622 212 214 211
-90.739980340004 529.320001602173 2706.00008964539 173 175 170
-83.2834094762802 528.739869594574 2703.00006866455 170 172 167
-75.6181627511978 526.594161987305 2691.99991226196 185 186 181
-67.9618269205093 524.056732654572 2678.99990081787 183 184 179
-60.5119094252586 522.692382335663 2671.99993133545 171 172 166
-53.1995296478271 522.305548191071 2670.00007629395 169 170 164
-45.8290502429008 521.135628223419 2664.00003433228 158 159 153
-38.4910851716995 519.965171813965 2657.99999237061 182 183 178
-31.185656785965 518.794059753418 2651.99995040894 184 185 180
-23.8856840878725 517.035603523254 2642.99988746643 184 185 180
-16.6156832128763 514.689743518829 2631.00004196167 183 184 179
-9.42892115563154 513.321340084076 2624.00007247925 182 183 178
-2.28023692034185 511.952459812164 2617.00010299683 181 182 177
4.83404751867056 510.974168777466 2611.99998855591 181 182 177
11.916521936655 509.799778461456 2605.99994659424 178 179 174
18.980884924531 509.016096591949 2601.99999809265 175 176 171
26.0434430092573 508.623123168945 2599.99990463257 172 173 168
33.0568142235279 507.64274597168 2595.00002861023 167 168 163
40.1047058403492 507.444262504578 2594.00010108948 167 166 162
47.0924638211727 506.658375263214 2589.99991416931 165 164 160
54.121021181345 506.458878517151 2588.99998664856 165 164 160
61.1203275620937 506.063163280487 2586.99989318848 167 166 162
68.0822134017944 505.471348762512 2584.00011062622 167 166 162
75.1438140869141 505.661427974701 2585.00003814697 165 164 160
82.1152403950691 505.264103412628 2582.99994468689 164 163 159
89.1790837049484 505.4532289505 2584.00011062622 164 163 159
96.0618928074837 504.663586616516 2579.99992370605 165 164 160
103.202320635319 505.242824554443 2582.99994468689 166 165 161
110.230714082718 505.234658718109 2582.99994468689 167 166 162
117.440342903137 506.008327007294 2586.99989318848 169 170 165
124.623261392117 506.585896015167 2589.99991416931 167 168 163
131.923794746399 507.554113864899 2595.00002861023 168 169 164
139.143988490105 508.130609989166 2598.00004959106 169 170 165
146.436333656311 508.902072906494 2601.99999809265 165 166 161
153.809025883675 509.868681430817 2607.00011253357 162 163 158
161.146685481071 510.639071464539 2611.00006103516 157 158 153
168.312311172485 510.822236537933 2611.99998855591 155 156 151
175.751477479935 511.787176132202 2617.00010299683 160 161 156
183.357089757919 513.142645359039 2624.00007247925 161 162 157
191.435754299164 515.670895576477 2637.00008392334 159 160 155
199.057310819626 516.829609870911 2642.99988746643 147 148 142
206.710949540138 517.987906932831 2648.9999294281 144 145 139
214.638814330101 519.732177257538 2657.99999237061 154 155 149
222.865387797356 522.062480449677 2670.00007629395 143 144 139
231.759831309319 525.760769844055 2688.99989128113 137 138 133
241.912662982941 532.000064849854 2720.99995613098 147 148 143
269.189894199371 527.429461479187 2697.99995422363 220 222 219
275.288671255112 525.064170360565 2686.00010871887 105 107 104
281.847447156906 523.675858974457 2678.99990081787 133 132 128
287.719935178757 521.114528179169 2665.99988937378 130 129 124
293.410390615463 518.357515335083 2651.99995040894 158 157 152
299.250721931458 515.991270542145 2640.00010490417 159 160 155
305.953532457352 515.188157558441 2635.99991798401 160 161 156
312.871485948563 514.775812625885 2634.0000629425 158 159 154
319.77766752243 514.362990856171 2631.99996948242 160 161 156
326.547920703888 513.754427433014 2628.99994850159 159 159 157
333.808779716492 513.927221298218 2630.00011444092 160 160 158
341.463059186935 514.685809612274 2634.0000629425 178 180 177
349.799931049347 516.420900821686 2642.99988746643 187 189 186
360.210657119751 521.08633518219 2667.00005531311 191 193 190
-98.2201248407364 522.566258907318 2709.00011062622 212 214 211
-90.7804667949677 522.18770980835 2707.00001716614 174 176 171
-83.2589790225029 521.22974395752 2701.99990272522 171 173 168
-75.6239742040634 519.306838512421 2691.99991226196 185 186 181
-67.9924264550209 516.997456550598 2680.0000667572 183 184 179
-60.5392158031464 515.652000904083 2673.00009727478 171 172 166
-53.1637668609619 514.691770076752 2667.99998283386 168 169 163
-45.7809679210186 513.345181941986 2661.00001335144 160 161 155
-38.4506061673164 512.190937995911 2654.99997138977 184 185 180
-31.1527848243713 511.036098003387 2648.9999294281 185 186 181
-23.860415443778 509.302020072937 2640.00010490417 185 186 181
-16.6106484830379 507.374346256256 2630.00011444092 183 184 179
-9.42246150225401 505.832016468048 2621.99997901917 182 183 178
-2.27779895067215 504.289150238037 2614.00008201599 182 183 178
4.82516689226031 502.938628196716 2607.00011253357 181 182 177
11.894578114152 501.780450344086 2601.0000705719 177 178 173
18.9458727836609 501.007556915283 2596.99988365173 174 175 170
26.0053835809231 500.812947750092 2595.99995613098 171 172 167
33.0211445689201 500.038981437683 2592.00000762939 168 169 164
40.1077978312969 500.422060489655 2594.00010108948 166 165 161
47.1324622631073 500.032782554626 2592.00000762939 164 163 159
54.1670024394989 499.836057424545 2591.00008010864 165 164 160
61.1486583948135 499.25285577774 2588.00005912781 167 166 162
68.0610910058022 498.283356428146 2582.99994468689 167 166 162
75.0914365053177 498.277872800827 2582.99994468689 164 163 159
82.0897594094276 498.079001903534 2582.00001716614 164 163 159
89.1168788075447 498.072415590286 2582.00001716614 164 163 159
96.2181910872459 498.451203107834 2584.00011062622 165 164 160
103.250168263912 498.443603515625 2584.00011062622 166 165 161
110.409840941429 499.014139175415 2586.99989318848 167 166 162
117.540098726749 499.391287565231 2588.99998664856 169 169 167
124.728970229626 499.960720539093 2592.00000762939 168 168 166
131.832107901573 500.143885612488 2592.99993515015 169 169 167
139.154508709908 501.098096370697 2598.00004959106 169 169 167
146.447405219078 501.85889005661 2601.99999809265 166 166 164
153.938606381416 503.19766998291 2608.99996757507 163 163 161
161.158785223961 503.571629524231 2611.00006103516 159 159 157
168.324902653694 503.752112388611 2611.99998855591 156 156 154
175.697445869446 504.510760307312 2615.9999370575 159 159 157
183.230966329575 505.654573440552 2621.99997901917 160 160 158
191.522568464279 508.726239204407 2638.00001144409 158 158 156
199.147403240204 509.868860244751 2644.00005340576 152 153 147
206.804245710373 511.010944843292 2650.00009536743 145 146 140
214.573845267296 512.345254421234 2657.00006484985 151 152 146
222.798228263855 514.643132686615 2668.99991035461 149 150 145
231.69057071209 518.290162086487 2687.99996376038 141 142 137
241.574645042419 523.864507675171 2717.00000762939 140 141 136
269.508510828018 520.706176757813 2700.99997520447 219 221 218
275.410771369934 517.987847328186 2687.00003623962 107 109 106
281.7622423172 516.233146190643 2677.99997329712 129 128 124
287.740290164948 513.899862766266 2665.99988937378 132 131 126
293.541699647903 511.37363910675 2653.00011634827 159 158 153
299.725085496902 509.618043899536 2644.00005340576 158 159 154
306.323111057281 508.633255958557 2638.99993896484 159 160 155
312.893182039261 507.648169994354 2634.0000629425 160 161 156
319.799721240997 507.240891456604 2631.99996948242 159 160 155
326.694548130035 506.833255290985 2630.00011444092 159 159 157
334.085434675217 507.196128368378 2631.99996948242 161 161 159
341.615855693817 507.751286029816 2634.99999046326 179 181 178
349.691122770309 509.076833724976 2641.99995994568 187 189 186
359.829604625702 513.292074203491 2664.00003433228 190 192 189
-98.626434803009 517.323672771454 2720.00002861023 212 214 211
-90.8544659614563 515.2388215065 2709.00011062622 175 177 172
-83.3269655704498 514.294445514679 2703.9999961853 173 175 170
-75.657844543457 512.20828294754 2693.00007820129 184 185 180
-67.997619509697 509.741127490997 2680.0000667572 183 184 179
-60.5211965739727 508.224368095398 2671.99993133545 170 171 165
-53.1279779970646 507.087469100952 2665.99988937378 165 166 160
-45.7672700285912 505.950033664703 2660.00008583069 163 164 158
-38.4535528719425 505.002200603485 2654.99997138977 187 188 183
-31.1434119939804 503.673374652863 2648.00000190735 186 187 182
-23.8170493394136 501.202762126923 2634.99999046326 186 187 182
-16.5740270167589 499.112039804459 2624.00007247925 184 185 180
-9.40521620213985 497.781544923782 2617.00010299683 183 184 179
-2.2762306034565 496.830880641937 2611.99998855591 184 185 180
4.82183555141091 495.4993724823 2605.00001907349 182 183 178
11.8909170851111 494.547635316849 2599.99990463257 175 176 171
18.9400333911181 493.78564953804 2595.99995613098 172 173 168
25.9873438626528 493.403553962708 2594.00010108948 169 170 165
32.9981967806816 492.640376091003 2589.99991416931 168 169 164
40.0644764304161 492.827832698822 2591.00008010864 166 165 161
47.11789265275 492.824554443359 2591.00008010864 163 162 158
54.1502386331558 492.630451917648 2589.99991416931 163 162 158
61.129704117775 492.0554459095 2586.99989318848 164 163 159
68.0926442146301 491.479903459549 2584.00011062622 164 163 159
75.0390291213989 490.90388417244 2581.00008964539 163 162 158
82.0006281137466 490.517497062683 2578.9999961853 163 162 158
88.9510661363602 490.130573511124 2576.99990272522 164 163 159
96.1137861013412 490.884363651276 2581.00008964539 165 164 160
103.2580062747 491.447418928146 2584.00011062622 166 165 161
110.503561794758 492.390275001526 2588.99998664856 167 166 162
117.548987269402 492.381662130356 2588.99998664856 169 169 167
124.690264463425 492.752939462662 2591.00008010864 169 169 167
131.740361452103 492.743313312531 2591.00008010864 170 170 168
139.057815074921 493.683964014053 2595.99995613098 169 169 167
146.289512515068 494.243860244751 2598.99997711182 168 168 166
153.832107782364 495.753943920136 2607.00011253357 166 166 164
161.232531070709 496.692985296249 2611.99998855591 159 159 157
168.466359376907 497.061103582382 2614.00008201599 156 156 154
175.71048438549 497.428625822067 2615.9999370575 157 157 155
183.244526386261 498.55625629425 2621.99997901917 158 158 156
191.391482949257 501.204371452332 2635.99991798401 158 158 156
199.0866959095 502.520978450775 2642.99988746643 159 160 155
206.741347908974 503.646910190582 2648.9999294281 149 150 144
214.428007602692 504.772365093231 2654.99997138977 146 147 141
222.814455628395 507.418036460876 2668.99991035461 152 153 148
231.621205806732 510.823667049408 2687.00003623962 142 143 138
241.947785019875 517.270147800446 2720.99995613098 131 132 127
272.321790456772 518.717348575592 2729.00009155273 211 213 210
275.737822055817 511.285006999969 2690.00005722046 136 138 135
281.782150268555 508.984625339508 2677.99997329712 129 128 124
287.544637918472 506.303787231445 2664.00003433228 138 137 132
293.230265378952 503.622829914093 2650.00009536743 156 155 150
299.632579088211 502.271890640259 2642.99988746643 153 154 149
305.996090173721 500.920712947845 2635.99991798401 153 154 149
312.67711520195 500.139236450195 2631.99996948242 157 158 153
319.578647613525 499.737590551376 2630.00011444092 158 159 154
326.592594385147 499.525547027588 2628.99994850159 160 160 158
333.98112654686 499.883145093918 2631.00004196167 162 162 160
341.249972581863 500.050365924835 2631.99996948242 180 182 179
349.317491054535 501.357078552246 2638.99993896484 187 189 186
359.988689422607 506.272852420807 2664.99996185303 189 191 188
-98.4525755047798 509.020447731018 2714.99991416931 211 213 210
-90.9954831004143 508.652687072754 2713.00005912781 176 178 173
-83.4565386176109 507.721781730652 2707.99994468689 173 175 170
-75.7478624582291 505.477905273438 2696.00009918213 184 185 180
-67.9773986339569 502.295911312103 2678.99990081787 182 183 178
-60.5257898569107 500.988304615021 2671.99993133545 169 170 164
-53.1519539654255 500.055134296417 2667.00005531311 164 165 159
-45.7879565656185 498.933881521225 2661.00001335144 165 166 160
-38.4130254387856 497.249603271484 2651.99995040894 187 188 183
-31.0987383127213 495.752245187759 2644.00005340576 186 187 182
-23.818863555789 494.066804647446 2634.99999046326 186 187 182
-16.6005566716194 492.755830287933 2628.00002098084 184 185 180
-9.40952636301517 490.88180065155 2618.00003051758 184 185 180
-2.27553281001747 489.569753408432 2611.00006103516 184 185 180
4.81664901599288 487.882107496262 2601.99999809265 183 184 179
11.8826758116484 487.131476402283 2598.00004959106 176 177 172
18.9414769411087 486.755281686783 2595.99995613098 172 173 168
25.9893219918013 486.378580331802 2594.00010108948 170 171 166
33.0516770482063 486.376374959946 2594.00010108948 168 169 164
40.0829948484898 485.998570919037 2592.00000762939 167 166 162
47.1396557986736 485.995203256607 2592.00000762939 164 163 159
54.1543513536453 485.616415739059 2589.99991416931 164 163 159
61.1343421041965 485.049515962601 2586.99989318848 164 163 159
68.0978149175644 484.482228755951 2584.00011062622 164 163 159
75.0737935304642 484.101831912994 2582.00001716614 163 162 158
82.038626074791 483.720928430557 2579.99992370605 163 162 158
88.9923125505447 483.339488506317 2578.00006866455 163 162 158
96.1582735180855 484.082460403442 2582.00001716614 164 163 159
103.265784680843 484.449952840805 2584.00011062622 165 164 160
110.511876642704 485.379308462143 2588.99998664856 167 166 162
117.557808756828 485.370755195618 2588.99998664856 168 168 166
124.699607491493 485.736697912216 2591.00008010864 169 169 167
131.750196218491 485.727071762085 2591.00008010864 170 170 168
139.068216085434 486.654341220856 2595.99995613098 169 169 167
146.41298353672 487.581014633179 2601.0000705719 168 168 166
153.902545571327 488.882064819336 2608.00004005432 167 167 165
161.121025681496 489.24532532692 2609.99989509583 160 160 158
168.607696890831 490.357875823975 2615.9999370575 157 157 155
175.790622830391 490.532696247101 2617.00010299683 157 157 155
183.327898383141 491.644114255905 2622.99990653992 158 158 156
190.969869494438 492.942482233047 2630.00011444092 159 159 157
198.799923062325 494.61504817009 2638.99993896484 152 153 148
206.600338220596 496.099710464478 2647.0000743866 153 154 148
214.52434360981 497.771143913269 2655.99989891052 148 149 143
223.081067204475 500.753939151764 2671.99993133545 144 145 140
232.241347432137 504.860460758209 2694.00000572205 131 132 127
275.757282972336 504.002690315247 2690.00005722046 220 222 219
281.275808811188 500.798106193542 2673.00009727478 127 126 122
287.024974822998 498.155295848846 2658.99991989136 147 146 141
292.475998401642 495.137631893158 2642.99988746643 154 153 148
299.313187599182 494.55526471138 2640.00010490417 154 155 150
306.017130613327 493.785083293915 2635.99991798401 156 157 152
312.698543071747 493.01466345787 2631.99996948242 162 163 158
319.357365369797 492.243885993958 2628.00002098084 159 160 155
326.366275548935 492.034763097763 2627.00009346008 160 160 158
333.749741315842 492.387026548386 2628.99994850159 163 163 161
340.883791446686 492.364436388016 2628.99994850159 180 182 179
348.943680524826 493.652433156967 2635.99991798401 187 189 186
360.012531280518 499.059736728668 2664.99996185303 190 192 189
-98.5687524080276 502.221167087555 2717.99993515015 209 211 208
-91.0023152828217 501.30432844162 2713.00005912781 173 175 170
-83.5552737116814 500.941276550293 2710.99996566772 171 173 168
-75.7535696029663 498.175591230392 2696.00009918213 184 185 180
-67.9571479558945 494.854807853699 2677.99997329712 182 183 178
-60.4850500822067 493.381351232529 2670.00007629395 169 170 164
-53.1958267092705 493.200808763504 2668.99991035461 162 163 157
-45.7914173603058 491.726279258728 2661.00001335144 167 168 162
-38.4304188191891 490.25109410286 2653.00011634827 186 187 182
-31.0775619000196 488.22095990181 2641.99995994568 185 186 181
-23.8116271793842 486.74476146698 2634.0000629425 185 186 181
-16.5891777724028 485.267877578735 2625.99992752075 185 186 181
-9.40664485096931 483.605742454529 2617.00010299683 185 186 181
-2.27396190166473 482.127845287323 2608.99996757507 180 181 176
4.81516262516379 480.649381875992 2601.0000705719 178 179 174
11.874427087605 479.724764823914 2595.99995613098 173 174 169
18.9283173531294 479.354053735733 2594.00010108948 169 170 165
25.981267914176 479.167520999908 2592.99993515015 166 167 162
33.0286882817745 478.980511426926 2592.00000762939 162 163 158
40.055088698864 478.608131408691 2589.99991416931 163 162 158
47.0522753894329 478.050529956818 2586.99989318848 163 162 158
54.0538877248764 477.677136659622 2585.00003814697 163 162 158
61.0444247722626 477.303236722946 2582.99994468689 165 164 160
68.0502206087112 477.113634347916 2582.00001716614 164 163 159
75.0794410705566 477.108269929886 2582.00001716614 163 162 158
82.0765942335129 476.917624473572 2581.00008964539 163 162 158
89.102566242218 476.911187171936 2581.00008964539 163 162 158
96.0909947752953 476.719468832016 2579.99992370605 164 163 159
103.153608739376 476.896852254868 2581.00008964539 164 163 159
110.263988375664 477.25835442543 2582.99994468689 166 165 161
117.384925484657 477.619498968124 2585.00003814697 167 167 165
124.468229711056 477.795273065567 2585.99996566772 169 169 167
131.658285856247 478.340059518814 2588.99998664856 170 170 168
139.078512787819 479.623347520828 2595.99995613098 168 168 166
146.48012816906 480.72138428688 2601.99999809265 167 167 165
153.854891657829 481.634050607681 2607.00011253357 167 167 165
161.194622516632 482.361435890198 2611.00006103516 163 163 161
168.748989701271 483.642548322678 2618.00003051758 159 159 157
175.937846302986 483.814686536789 2618.99995803833 156 156 154
183.341279625893 484.540462493896 2622.99990653992 157 157 155
190.983757376671 485.81999540329 2630.00011444092 159 159 157
198.965042829514 487.837761640549 2641.00003242493 156 157 152
206.849455833435 489.485561847687 2650.00009536743 156 157 151
214.701369404793 490.948051214218 2657.99999237061 146 147 141
223.347589373589 494.072288274765 2674.99995231628 145 146 141
233.033910393715 499.227464199066 2703.00006866455 144 145 140
276.289165019989 497.64221906662 2694.9999332428 223 225 222
281.505852937698 493.929833173752 2674.99995231628 124 123 119
286.936938762665 490.77120423317 2657.99999237061 149 148 143
292.164236307144 487.427830696106 2640.00010490417 157 156 151
298.880219459534 486.668974161148 2635.99991798401 159 160 155
305.573672056198 485.909849405289 2631.99996948242 159 160 155
312.601000070572 485.704243183136 2631.00004196167 162 163 158
319.378972053528 485.129028558731 2628.00002098084 160 161 156
326.388269662857 484.922766685486 2627.00009346008 160 160 158
333.645164966583 485.085219144821 2628.00002098084 162 162 160
340.776860713959 485.062777996063 2628.00002098084 180 182 179
348.83439540863 486.331969499588 2634.99999046326 188 190 187
359.901130199432 491.660952568054 2664.00003433228 190 192 189
-98.1408804655075 492.673188447952 2706.00008964539 209 214 210
-90.8413678407669 493.044227361679 2707.99994468689 173 175 170
-83.4690406918526 493.050754070282 2707.99994468689 173 175 170
-75.7030248641968 490.507632493973 2694.00000572205 184 185 180
-68.0129900574684 487.963944673538 2680.0000667572 180 181 176
-60.4895800352097 486.147999763489 2670.00007629395 170 169 164
-53.2197430729866 486.152231693268 2670.00007629395 164 163 158
-45.7776375114918 484.335124492645 2660.00008583069 175 174 169
-38.3898392319679 482.517421245575 2650.00009536743 187 188 183
-31.0328379273415 480.335026979446 2638.00001144409 186 187 182
-23.7862914800644 479.062497615814 2631.00004196167 185 186 181
-16.5841076523066 477.971494197845 2625 184 185 180
-9.40735172480345 476.515829563141 2617.00010299683 183 184 179
-2.27238959632814 474.695444107056 2607.00011253357 182 183 178
4.80997050181031 473.056554794312 2598.00004959106 179 180 175
11.857021600008 471.963405609131 2592.00000762939 170 171 166
18.9151410013437 471.962213516235 2592.00000762939 167 168 163
25.9932409971952 472.324788570404 2594.00010108948 165 166 161
33.0566577613354 472.322523593903 2594.00010108948 161 162 157
40.089026093483 471.955597400665 2592.00000762939 163 162 158
47.09218069911 471.406131982803 2588.99998664856 161 160 156
54.0997572243214 471.038162708282 2586.99989318848 161 160 156
61.0962584614754 470.669716596603 2585.00003814697 164 163 159
68.1080296635628 470.482885837555 2584.00011062622 163 162 158
75.1722827553749 470.659643411636 2585.00003814697 165 164 160
82.1781232953072 470.471680164337 2584.00011062622 164 163 159
89.178241789341 470.283180475235 2582.99994468689 163 162 158
96.0981473326683 469.730168581009 2579.99992370605 163 162 158
103.081323206425 469.54071521759 2578.9999961853 165 164 160
110.144093632698 469.714879989624 2579.99992370605 167 166 162
117.348216474056 470.434784889221 2584.00011062622 168 169 164
124.525561928749 470.972001552582 2586.99989318848 169 170 165
131.820559501648 471.872866153717 2592.00000762939 170 171 165
139.249488711357 473.137199878693 2598.99997711182 169 170 164
146.603479981422 474.037051200867 2604.00009155273 168 169 164
153.925180435181 474.754214286804 2608.00004005432 167 168 162
161.206394433975 475.288778543472 2611.00006103516 163 164 158
168.825730681419 476.733028888702 2618.99995803833 161 162 157
176.017820835114 476.902544498444 2619.99988555908 157 158 153
183.424487709999 477.617621421814 2624.00007247925 157 158 152
190.852329134941 478.332221508026 2628.00002098084 159 160 154
198.904052376747 480.502367019653 2640.00010490417 152 153 147
206.864327192307 482.307910919189 2650.00009536743 159 160 154
214.95908498764 484.294772148132 2661.00001335144 147 148 142
223.196521401405 486.463099718094 2673.00009727478 142 143 138
232.964262366295 491.72455072403 2701.99990272522 147 148 143
277.128577232361 491.799354553223 2703.00006866455 219 221 218
281.841069459915 487.231492996216 2677.99997329712 132 133 128
287.172645330429 483.937084674835 2660.00008583069 144 145 140
292.626947164536 481.006383895874 2644.00005340576 154 155 150
299.240797758102 480.076611042023 2638.99993896484 155 156 151
305.942744016647 479.32842373848 2634.99999046326 164 164 162
312.622129917145 478.579938411713 2631.00004196167 163 163 161
319.400429725647 478.013008832932 2628.00002098084 159 161 158
326.285809278488 477.627664804459 2625.99992752075 164 166 163
333.413422107697 477.605760097504 2625.99992752075 169 171 168
340.410381555557 477.401614189148 2625 183 185 182
348.592579364777 478.833854198456 2632.99989700317 189 191 190
359.249144792557 483.538955450058 2658.99991989136 193 195 194
-98.0393141508102 484.803020954132 2703.00006866455 207 212 208
-90.8816531300545 485.886186361313 2709.00011062622 171 173 168
-83.4135785698891 485.354483127594 2706.00008964539 171 173 168
-75.5962282419205 482.490509748459 2690.00005722046 181 182 177
-67.941889166832 480.164051055908 2677.00004577637 179 180 175
-60.4487545788288 478.554517030716 2667.99998283386 170 169 164
-53.1838349997997 478.558719158173 2667.99998283386 161 160 155
-45.7810424268246 477.127432823181 2660.00008583069 176 175 170
-38.3782051503658 475.157409906387 2648.9999294281 186 187 182
-30.9998579323292 472.648799419403 2634.99999046326 186 187 182
-23.7338151782751 470.857083797455 2625 186 187 182
-16.5474340319633 469.782322645187 2618.99995803833 184 185 180
-9.39007662236691 468.527674674988 2611.99998855591 183 184 179
-2.26907175965607 466.91370010376 2602.9999256134 183 184 179
4.80662519112229 465.657979249954 2595.99995613098 180 181 176
11.8579054251313 464.9398624897 2592.00000762939 171 172 167
18.9092550426722 464.759349822998 2591.00008010864 168 169 164
25.9651113301516 464.757710695267 2591.00008010864 163 164 159
33.0208875238895 464.755564928055 2591.00008010864 161 162 157
40.0456115603447 464.394092559814 2588.99998664856 163 162 158
47.0411106944084 463.85270357132 2585.99996566772 160 159 155
54.0828667581081 463.848978281021 2585.99996566772 160 159 155
61.1007995903492 463.665366172791 2585.00003814697 162 161 157
68.1394413113594 463.660567998886 2585.00003814697 162 161 157
75.0906020402908 463.117182254791 2582.00001716614 163 162 158
82.1205899119377 463.111400604248 2582.00001716614 163 162 158
89.1503095626831 463.105052709579 2582.00001716614 162 161 157
96.1052179336548 462.739527225494 2579.99992370605 163 162 158
103.088922798634 462.552845478058 2578.9999961853 164 163 159
110.024109482765 462.186336517334 2576.99990272522 167 166 162
117.22058057785 462.895452976227 2581.00008964539 168 169 163
124.438419938087 463.604003190994 2585.00003814697 169 170 164
131.83020055294 464.850038290024 2592.00000762939 170 171 165
139.259666204453 466.09553694725 2598.99997711182 169 170 164
146.614164113998 466.98185801506 2604.00009155273 168 169 163
153.995379805565 467.8675532341 2608.99996757507 167 168 162
161.279857158661 468.394160270691 2611.99998855591 163 164 158
168.709054589272 469.278872013092 2617.00010299683 161 162 156
176.23208463192 470.342367887497 2622.99990653992 158 159 153
183.577477931976 470.867365598679 2625.99992752075 157 158 152
191.011279821396 471.571207046509 2630.00011444092 159 160 154
198.84292781353 473.171025514603 2638.99993896484 158 159 153
206.879064440727 475.128889083862 2650.00009536743 162 163 157
214.893594384193 476.906806230545 2660.00008583069 151 152 146
222.878307104111 478.50489616394 2668.99991035461 146 147 142
232.290908694267 482.970893383026 2694.00000572205 149 150 145
277.455300092697 485.015690326691 2706.00008964539 218 220 217
282.176166772842 480.515629053116 2680.99999427795 140 141 136
287.408202886581 477.090865373611 2661.99994087219 141 142 137
293.089598417282 474.562108516693 2648.00000190735 135 136 131
299.374490976334 473.108381032944 2640.00010490417 142 143 138
305.731147527695 471.833556890488 2632.99989700317 159 159 157
312.167793512344 470.73769569397 2627.00009346008 158 158 156
319.057106971741 470.35825252533 2625 159 161 158
325.686186552048 469.620168209076 2621.00005149841 164 166 163
333.054512739182 469.956755638123 2622.99990653992 169 171 168
340.173363685608 469.934672117233 2622.99990653992 182 184 181
349.012523889542 472.241193056107 2635.99991798401 188 190 189
359.812945127487 477.055191993713 2663.00010681152 192 194 193
-98.3366742730141 478.890866041183 2710.99996566772 206 211 207
-90.8883139491081 478.544563055038 2709.00011062622 170 172 167
-83.3888724446297 477.844297885895 2704.99992370605 170 172 167
-75.6017789244652 475.200295448303 2690.00005722046 181 182 177
-67.9976567625999 473.262339830399 2678.99990081787 178 179 174
-60.4758597910404 471.500426530838 2668.99991035461 172 171 166
-53.1678199768066 471.151351928711 2667.00005531311 159 158 153
-45.7499995827675 469.565063714981 2657.99999237061 187 186 181
-38.3665524423122 467.801481485367 2648.00000190735 184 185 180
-31.025679782033 465.86075425148 2637.00008392334 186 187 182
-23.7355716526508 463.742822408676 2625 187 188 183
-16.5423378348351 462.507665157318 2618.00003051758 185 186 181
-9.37998574227095 460.918605327606 2608.99996757507 183 184 179
-2.26923963055015 459.859043359756 2602.9999256134 180 181 176
4.80883242562413 458.798974752426 2596.99988365173 176 177 172
11.8725076317787 458.44504237175 2595.00002861023 166 167 162
18.9325492829084 458.267241716385 2594.00010108948 163 164 159
25.9870756417513 458.088904619217 2592.99993515015 157 158 153
33.0488122999668 458.086758852005 2592.99993515015 156 157 152
40.094967931509 457.907348871231 2592.00000762939 159 158 154
47.1355468034744 457.727581262589 2591.00008010864 156 155 151
54.1914254426956 457.723796367645 2591.00008010864 156 155 151
61.1998476088047 457.366228103638 2588.99998664856 160 159 155
68.1971684098244 457.008183002472 2586.99989318848 160 159 155
75.0670358538628 455.943018198013 2581.00008964539 161 160 156
82.1266248822212 456.113934516907 2582.00001716614 161 160 156
89.0877917408943 455.754369497299 2579.99992370605 161 160 156
96.0750132799149 455.570936203003 2578.9999961853 162 161 157
103.096455335617 455.563724040985 2578.9999961853 165 164 160
110.032148659229 455.202668905258 2576.99990272522 168 167 163
117.229126393795 455.901026725769 2581.00008964539 170 171 165
124.495595693588 456.775397062302 2585.99996566772 171 172 166
131.941512227058 458.179205656052 2594.00010108948 170 171 165
139.26973938942 459.052503108978 2598.99997711182 168 169 163
146.681070327759 460.102021694183 2605.00001907349 167 168 162
154.065519571304 460.974276065826 2609.99989509583 166 167 161
161.353200674057 461.49280667305 2612.99991607666 163 164 158
168.785616755486 462.364107370377 2618.00003051758 162 163 157
176.177501678467 463.058203458786 2621.99997901917 159 160 154
183.660492300987 463.928401470184 2627.00009346008 158 159 153
190.879598259926 464.091658592224 2628.00002098084 158 159 153
198.555618524551 465.314090251923 2634.99999046326 159 160 154
206.581398844719 467.242211103439 2645.99990844727 155 156 150
214.827954769135 469.52298283577 2658.99991989136 152 153 147
222.726941108704 470.920264720917 2667.00005531311 144 145 140
231.789767742157 474.612295627594 2687.99996376038 142 143 138
276.551425457001 476.096123456955 2697.00002670288 212 214 211
281.774371862412 472.54666686058 2677.00004577637 127 128 123
287.211775779724 469.526588916779 2660.00008583069 139 140 135
293.10941696167 467.388898134232 2648.00000190735 154 155 150
299.167782068253 465.60400724411 2638.00001144409 153 154 149
305.519372224808 464.348316192627 2631.00004196167 152 152 150
311.950922012329 463.268876075745 2625 150 150 148
318.592041730881 462.542086839676 2621.00005149841 159 161 158
325.334846973419 461.991459131241 2618.00003051758 163 165 162
332.568436861038 462.146431207657 2618.99995803833 167 169 166
340.325236320496 463.006794452667 2624.00007247925 181 183 180
349.167585372925 465.278267860413 2637.00008392334 187 189 188
360.511779785156 470.72497010231 2667.99998283386 190 192 191
-98.3438119292259 471.542626619339 2710.99996566772 207 212 208
-90.8613502979279 471.027612686157 2707.99994468689 171 173 168
-83.3641141653061 470.338195562363 2703.9999961853 171 173 168
-75.4948779940605 467.213034629822 2686.00010871887 181 182 177
-67.9264664649963 465.478748083115 2676.00011825562 178 179 174
-60.4576244950294 464.091837406158 2667.99998283386 172 171 166
-53.1118996441364 463.400185108185 2664.00003433228 159 158 153
-45.7361303269863 462.186127901077 2657.00006484985 190 189 184
-38.3693613111973 460.623621940613 2648.00000190735 183 184 179
-31.0750156641006 459.408491849899 2641.00003242493 186 187 182
-23.7463507801294 456.801176071167 2625.99992752075 187 188 183
-16.537232324481 455.237120389938 2617.00010299683 185 186 181
-9.36988741159439 453.324556350708 2605.99994659424 183 184 179
-2.26766243577003 452.455163002014 2601.0000705719 178 179 174
4.80733346194029 451.585322618485 2595.99995613098 175 176 171
11.8779521435499 451.584666967392 2595.99995613098 165 166 161
18.948532640934 451.583564281464 2595.99995613098 162 163 158
26.0090250521898 451.4080286026 2595.00002861023 156 157 152
33.0512337386608 451.057940721512 2592.99993515015 154 155 150
40.0824397802353 450.707405805588 2591.00008010864 156 155 151
47.1026040613651 450.356334447861 2588.99998664856 154 153 149
54.1326403617859 450.178682804108 2588.00005912781 154 153 149
61.1097663640976 449.652671813965 2585.00003814697 159 158 154
68.1230649352074 449.474036693573 2584.00011062622 161 160 156
75.0725120306015 448.946982622147 2581.00008964539 161 160 156
82.1007937192917 448.941320180893 2581.00008964539 161 160 156
89.0942588448524 448.761075735092 2579.99992370605 161 160 156
96.156507730484 448.928385972977 2581.00008964539 163 162 158
103.183887898922 448.921173810959 2581.00008964539 165 164 160
110.168218612671 448.739558458328 2579.99992370605 169 168 164
117.41928756237 449.601024389267 2585.00003814697 170 171 166
124.697156250477 450.461894273758 2589.99991416931 171 172 167
131.951004266739 451.148390769959 2594.00010108948 171 172 167
139.226153492928 451.834350824356 2598.00004959106 169 170 165
146.635249257088 452.867656946182 2604.00009155273 167 168 163
154.076546430588 453.900396823883 2609.99989509583 166 167 162
161.364704370499 454.410880804062 2612.99991607666 164 165 160
168.797612190247 455.268681049347 2618.00003051758 162 163 158
176.257207989693 456.125944852829 2622.99990653992 159 160 155
183.743432164192 456.982761621475 2628.00002098084 159 160 155
191.038355231285 457.317352294922 2630.00011444092 158 159 154
198.494240641594 457.99919962883 2634.0000629425 160 161 155
206.439733505249 459.723800420761 2644.00005340576 154 155 149
214.681386947632 461.969435214996 2657.00006484985 155 156 150
222.82600402832 463.866770267487 2667.99998283386 148 149 144
231.547176837921 466.806650161743 2684.99994277954 142 143 138
275.134533643723 466.354995965958 2683.00008773804 213 215 212
281.372368335724 464.598149061203 2673.00009727478 137 138 133
287.447065114975 462.667107582092 2661.99994087219 144 145 140
293.239742517471 460.388273000717 2648.9999294281 152 153 148
298.960864543915 458.109229803085 2635.99991798401 151 152 147
305.307388305664 456.87273144722 2628.99994850159 157 157 155
311.971515417099 456.157267093658 2625 160 160 158
318.613022565842 455.441534519196 2621.00005149841 158 160 157
325.356125831604 454.899221658707 2618.00003051758 162 164 161
332.717001438141 455.22528886795 2619.99988555908 167 169 166
340.476959943771 456.072360277176 2625 180 182 179
349.587321281433 458.656281232834 2640.00010490417 185 187 186
360.669910907745 463.671624660492 2668.99991035461 189 191 190
-98.2783511281013 463.850498199463 2709.00011062622 207 212 208
-90.9014716744423 463.857293128967 2709.00011062622 171 173 168
-83.3393037319183 462.836116552353 2703.00006866455 171 173 168
-75.5846425890923 460.444539785385 2688.99989128113 182 183 178
-68.0075362324715 458.737403154373 2678.99990081787 176 177 172
-60.5073310434818 457.200944423676 2670.00007629395 168 167 162
-53.0958063900471 456.00637793541 2663.00010681152 164 163 158
-45.6533767282963 454.126298427582 2651.99995040894 188 187 182
-38.3141823112965 452.75941491127 2644.00005340576 182 183 178
-31.0419723391533 451.734453439713 2638.00001144409 186 187 182
-23.7299930304289 449.339091777802 2624.00007247925 188 189 184
-16.5257938206196 447.799354791641 2615.00000953674 186 187 182
-9.37056820839643 446.259111166 2605.99994659424 183 184 179
-2.26782751269639 445.403307676315 2601.0000705719 177 178 173
4.80768270790577 444.54699754715 2595.99995613098 174 175 170
11.8788154795766 444.546341896057 2595.99995613098 165 166 161
18.9645085483789 444.887757301331 2598.00004959106 162 163 158
26.0309595614672 444.714903831482 2596.99988365173 157 158 153
33.053632825613 444.027781486511 2592.99993515015 155 156 151
40.0853455066681 443.682670593262 2591.00008010864 155 156 151
47.1242144703865 443.508237600327 2589.99991416931 152 153 148
54.1783943772316 443.504601716995 2589.99991416931 152 153 148
61.1378215253353 442.815512418747 2585.99996566772 156 157 152
68.1543573737144 442.639648914337 2585.00003814697 158 159 154
75.1361101865768 442.292004823685 2582.99994468689 160 161 156
82.1385234594345 442.115098237991 2582.00001716614 160 161 156
89.0661552548409 441.59534573555 2578.9999961853 160 161 156
96.0516408085823 441.417425870895 2578.00006866455 161 162 157
103.111334145069 441.581547260284 2578.9999961853 163 164 159
110.218815505505 441.916346549988 2581.00008964539 167 168 163
117.518544197083 442.935526371002 2586.99989318848 170 171 166
124.706074595451 443.440526723862 2589.99991416931 171 172 167
131.909534335136 443.945050239563 2592.99993515015 171 172 167
139.182478189468 444.620251655579 2596.99988365173 170 171 166
146.645680069923 445.808589458466 2604.00009155273 169 170 165
154.087454080582 446.82514667511 2609.99989509583 168 169 164
161.314353346825 447.156459093094 2611.99998855591 164 165 160
168.874010443687 448.343187570572 2618.99995803833 163 164 159
176.269590854645 449.015825986862 2622.99990653992 160 161 156
183.826223015785 450.030326843262 2628.99994850159 159 160 155
191.196992993355 450.530797243118 2631.99996948242 158 159 154
198.809534311295 451.544255018234 2638.00001144409 159 160 154
206.688329577446 453.070670366287 2647.0000743866 151 152 146
214.777052402496 454.938888549805 2657.99999237061 152 153 147
222.924903035164 456.806480884552 2668.99991035461 151 152 147
231.476902961731 459.358215332031 2684.00001525879 142 143 138
274.024933576584 457.201808691025 2671.99993133545 213 215 212
280.864864587784 456.498861312866 2667.99998283386 149 150 145
287.142276763916 454.9400806427 2658.99991989136 148 149 144
293.037801980972 452.867776155472 2647.0000743866 152 153 148
298.867255449295 450.795203447342 2634.99999046326 158 159 154
305.211335420609 449.577838182449 2628.00002098084 162 162 160
312.110781669617 449.21550154686 2625.99992752075 161 161 159
318.633764982224 448.339700698853 2621.00005149841 159 161 158
325.501501560211 447.976768016815 2618.99995803833 161 163 160
332.484543323517 447.784543037415 2618.00003051758 166 168 165
340.498805046082 448.960244655609 2625 179 181 178
349.212348461151 450.99064707756 2637.00008392334 184 186 185
361.638844013214 457.637906074524 2676.00011825562 188 190 189
-98.4304770827293 457.178890705109 2713.00005912781 207 212 208
-90.9415110945702 456.680059432983 2710.00003814697 171 173 168
-83.3144262433052 455.338090658188 2701.99990272522 171 173 168
-75.561948120594 452.98445224762 2687.99996376038 184 185 180
