ply
format ascii 1.0
comment KinectMotionCapture
element vertex 799
property float x
property float y
property float z
property uchar red
property uchar green
property uchar blue
end_header
169.997826218605 300.567954778671 2632.99989700317 121 124 117
177.171483635902 300.558894872665 2632.99989700317 15 16 10
184.414505958557 300.663620233536 2634.0000629425 14 15 9
191.080376505852 299.854815006256 2627.00009346008 15 17 12
198.537483811378 300.301253795624 2631.00004196167 25 31 29
206.093847751617 300.861448049545 2635.99991798401 5 11 9
212.705850601196 300.051748752594 2628.99994850159 3 9 5
219.278916716576 299.241691827774 2621.99997901917 24 29 25
226.503938436508 299.344390630722 2622.99990653992 16 18 13
233.199164271355 298.762053251266 2618.00003051758 175 177 172
239.590927958488 297.837048768997 2609.99989509583 173 176 169
246.127367019653 297.140091657639 2604.00009155273 169 170 165
252.921998500824 296.785086393356 2601.0000705719 160 162 159
259.899318218231 296.65806889534 2599.99990463257 159 161 158
267.075717449188 296.758949756622 2601.0000705719 158 163 159
274.256616830826 296.859472990036 2601.99999809265 178 183 179
281.766384840012 297.301948070526 2605.99994659424 184 189 185
289.518654346466 297.972232103348 2611.99998855591 175 180 176
298.324644565582 299.668848514557 2627.00009346008 155 159 158
-106.191135942936 303.055793046951 2719.00010108948 34 36 31
-97.8328287601471 300.163179636002 2693.00007820129 18 21 14
-88.809460401535 294.594973325729 2642.99988746643 24 27 20
-82.0035710930824 296.0484623909 2655.99989891052 20 23 16
-74.4227766990662 294.715017080307 2644.00005340576 23 26 19
-67.0596584677696 294.049948453903 2638.00001144409 26 29 20
-59.9332489073277 294.387668371201 2641.00003242493 23 26 17
-52.6904165744781 294.167697429657 2638.99993896484 21 24 15
-45.5789566040039 294.727623462677 2644.00005340576 22 25 16
-38.2949449121952 294.172435998917 2638.99993896484 0 1 0
-30.4253101348877 287.820428609848 2582.00001716614 17 19 14
-23.5728640109301 290.162742137909 2602.9999256134 18 20 15
-16.5108479559422 290.83263874054 2608.99996757507 4 6 1
-2.28583067655563 291.836887598038 2618.00003051758 22 24 19
4.84590977430344 291.279435157776 2612.99991607666 17 19 14
11.9961770251393 291.83641076088 2618.00003051758 8 10 5
19.1444363445044 291.947036981583 2618.99995803833 4 6 1
26.2679625302553 291.722893714905 2617.00010299683 96 98 93
33.3932414650917 291.609823703766 2615.9999370575 115 117 112
40.4974482953548 291.384965181351 2614.00008201599 141 146 140
47.7181188762188 291.939973831177 2618.99995803833 152 157 151
54.8402033746243 291.82580113411 2618.00003051758 158 163 157
62.0513185858727 292.157143354416 2621.00005149841 154 159 153
69.0673440694809 291.596382856369 2615.9999370575 150 155 149
76.2306079268456 291.704028844833 2617.00010299683 148 153 147
83.3034515380859 291.476875543594 2615.00000953674 129 134 128
90.4688313603401 291.583806276321 2615.9999370575 99 104 98
97.6393297314644 291.69037938118 2617.00010299683 99 104 98
104.774847626686 291.685074567795 2617.00010299683 101 106 100
111.995510756969 291.902333498001 2618.99995803833 100 105 99
119.044691324234 291.673392057419 2617.00010299683 87 92 86
126.420021057129 292.224287986755 2621.99997901917 105 110 104
133.516490459442 292.106091976166 2621.00005149841 83 88 82
140.875324606895 292.544722557068 2625 100 105 99
147.804319858551 292.091518640518 2621.00005149841 108 110 105
155.183881521225 292.529463768005 2625 19 22 15
162.337303161621 292.521268129349 2625 27 30 23
169.877529144287 293.181329965591 2631.00004196167 13 16 9
177.113354206085 293.283879756927 2631.99996948242 18 19 13
184.283956885338 293.274611234665 2631.99996948242 12 13 7
190.43555855751 291.705131530762 2618.00003051758 10 12 7
198.170363903046 292.586624622345 2625.99992752075 1 7 5
205.869868397713 293.35629940033 2632.99989700317 20 26 24
212.959438562393 293.234258890152 2631.99996948242 9 14 10
219.290092587471 292.109280824661 2621.99997901917 0 1 0
226.256355643272 291.875243186951 2619.99988555908 19 20 14
232.94372856617 291.306763887405 2615.00000953674 174 174 166
239.694833755493 290.849387645721 2611.00006103516 175 175 167
246.423289179802 290.391713380814 2607.00011253357 177 174 169
253.226399421692 290.045142173767 2604.00009155273 178 174 171
260.112226009369 289.809674024582 2601.99999809265 171 170 166
267.088979482651 289.685308933258 2601.0000705719 171 172 167
274.480998516083 290.006160736084 2604.00009155273 161 163 158
282.104641199112 290.549367666245 2608.99996757507 173 178 174
290.308803319931 291.64907336235 2618.99995803833 180 185 181
299.701988697052 293.861895799637 2638.99993896484 176 180 179
-110.769100487232 288.255929946899 2651.00002288818 35 37 32
-103.384517133236 287.826478481293 2647.0000743866 36 39 32
-96.8569666147232 289.897620677948 2665.99988937378 29 32 25
-90.0573953986168 291.424781084061 2680.0000667572 5 8 1
-81.9151997566223 288.493186235428 2653.00011634827 19 22 15
-73.0191767215729 282.081305980682 2594.00010108948 25 28 19
-67.1902522444725 287.413388490677 2642.99988746643 24 27 18
-59.7775056958199 286.437958478928 2634.0000629425 21 24 15
-52.5334253907204 286.114603281021 2631.00004196167 18 21 12
-45.443419367075 286.660850048065 2635.99991798401 19 22 13
-38.3549854159355 287.424236536026 2642.99988746643 22 24 19
-31.2753617763519 288.622319698334 2654.00004386902 15 17 12
-23.4291888773441 281.337440013886 2586.99989318848 8 10 5
-16.6952442377806 286.884784698486 2638.00001144409 10 12 7
-9.52095258980989 287.53799200058 2644.00005340576 11 13 8
-2.27547204121947 283.405721187592 2605.99994659424 16 18 13
4.85172728076577 284.493178129196 2615.9999370575 15 17 12
12.0105510577559 285.036504268646 2621.00005149841 9 11 6
19.2185360938311 285.905689001083 2628.99994850159 4 6 1
26.3496357947588 285.469532012939 2625 17 19 14
33.3694517612457 284.271717071533 2614.00008201599 10 12 7
40.4995568096638 284.2698097229 2614.00008201599 9 11 6
47.6659461855888 284.485042095184 2615.9999370575 2 4 0
54.7802150249481 284.373641014099 2615.00000953674 0 1 0
61.9835220277309 284.696906805038 2618.00003051758 3 5 0
69.0973401069641 284.584790468216 2617.00010299683 5 7 2
76.3510838150978 285.016000270844 2621.00005149841 8 10 5
83.3714976906776 284.576922655106 2617.00010299683 3 5 0
90.5772820115089 284.789949655533 2618.99995803833 7 9 4
97.7936163544655 285.002589225769 2621.00005149841 13 15 10
104.940414428711 284.997403621674 2621.00005149841 11 13 8
112.044036388397 284.883111715317 2619.99988555908 9 11 6
119.050823152065 284.551054239273 2617.00010299683 6 11 5
126.281872391701 284.762263298035 2618.99995803833 7 12 6
133.370518684387 284.646928310394 2618.00003051758 11 16 10
140.721544623375 285.074859857559 2621.99997901917 14 16 11
147.868260741234 285.067528486252 2621.99997901917 17 20 13
154.896199703217 284.84246134758 2619.99988555908 28 31 24
161.850810050964 284.508317708969 2617.00010299683 25 28 21
168.788447976112 284.173876047134 2614.00008201599 10 11 5
175.574541091919 283.62163901329 2608.99996757507 17 18 10
182.26270377636 282.960414886475 2602.9999256134 4 5 0
189.354002475739 282.951176166534 2602.9999256134 8 9 1
196.897357702255 283.593714237213 2608.99996757507 17 19 14
204.159960150719 283.801168203354 2611.00006103516 17 18 12
212.970092892647 286.073356866837 2631.99996948242 11 11 3
218.882858753204 284.432381391525 2617.00010299683 11 5 0
225.74944794178 284.095346927643 2614.00008201599 43 33 21
232.688009738922 283.866733312607 2611.99998855591 90 76 63
239.706665277481 283.746540546417 2611.00006103516 101 87 74
246.624454855919 283.517301082611 2608.99996757507 90 76 63
253.530532121658 283.287823200226 2607.00011253357 92 78 67
260.324865579605 282.949388027191 2604.00009155273 166 152 143
267.307341098785 282.827973365784 2602.9999256134 189 180 171
274.494290351868 282.923638820648 2604.00009155273 185 182 175
282.442688941956 283.779472112656 2611.99998855591 158 159 154
290.987879037857 285.178154706955 2625 162 164 159
-111.443273723125 282.73606300354 2667.00005531311 37 39 34
-103.506930172443 280.939191579819 2650.00009536743 23 26 19
-97.4795296788216 284.442752599716 2683.00008773804 21 24 17
-89.0874266624451 281.054884195328 2651.00002288818 24 27 20
-80.1901891827583 275.334060192108 2596.99988365173 19 22 15
-73.0791836977005 275.231897830963 2595.99995613098 22 25 16
-67.1936720609665 280.218452215195 2642.99988746643 22 25 16
-59.9621161818504 280.11566400528 2641.99995994568 21 24 15
-52.296482026577 277.679920196533 2618.99995803833 15 18 9
-45.1009310781956 277.364313602448 2615.9999370575 14 17 8
-38.3859723806381 280.441164970398 2644.99998092651 15 18 11
-31.0059078037739 278.958559036255 2631.00004196167 18 21 14
-23.8379538059235 279.065996408463 2631.99996948242 17 20 13
-16.5885016322136 277.900665998459 2621.00005149841 23 26 19
-9.38099436461926 276.204854249954 2605.00001907349 28 31 24
-2.27471510879695 276.2051820755 2605.00001907349 20 23 16
4.85012028366327 277.26536989212 2615.00000953674 19 22 15
11.97908539325 277.158915996552 2614.00008201599 15 18 11
19.1025510430336 277.052134275436 2612.99991607666 14 17 10
25.9996354579926 274.612337350845 2589.99991416931 11 14 7
33.5371196269989 278.533846139908 2627.00009346008 11 14 7
40.532611310482 277.365684509277 2615.9999370575 11 14 7
47.7230362594128 277.681529521942 2618.99995803833 10 13 6
54.5944571495056 276.300638914108 2605.99994659424 6 9 2
61.7735795676708 276.615768671036 2608.99996757507 14 17 10
68.7839984893799 276.188373565674 2605.00001907349 17 20 13
76.2093067169189 277.350962162018 2615.9999370575 14 17 10
83.2801535725594 277.134925127029 2614.00008201599 15 18 11
90.6164646148682 277.766674757004 2619.99988555908 11 14 7
97.7612510323524 277.761936187744 2619.99988555908 8 11 4
104.785561561584 277.438819408417 2617.00010299683 12 15 8
111.964173614979 277.539432048798 2618.00003051758 15 18 11
118.647389113903 276.473581790924 2608.00004005432 17 19 14
125.613152980804 276.149451732636 2605.00001907349 13 16 9
132.613018155098 275.930970907211 2602.9999256134 15 18 11
140.56758582592 277.620255947113 2618.99995803833 14 17 10
148.270457983017 278.673142194748 2628.99994850159 14 17 10
154.312685132027 276.651650667191 2609.99989509583 20 21 15
161.24039888382 276.325911283493 2607.00011253357 16 17 11
168.15111041069 275.999814271927 2604.00009155273 8 9 1
174.842968583107 275.355458259583 2598.00004959106 13 14 6
181.571483612061 274.816751480103 2592.99993515015 13 14 6
189.581573009491 276.18545293808 2605.99994659424 23 24 16
197.284430265427 277.02385187149 2614.00008201599 25 25 17
204.404592514038 277.01410651207 2614.00008201599 24 20 11
213.142365217209 279.123395681381 2634.0000629425 19 13 1
219.228088855743 277.735352516174 2621.00005149841 30 16 3
225.933149456978 277.194797992706 2615.9999370575 93 76 60
232.788383960724 276.865899562836 2612.99991607666 129 108 91
239.810064435005 276.74862742424 2611.99998855591 136 115 98
246.825411915779 276.631057262421 2611.00006103516 130 109 92
253.834456205368 276.513189077377 2609.99989509583 107 88 73
261.037141084671 276.606917381287 2611.00006103516 68 49 35
267.936289310455 276.382595300674 2608.99996757507 166 149 139
275.139808654785 276.475727558136 2609.99989509583 194 187 179
282.888561487198 277.098208665848 2615.9999370575 169 168 163
291.999310255051 278.991401195526 2634.0000629425 146 147 141
-121.792562305927 282.59664773941 2736.00006103516 93 95 90
-105.074502527714 277.856349945068 2690.00005722046 25 27 22
-97.1936881542206 276.311874389648 2674.99995231628 22 25 18
-89.4615203142166 274.973660707474 2661.99994087219 17 20 13
-81.4293622970581 272.395431995392 2637.00008392334 18 21 14
-74.4622796773911 273.225635290146 2644.99998092651 17 20 13
-67.5529688596725 274.468749761581 2657.00006484985 17 20 11
-60.2374710142612 274.161994457245 2654.00004386902 20 23 14
-52.7983233332634 273.131728172302 2644.00005340576 22 25 16
-45.137669891119 270.448297262192 2618.00003051758 22 25 16
-37.8509014844894 269.417285919189 2608.00004005432 25 28 21
-30.8542493730783 270.452052354813 2618.00003051758 28 31 24
-23.6036535352468 269.213736057281 2605.99994659424 31 34 27
-16.4943914860487 269.214689731598 2605.99994659424 27 30 23
-9.37786232680082 269.008755683899 2604.00009155273 22 25 18
-2.28705466724932 270.558625459671 2618.99995803833 16 19 12
4.84665296971798 269.938707351685 2612.99991607666 15 18 11
12.0346806943417 271.28130197525 2625.99992752075 13 16 9
19.0230868756771 268.801182508469 2601.99999809265 14 17 10
26.0109771043062 267.663717269897 2591.00008010864 17 20 13
33.360056579113 269.934922456741 2612.99991607666 18 21 14
40.6276062130928 270.862847566605 2621.99997901917 25 28 21
47.6160906255245 269.930958747864 2612.99991607666 23 26 19
54.4295832514763 268.378883600235 2598.00004959106 17 20 13
61.4451728761196 268.066138029099 2595.00002861023 21 24 17
68.3913305401802 267.546415328979 2589.99991416931 22 25 18
75.6886973977089 268.369287252426 2598.00004959106 16 19 12
82.7745124697685 268.365383148193 2598.00004959106 16 19 12
90.2404934167862 269.497394561768 2608.99996757507 14 17 10
97.1317365765572 268.873006105423 2602.9999256134 12 15 8
104.069992899895 268.454939126968 2598.99997711182 8 11 4
110.130630433559 265.970706939697 2575.00004768372 7 10 3
117.379352450371 266.481578350067 2579.99992370605 8 11 4
124.751314520836 267.19868183136 2586.99989318848 11 14 7
132.823333144188 269.258111715317 2607.00011253357 13 16 9
141.486942768097 272.246569395065 2635.99991798401 8 11 4
147.71369099617 270.4838514328 2618.99995803833 9 10 4
154.142886400223 269.237250089645 2607.00011253357 16 17 9
161.433786153793 269.539415836334 2609.99989509583 34 35 27
169.386267662048 270.873993635178 2622.99990653992 13 14 6
176.332101225853 270.555853843689 2619.99988555908 14 15 7
182.420611381531 268.998295068741 2605.00001907349 18 19 11
190.391018986702 270.228534936905 2617.00010299683 26 26 16
197.595834732056 270.322531461716 2618.00003051758 42 38 29
205.352783203125 271.138966083527 2625.99992752075 27 17 5
212.424263358116 271.025806665421 2625 26 14 0
218.820303678513 270.086377859116 2615.9999370575 77 58 41
225.85754096508 269.972681999207 2615.00000953674 134 111 93
232.710331678391 269.652158021927 2611.99998855591 140 113 92
239.913195371628 269.74430680275 2612.99991607666 150 123 102
246.931567788124 269.629746675491 2611.99998855591 136 109 88
254.429936408997 270.030975341797 2615.9999370575 143 116 99
261.849224567413 270.328670740128 2618.99995803833 134 108 91
268.87309551239 270.213216543198 2618.00003051758 79 60 46
275.995999574661 270.200669765472 2618.00003051758 67 58 49
283.983081579208 271.013468503952 2625.99992752075 184 181 176
-114.003360271454 274.348258972168 2727.9999256134 47 49 44
-105.313956737518 271.135300397873 2696.00009918213 28 30 25
-96.5443477034569 267.2179043293 2657.00006484985 22 25 18
-88.7936875224113 265.713751316071 2641.99995994568 19 22 15
-81.9274187088013 266.824185848236 2653.00011634827 21 24 17
-74.4940564036369 266.12389087677 2645.99990844727 20 23 16
-67.1494379639626 265.624433755875 2641.00003242493 16 19 10
-60.0815191864967 266.230970621109 2647.0000743866 16 19 10
-52.5612533092499 264.724999666214 2631.99996948242 19 22 13
-45.2950522303581 264.224469661713 2627.00009346008 21 24 15
-37.5479497015476 260.203212499619 2586.99989318848 52 55 48
-16.3559447973967 259.905397891998 2584.00011062622 25 28 21
-9.38192289322615 262.018233537674 2605.00001907349 22 25 18
-2.29153293184936 263.929605484009 2624.00007247925 15 18 11
4.89511806517839 265.438288450241 2638.99993896484 13 16 9
11.9069404900074 261.31397485733 2598.00004959106 10 13 6
19.2141085863113 264.330714941025 2628.00002098084 10 13 6
26.0524041950703 261.010408401489 2595.00002861023 13 16 9
33.3872213959694 263.020604848862 2615.00000953674 15 18 11
40.6915731728077 264.125198125839 2625.99992752075 21 24 17
47.7642007172108 263.620167970657 2621.00005149841 19 22 15
54.3274693191051 260.801464319229 2592.99993515015 15 18 11
61.2824074923992 260.295808315277 2588.00005912781 18 21 14
68.1834071874619 259.689211845398 2582.00001716614 20 23 16
75.3136351704597 259.987503290176 2585.00003814697 24 27 20
82.3324620723724 259.883135557175 2584.00011062622 23 26 19
89.4147157669067 259.979575872421 2585.00003814697 21 24 17
96.4647457003593 259.975135326386 2585.00003814697 19 22 15
103.634558618069 260.272055864334 2588.00005912781 10 13 6
110.478118062019 259.764075279236 2582.99994468689 6 9 2
116.429552435875 257.345110177994 2559.00001525879 9 12 5
124.998465180397 260.657966136932 2592.00000762939 11 14 7
134.001612663269 264.473140239716 2630.00011444092 12 15 8
141.010656952858 264.164924621582 2627.00009346008 7 10 3
146.987542510033 262.04639673233 2605.99994659424 10 11 5
153.913721442223 261.737644672394 2602.9999256134 17 18 10
161.441490054131 262.434035539627 2609.99989509583 34 35 27
169.52346265316 263.934463262558 2625 18 19 11
177.821204066277 265.635579824448 2641.99995994568 14 14 6
183.339670300484 263.214111328125 2618.00003051758 17 17 9
189.890697598457 262.401074171066 2609.99989509583 19 15 4
197.680607438087 263.296872377396 2618.99995803833 36 26 14
204.815000295639 263.287514448166 2618.99995803833 36 19 3
211.786791682243 263.076812028885 2617.00010299683 71 53 33
218.412294983864 262.463748455048 2611.00006103516 134 108 85
225.608944892883 262.553989887238 2611.99998855591 126 96 72
232.542932033539 262.342423200607 2609.99989509583 147 113 86
239.740669727325 262.432157993317 2611.00006103516 142 108 81
246.659353375435 262.220025062561 2608.99996757507 141 107 82
254.052579402924 262.510150671005 2611.99998855591 138 106 85
261.761218309402 263.1014585495 2618.00003051758 132 99 80
269.501596689224 263.69246840477 2624.00007247925 126 100 85
277.69535779953 264.685034751892 2634.0000629425 95 82 73
286.915928125381 266.581624746323 2653.00011634827 57 53 44
-113.005742430687 264.571189880371 2703.9999961853 39 41 36
-104.96736317873 262.912899255753 2687.00003623962 35 37 32
-96.6216027736664 260.177880525589 2658.99991989136 31 34 27
-88.5290205478668 257.735997438431 2634.0000629425 21 24 17
-81.5298408269882 258.327096700668 2640.00010490417 18 21 14
-74.1597414016724 257.743656635284 2634.0000629425 20 23 16
-66.6949450969696 256.670564413071 2622.99990653992 20 23 14
-59.3126118183136 255.694955587387 2612.99991607666 18 21 12
-52.4039939045906 256.774008274078 2624.00007247925 24 27 18
-45.0902916491032 255.895584821701 2615.00000953674 29 32 23
-38.4496562182903 259.224683046341 2648.9999294281 30 33 26
-23.4791170805693 253.649711608887 2592.00000762939 19 22 15
-16.3883753120899 253.357082605362 2588.99998664856 17 20 13
-9.38957463949919 255.119144916534 2607.00011253357 14 17 10
-2.29950249195099 257.663756608963 2632.99989700317 11 14 7
4.86010638996959 256.391525268555 2619.99988555908 10 13 6
11.8570933118463 253.161758184433 2586.99989318848 8 11 4
18.9518071711063 253.650337457657 2592.00000762939 9 12 5
26.5154857188463 258.444368839264 2641.00003242493 13 16 9
33.9506156742573 260.204374790192 2658.99991989136 15 18 11
41.2358902394772 260.398328304291 2661.00001335144 11 12 6
48.0033941566944 257.754057645798 2634.0000629425 12 13 7
54.2672015726566 253.445982933044 2589.99991416931 14 15 9
61.143234372139 252.66045331955 2582.00001716614 17 18 12
68.1074261665344 252.363830804825 2578.9999961853 19 20 14
75.2006620168686 252.556204795837 2581.00008964539 23 24 18
82.2089090943336 252.45463848114 2579.99992370605 23 24 18
89.0384390950203 251.863539218903 2573.99988174438 24 25 19
96.0961282253265 251.957058906555 2575.00004768372 23 24 18
104.680642485619 255.768358707428 2614.00008201599 15 16 10
111.467130482197 254.980564117432 2605.99994659424 12 13 7
117.754548788071 253.214061260223 2588.00005912781 9 12 5
124.811433255672 253.208428621292 2588.00005912781 9 12 5
135.026961565018 259.268373250961 2650.00009536743 9 12 5
139.567896723747 254.370182752609 2599.99990463257 6 7 1
147.27646112442 255.439758300781 2611.00006103516 10 11 3
154.275700449944 255.237132310867 2608.99996757507 14 15 7
161.263450980186 255.034178495407 2607.00011253357 23 24 16
169.143855571747 256.20049238205 2618.99995803833 18 18 10
177.290961146355 257.659882307053 2634.0000629425 18 18 8
182.997956871986 255.597412586212 2612.99991607666 17 17 7
189.681187272072 255.002051591873 2607.00011253357 25 21 10
197.312295436859 255.677938461304 2614.00008201599 33 23 11
204.433381557465 255.668818950653 2614.00008201599 79 62 46
210.825309157372 254.779160022736 2605.00001907349 116 95 76
217.58571267128 254.378288984299 2601.0000705719 129 101 77
224.755421280861 254.466116428375 2601.99999809265 135 103 78
231.840670108795 254.455894231796 2601.99999809265 147 111 85
239.200577139854 254.738748073578 2605.00001907349 147 111 85
246.292263269424 254.727929830551 2605.00001907349 148 112 88
253.674924373627 255.010157823563 2608.00004005432 134 102 81
261.472940444946 255.683213472366 2615.00000953674 138 105 86
269.719004631042 256.747007369995 2625.99992752075 116 90 77
278.761982917786 258.494794368744 2644.00005340576 111 98 89
-121.141955256462 258.818417787552 2720.99995613098 9 11 6
-112.384036183357 255.779922008514 2688.99989128113 24 26 21
-104.776874184608 255.1189661026 2681.99992179871 27 29 24
-96.9531163573265 253.791868686676 2667.99998283386 30 33 26
-89.3398001790047 252.844870090485 2657.99999237061 26 29 22
-81.0703486204147 249.709591269493 2625 22 25 18
-74.4447410106659 251.520574092865 2644.00005340576 21 24 17
-66.7997598648071 249.906629323959 2627.00009346008 20 23 14
-59.2245683073998 248.19715321064 2608.99996757507 20 23 14
-52.0669035613537 248.009443283081 2607.00011253357 21 24 15
-45.6959269940853 252.10240483284 2650.00009536743 20 23 14
-38.5385379195213 252.579987049103 2654.99997138977 9 12 5
-30.9647507965565 249.9178647995 2627.00009346008 9 12 5
-23.6251503229141 248.111546039581 2608.00004005432 12 15 8
-16.4334494620562 246.97083234787 2595.99995613098 11 14 7
-9.38640907406807 247.922763228416 2605.99994659424 11 14 7
-2.28301528841257 248.684138059616 2614.00008201599 11 14 7
4.82879625633359 247.637569904327 2602.9999256134 11 14 7
11.8897305801511 246.780976653099 2594.00010108948 10 13 6
18.9965628087521 247.16080725193 2598.00004959106 10 13 6
26.3761542737484 249.918684363365 2627.00009346008 12 15 8
34.0160429477692 253.437280654907 2664.00003433228 13 16 9
40.9743525087833 251.532852649689 2644.00005340576 12 13 7
48.4248138964176 252.767562866211 2657.00006484985 12 13 7
54.8773817718029 249.150142073631 2618.99995803833 13 14 8
67.8728967905045 244.483113288879 2569.9999332428 18 19 13
74.8545005917549 244.384706020355 2569.00000572205 24 25 19
82.021526992321 244.856730103493 2573.99988174438 24 25 19
88.9387801289558 244.567468762398 2571.00009918213 20 21 15
96.4737609028816 245.894968509674 2585.00003814697 14 15 9
105.166040360928 249.79043006897 2625.99992752075 8 9 3
111.771680414677 248.548895120621 2612.99991607666 8 9 3
118.715509772301 248.163193464279 2608.99996757507 14 17 10
130.243301391602 243.11076104641 2555.99999427795 11 12 4
141.775265336037 251.189172267914 2641.00003242493 12 13 5
147.960066795349 249.47065114975 2622.99990653992 15 16 8
155.169755220413 249.558940529823 2624.00007247925 22 23 15
161.765664815903 248.695880174637 2615.00000953674 24 25 17
168.764010071754 248.498260974884 2612.99991607666 24 24 16
175.750821828842 248.300343751907 2611.00006103516 23 23 13
182.936176657677 248.387426137924 2611.99998855591 15 15 5
189.835265278816 248.093873262405 2608.99996757507 19 15 4
197.094693779945 248.275473713875 2611.00006103516 37 27 15
203.97324860096 247.981294989586 2608.00004005432 108 91 75
210.51099896431 247.30658531189 2601.0000705719 107 89 69
217.177093029022 246.821761131287 2595.99995613098 138 110 88
224.333480000496 246.907144784927 2596.99988365173 142 110 87
231.76184296608 247.277483344078 2601.0000705719 154 118 94
238.843783736229 247.267201542854 2601.0000705719 144 108 84
246.019423007965 247.351720929146 2601.99999809265 141 105 83
253.102391958237 247.34091758728 2601.99999809265 148 115 98
261.184364557266 248.280361294746 2611.99998855591 137 105 90
269.525289535522 249.409586191177 2624.00007247925 123 99 87
-112.472683191299 248.640134930611 2690.99998474121 32 35 28
-104.976937174797 248.275384306908 2687.00003623962 28 31 24
-97.6479575037956 248.279869556427 2687.00003623962 19 22 15
-88.839627802372 244.218364357948 2642.99988746643 22 25 18
-81.84614777565 244.868993759155 2650.00009536743 24 27 20
-75.0394091010094 246.258541941643 2664.99996185303 23 26 19
-67.2096461057663 244.228810071945 2642.99988746643 22 25 18
-59.5677644014359 242.475926876068 2624.00007247925 20 23 16
-52.2689968347549 241.831570863724 2617.00010299683 12 15 6
-45.4393289983273 243.497103452682 2634.99999046326 7 10 1
-38.2499657571316 243.498966097832 2634.99999046326 13 16 9
-30.8247022330761 241.652339696884 2615.00000953674 24 27 20
-23.5356334596872 240.082576870918 2598.00004959106 10 13 6
-16.4658520370722 240.360721945763 2601.0000705719 14 17 10
-9.35441814363003 239.991635084152 2596.99988365173 13 16 9
-2.26914463564754 240.084320306778 2598.00004959106 13 16 9
4.79562347754836 238.882914185524 2585.00003814697 13 16 9
11.862768791616 239.159777760506 2588.00005912781 11 14 7
19.1071107983589 241.469338536263 2612.99991607666 10 13 6
26.4175143092871 243.131712079048 2631.00004196167 8 11 4
33.7366573512554 244.146883487701 2641.99995994568 8 11 4
40.9142263233662 243.960380554199 2640.00010490417 12 13 7
48.0624884366989 243.68117749691 2637.00008392334 11 12 6
55.5504113435745 244.972571730614 2651.00002288818 12 13 7
67.5062164664268 236.188426613808 2555.99999427795 15 16 10
74.8870149254799 237.478911876678 2569.9999332428 20 21 15
81.9933712482452 237.752646207809 2572.99995422363 22 23 17
89.0119820833206 237.748816609383 2572.99995422363 19 20 14
96.2168648838997 238.20672929287 2578.00006866455 15 16 10
104.249626398087 240.512207150459 2602.9999256134 14 15 9
110.750064253807 239.213913679123 2588.99998664856 16 17 11
119.494408369064 242.627426981926 2625.99992752075 11 14 7
126.655533909798 242.621973156929 2625.99992752075 7 8 2
134.274810552597 243.447735905647 2634.99999046326 9 10 4
140.063673257828 241.039574146271 2608.99996757507 11 12 4
148.361548781395 242.973372340202 2630.00011444092 12 13 5
155.768007040024 243.336215615273 2634.0000629425 15 18 9
162.391468882561 242.497816681862 2625 22 25 16
168.319344520569 240.73538184166 2605.99994659424 25 27 16
174.950808286667 240.081295371056 2598.99997711182 24 24 14
182.453960180283 240.627735853195 2605.00001907349 14 11 2
190.352946519852 241.635710000992 2615.9999370575 20 14 2
196.952357888222 240.9807741642 2608.99996757507 91 77 64
203.591093420982 240.417957305908 2602.9999256134 103 84 67
210.196390748024 239.854902029037 2596.99988365173 134 112 91
216.935530304909 239.476278424263 2592.99993515015 133 102 81
224.084064364433 239.55924808979 2594.00010108948 142 110 87
231.415376067162 239.826530218124 2596.99988365173 142 106 82
238.486722111702 239.816546440125 2596.99988365173 147 111 87
245.935425162315 240.175664424896 2601.0000705719 145 110 91
253.210484981537 240.34982919693 2602.9999256134 140 107 90
261.295467615128 241.262316703796 2612.99991607666 134 102 87
269.742131233215 242.451459169388 2625.99992752075 143 119 107
-112.602986395359 241.578206419945 2694.00000572205 30 33 26
-104.512684047222 239.879116415977 2674.99995231628 27 30 23
-96.78003937006 238.807380199432 2663.00010681152 22 25 18
-89.1460701823235 237.824961543083 2651.99995040894 21 24 17
-82.1277275681496 238.456398248672 2658.99991989136 19 22 15
-75.4932537674904 240.432798862457 2680.99999427795 20 23 16
-67.7212253212929 238.821655511856 2663.00010681152 21 24 17
-59.5249943435192 235.147446393967 2621.99997901917 20 23 16
-52.3711740970612 235.149890184402 2621.99997901917 16 19 12
-45.2516376972198 235.331401228905 2624.00007247925 15 18 11
-37.9903577268124 234.705403447151 2617.00010299683 18 21 12
-30.6963976472616 233.540996909142 2604.00009155273 18 21 12
-23.4551392495632 232.196897268295 2588.99998664856 19 22 13
-16.301978379488 230.942144989967 2575.00004768372 19 22 13
-9.3872519209981 233.722969889641 2605.99994659424 19 22 13
-2.25876364856958 231.929510831833 2585.99996566772 17 20 11
4.79212542995811 231.660395860672 2582.99994468689 15 18 9
11.8587082251906 232.018753886223 2586.99989318848 12 15 6
19.0567672252655 233.722135424614 2605.99994659424 13 16 7
26.4387670904398 236.142680048943 2632.99989700317 13 16 7
33.6359925568104 236.231043934822 2634.0000629425 12 15 6
40.6525544822216 235.242873430252 2622.99990653992 10 13 6
47.6089343428612 234.254449605942 2611.99998855591 10 13 6
54.6308271586895 233.803808689117 2607.00011253357 9 12 5
61.2462796270847 231.917947530746 2585.99996566772 9 12 5
67.7997246384621 230.211168527603 2566.99991226196 13 16 9
76.1142000555992 234.243676066399 2611.99998855591 10 13 6
82.6980769634247 232.71569609642 2595.00002861023 11 14 7
88.3931741118431 229.124873876572 2555.0000667572 13 16 9
95.6985428929329 229.927957057953 2563.99989128113 15 18 11
102.61207818985 229.744330048561 2562.00003623962 13 16 9
111.353807151318 233.41628909111 2602.9999256134 11 14 7
117.360837757587 231.259256601334 2578.9999961853 10 13 4
125.021144747734 232.419744133949 2592.00000762939 12 13 7
132.242247462273 232.683211565018 2595.00002861023 12 13 7
140.391886234283 234.470665454865 2615.00000953674 15 16 10
148.142322897911 235.450759530067 2625.99992752075 18 19 13
155.360788106918 235.533967614174 2627.00009346008 25 31 21
162.645950913429 235.706463456154 2628.99994850159 19 27 16
168.843343853951 234.354600310326 2614.00008201599 21 24 13
175.362229347229 233.540415763855 2605.00001907349 23 23 11
183.30229818821 234.608620405197 2617.00010299683 23 19 8
190.506637096405 234.690368175507 2618.00003051758 87 71 58
197.111740708351 234.054714441299 2611.00006103516 106 78 64
203.521519899368 233.239516615868 2601.99999809265 120 89 68
210.04344522953 232.603400945663 2595.00002861023 135 103 82
216.777414083481 232.235953211784 2591.00008010864 140 108 83
224.007114768028 232.40602016449 2592.99993515015 145 111 86
231.603339314461 232.934311032295 2598.99997711182 148 112 88
238.864064216614 233.103841543198 2601.0000705719 148 112 88
246.040239930153 233.183443546295 2601.99999809265 147 112 92
253.318279981613 233.352422714233 2604.00009155273 145 112 93
261.40633225441 234.237983822823 2614.00008201599 146 113 96
269.958734512329 235.481634736061 2628.00002098084 143 117 104
280.800759792328 238.606527447701 2663.00010681152 131 118 109
-133.020743727684 244.748368859291 2815.00005722046 21 26 22
-123.829461634159 241.797611117363 2780.99989891052 25 27 22
-111.730009317398 232.41226375103 2673.00009727478 27 30 23
-103.462211787701 230.243057012558 2648.00000190735 26 29 22
-96.4570641517639 230.768978595734 2654.00004386902 25 28 21
-89.8221954703331 232.338026165962 2671.99993133545 20 23 16
-82.3165699839592 231.732979416847 2664.99996185303 15 18 11
-74.7361704707146 230.779781937599 2654.00004386902 16 19 12
-66.5542855858803 227.565422654152 2617.00010299683 18 21 14
-59.9134974181652 229.481130838394 2638.99993896484 18 21 14
-52.4932704865932 228.52697968483 2628.00002098084 16 19 12
-45.2018454670906 227.920353412628 2621.00005149841 15 18 11
-37.9629582166672 227.400362491608 2615.00000953674 14 17 8
-30.7330824434757 226.706132292747 2607.00011253357 13 16 7
-23.3383681625128 224.011480808258 2575.99997520447 14 17 8
-16.2836872041225 223.664507269859 2572.00002670288 15 18 9
-9.33362171053886 225.317314267159 2591.00008010864 18 21 12
-2.29554739780724 228.535115718842 2628.00002098084 17 20 11
4.85541298985481 227.578490972519 2617.00010299683 15 18 9
11.8546355515718 224.882319569588 2585.99996566772 13 16 7
19.0502759069204 226.533949375153 2605.00001907349 14 17 8
26.3394881039858 228.098273277283 2622.99990653992 14 17 8
33.5097350180149 228.183969855309 2624.00007247925 14 17 8
40.5303128063679 227.399751543999 2615.00000953674 14 17 10
47.2828783094883 225.571736693382 2594.00010108948 12 15 8
54.235003888607 225.047841668129 2588.00005912781 8 11 4
61.3436438143253 225.219294428825 2589.99991416931 7 10 3
68.2252421975136 224.607869982719 2582.99994468689 11 14 7
75.4180625081062 225.03961622715 2588.00005912781 11 14 7
83.1477865576744 226.86231136322 2608.99996757507 10 13 6
88.9851078391075 223.64142537117 2572.00002670288 11 14 7
94.7321653366089 220.681175589561 2538.00010681152 12 15 8
101.975604891777 221.372649073601 2546.0000038147 10 13 6
109.091155230999 221.716001629829 2549.99995231628 9 12 5
117.138266563416 223.797962069511 2573.99988174438 11 14 5
122.614666819572 221.010744571686 2542.00005531311 13 14 8
132.145926356316 225.439488887787 2592.99993515015 13 14 8
139.592483639717 226.042404770851 2599.99990463257 16 17 11
147.302329540253 226.992756128311 2611.00006103516 18 19 13
154.421046376228 226.986467838287 2611.00006103516 22 28 18
162.034094333649 227.675378322601 2618.99995803833 13 19 9
168.462842702866 226.712301373482 2608.00004005432 19 21 10
175.43688416481 226.531341671944 2605.99994659424 22 20 8
183.380007743835 227.567076683044 2618.00003051758 15 8 0
190.87840616703 227.993965148926 2622.99990653992 107 89 77
197.497397661209 227.377593517303 2615.9999370575 104 77 60
203.37350666523 225.978717207909 2599.99990463257 122 90 69
209.728315472603 225.188091397285 2591.00008010864 139 104 84
216.451615095139 224.831774830818 2586.99989318848 146 112 87
223.757088184357 225.083589553833 2589.99991416931 149 113 89
231.0781031847 225.335121154785 2592.99993515015 146 110 86
238.414585590363 225.586354732513 2595.99995613098 148 112 88
245.671987533569 225.750461220741 2598.00004959106 150 115 95
253.133952617645 226.088047027588 2601.99999809265 146 113 94
261.116832494736 226.859793066978 2611.00006103516 146 113 96
269.969612360001 228.32627594471 2628.00002098084 145 119 106
280.81202507019 231.356203556061 2663.00010681152 130 117 108
-132.459163665771 236.06738448143 2802.99997329712 19 21 18
-123.166657984257 232.956439256668 2766.00003242493 25 27 22
-114.117302000523 229.929283261299 2730.00001907349 27 30 23
-104.091666638851 224.374920129776 2664.00003433228 22 25 18
-97.4060669541359 225.726678967476 2680.0000667572 23 26 19
-89.288055896759 223.709031939507 2655.99989891052 25 28 21
-81.9184333086014 223.375618457794 2651.99995040894 19 22 15
-74.1760656237602 221.862703561783 2634.0000629425 17 20 13
-66.7096450924873 220.939055085182 2622.99990653992 13 16 9
-60.3019706904888 223.721325397491 2655.99989891052 12 15 8
-52.9349260032177 223.218247294426 2650.00009536743 13 16 9
-45.2899634838104 221.19864821434 2625.99992752075 14 17 10
-37.7612970769405 219.094529747963 2601.0000705719 19 22 13
-30.5221658200026 218.085095286369 2588.99998664856 20 23 14
-23.4027691185474 217.580810189247 2582.99994468689 19 22 13
-16.455315053463 218.929395079613 2598.99997711182 18 21 12
-9.37364064157009 219.182640314102 2601.99999809265 15 18 9
-2.2877820301801 220.614895224571 2618.99995803833 15 18 9
4.83891787007451 219.688251614571 2608.00004005432 15 18 9
11.882639490068 218.340128660202 2592.00000762939 14 17 8
19.0291330218315 219.181835651398 2601.99999809265 13 16 7
26.230126619339 220.023259520531 2611.99998855591 15 18 9
33.4600545465946 220.695912837982 2619.99988555908 15 18 9
40.5165106058121 220.188990235329 2614.00008201599 17 20 13
47.4124550819397 219.092130661011 2601.0000705719 17 20 13
54.4049255549908 218.6688631773 2595.99995613098 14 17 10
61.4409483969212 218.498021364212 2594.00010108948 12 15 8
68.8884481787682 219.674602150917 2608.00004005432 11 14 7
75.5669251084328 218.408152461052 2592.99993515015 11 14 7
82.6731771230698 218.489140272141 2594.00010108948 9 12 5
89.9575799703598 218.990981578827 2599.99990463257 9 12 5
96.4531451463699 217.639550566673 2584.00011062622 10 13 6
102.540597319603 215.614050626755 2559.99994277954 11 14 7
110.507503151894 217.546850442886 2582.99994468689 11 14 7
117.097608745098 216.699987649918 2572.99995422363 10 16 6
123.922124505043 216.358214616776 2569.00000572205 15 16 10
132.202327251434 218.458458781242 2594.00010108948 15 16 10
139.276072382927 218.452960252762 2594.00010108948 17 16 11
146.236419677734 218.278750777245 2592.00000762939 18 19 13
153.540179133415 218.609541654587 2595.99995613098 14 17 8
162.226319313049 220.79262137413 2621.99997901917 14 17 8
168.53429377079 219.691276550293 2608.99996757507 17 14 5
175.713285803795 219.768553972244 2609.99989509583 21 14 4
183.527514338493 220.60339152813 2619.99988555908 13 3 0
191.177248954773 221.185326576233 2627.00009346008 98 76 65
197.807341814041 220.588177442551 2619.99988555908 91 59 44
203.694611787796 219.233170151711 2604.00009155273 115 78 59
209.736719727516 218.130499124527 2591.00008010864 134 98 76
216.376602649689 217.701151967049 2585.99996566772 142 106 82
223.420441150665 217.692494392395 2585.99996566772 143 107 81
230.819940567017 218.020305037498 2589.99991416931 147 113 88
238.332211971283 218.431994318962 2595.00002861023 145 111 86
245.87082862854 218.843415379524 2599.99990463257 141 109 88
253.435790538788 219.254583120346 2605.00001907349 142 111 91
261.427104473114 220.002070069313 2614.00008201599 144 113 95
270.185619592667 221.338421106339 2630.00011444092 143 120 106
281.033843755722 224.273338913918 2664.99996185303 124 111 102
-129.109144210815 222.642719745636 2732.00011253357 28 30 25
-121.835671365261 222.973674535751 2736.00006103516 23 26 19
-114.498108625412 223.222836852074 2739.00008201599 28 31 24
-104.994595050812 218.989238142967 2687.00003623962 23 26 19
-96.4649617671967 216.303735971451 2654.00004386902 21 24 17
-88.5520502924919 214.677408337593 2634.0000629425 28 31 24
-81.4892798662186 215.006798505783 2638.00001144409 23 26 19
-74.319876730442 215.091377496719 2638.99993896484 21 24 17
-67.0684278011322 214.931204915047 2637.00008392334 14 17 10
-59.736791998148 214.444696903229 2631.00004196167 12 15 8
-53.7560917437077 219.337373971939 2690.99998474121 13 16 9
-45.4642772674561 214.856430888176 2635.99991798401 13 16 9
-37.7192683517933 211.760744452477 2598.00004959106 19 22 13
-30.5587742477655 211.273074150085 2592.00000762939 21 24 15
-23.5668122768402 212.007746100426 2601.0000705719 20 23 14
-16.5129695087671 212.57908642292 2608.00004005432 19 22 13
-9.41004697233438 212.905675172806 2611.99998855591 15 18 9
-2.27651838213205 212.416842579842 2605.99994659424 16 19 10
4.8279813490808 212.090745568275 2601.99999809265 16 19 10
11.9335511699319 212.17192709446 2602.9999256134 14 17 8
18.7593046575785 209.073901176453 2565.00005722046 13 16 7
26.2814052402973 213.311523199081 2617.00010299683 14 17 8
33.6018986999989 214.451462030411 2631.00004196167 16 19 10
40.7041572034359 214.042440056801 2625.99992752075 17 20 13
47.3961494863033 211.921453475952 2599.99990463257 19 22 15
54.34425547719 211.348861455917 2592.99993515015 17 20 13
61.6803020238876 212.243124842644 2604.00009155273 15 18 11
68.8384026288986 212.403535842896 2605.99994659424 13 16 9
75.9488418698311 212.400630116463 2605.99994659424 11 14 7
82.6765224337578 211.419463157654 2594.00010108948 10 13 6
89.8920074105263 211.742013692856 2598.00004959106 9 12 5
96.3450446724892 210.352823138237 2581.00008964539 11 14 7
102.624841034412 208.800375461578 2562.00003623962 12 15 8
110.255233943462 210.018619894981 2576.99990272522 11 14 7
118.376642465591 211.970016360283 2601.0000705719 11 17 7
125.326052308083 211.720749735832 2598.00004959106 14 17 10
132.411479949951 211.715638637543 2598.00004959106 16 17 11
139.013156294823 210.976883769035 2588.99998664856 17 16 11
146.185830235481 211.134269833565 2591.00008010864 18 19 13
153.36886048317 211.29135787487 2592.99993515015 15 18 9
161.552160978317 212.751924991608 2611.00006103516 18 19 11
168.863996863365 212.989941239357 2614.00008201599 13 10 1
175.585597753525 212.49432861805 2608.00004005432 18 9 0
183.254539966583 213.139176368713 2615.9999370575 21 8 0
190.893620252609 213.702246546745 2622.99990653992 101 77 67
197.815090417862 213.450312614441 2619.99988555908 89 56 41
203.702569007874 212.139114737511 2604.00009155273 116 78 59
209.906801581383 211.235046386719 2592.99993515015 135 97 78
216.468691825867 210.738107562065 2586.99989318848 141 103 80
223.42911362648 210.648238658905 2585.99996566772 140 104 80
230.294123291969 210.47668159008 2584.00011062622 147 113 88
237.698465585709 210.793629288673 2588.00005912781 144 110 85
245.501980185509 211.436048150063 2595.99995613098 139 108 87
253.54278087616 212.241098284721 2605.99994659424 140 112 91
261.237025260925 212.720051407814 2611.99998855591 142 115 96
269.784927368164 213.850259780884 2625.99992752075 138 116 102
-129.917591810226 216.53588116169 2749.00007247925 23 26 19
-121.26149982214 214.492678642273 2723.00004959106 22 25 18
-113.2902354002 213.473111391068 2710.00003814697 26 29 22
-103.826403617859 209.302335977554 2657.00006484985 20 23 16
-96.2506458163261 208.597213029861 2648.00000190735 20 23 16
-89.8330733180046 210.49140393734 2671.99993133545 21 24 17
-82.2956636548042 209.864512085915 2664.00003433228 23 26 19
-74.3791237473488 208.055630326271 2641.00003242493 23 26 19
-66.9947490096092 207.506880164146 2634.0000629425 22 25 18
-59.6256069839001 206.87909424305 2625.99992752075 19 22 15
-52.9191754758358 208.693251013756 2648.9999294281 13 16 9
-45.4833135008812 207.749769091606 2637.00008392334 12 15 8
-38.2289253175259 207.436248660088 2632.99989700317 12 15 6
-30.7839903980494 205.704361200333 2611.00006103516 13 16 7
-23.6039832234383 205.232694745064 2605.00001907349 16 19 10
-16.5642742067575 206.10012114048 2615.9999370575 18 21 12
-9.39240492880344 205.391570925713 2607.00011253357 21 24 15
-2.2766082547605 205.312997102737 2605.99994659424 18 21 12
4.82260482385755 204.76146042347 2598.99997711182 19 22 13
11.8790064007044 204.130873084068 2591.00008010864 17 20 11
18.8331808894873 202.869713306427 2575.00004768372 14 17 8
25.9911958128214 203.893050551414 2588.00005912781 15 18 9
33.7692573666573 208.303764462471 2644.00005340576 17 20 11
40.9537777304649 208.144754171371 2641.99995994568 19 22 15
47.6896949112415 206.094682216644 2615.9999370575 18 21 14
54.5978955924511 205.226108431816 2605.00001907349 15 18 11
61.7301017045975 205.302625894547 2605.99994659424 14 17 10
69.0524354577065 205.930352210999 2614.00008201599 14 17 10
76.0975554585457 205.691233277321 2611.00006103516 12 15 8
82.7435031533241 204.506456851959 2595.99995613098 11 14 7
89.7571220993996 204.345613718033 2594.00010108948 11 14 7
96.9087481498718 204.499542713165 2595.99995613098 12 15 8
103.710420429707 203.944280743599 2588.99998664856 9 12 5
109.660521149635 201.892077922821 2562.99996376038 6 11 4
117.835089564323 203.935787081718 2588.99998664856 9 17 6
125.475645065308 204.876363277435 2601.0000705719 14 17 10
132.008865475655 204.005002975464 2589.99991416931 16 15 10
139.072224497795 203.99983227253 2589.99991416931 17 16 11
146.135061979294 203.994408249855 2589.99991416931 17 18 12
153.019860386848 203.752428293228 2586.99989318848 15 16 8
160.5064868927 204.297825694084 2594.00010108948 17 18 10
169.774904847145 206.969290971756 2628.00002098084 14 10 1
176.938876509666 206.962734460831 2628.00002098084 16 6 0
183.541774749756 206.325948238373 2619.99988555908 23 8 1
190.828144550323 206.476420164108 2621.99997901917 108 81 72
197.59613275528 206.075415015221 2617.00010299683 94 58 44
203.788489103317 205.122977495193 2605.00001907349 120 79 61
210.157603025436 204.406604170799 2595.99995613098 136 98 79
216.811582446098 204.005002975464 2591.00008010864 139 101 78
223.869517445564 203.99683713913 2591.00008010864 136 100 76
230.74834048748 203.830972313881 2588.99998664856 142 108 83
238.258436322212 204.215988516808 2594.00010108948 142 108 83
245.983973145485 204.758182168007 2601.0000705719 140 109 88
253.941357135773 205.457523465157 2609.99989509583 139 111 90
261.546730995178 205.84174990654 2615.00000953674 138 111 92
269.794821739197 206.697940826416 2625.99992752075 131 112 97
-132.238313555717 212.768897414207 2798.00009727478 17 18 10
-121.978625655174 208.287015557289 2739.00008201599 23 26 19
-112.751044332981 205.097436904907 2697.00002670288 27 30 23
-103.830330073833 202.059581875801 2657.00006484985 21 24 17
-95.8544537425041 200.542315840721 2637.00008392334 20 23 16
-89.0295580029488 201.382294297218 2648.00000190735 19 22 15
-81.7118138074875 201.157331466675 2644.99998092651 18 21 14
-74.5227634906769 201.236292719841 2645.99990844727 19 22 15
-66.5903314948082 199.109449982643 2618.00003051758 21 24 17
-59.4235211610794 199.03576374054 2617.00010299683 20 23 16
-51.9422739744186 197.744891047478 2599.99990463257 16 19 12
-45.0193285942078 198.507249355316 2609.99989509583 15 18 11
-38.4481810033321 201.398998498917 2648.00000190735 13 16 7
-31.0445576906204 200.259447097778 2632.99989700317 12 15 6
-23.6139465123415 198.206916451454 2605.99994659424 18 21 12
-16.4509303867817 197.599217295647 2598.00004959106 20 23 14
-9.35673341155052 197.523608803749 2596.99988365173 19 22 13
-2.27582175284624 198.132321238518 2605.00001907349 18 21 12
4.84320148825645 198.512554168701 2609.99989509583 18 21 12
11.9298929348588 197.903767228127 2601.99999809265 18 21 12
18.7827032059431 195.31723856926 2568.00007820129 18 21 12
26.1830128729343 198.282659053802 2607.00011253357 14 17 8
33.6045026779175 200.106874108315 2631.00004196167 12 15 6
41.1413609981537 201.854810118675 2654.00004386902 19 22 15
47.892052680254 199.799612164497 2627.00009346008 17 20 13
54.8095740377903 198.885008692741 2615.00000953674 16 19 12
61.6850815713406 198.046237230301 2604.00009155273 17 20 13
68.4738755226135 197.131142020226 2592.00000762939 19 22 15
75.5466744303703 197.128444910049 2592.00000762939 16 19 12
82.3641568422318 196.517094969749 2584.00011062622 13 16 9
89.9335369467735 197.654619812965 2598.99997711182 12 15 8
98.7043380737305 201.073348522186 2644.00005340576 12 15 8
104.595653712749 198.55996966362 2611.00006103516 11 14 7
110.605999827385 196.57875597477 2585.00003814697 11 16 9
117.111273109913 195.661976933479 2572.99995422363 11 19 8
124.949678778648 196.950256824493 2589.99991416931 14 17 10
132.421582937241 197.553813457489 2598.00004959106 14 17 10
139.453336596489 197.472751140594 2596.99988365173 17 16 11
146.591931581497 197.543546557426 2598.00004959106 17 18 12
153.617084026337 197.46196269989 2596.99988365173 19 20 12
161.811903119087 198.824808001518 2615.00000953674 9 10 2
169.910430908203 199.959188699722 2630.00011444092 16 12 3
177.282109856606 200.180917978287 2632.99989700317 17 7 0
183.898836374283 199.566140770912 2625 33 18 11
190.907940268517 199.407279491425 2622.99990653992 113 86 77
197.527885437012 198.868080973625 2615.9999370575 91 55 43
203.874230384827 198.10064136982 2605.99994659424 129 90 73
210.651054978371 197.789117693901 2601.99999809265 112 74 55
217.739969491959 197.781398892403 2601.99999809265 103 65 44
225.000947713852 197.925493121147 2604.00009155273 116 80 58
231.826305389404 197.689309716225 2601.0000705719 123 88 66
238.910034298897 197.680935263634 2601.0000705719 124 92 69
246.181979775429 197.82429933548 2602.9999256134 124 97 76
253.950476646423 198.347449302673 2609.99989509583 132 107 87
261.956185102463 199.022278189659 2618.99995803833 131 108 90
270.318180322647 199.924811720848 2631.00004196167 126 109 93
-132.243126630783 205.14141023159 2798.00009727478 17 20 11
-122.606568038464 201.846644282341 2753.00002098084 24 27 20
-112.713359296322 197.67165184021 2696.00009918213 26 29 22
