ply
format ascii 1.0
comment KinectMotionCapture
element vertex 765
property float x
property float y
property float z
property uchar red
property uchar green
property uchar blue
end_header
11.8744469334464 1029.49859270579 2702.00841003955 191 155 139
12.1572775067458 1031.59844402186 2691.10786302507 182 148 138
13.8274967769054 1034.26603809472 2678.74586615588 157 124 119
14.7373422779524 1036.64453824393 2667.06623042576 151 126 122
9.92749901012813 1036.73824558903 2661.10957930453 162 151 149
-354.839138092087 974.596074435314 2577.93133317387 251 255 255
-361.987944945485 973.571042435857 2575.21418626901 250 255 255
-366.087837736542 973.932492893004 2568.53851294193 249 255 255
-372.624488407765 973.183939743161 2565.03120043125 248 254 254
-380.364243148325 971.881328684815 2563.11929342807 248 254 254
-386.887994882619 971.132804847858 2559.62133178052 245 251 251
-391.010662033761 971.490259550505 2552.9291285945 242 248 248
-395.743812870746 971.569638323752 2547.02829535307 238 244 244
-401.080672697338 971.371539378986 2541.92345173113 239 245 245
-405.829367769743 971.448573148759 2536.01104378678 238 244 244
-411.177479367085 971.248487296405 2530.89803345203 233 237 238
-415.353662178391 971.598918162072 2524.16700004476 230 234 235
-421.301110639317 971.12111134452 2519.85314754487 235 234 232
-424.329689989386 972.019431123647 2511.48644380766 240 236 233
-426.217331865484 973.465588105823 2501.47953163919 142 131 125
-426.397817632399 975.733713794798 2489.0089324357 147 130 122
-430.085387465229 976.348833176708 2481.39840907436 137 119 109
-434.365517589231 976.687378009511 2474.59196183667 140 117 103
-437.513348045446 977.573169415984 2466.138746969 127 104 90
-443.535935665814 977.085153165294 2461.77037277609 103 80 64
-452.400166023613 975.226071639122 2461.51085850327 102 79 63
-460.676062657561 973.642196259732 2460.44390276971 96 74 60
-467.242498967528 972.880476254236 2456.91493132113 81 61 50
-463.693840028514 977.042373045636 2438.5114156644 84 67 59
-462.458059070741 980.104003164329 2423.36611332602 99 84 77
-503.757209400513 972.173639543838 2418.08980847539 91 87 76
-503.223563312062 974.946722030572 2403.66938314152 64 58 44
-505.462850474678 976.354414605743 2393.40736097056 84 77 59
57.8474984021442 1003.94538402214 2851.30780710139 16 19 10
94.34337112345 1019.51365830112 2808.67624313148 7 10 1
97.3417531139935 1022.48036739973 2796.04324373305 18 18 8
67.13232014227 1012.8676145364 2813.61920748684 31 17 8
66.364540086032 1014.40574743516 2804.42457292677 22 0 0
65.5657378056254 1015.94166590687 2795.20743847783 190 152 141
64.7359536417955 1017.47542260501 2785.96753917359 209 162 152
60.1511533577712 1017.58115794315 2780.17438191515 106 56 45
55.5574284434623 1017.68639890358 2774.37445802062 151 103 91
50.954274810779 1017.79082664724 2768.56798940483 228 184 171
50.0329098836643 1019.31817992708 2759.26166881628 204 168 152
43.9285792157094 1018.85168091486 2754.83414633275 201 170 152
37.089949275404 1018.10083939027 2751.1082054913 110 81 65
28.792330985052 1016.78224988855 2748.79181036152 60 29 11
26.3422641884947 1017.73627772091 2740.84476489269 177 146 128
20.9611090779558 1017.55334992212 2735.70788751896 175 142 125
17.0249558048248 1017.93738514147 2729.15102685908 183 150 131
15.9662064854929 1019.4541568061 2719.74535427173 192 157 138
11.9939374655447 1019.83538573481 2713.16229832181 185 150 131
10.8813581467628 1021.34785631296 2703.71758143323 191 155 141
10.4538535661742 1023.14104013016 2693.53558060425 190 154 140
16.4161199432789 1027.47630108593 2676.882618612 177 141 129
16.6090932114624 1029.54479620064 2665.91677329405 159 129 119
8.24719637701454 1028.2206409571 2663.55375308431 182 164 154
-329.472115937337 969.75376359489 2593.82582837547 253 255 254
-337.881123587392 968.183719190558 2592.66244768221 253 254 255
-346.889751967827 966.339216734488 2592.29803557003 252 253 255
-354.646997843227 965.046121817334 2590.37349707106 252 253 255
-361.778690783315 964.028390873418 2587.66879338847 247 251 252
-366.460037629593 964.109924699553 2581.8052304042 248 249 251
-368.10949430785 965.563010369326 2571.97101886393 244 248 249
-373.426019251673 965.366678264476 2566.88092538187 240 244 245
-379.954634112049 964.620926882276 2563.37945239347 238 239 241
-387.08067787867 963.600965112729 2560.67883261772 235 236 238
-391.80044346157 963.676638377241 2554.78738938647 212 216 217
-397.126463335554 963.477326555995 2549.69039773406 213 217 218
-400.672117647524 964.097669577186 2542.18277842118 221 222 226
-406.013678455882 963.895953276072 2537.0742141576 215 219 222
-410.769393149056 963.966454355136 2531.156978928 210 214 217
-415.533875213288 964.035697126653 2525.23308719343 207 211 212
-420.307270891563 964.103739845505 2519.3027277113 191 193 192
-423.337902718565 964.988102888177 2510.93475987316 182 183 178
-425.227170823568 966.41530882589 2500.92657282587 151 147 138
-427.147358393974 967.839293016299 2490.89595527947 131 122 113
-428.521071417411 969.532403821652 2480.02752086765 123 113 103
-433.38083009587 969.590473341958 2474.03479896442 100 90 78
-437.103436232032 970.190795271146 2466.39850761005 91 81 69
-445.979967002719 968.344876558553 2466.13014317767 80 74 62
-455.402818020939 966.228817727755 2466.69940785505 87 81 69
-463.100320940864 964.928016455077 2464.81813926528 107 103 92
-465.707935474702 966.066904424531 2455.5227838033 107 103 92
-514.873392933023 959.125542660706 2435.90318917082 98 98 86
-501.178273212008 968.339935737901 2401.41318854402 101 99 84
-508.86560339984 967.034163419898 2399.53926920551 115 114 96
35.5615533871108 979.547852003185 2919.01705197082 19 22 13
102.824402535034 1006.10918559183 2850.57514003898 20 23 14
40.8393800396083 984.908195336047 2895.69763963685 17 20 9
95.5285668810846 1010.50617472307 2818.13563750785 15 18 9
103.8774302904 1015.42780229665 2800.74537296385 19 22 13
90.9781468988782 1012.41156440869 2802.49534240332 13 15 4
66.8130140195018 1005.15224949343 2814.58369244832 30 20 10
67.5517262930878 1007.23777211793 2804.01355122973 20 4 0
65.2532711470952 1008.18933582083 2796.17669427768 207 173 163
61.4384616029824 1008.5741799194 2789.70780237369 212 169 160
56.8652067583684 1008.6757022404 2783.92269883389 100 50 39
56.738786378737 1010.47016673756 2773.95926133156 101 51 40
52.8744950676039 1010.85165944313 2767.4544820632 227 181 166
48.9964888835681 1011.2319216034 2760.93975435783 209 172 154
40.6882978861978 1009.92083972863 2758.61573287471 195 162 143
35.3284140046064 1009.73718564019 2753.49427178999 153 120 101
30.6955153858763 1009.8345930761 2747.66591036277 100 67 48
26.7827731700536 1010.21245943713 2741.12598963146 141 108 91
22.8564473137216 1010.58934485941 2734.57621686061 170 137 120
17.4660840129359 1010.40328134191 2729.43264839022 183 150 133
14.9626760205503 1011.33984430319 2721.44684628716 188 152 136
9.55368040108695 1011.15227136008 2716.2897632058 191 155 139
9.16946439615174 1012.92716590051 2706.13934502737 181 145 131
10.1822540588747 1015.2598180345 2694.53410348775 184 148 134
17.5775870988035 1020.10957595745 2676.45224039569 169 133 119
19.9054529130462 1022.99352771194 2663.33275032927 124 95 81
14.3730088631036 1022.79601381304 2658.08612649322 95 75 64
-320.057065479589 960.052290826394 2617.89355022412 254 255 255
-324.705811763176 960.134613603408 2612.05362407966 253 254 255
-328.739936637505 960.488845794084 2605.42559075703 253 254 255
-337.760385860759 958.65809305483 2605.05297358567 252 253 255
-343.662058416408 958.192298986426 2600.77236586336 252 253 255
-349.563986834752 957.725886752137 2596.49156952959 249 250 252
-356.696033021688 956.71421070206 2593.78634596304 248 249 251
-363.206907637298 955.974805828754 2590.29805988 245 246 248
-366.660598120314 956.59553881713 2582.85681460758 241 242 244
-370.132287606922 957.214226605709 2575.40280559102 239 240 242
-374.834180047348 957.287534548293 2569.52460147838 232 233 235
-379.544954788359 957.359694360389 2563.63965810396 227 228 230
-385.468223080943 956.887729754125 2559.34336391609 221 222 224
-388.993599656568 957.499977256227 2551.85040336163 205 206 208
-394.926016946124 957.026315578133 2547.5474682746 210 211 213
-399.073222567133 957.364396940839 2540.83737849831 214 215 219
-403.826643531843 957.430293973896 2534.92148824401 214 215 219
-407.998346961525 957.765315352219 2528.19362398398 195 199 202
-412.771960358005 957.828332311368 2522.26337569384 191 195 196
-418.140724654424 957.620061284208 2517.13535231725 187 191 190
-422.929789004366 957.680740796762 2511.19359698456 173 175 170
-425.982113070217 958.549415858852 2502.8095300398 155 152 143
-430.215915941417 958.876479042915 2496.03660825953 104 100 89
-432.730753556877 960.010167903176 2486.80877690815 105 97 86
-438.148090648837 959.795024132556 2481.64521278666 107 101 87
-438.985727619984 961.731227985559 2469.93188050761 109 105 93
-518.261490175661 952.375389392467 2428.47245332317 123 124 110
109.260987259098 999.159417672177 2855.20595572435 15 18 9
79.4111734417315 989.969908281557 2871.8094277832 16 19 10
148.641140860134 1017.09185103845 2801.09066262034 16 19 10
59.3122281384879 987.761356339247 2860.93349101377 16 18 7
82.2773162090025 997.981319456704 2830.69821394951 15 18 11
87.6358561728718 1001.73185847962 2816.07500379971 2 7 0
93.6843866385879 1005.75819177369 2800.71804833595 16 19 10
72.4974012570421 1001.46515197215 2800.15902284573 27 17 5
68.6878967513018 1001.84242016675 2793.69393830383 29 3 0
65.6122149826199 1002.4986750695 2786.52689954104 183 149 137
58.0481004937101 1001.47536685852 2783.50869599942 176 132 119
57.9208015341957 1003.24819266363 2773.54451199154 206 160 147
51.8328139368114 1002.78349557291 2769.12884607573 206 160 145
47.9597625682788 1003.15639243253 2762.61767291516 138 96 80
39.6554939683531 1001.85393270601 2760.29653853454 165 128 110
35.0343926224919 1001.94703839685 2754.47670741299 177 144 125
29.6719545364224 1001.76060840531 2749.35338067044 160 127 108
27.2235492876152 1002.68818484381 2741.40740571152 126 93 74
24.752382310695 1003.61380819924 2733.44521487439 155 122 103
17.1821738744127 1002.59041415888 2730.42229878851 185 149 133
14.6814870877776 1003.51376556814 2722.43869690348 185 149 133
9.27502958379733 1003.32393838589 2717.283147861 186 150 134
11.0501614047216 1005.91065479786 2704.99679467751 192 156 140
11.3436567351561 1007.93860211129 2694.10361456513 187 151 137
20.1682115719497 1013.29162276461 2674.59030072127 185 149 135
21.7790444487678 1015.86550708031 2662.18477872978 173 141 128
17.6620307607727 1016.21923770946 2655.49665499668 96 74 63
-305.311391844013 954.825542104688 2623.61608822428 252 253 255
-313.743029944667 953.27809960189 2622.43641671752 253 254 255
-322.157354091962 951.731522028068 2621.26930084608 253 254 255
-327.423632374632 951.53848379354 2616.21564892512 254 255 255
-332.07058671712 951.615096843878 2610.37699287611 253 254 255
-339.835446217351 950.339368026576 2608.44702306074 250 251 253
-344.489587042712 950.414323502983 2602.603148981 249 250 252
-352.239534229244 949.138727360724 2600.6839900921 242 243 245
-357.516045927837 948.942291121327 2595.62290253797 239 240 242
-364.022958319574 948.20612432091 2592.13721068004 237 239 238
-366.861537387023 949.085673137959 2583.90844160091 231 232 234
-370.33084741586 949.693620570974 2576.45610310204 228 229 231
-375.636779927659 949.492819013319 2571.37337118433 221 222 224
-379.739238478872 949.828610750007 2564.69570791648 215 216 218
-385.058930268439 949.625510019478 2559.60328443594 205 206 208
-387.984504191404 950.495322811352 2551.3114016146 200 201 203
-393.91959355767 950.021444665245 2547.00652838568 206 207 209
-397.473643788602 950.619350416259 2539.49241456575 201 202 204
-401.638629948732 950.947328503799 2532.76938412212 208 209 211
-405.817104770411 951.273686523363 2526.03686173092 190 194 195
-410.008766740379 951.598308696506 2519.29447642508 182 186 187
-414.800149102408 951.654080662829 2513.35101585827 186 190 189
-419.600416828819 951.708415889764 2507.40110682382 183 185 180
-425.573654000342 951.227444510376 2503.06854350813 172 169 160
-431.546919263955 950.745753929434 2498.73595618499 90 86 75
-437.520206264723 950.263583637019 2494.40335067429 108 102 90
113.550993403919 993.143336166068 2852.10962799308 17 20 13
110.613029595686 993.797375503268 2845.04270717361 15 18 9
88.4781746824719 987.483050493206 2854.90223124012 15 18 9
89.3844171270723 989.531900381327 2844.45335046313 14 17 8
42.4003642942696 975.817071078423 2867.13994718251 16 19 12
44.0859705538648 978.146157871855 2856.02242669343 13 18 11
56.3722561835389 986.126878415236 2825.44561884405 22 22 10
74.4382614966881 994.549702304632 2799.06059800213 9 3 0
75.1225720618618 996.582843500442 2788.45075450186 22 0 0
68.2927621584986 995.841259862776 2784.73125438644 22 0 0
63.7027394033494 995.931207603626 2778.93393680292 166 124 110
59.1035175516312 996.020469858879 2773.12994712585 181 135 122
53.0133983469043 995.55583905946 2768.71273629816 221 175 162
49.1386643133378 995.920713420838 2762.20030270227 192 149 133
42.3044566618493 995.179072235605 2758.47761427389 174 132 116
36.9429131412762 994.990374346671 2753.3546300566 167 132 112
30.8443137218277 994.525176042916 2748.93126886576 165 130 111
26.9347091230352 994.887464474885 2742.39354375471 148 113 94
25.1941234552175 996.075631731112 2733.72726010735 158 123 104
19.7998343746679 995.884400574261 2728.5805251033 187 152 133
16.5701381377197 996.518629935416 2721.30202087893 192 156 140
13.3222461928773 997.151325497491 2714.01031842861 187 151 135
12.9317843884027 998.882688153181 2703.8548575622 195 159 143
13.2220123800209 1000.88594591369 2692.95947830575 186 150 134
15.6155807627112 1003.71015929422 2679.88731484672 187 151 135
17.9558039022618 1006.53005111512 2666.77645839293 191 159 144
9.59212886202643 1005.23096370709 2664.41227609739 106 82 70
-296.123041595606 945.199501880856 2647.51985233387 237 238 240
-302.000905269452 944.739758920649 2643.25653482815 253 254 255
-304.703371239502 945.622079411691 2635.12615660017 251 252 254
-311.226019506337 944.891996677545 2631.62938276458 254 255 255
-317.113754741585 944.429960415394 2627.3588975373 253 254 255
-323.630317866151 943.699284898586 2623.86623747161 250 251 253
-329.516501171248 943.236298971411 2619.59687246137 244 245 247
-334.778945438461 943.040404912689 2614.54598543472 240 241 243
-341.289796311336 942.308758300407 2611.0574613834 234 235 237
-345.317788238134 942.646161621824 2604.43378872378 232 233 235
-351.211755173968 942.180513844039 2600.15876771072 222 223 225
-355.26013419318 942.515130451118 2593.52030189747 217 218 220
-361.161230731025 942.0478894512 2589.24010441377 213 215 214
-365.229934527502 942.37990362361 2582.58689155388 212 214 213
-370.529493514813 942.177418229732 2577.50906588815 207 209 208
-375.833659516758 941.973962178139 2572.42789558262 199 201 200
-379.329556056502 942.567975917299 2564.95591890069 199 201 200
-384.047546231849 942.628090744604 2559.06597837073 200 202 201
-387.574820594842 943.218437756035 2551.57153113942 201 203 202
-392.91264033136 943.010094240899 2546.4656452905 195 197 196
-395.873532697256 943.862408610292 2538.14807074318 182 184 183
-399.449771621203 944.447056375576 2530.61809918887 191 193 192
-401.861730511684 945.559973963521 2521.46444713316 173 177 176
-404.889014604598 946.405166933585 2513.09841325774 168 174 172
-411.457990799831 945.659909693496 2509.56768397927 149 154 150
-417.438268873039 945.178905616887 2505.23001639808 168 170 165
-426.329518527831 943.375646470883 2504.95119801161 166 166 158
-434.618654919521 941.837597418388 2503.87487661449 102 102 92
142.537489594341 995.942174133043 2827.43713982246 19 22 15
94.1174780663112 980.286674126775 2860.18916265295 15 18 9
87.3743690808642 979.553059773043 2856.53225977219 14 17 8
11.0085706702443 953.720789367199 2914.6738324781 15 18 9
18.969184887407 958.240860771048 2898.23512047709 13 14 6
132.379619658456 1004.50771922578 2767.00646604396 12 18 8
41.7218809592623 973.237544375625 2839.46246161761 5 9 0
74.124130111723 986.798611464941 2800.02865328327 27 29 15
84.5588195844145 992.37812975551 2780.44867102494 20 9 0
75.4600709707991 990.81422272109 2778.78531347439 39 17 3
70.1053781286087 990.623212110376 2773.66728374566 105 67 54
62.5161719114313 989.60934200209 2770.63093848058 139 97 83
56.4172288712057 989.14423534885 2766.20732865594 166 120 105
50.3178973657237 988.679156969407 2761.78343736776 172 124 110
43.4815844339904 987.940501296824 2758.05894342199 176 130 115
38.1177385423976 987.748938776854 2752.93457013391 179 142 123
32.0169593700799 987.283802864068 2748.50962910972 168 131 112
27.3756783834092 987.364938098932 2742.67510870318 160 123 104
22.7249686783635 987.445260117017 2736.83404357539 176 139 120
19.5161840418647 988.070429664286 2729.57065272672 179 144 125
18.4593826478237 989.512022181629 2720.16601143479 180 145 126
17.3714199924397 990.951199418535 2710.7384739686 180 145 126
15.5329626274745 992.115605864771 2702.00112068611 186 151 132
14.3846155789715 993.550070523855 2692.52978541454 185 150 131
13.2047410155218 994.981931717185 2683.03587646452 192 156 140
14.1307404499584 997.226659748999 2671.36727348331 183 150 135
9.33049734231783 997.2947484062 2665.41774643639 180 152 140
0.273103804917518 995.733355180745 2663.78438079609 249 230 223
-270.321026196277 942.563685075827 2651.3893155489 104 106 105
-278.800991456754 941.037180961244 2650.17471670969 119 120 122
-289.831429152458 938.446137041807 2652.04656933927 253 254 255
-296.348941469046 937.72058234178 2648.55324712197 252 253 255
-302.862422563245 936.994936009018 2645.06284675968 252 253 255
-306.195497835399 937.598326840893 2637.70924466325 251 252 254
-313.345137547508 936.605728006056 2634.99165828171 252 253 255
-319.224456050989 936.144313849229 2630.727277674 247 248 250
-325.732728085915 935.417177706275 2627.24064592376 241 242 244
-330.357675482348 935.485128755391 2621.41819378188 232 233 235
-333.743026320711 936.081824828609 2614.02636762459 228 229 231
-339.012653162654 935.882242222841 2608.97025511301 221 222 224
-343.667021574658 935.946485119271 2603.12616178953 219 220 222
-350.183574761201 935.21594025356 2599.63380406692 211 212 214
-354.23413537138 935.542374456207 2592.99371532633 206 207 209
-359.524546338847 935.339006712571 2587.92222230912 203 205 204
-363.597815860397 935.662536209842 2581.26595115815 201 203 202
-368.901931011359 935.456982885836 2576.18451261547 197 199 198
-373.604237532759 935.514006965511 2570.30592584572 189 191 190
-377.1065959209 936.096683592337 2562.82920740727 190 192 191
-381.831365810536 936.150752756177 2556.93432149527 192 194 193
-385.965052342627 936.466688971745 2550.23391982551 187 189 188
-391.307732181249 936.255273620831 2545.12478970243 187 189 188
-393.081546791126 937.619064612318 2535.19997614845 187 189 188
-396.073025406 938.454791255673 2526.85985047938 190 192 191
-398.495577271318 939.550421145341 2517.69843178455 165 169 168
-402.711561169064 939.856942140985 2510.93832330817 159 165 163
-409.287920999217 939.113725830369 2507.40254628991 139 144 140
-415.859787408977 938.370385228018 2503.8697315414 135 140 134
-425.921228979126 936.056947299137 2505.21010516465 143 144 138
-437.692146731768 932.961082348749 2509.01268423868 110 110 102
122.136233076591 981.029280011212 2845.92064164418 19 22 15
83.003222823816 968.809072628704 2870.60079286944 14 17 8
80.1303615438855 969.447296429978 2863.58098615328 14 17 8
-18.0028632783191 937.69502358069 2931.85043700937 14 15 7
-5.44575395739866 943.805572703958 2911.34136423414 13 15 10
51.2032973860821 969.168692520321 2831.49351573358 14 20 6
74.5619625053653 979.324761152443 2800.30819080396 10 12 0
87.2500408417838 985.66074970618 2778.66016552904 31 23 4
75.9009274348887 983.291985926456 2779.06679812121 32 13 0
70.5465143721793 983.098548484577 2773.94895891822 111 75 59
62.9569431090218 982.090384209754 2770.91237792469 106 64 48
57.5991610621589 981.89674394478 2765.79238992287 109 63 48
50.0199266802825 980.889585945689 2762.76301297516 115 66 52
43.1853922252015 980.153832923425 2759.04011746459 149 102 86
40.0277949204142 980.772444714123 2751.81350571172 181 144 125
33.9226246020643 980.307132300983 2747.38538055806 169 132 113
30.0071622116636 980.653064690039 2740.8436206393 167 130 111
23.8942886091058 980.187128224968 2736.40990804957 179 142 123
22.8612953748835 981.611819808609 2727.0221457172 173 138 119
21.0731332045215 982.764050408783 2718.32119082156 176 141 122
19.2581976178019 983.91410170527 2709.60052178941 174 139 120
14.5397825148303 983.983850248383 2703.71002754 186 151 132
14.113580613802 985.66913313766 2693.52871898879 181 146 127
11.5075165449521 986.543968841113 2685.46818664439 184 148 132
16.0042219929313 990.107591779007 2670.21926749473 184 151 136
14.751628312804 991.514742611114 2660.67251774227 182 152 141
7.0944038149765 990.500728848524 2657.58656936932 132 112 105
-269.190204171559 933.663895654517 2662.04516984424 183 185 184
-277.661917082295 932.149471140997 2660.83661449503 243 245 244
-282.250761566247 932.218842974898 2655.04004684442 254 255 255
-291.343407881663 930.44132809924 2654.61536212046 234 235 237
-296.575064848202 930.246125482389 2649.58650249036 244 245 247
-303.724663872729 929.259982275741 2646.86897830315 246 247 249
-308.959434521434 929.063462385613 2641.83814930318 249 250 252
-314.198877454317 928.866075679461 2636.80363439708 234 235 237
-319.443191583441 928.667886503759 2631.76587866922 220 221 223
-324.063495786511 928.731254966659 2625.9467692656 214 215 217
-328.066208993201 929.056068911599 2619.34135792199 214 215 217
-332.082499035943 929.379125799439 2612.72609554034 209 210 212
-336.112343009775 929.700666460996 2606.1009999448 201 202 204
-341.395629202423 929.496800514905 2601.03466930541 201 202 204
-345.448242269535 929.815431595682 2594.39334764766 197 198 200
-350.129766035762 929.870962529719 2588.52952470056 194 195 197
-354.820377067714 929.925100111922 2582.65910714301 189 191 190
-360.742450683036 929.455681784263 2578.36369189958 183 185 184
-367.273814839472 928.724594246782 2574.86059464007 183 185 184
-373.194119285874 928.254124365232 2570.56645657862 190 192 191
-376.696316211499 928.825940697957 2563.08980017827 188 190 189
-379.614201295862 929.656228527697 2554.80329095839 179 181 180
-381.954090610377 930.744455465474 2545.70175861332 180 182 179
-386.712452601235 930.789350962445 2539.78247460382 172 174 171
-390.883960629307 931.0930226675 2533.05459320232 159 161 158
-394.475231403413 931.65487480962 2525.51331479768 135 137 134
-396.90190849488 932.733811062979 2516.34911555883 157 159 156
-401.711373964498 932.772405472524 2510.3924591537 147 152 148
-408.290424096792 932.031768818368 2506.85445046745 143 148 144
-416.619175081349 930.513571654721 2505.74951216028 133 138 132
-426.095310055125 928.478331165934 2506.28055952197 110 113 106
100.518526419983 969.13569822572 2846.24591549526 21 24 17
133.532515641293 984.160782439881 2797.38210413974 11 12 4
38.5387396825902 953.804914998023 2862.99404055101 18 19 13
46.2582411772505 958.209694605007 2846.38025129321 13 16 5
41.8270184979215 958.295659167103 2840.69803109802 18 22 8
73.495415242907 971.31163819176 2801.96480762004 21 22 6
86.1920951603565 977.580563724683 2780.32238365032 31 20 2
77.0900482998527 976.038614194733 2778.65674634931 48 27 10
72.4790368536521 976.111219096332 2772.84442024784 139 102 84
65.6284448188384 975.377142063413 2769.10959826723 130 87 70
61.0054800779301 975.449017590094 2763.28860327291 119 71 57
53.417166309814 974.446859465721 2760.25266980969 132 80 66
45.8369072514628 973.445184989598 2757.22287230428 151 104 86
42.6731715661246 974.052496230841 2749.99204794586 174 136 115
37.2939379584616 973.854897270668 2744.85619472122 174 136 115
34.1005446289229 974.459805911981 2737.60385873396 167 130 111
27.9767221856164 973.993340931595 2733.16220641887 171 134 115
25.4816958881143 974.863500957555 2725.18243851838 170 133 114
23.6880171415459 975.999143465054 2716.47710603994 166 131 111
18.9813993114427 976.064590263099 2710.59514209621 172 137 117
16.423151335816 976.929748115693 2702.56951811503 174 139 120
14.5595619840138 978.059786828319 2693.81347756256 174 139 120
13.3839161578044 979.454232505323 2684.32244459745 177 144 125
16.4531733394577 982.44429843049 2670.50590581533 175 142 125
15.9121935102564 984.098824639513 2660.24094202883 179 147 134
8.96042719021883 983.356143512834 2656.4330275453 154 131 123
-252.430191391211 929.186488626525 2665.52604200034 88 90 89
-266.79447735758 925.326565728334 2671.15016737151 235 237 236
-272.018244620283 925.131116466631 2666.12732038382 254 255 255
-279.186740856662 924.150850608159 2663.39612697437 254 255 255
-283.12465206944 924.476373707344 2656.83769557109 250 251 253
-290.929552808581 923.234800731448 2654.87887201319 237 238 240
-296.801565835543 922.775949945594 2650.61980028529 228 229 231
-304.587401709342 921.534846047735 2648.6747996311 248 249 251
-308.546771050128 921.856838484788 2642.10079488939 245 246 248
-312.519735865441 922.177191842446 2635.5169261958 205 206 208
-317.768728036489 921.975935221494 2630.4757637183 206 207 209
-323.651417692249 921.51382975703 2626.20893578875 212 213 215
-327.654087892557 921.830462283286 2619.60351418088 204 205 207
-329.796616137682 922.924103013428 2610.64508050884 202 203 205
-335.077665089502 922.718267531447 2605.58036171698 196 197 199
-340.363575334425 922.511451150736 2600.51240837858 194 195 197
-344.418235493947 922.821780876954 2593.86926621483 192 193 195
-347.255013484265 923.648184118185 2585.64153358213 192 193 195
-351.954590001565 923.696337940352 2579.76458644399 183 185 184
-358.497214274238 922.967733246967 2576.253044585 182 184 183
-365.644871735554 921.980373220843 2573.53692171496 185 187 186
-370.96317747356 921.767766021702 2568.44545486064 184 186 185
-375.076646965532 922.070165113926 2561.75964038652 182 184 181
-376.190998821486 923.659960186907 2551.0786991055 181 183 180
-378.541615609394 924.731018376532 2541.96959769997 173 175 172
-381.516799356034 925.542076526331 2533.64115957785 159 161 156
-386.897776555634 925.321524536739 2528.50422060161 129 131 126
-391.095920598622 925.614315830515 2521.75697507302 127 129 124
-395.898832099303 925.648482447975 2515.8050473522 141 143 138
-400.121473367062 925.93809431704 2509.04002715817 124 129 123
-406.705711078539 925.199795984993 2505.49856420614 111 116 110
-413.870241468466 924.204785604506 2502.76987656249 104 109 102
135.503417113259 973.772310523676 2816.04992373647 17 20 13
125.567913932435 971.967200380259 2815.01409430785 17 20 13
142.3734947475 979.527167004021 2790.18136204174 20 21 13
73.0299551670885 956.86670131226 2842.31337275841 15 14 9
94.3734852983913 966.028881728347 2813.36760359576 15 16 10
80.7447802762011 962.896506489879 2815.82324809915 14 15 7
64.1410818821959 958.700140289813 2821.05730808764 19 21 7
79.2003493431155 965.709121121333 2797.42621288669 18 17 0
81.3825398470764 968.178189309791 2785.43405484113 39 26 7
76.0353514349244 967.980149791635 2780.3217241081 69 46 28
70.6833451690958 967.781779717416 2775.2058991358 154 116 97
65.3265613903367 967.583131740622 2770.08631495776 144 101 82
61.4476212729702 967.915832267184 2763.57096379216 148 101 83
56.8158364138469 967.981844939442 2757.74325073238 156 105 86
51.4376706220054 967.781654370953 2752.60845294023 158 110 90
47.5243368909419 968.111797248121 2746.06786167805 173 132 112
41.3993490518649 967.645417089127 2741.62536497234 175 137 116
37.4651617058204 967.973990078546 2735.06964852782 166 128 107
32.7890730593619 968.036592881385 2729.20980143545 164 126 105
28.1034112579506 968.098370766472 2723.3433048574 160 124 102
23.408597302808 968.159396866662 2717.46987540283 158 121 102
17.9825748578244 967.955329375555 2712.30036566413 162 125 106
16.8684736181635 969.335762317204 2702.85387670596 167 132 112
15.0057755488873 970.449742403552 2694.09840092311 167 135 114
13.116071140403 971.561474931426 2685.3233362843 169 137 116
13.3379787027654 973.461984429541 2674.37761517343 168 135 116
11.3877553677222 974.568814249438 2665.55865424003 167 135 120
10.1188903337701 975.936709597774 2655.99991019918 175 151 141
-236.264645288582 924.413613769639 2669.81010155566 239 241 240
-244.144902650886 923.176988672677 2667.79667543541 236 238 237
-255.279340426874 920.645497690207 2669.59314335767 254 255 255
-265.076623574098 918.63400721588 2669.8915038533 249 251 250
-271.602888410137 917.91801940038 2666.39188520602 249 251 250
-278.125178904648 917.201875600346 2662.89514685365 228 230 229
-283.354431409914 917.002218112465 2657.86830218107 220 221 223
-289.873154464263 916.285407413826 2654.37414656422 212 213 215
-296.388024471454 915.568321775202 2650.88307718789 236 237 239
-302.898735359793 914.851144506505 2647.39472790443 220 221 223
-308.133994580172 914.649267837071 2642.36351759528 195 196 198
-311.473425812096 915.219045691703 2635.00513767161 189 190 192
-316.093410767598 915.272213466441 2629.18591355184 199 200 202
-320.093491885284 915.581408528918 2622.582331153 202 203 205
-324.734054382064 915.631953392282 2616.74817664886 194 195 197
-329.383910861413 915.681218003449 2610.90757273069 193 194 196
-335.287846459164 915.215897785363 2606.62532688102 192 193 195
-340.571690140728 915.006609733085 2601.55856464198 193 194 196
-342.769933563893 916.077943613902 2592.55992333678 187 188 190
-344.994806932275 917.146691607087 2583.54166984094 184 185 187
-349.701133072911 917.188802203491 2577.65979914667 182 184 183
-357.473994334468 915.950720939823 2575.72421937603 180 182 181
-363.40602843708 915.479958007274 2571.42157675211 182 184 183
-368.124230543303 915.519384305758 2565.53137779746 176 178 175
-370.431955534794 916.578791665615 2556.45301607973 168 170 167
-372.766347511201 917.635501007959 2547.35530922955 164 166 161
-375.72780903658 918.434586915187 2539.0367579967 151 153 148
-378.71165954378 919.231212241608 2530.70225852682 128 131 124
-385.293747989762 918.49815588995 2527.16208569786 118 121 114
-389.496320542122 918.782403522397 2520.41158657299 123 126 119
-394.895529220422 918.556550975535 2515.2614043604 97 100 93
162.055137647372 975.247951022017 2793.31111684048 15 18 11
112.990625762643 959.937305974784 2826.83271099564 18 21 14
27.780162204575 933.606989919514 2883.50051547607 15 14 9
85.7016667436268 955.376666036115 2821.8488791456 16 16 8
103.89103449736 963.37442919674 2795.55113335315 15 15 5
95.5219433382037 962.116723693313 2793.18323440492 19 17 4
84.1552423070842 959.804307389176 2793.57740276402 18 12 0
81.8236565963204 960.659976436775 2785.71574855617 59 42 24
77.2247843616438 960.722990094599 2779.91217384666 97 70 51
71.8709382694516 960.521951375311 2774.79470715072 155 114 94
65.7682932556241 960.057321490521 2770.36841610134 151 106 85
61.1482204841431 960.118916387505 2764.54946548395 157 110 90
57.9977577026076 960.705795108511 2757.32815944202 158 110 90
53.3548976903138 960.765712857926 2751.49238689536 158 111 91
49.4376217555264 961.087590445207 2744.94889598024 172 131 111
44.7737200498808 961.145933428805 2739.09815636154 172 134 113
39.3700716772161 960.941218632279 2733.9445683096 161 123 102
34.6896593570958 960.998164328158 2728.08185271658 159 121 100
30.0000434366723 961.054413815208 2722.21216723382 158 122 100
26.7490362909903 961.633446040492 2714.91793469255 156 119 100
22.0362208289826 961.687696618315 2709.03142124213 159 122 103
19.4728623871296 962.525555749314 2701.00195430151 164 129 109
16.1696128416784 963.100345399215 2693.66953416323 164 132 111
12.848037558626 963.673421843112 2686.32411510597 163 131 110
8.08215936179213 963.723145130758 2680.39940689206 162 129 110
6.86109006558411 965.075973677469 2670.87523468518 164 133 115
7.73464849827743 967.208067764166 2659.1677511125 168 144 134
6.44417742590742 968.555273993016 2649.59323959883 169 150 143
-227.993064737312 916.524751626759 2683.17690243176 238 240 237
-231.912256259984 916.838538461014 2676.63227636187 244 246 243
-239.134754121912 915.867210381041 2673.8616868162 252 254 253
-248.316362855661 914.126519749158 2673.37269785869 247 249 248
-258.12995939362 912.130555464133 2673.65931107244 228 230 229
-265.963272862202 910.905011733173 2671.67967723486 242 244 243
-271.836550316326 910.448030060519 2667.41969836415 242 244 243
-277.710250009243 909.990595975107 2663.15941111197 218 220 219
-283.584410183341 909.532527147432 2658.89878683207 209 210 212
-289.458999198325 909.074124859788 2654.63784998721 215 216 218
-295.333983078293 908.615212633154 2650.37662431335 242 243 245
-300.571304179309 908.4108389196 2645.34390665491 202 203 205
-305.177568341615 908.460647803843 2639.53490649452 182 183 185
-308.525437175104 909.018977873538 2632.1700575111 191 192 194
-313.7859727504 908.811349420924 2627.12049469894 196 197 199
-319.051260360811 908.602858049947 2622.06748266425 193 194 196
-324.321172109872 908.393503763271 2617.01081964491 188 189 191
-328.346144932584 908.691541516317 2610.38913620391 188 189 191
-333.630108133618 908.479924131214 2605.32257000115 189 190 192
-338.91876978995 908.267567655941 2600.25259404423 189 190 192
-342.975577269392 908.561473107566 2593.60781205026 180 181 183
-345.197752730208 909.614069855989 2584.59143251595 175 176 178
-349.902169832092 909.650849033202 2578.71121319694 176 178 177
-355.838826107594 909.180368835069 2574.40522129336 179 181 180
-361.16618784106 908.962118648077 2569.30686649479 180 182 181
-364.069513648551 909.753916048325 2561.03071664381 169 171 168
-366.390022820227 910.795977685467 2551.94299954154 162 164 161
-370.545621572201 911.078116081908 2545.22654204334 158 160 155
-374.714641271167 911.358629537632 2538.50034718361 128 130 125
-378.298739482 911.889588105137 2530.96440631813 128 131 124
-381.900654052343 912.418386423047 2523.41553905134 123 126 119
77.5843533217806 941.773519230294 2849.24390759824 27 28 22
86.0796349637867 946.294716244983 2831.95775649612 18 15 8
97.5283736658961 951.856651766372 2811.87745999865 21 17 8
107.36136451246 956.887857255074 2793.09355288211 21 17 6
99.7381555160648 955.89924203341 2790.03239172068 27 19 6
89.1121183904717 953.866377006745 2789.72986250459 37 25 9
83.0153985774258 953.402167385484 2785.30786888842 113 86 67
79.1632092896135 953.720714607649 2778.81154380375 143 108 89
72.312857484921 952.995379633067 2775.07694025134 147 102 81
66.2102025679543 952.530928177458 2770.65064292673 155 107 85
60.107018050199 952.066433818279 2766.2239614659 165 117 94
55.4824212181706 952.122404760167 2760.40170277404 164 118 94
50.8486141837459 952.177798446015 2754.57247000896 169 125 100
47.6757735724229 952.752229914139 2747.33487875286 172 131 109
48.1497129018167 954.624107123849 2736.57171582034 176 135 113
44.9295834805281 955.194886902431 2729.29982540017 167 129 106
41.6912069047717 955.764188458004 2722.01469974082 160 122 99
35.5292716407445 955.295173608431 2717.54540571304 155 117 96
31.5393016906782 955.603216242347 2710.94914727811 155 119 97
26.8135367010207 955.651160308276 2705.05321449501 153 117 95
23.5178669489673 956.215820477617 2697.72653227993 154 119 97
20.2040496345455 956.778950748204 2690.38668676036 153 121 100
16.1566552757888 957.08210238934 2683.74877537224 147 115 94
8.52945043795961 956.092815355443 2680.68500861424 147 115 94
9.44233036035724 958.200981587611 2669.00620330633 151 120 102
9.60183552397131 960.047744586114 2658.01497312826 143 119 107
9.72112170245509 961.891129910656 2646.99457024096 133 116 106
-211.106776008214 911.972449780612 2686.74922983798 247 249 248
-219.680149528985 910.497176827752 2685.46747133041 254 255 255
-228.898697172792 908.768419327621 2684.95147053533 253 255 252
-233.473455557307 908.820351966144 2679.16502586584 246 248 245
-240.032080644642 908.108922225598 2675.64226614637 250 252 251
-248.554418369884 906.635921324696 2674.39722160751 245 247 246
-257.713399452538 904.91014768043 2673.92471147466 223 225 224
-264.244613062694 904.19967359674 2670.42153328355 239 241 240
-271.421188874257 903.23571008771 2667.68427091522 230 232 231
-276.648232836285 903.031332523616 2662.65900335465 205 207 206
-283.814797239808 902.067234507621 2659.92929226538 196 197 199
-287.116839532835 902.620146592819 2652.59793095299 240 241 243
-292.358250298131 902.413340178941 2647.5619418105 234 235 237
-296.328046728778 902.710590379351 2640.98025292452 181 182 184
-302.855817852531 901.997000136363 2637.47984895834 177 178 180
-307.477883032 902.039723453547 2631.65906393659 184 185 187
-312.10910556224 902.081226972671 2625.83163437732 180 181 183
-316.749678955911 902.121385887799 2619.99771384393 179 180 182
-322.026468103678 901.90872623963 2614.93604850919 173 174 176
-326.058202707199 902.197981924901 2608.3097133031 175 176 178
-330.726111521382 902.234541899987 2602.45566403365 179 180 182
-335.403171084244 902.269763124227 2596.59497441016 179 180 182
-340.707864189006 902.052822013008 2591.51335369206 174 175 177
-343.552477353444 902.837845235793 2583.27973157648 173 174 176
-348.875245634804 902.618413830455 2578.18470068627 175 177 176
-353.591086742558 902.648412641899 2572.29616551772 174 176 175
-357.706301994593 902.927370220164 2565.60896676899 167 169 168
-359.405562681158 904.20471748497 2555.73776109056 152 154 151
-362.346191038547 904.979383063904 2547.43418857201 145 147 142
-368.323904353845 904.503306522689 2543.09840519749 128 131 124
-373.70110437246 904.276130244319 2537.96417082703 127 130 123
-378.484253116841 904.297320374532 2532.02650382155 104 107 100
123.826145747362 948.351665088413 2818.57227303119 22 25 18
113.935879765217 948.201134681693 2807.69644132119 26 25 20
108.600464397194 947.995744521097 2802.59260788666 20 16 7
116.134403779217 952.191254025939 2785.84294622196 21 14 4
104.711213972935 949.912856005647 2786.19633697174 35 26 11
93.318171070897 947.636850835368 2786.57188845304 56 40 24
84.9584443545059 946.396801097563 2784.21057294213 129 101 80
78.1082822240973 945.674240062589 2780.47641541622 150 113 94
73.5011177898732 945.726235921367 2774.66647922995 158 111 91
66.6522926283739 945.003892325039 2770.93299752569 164 116 94
61.2910217425582 944.797303736379 2765.81041480424 170 122 99
55.9248400130596 944.590317314615 2760.68427009231 174 130 103
50.5536992943521 944.38292915942 2755.55452846841 175 133 108
46.6483399676134 944.689641294749 2749.01959934077 176 134 112
48.5944627961663 947.051761960464 2736.85576908908 178 137 115
45.3748860197947 947.611713135083 2729.58422444399 171 130 108
43.5946488383139 948.683801751221 2720.88831412995 163 122 100
40.3344240335595 949.240698957482 2713.58728739266 154 116 93
39.2288926303506 950.565189014654 2704.14672753009 150 114 92
35.2034933023608 950.862415546418 2697.52473079731 146 110 88
31.1643309559422 951.158407632569 2690.89275070605 146 111 89
26.3934663328929 951.197331540238 2684.96437302437 144 112 89
22.328817532391 951.491139451745 2678.31390619536 139 107 86
14.6837455470843 950.506070283708 2675.23691404816 139 107 86
16.2915552314997 952.841212376856 2662.82799120356 141 110 92
16.4325231196805 954.662098172716 2651.82319188578 121 97 85
8.0522847154576 953.419202241517 2649.44728707511 108 91 81
-172.983326727116 910.018473389482 2699.55451155946 196 198 197
-177.569728917441 910.066714534379 2693.75960734851 254 255 255
-185.5341106502 908.851413762185 2691.68530568873 252 254 253
-197.514945859517 906.122626864787 2694.10253381206 251 253 252
-207.44875426828 904.152949598148 2694.30213602415 248 250 249
-217.356452499244 902.185018725831 2694.52038043015 249 251 250
-224.578873015245 901.225895008417 2691.75020324872 249 251 250
-231.792989393397 900.267025812072 2688.98604720323 254 255 253
-237.677778704253 899.811381815616 2684.71772991749 251 253 250
-242.24643282202 899.857894330118 2678.93568290725 227 229 228
-250.104861542432 898.647532560819 2676.93821386429 217 219 218
-256.64277382686 897.939682232013 2673.43019295108 245 247 246
-263.17687577537 897.231672990765 2669.9252279038 231 233 232
-269.706935667795 896.523502892241 2666.42289773744 206 208 207
-275.585790233073 896.065710948494 2662.15887179565 202 204 203
-282.755102921012 895.106816619618 2659.42690029704 197 198 200
-286.059111473917 895.648755785287 2652.0940580209 237 238 240
-290.02179314247 895.938935152428 2645.51749096263 208 209 211
-295.275042191674 895.727894154071 2640.47319302351 177 178 180
-301.169279610946 895.266466274989 2636.19799730585 176 177 179
-305.161861379843 895.552729805167 2629.59973519226 181 182 184
-309.799812761701 895.588251525086 2623.76739744586 177 178 180
-314.44711500699 895.622428641007 2617.92856872534 176 177 179
-319.103429235915 895.655506864482 2612.08290698243 173 174 176
-323.143786097232 895.935988277285 2605.4499823972 176 177 179
-326.574808901854 896.463396061183 2598.02499117506 177 178 180
-331.26539336819 896.492095288601 2592.15475850223 174 175 177
-337.202114699181 896.023222903258 2587.84872758242 172 173 175
-341.906389798174 896.049727289698 2581.96826468348 173 174 176
-347.848103689546 895.579315318797 2577.6586067518 175 177 176
-351.342352797119 896.098972339167 2570.18774217418 160 162 161
-357.293380893758 895.626790168906 2565.87132320992 151 153 152
-358.992031175498 896.885188350079 2556.00046404613 144 146 143
-364.958968246703 896.410462755336 2551.67249944374 136 138 133
-371.529183120601 895.688285768757 2548.14098912671 117 120 113
-379.296992478916 894.472241026691 2546.20918320787 112 115 108
97.5502905541825 933.441709637254 2832.79716778789 16 21 14
123.519487560513 943.755811297065 2799.79966923853 22 25 16
123.475521825603 945.340324466116 2789.89494142296 24 23 5
120.366171272183 945.897495406294 2782.70328803679 30 23 4
108.930986193446 943.637422887465 2783.04807597985 72 50 29
96.0198395914884 940.868041292577 2784.79069590068 102 71 50
83.8987715608237 938.357410072496 2785.8720401544 142 100 76
77.0530203014523 937.63806371202 2782.14080196898 170 126 99
72.4504424169781 937.685064547487 2776.33445984675 182 135 107
68.582902864097 937.986536115965 2769.82692053579 183 136 108
64.701676777561 938.28713789784 2763.30945515886 185 138 110
57.8472012747904 937.567264007799 2759.57188991118 194 147 121
53.9472498795703 937.866289087026 2753.04084217205 196 149 121
49.2980024748793 937.909807889959 2747.20065068146 200 157 125
50.5057818068724 939.987258416029 2735.73546866793 188 145 113
47.2825928501437 940.536391693905 2728.4609562044 182 143 114
47.6854199442638 942.353827168486 2717.64626121383 165 126 97
45.8681802150647 943.406847079307 2708.92343037652 151 114 87
46.9218641534805 945.472351854314 2697.34648081604 139 107 82
42.1526236903773 945.506318754383 2691.41896093733 140 109 88
38.8140858574144 946.046058101438 2684.06107650667 138 111 92
33.3035099019123 945.824864896799 2678.83018537863 125 100 80
31.3665869964241 946.868069647966 2670.02054393694 138 115 99
27.262061958909 947.150581724511 2663.34111275709 114 95 81
28.8340791166837 949.45313154768 2650.9060780598 109 92 84
20.4296536900777 948.216879307315 2648.51267321204 68 57 53
-172.288735816422 899.37244549484 2721.00120618532 251 252 254
-178.188689846648 898.919038128274 2716.72190699985 250 251 253
-184.089225889675 898.46522514929 2712.44218384638 252 253 255
-187.286077387343 899.010886494822 2705.18704086 253 254 255
-195.892023242413 897.556443780621 2703.88148100442 254 255 255
-203.809277199796 896.35248860453 2701.84140074244 250 251 253
-211.044305166892 895.398666029008 2699.06181652496 250 251 253
-215.602220415412 895.442175522072 2693.28783361634 253 254 255
-222.82952625746 894.488201855201 2690.5138465668 253 255 254
-231.374462151026 893.036441721684 2689.25282219914 252 254 251
-239.241505151671 891.834463159526 2687.2491509432 248 250 247
-244.461978608022 891.627500842901 2682.22833891311 213 215 214
-250.343709307789 891.171208470826 2677.96223559568 206 208 207
-255.571928319971 890.962732878947 2672.93609545886 239 241 240
-262.108621270473 890.25731133858 2669.42897076913 220 222 221
-267.342255284194 890.047500913958 2664.39889842094 183 185 184
-273.87547378454 889.341345197944 2660.89428871553 201 203 202
-279.759573876576 888.882650357509 2656.6264556061 201 202 204
-283.072168699226 889.413080309021 2649.28733066335 229 230 232
-287.684344707454 889.447105492747 2643.47367045511 184 185 187
-292.305914290349 889.479902100021 2637.65348889817 175 176 178
-299.482041749892 888.52398058374 2634.91659228407 176 177 179
-303.478980393774 888.801825743405 2628.31512913811 184 185 187
-307.489687253125 889.077968444293 2621.70397097267 180 181 183
-312.143548910135 889.106286616784 2615.86006304088 175 176 178
-318.061774230789 888.640943904268 2611.56745815218 177 178 180
-322.729578081782 888.6671169587 2605.71343236099 179 180 182
-325.537312616151 889.42943792127 2597.50642935994 177 178 180
-329.609205265123 889.698223779851 2590.85058456896 171 172 174
-334.313309270411 889.719902777759 2584.97022125795 168 169 171
-337.793599741966 890.230952361442 2577.50943199512 170 172 171
-343.74901103557 889.759430748202 2573.18983890368 171 173 172
-347.868392037047 890.022278487093 2566.49953871476 145 147 146
-355.050748398757 889.059410386607 2563.75838592775 137 139 136
-359.186072350704 889.319891180036 2557.05651636475 139 141 136
-369.994931604095 886.889813920735 2559.08951678672 129 131 126
115.56247971612 934.972343176717 2797.69237880814 26 23 4
119.296602898197 937.801909853802 2784.35700261834 25 14 0
108.620158532015 935.814608388918 2784.01816290622 109 81 60
96.4630261600172 933.32299189354 2785.0737541396 122 87 65
82.8385758316417 930.328312363849 2787.53318041724 171 127 102
75.9970988115097 929.612120223733 2783.80505669581 176 132 105
70.6526870809165 929.401520471298 2778.69467521845 188 144 115
68.2812062882672 930.200486857745 2770.80381300417 191 147 118
64.4026438382501 930.493179265018 2764.28823849166 194 150 123
60.5103566121912 930.784819556184 2757.76270926691 197 153 128
56.6042516200844 931.0753404542 2751.22715757873 195 151 124
51.2130773792681 930.861191392188 2746.08285898179 189 146 114
50.2176906046743 932.156487838552 2736.7219974397 194 153 123
45.5346903012379 932.19200446615 2730.85700274287 183 144 115
45.9455017028225 933.985830769711 2720.04797616206 172 137 109
41.9551321365517 934.269704528919 2713.4513056167 147 111 85
44.4728967369104 936.811115006073 2700.46774219388 131 100 79
41.1574436551732 937.341851101061 2693.12654678879 134 107 86
39.2644059871969 938.372480215786 2684.34865499426 121 98 82
33.7539752777358 938.148670049827 2679.11785590274 141 119 105
29.6702406673917 938.424741223969 2672.45346352279 117 98 84
24.859069405414 938.449575855445 2666.49550085639 85 68 58
9.36643001853765 934.724194855497 2671.30234023401 67 58 53
-84.70274260549 906.61012021261 2735.12582319869 255 254 251
-133.693146943292 895.824790831865 2744.02156166602 252 254 251
-138.90456228263 895.621489770682 2739.00733460325 251 255 252
-146.19612559661 894.672118876033 2736.18708373195 251 255 252
-151.411179952419 894.467816446527 2731.17050807337 251 255 254
-160.067390483211 893.022385628552 2729.82855592868 253 254 255
-166.651383609766 892.321795099621 2726.28716680192 254 255 255
-176.645894648657 890.3823296063 2726.44291741056 250 251 253
-181.850115856318 890.177590418674 2721.43419271999 253 254 255
-187.73770075277 889.724826626998 2717.16386344341 252 253 255
-190.920836307813 890.260715384105 2709.91831945944 251 252 254
-199.514613283029 888.818022729995 2708.62193507795 250 251 253
-206.075735509691 888.117074477857 2705.09712374267 245 246 248
-213.302702818415 887.169292207302 2702.32370794083 243 244 246
-216.516788940044 887.70123977178 2695.05570726771 250 251 253
-223.740439439376 886.752949530179 2692.2846933188 249 250 252
