ply
format ascii 1.0
comment KinectMotionCapture
element vertex 800
property float x
property float y
property float z
property uchar red
property uchar green
property uchar blue
end_header
-65.4658450682444 227.156664855575 2662.87585688284 18 21 14
-75.7734093202793 226.660278060359 2662.81197801448 20 23 16
-81.8601227126903 225.65159842956 2647.27826732438 24 27 20
-11.8788062549922 225.012813275814 2560.90719794426 28 31 24
173.867739840645 239.497029980198 2846.31756306183 74 79 73
186.516582488304 239.089888957887 2825.84168187029 31 36 30
180.372352812587 238.588542000876 2821.38505923283 30 35 29
176.556216893104 238.097261710459 2814.91106254531 35 40 34
159.564258702524 237.550322068713 2819.88214978637 23 26 19
131.052263322307 236.962909463728 2835.02893303845 24 27 20
103.436541971541 236.388658986282 2849.59018002447 19 22 15
106.647808281129 235.931111844984 2837.09445495618 18 21 14
107.509268027384 235.461724121615 2826.60035487549 22 25 18
95.3549887233383 234.949749281189 2827.66774715696 21 24 17
58.1200132345447 234.370232403527 2851.31271342261 19 22 15
50.659510996808 233.881471362433 2848.37203372284 18 21 14
46.2331148801236 233.400446541432 2842.69073496993 16 19 12
43.3060219121599 232.921818103955 2835.62566299196 16 19 12
32.0850923360854 232.426126736582 2836.13500073673 12 15 8
33.6450020921681 231.953859409424 2824.91217075886 9 12 5
35.9078388082836 231.478993857214 2812.96356326878 9 12 5
22.4622262896363 230.981717804101 2815.56528273225 19 22 15
7.57247779694303 230.486560175304 2819.59049567439 21 24 17
12.007273565394 230.009090233478 2805.51126457391 22 25 18
-2.09707818807714 229.518078829276 2808.87051826874 22 25 18
0.793531936834846 229.034589410444 2796.14191680926 19 22 15
-8.124376385795 228.547072558483 2794.61540085047 18 21 14
-7.5037239166833 228.05831118369 2783.94663630413 18 21 14
-14.2263556869535 227.570058202905 2780.30582059739 19 22 15
-30.4102837219267 227.089380822689 2785.86300177389 20 23 16
-35.6461236486307 226.602576194795 2780.82992728205 21 24 15
-32.9272039778659 226.105241412234 2767.97679361881 21 24 15
-54.7913449283082 225.64089846645 2779.29752643292 20 23 14
-60.7364293658708 225.156278198824 2774.98535315255 19 22 13
-53.0588908595113 224.643889129393 2757.08090649403 19 22 13
-43.321929135919 224.11970059891 2736.96421002176 20 23 14
-51.4984825946825 223.632993595755 2734.7397910209 19 22 13
-55.400377900048 223.13533051451 2728.20329871724 23 26 17
-36.653844451795 222.566864215861 2698.56066022163 23 26 17
-61.1290101301725 222.129540202086 2712.92918333848 20 23 14
-70.0069877528173 221.645710838335 2711.4313381971 21 24 15
-51.5064536648782 221.057312114049 2681.61026855365 21 24 17
-47.8484971043078 220.517111168203 2666.9675723879 23 26 19
-51.2251492317557 220.002596541941 2659.57671808755 20 23 16
-62.2650315732445 219.522424212621 2660.21708496638 14 17 10
-70.5039991709018 219.030978357172 2657.94739662103 18 21 14
-73.2064682843001 218.511648101738 2649.81021095404 27 30 23
-68.3602517512971 217.948719409465 2633.55842694509 24 27 20
-80.0526446714156 217.475428339325 2634.96084646434 22 25 18
-51.3599043121826 216.759768788163 2592.76591608295 28 31 24
180.550454945915 231.929383101252 2841.24249776982 64 69 63
179.127959548187 231.43645708668 2832.79828947879 32 37 31
171.448281089168 230.934619014867 2829.69865802102 28 33 27
162.999661773582 230.432760851835 2827.27693593077 36 41 35
156.11198873144 229.932851588133 2823.51641924253 20 23 16
137.64500369555 229.428759983896 2829.88881281397 23 26 19
125.406935999592 228.931276505876 2830.89583298063 22 25 18
126.255446165841 228.435541950363 2820.39221202114 22 25 18
136.250304306119 227.933621825374 2801.69761958817 19 22 15
109.509084885692 227.444242539763 2815.6582049464 17 20 13
79.079514885342 226.967477373914 2833.12056777197 19 22 15
65.4871305801032 226.484982205148 2835.61625858018 19 22 15
56.478600781539 226.000262625226 2834.02376887124 15 18 11
55.7872466380323 225.50439159623 2824.87423445543 15 18 11
43.7779477435551 225.025688229259 2826.0468946564 14 17 10
44.5563536908886 224.524352863946 2815.49242528331 10 13 6
27.341571162034 224.059941646932 2821.53773153521 10 13 6
18.3958159087263 223.580438194853 2819.99077485452 18 21 14
12.4409092971298 223.094159670259 2815.67147287118 18 21 14
10.191875348613 222.596738785888 2807.86310300727 17 20 13
2.00629413346309 222.116623628724 2805.63187850513 23 26 19
-2.48241292197537 221.624643757045 2799.90535373345 20 23 16
-11.3897085650163 221.148412789826 2798.38629382079 18 21 14
-10.0241358498117 220.632475495435 2787.02236357764 17 20 13
-23.3116948325169 220.175164573378 2789.7388618536 18 21 14
-23.4488180807648 219.662101856067 2779.75597753314 19 22 15
-22.8961508924201 219.142632227293 2769.03777346254 19 22 13
-24.5556416427168 218.630832646699 2760.42137210735 20 23 14
-32.7370435164764 218.1513165984 2758.19347481059 19 22 13
-48.1001841649498 217.712967699065 2763.11084005294 19 22 13
-44.7603475712752 217.170215240155 2749.47255563945 20 23 14
-48.6286804083607 216.666466348376 2742.96036265947 20 23 14
-60.3518859614911 216.211674484793 2744.34083362262 20 23 14
-53.5660674583909 215.636655514485 2727.02467949989 23 26 17
-46.8608643416613 215.055119891198 2709.65034703206 23 26 17
-49.4160086089037 214.533263697639 2701.61965301871 19 22 13
-55.5141058586861 214.035926562769 2697.19649307187 20 23 14
-48.2801356370204 213.434950544337 2678.9700455872 24 27 20
-53.0232706807448 212.922848320632 2673.05897861337 25 28 21
-59.8681507348993 212.427428879034 2669.32950621719 21 24 17
-75.7460379214581 212.010250744872 2675.10886457214 15 18 11
-68.0044593509774 211.388190338271 2656.01524978664 19 22 15
-69.3312740494698 210.841489631454 2646.40479899078 22 25 18
-61.051269867034 210.200766698914 2626.46636926339 28 31 24
-55.609988870075 209.579311570465 2609.41033262951 26 29 22
-35.1956826418423 208.800051933087 2576.03548398753 16 19 12
177.984859404768 223.823992447938 2834.4011464141 33 38 32
160.962344943136 223.350093589868 2839.35045272815 35 40 34
150.990570370201 222.862476724654 2838.2950027565 25 28 21
156.530297215627 222.331524466667 2823.78115776942 24 27 20
147.32872554771 221.841321947458 2822.04899459452 24 27 20
132.752918367623 221.37075968448 2825.06658376817 24 27 20
136.654749628622 220.837083865922 2811.83574725756 21 24 17
130.543852263037 220.337283395333 2807.40329575632 20 23 16
103.816146704224 219.922465105969 2821.37405526739 20 23 16
103.853051994725 219.400727045564 2811.5172840063 17 20 13
96.2624051675194 218.911138679255 2808.48225552563 16 19 12
63.6997808697064 218.543947749721 2828.10457562609 15 18 11
68.2730685612816 217.999686711485 2814.12540196617 15 18 11
91.5976413874553 217.349104913602 2782.86062499081 15 18 11
56.9720045174336 217.010023979984 2804.69267552107 10 13 6
49.4460127642204 216.525844315603 2801.70483875652 9 12 5
37.4520418843476 216.069845654365 2802.8887255662 16 19 12
12.8480880546507 215.697718488242 2815.92918100937 17 20 13
6.89215195089243 215.210818868964 2811.60912957922 18 21 14
-3.50104399316553 214.754636555878 2811.48337811347 21 24 17
-1.33740658890869 214.210313533511 2799.46280158645 18 21 14
-5.83770158541608 213.711365361615 2793.72754669616 20 23 16
-15.477168405547 213.251315953971 2792.9128388639 23 26 19
-22.1737290383395 212.769617628741 2789.29125035875 21 24 17
-20.8549978936703 212.221929273222 2777.89320283608 19 22 15
-5.05850071716774 211.546432458739 2752.28725005957 18 21 12
0.469524089187434 210.949506718371 2736.52955121674 17 20 11
-16.4479540964333 210.550374672955 2742.79041590669 19 22 13
-32.5811196783041 210.149836512793 2748.38509626674 21 24 15
-45.7841945839852 209.726586784977 2751.16301137978 21 24 15
-51.7930179955759 209.235828378632 2746.804601266 22 25 16
-54.951066152932 208.715854557147 2739.57189551989 20 23 14
-46.7565698843235 208.074923787047 2720.80651485739 22 25 16
-47.8620143936603 207.526168494172 2711.35652962904 21 24 15
-44.7615107364427 206.927893592066 2697.54446643018 19 22 13
-50.8727966995619 206.428995137856 2693.11173779518 23 26 17
-53.4757335700577 205.889129486576 2685.04660115936 23 26 19
-51.2038893267712 205.28884650088 2671.86885152474 20 23 16
-62.2381165431616 204.846636479748 2672.513510211 19 22 15
-72.5471571279401 204.398197718426 2672.44880398378 15 18 11
-80.0585948948642 203.916250073988 2669.4715290201 18 21 14
-76.5084786947932 203.289568326351 2654.74992455627 22 25 18
-66.8235831314419 202.574383051732 2633.35918567091 23 26 19
3.5542943772513 200.396800567278 2534.91654782478 24 27 20
210.434514768324 216.03152389456 2807.24508818619 17 22 16
173.064313475514 215.708038892549 2829.55799212635 35 40 34
155.29044347046 215.27879991553 2835.19788761255 24 29 23
149.201293985593 214.780141423736 2830.78120739852 25 28 21
151.608377749964 214.224634049132 2818.9370536824 25 28 21
140.871299450512 213.75589531484 2818.56195095766 25 28 21
133.232001873032 213.267152668382 2815.4916587936 22 25 18
134.024958707226 212.716351158252 2804.94778159018 21 24 17
120.267266271264 212.273969351411 2807.32354571164 21 24 17
106.55246861082 211.835114775601 2809.73042303742 16 19 12
93.6397033966783 211.393542217998 2811.48366040343 15 18 11
92.8792312629536 210.8524252152 2802.28349722465 16 19 12
74.7239514818268 210.460519931916 2808.88242083323 16 19 12
47.6052432506613 210.155668417625 2823.80562227231 13 16 9
57.3838573611711 209.519782794403 2804.9532968886 9 12 5
40.1295408302778 209.133323387291 2810.97033894002 8 11 4
44.5773488707184 208.539910524522 2796.89995343944 15 18 11
11.7669307317154 208.316416341636 2817.57840697779 16 19 12
7.29896658837381 207.813967322342 2811.86657168044 17 20 13
3.56048164635503 207.30288535939 2805.44847106724 19 22 15
5.70607880477469 206.72634401306 2793.41465358885 17 20 13
5.59698392557495 206.170446169341 2783.45157618589 18 21 14
-7.74077593492173 205.762822914047 2786.13193445203 23 26 19
-19.5743932289716 205.34160166059 2787.43253562964 22 25 18
-24.0886114660941 204.835592243282 2781.68715171848 20 23 16
-0.287295777972041 203.980101317611 2748.29686465441 16 19 10
-2.0109603875933 203.429045230077 2739.63374345711 17 20 11
-20.3657177286638 203.089732046985 2747.32336454398 22 25 16
-32.8891820630985 202.680638167335 2749.35897893669 24 27 18
-43.2215844145456 202.24575808658 2749.27740594363 25 28 19
-47.8063245664893 201.734267114972 2743.48087142626 23 26 17
-46.6964759821564 201.141831260615 2731.93117382292 23 26 17
-34.9687218840018 200.392705206718 2709.55080703404 23 26 17
-42.4863375880715 199.914890960139 2706.56907448836 21 24 15
-43.6380691878704 199.342692841644 2697.08541601778 20 23 14
-50.4556046886802 198.853883518227 2693.37579975344 24 27 18
-66.3963466395379 198.507435816638 2699.10995161195 23 26 19
-47.9847428412727 197.621861562494 2669.22320372802 17 20 13
-63.2145212593469 197.265348153395 2674.23766061016 16 19 12
-75.6062986337511 196.867631843927 2676.36879532017 16 19 12
-72.7087379414086 196.216928117705 2662.40934887273 19 22 15
-90.5994575510693 195.916312426535 2670.43555682457 21 24 17
-91.1963560202933 195.321643849573 2660.11866380755 23 26 19
224.923737203963 208.180399161385 2795.4764410628 24 29 23
170.365500107823 208.123943601347 2832.50359077659 25 30 24
150.266902779038 207.758356541936 2840.16426306482 20 23 16
140.319190640365 207.298924848685 2839.12610475172 21 24 17
153.571181613992 206.60448397728 2817.85096679393 24 27 20
148.992218297693 206.086593345438 2812.05888208948 28 31 24
147.476545007231 205.534911808397 2803.54653507017 23 26 19
122.18602908635 205.242350773957 2816.08969001961 18 21 14
113.808934697353 204.769292030485 2813.7199637498 21 24 17
108.490653212877 204.26207221708 2808.62672772939 14 17 10
123.671856045983 203.512203908812 2785.04472598146 13 16 9
98.5946046229067 203.237193101833 2797.74227533499 15 18 11
75.1361637960706 202.95247433862 2809.14321260576 15 18 11
45.7547803732603 202.752070375608 2826.1320859226 12 15 8
51.0391339700544 202.116949256712 2811.43258778183 9 12 5
48.0232657702411 201.584946222673 2804.30318486791 8 11 4
9.91440559152101 201.523903014202 2829.78735290196 15 18 11
17.3812987777371 200.854130740972 2812.96473888474 15 18 11
10.6726818096798 200.375646096759 2809.33413228576 15 18 11
13.5828753492802 199.759767647347 2796.61905668498 18 21 14
28.2384360546444 198.967122297204 2772.65578906674 16 19 12
15.5651501746625 198.569629009669 2774.582558906 16 19 12
-2.20109079067976 198.253263932969 2781.46388768067 17 20 13
-14.0512254473566 197.852115278702 2782.75261674129 17 20 13
-24.4098196955769 197.43081104965 2782.65212544766 17 20 13
-13.6760559735207 196.673053949725 2762.02151783981 18 21 12
-20.4266009527159 196.191486324045 2758.36050111486 20 23 14
-30.7841201792103 195.77041854328 2758.26079032509 23 26 17
-36.797214174602 195.27818277352 2753.89927689083 24 27 18
-39.940772387397 194.736325420465 2746.67696437036 26 29 20
-40.2415538974885 194.142684481019 2736.57503253867 24 27 18
-41.2918065401806 193.558879811108 2727.1648795403 25 28 19
-43.0850559800784 192.985458308035 2718.45120152928 23 26 17
-49.867444958436 192.50166942618 2714.76708915865 22 25 16
-53.1135842649415 191.951721322248 2707.47066690994 23 26 17
-63.422432350478 191.535104269125 2707.40626141275 25 28 19
-58.9597252137717 190.833764150636 2692.11079880597 20 23 16
-51.7645631342014 190.071635941073 2673.85569668029 20 23 16
-54.4229420524267 189.498912598957 2665.74990801318 18 21 14
-73.7981508100623 189.265243022338 2675.17068493177 12 15 8
-80.6099329046799 188.779513580901 2671.46525503458 16 19 12
-81.8891680060625 188.177636728673 2661.889016226 20 23 16
-85.9560589945707 187.632205921423 2655.23267307749 20 23 16
-59.8211930131258 186.429018442361 2616.12145654065 23 26 19
229.244686697125 200.951329785579 2802.27757726708 50 55 49
200.340050768977 200.726212728269 2817.14156210498 26 31 25
155.195145912533 200.723134734014 2846.17129015919 21 26 20
128.143448977583 200.50201638556 2859.90816253576 16 19 12
133.757880174711 199.85204896047 2845.44816396924 17 20 13
140.85103747117 199.17536155574 2829.58962243231 21 24 17
164.050959900378 198.265660073723 2799.46820786093 27 30 23
153.27371109109 197.825346238146 2799.06412865405 22 25 18
121.068558041043 197.699644652622 2817.71147937574 17 20 13
106.583463723936 197.325280554774 2820.79560997937 19 22 15
126.426677169529 196.436328362478 2793.18139152311 13 16 9
122.571662612776 195.897823312785 2786.67867720197 13 16 9
122.489246785725 195.298751572469 2776.735015806 14 17 10
83.8552633696334 195.311929344247 2801.83888674249 13 16 9
45.4090828600826 195.340552753176 2827.07897824904 11 14 7
47.6945261683439 194.713774503036 2815.14628376932 8 11 4
20.7348742448632 194.57450315677 2830.18533273945 12 15 8
12.5574266092752 194.125690909875 2827.96045747514 15 18 11
18.5321732082659 193.431572815287 2812.52610449487 14 17 10
30.3714273217977 192.626468001487 2791.46161400943 13 16 9
21.389326781545 192.185762432709 2789.88850637351 18 21 14
31.6015164012664 191.39530536804 2770.11466956536 16 19 12
21.1242916710388 190.980073498428 2769.92821126133 15 18 11
12.1386727584838 190.539242620171 2768.35284692454 14 17 10
-2.67821905063603 190.212177561147 2772.43143217643 15 18 11
-13.7994466179281 189.818275920101 2773.01326714312 15 18 11
-16.1719115273451 189.25396096935 2765.11508070988 18 21 12
-25.8112644149029 188.833684034514 2764.3006569252 19 22 13
-31.818790314829 188.341331776339 2759.94317933214 19 22 13
-24.1477745422503 187.564902150267 2742.03296126424 19 22 13
-24.4570634675074 186.948000898725 2731.92444993066 20 23 14
-30.5274026338465 186.450694489042 2727.52141256652 22 25 16
-43.7325213777799 186.108273130994 2730.29825546922 23 26 17
-52.6275944725842 185.675409361406 2728.78827560602 22 25 16
-53.7076003437624 185.069575972857 2719.35644227755 22 25 16
-61.180373931264 184.605513546511 2716.40728639483 23 26 17
-60.1907436877163 183.947552878401 2704.77010805457 22 25 16
-57.139274428919 183.236788470855 2690.92192899233 18 21 14
-54.14623141681 182.521320757647 2677.03137167381 20 23 16
-65.8679803537323 182.153033562591 2678.41304225531 19 22 15
-85.9041000704097 181.990898316557 2688.59010967985 12 15 8
-88.5152893400616 181.408020699895 2680.51877283968 15 18 11
-79.3972963542882 180.529235160077 2659.95128213914 20 23 16
-79.3357113201965 179.869736012199 2648.87637285758 20 23 16
-69.0118496132473 178.942084084658 2626.71272135124 22 25 18
224.182559513814 193.276448905461 2807.21490381446 39 44 38
213.268146670677 192.840661197072 2806.71141439795 17 22 16
172.757787799497 192.893685769442 2831.69029918431 22 27 21
144.099086163482 192.767660155639 2846.73306895677 13 16 9
124.092927459595 192.507168113821 2854.46128430392 13 16 9
140.492408341044 191.625639464388 2830.52644032077 14 17 10
152.139172242555 190.814762998175 2810.55741696733 19 22 15
146.007513410935 190.310860992784 2806.10989426121 18 21 14
121.482700267015 190.140271170957 2817.9734101966 20 23 16
113.873260947695 189.668706989152 2814.92514441042 15 18 11
113.129073437288 189.069541696506 2805.73678675361 14 17 10
135.905493288023 188.020360263927 2775.30765963166 12 15 8
130.48412252635 187.498085716529 2770.13991021599 11 14 7
118.259307705707 187.108528526271 2771.15678986571 11 14 7
91.0051018752975 187.021287500233 2785.98286844346 12 15 8
81.8960618642977 186.580387655446 2784.31773869213 8 11 4
56.330735673396 186.478253718301 2797.89767899208 8 11 4
33.8648658471379 186.323402874755 2808.78377334111 14 17 10
42.0135325525508 185.532874282057 2791.21944873693 14 17 10
36.7185704861406 185.021228583524 2786.14338951937 12 15 8
32.1580635159324 184.493112975391 2780.36433794554 16 19 12
21.6855215156522 184.09415231397 2780.18135666926 15 18 11
36.2473733443003 183.139041704408 2756.14904009085 13 16 9
41.8844352058527 182.372983558033 2740.46952784731 12 15 8
16.0101635352801 182.322671776118 2755.06110057149 14 17 10
-0.269764066708866 182.061594853004 2760.54980193273 15 18 11
-6.31468638919208 181.565548417602 2756.16519616315 20 23 12
-10.9115618001427 181.034822619137 2750.35976710935 19 22 11
-23.4642133025218 180.695885777046 2752.37457846035 14 17 6
5.06969954043202 179.35213425443 2713.76643910081 13 16 5
6.82713342830921 178.652037327193 2701.45060795041 15 18 7
-37.9871378458545 179.120965389054 2735.66285114204 15 18 7
-46.8884399814913 178.698040119796 2734.14870053169 17 20 9
-50.0823961063919 178.129255432473 2726.88971709694 17 20 9
-47.6224350688088 177.410329005606 2713.84803086571 21 24 13
-48.7508700937385 176.780871792445 2704.38097055083 21 24 13
-46.387735451171 176.054113393297 2691.26875865197 14 17 8
-41.9711168802646 175.265629752998 2675.93944406115 15 18 11
-40.4230171247775 174.548962761274 2663.47177820013 13 16 9
-86.3935463207028 175.153862184141 2700.55191843487 16 19 12
-102.887034581793 174.953051576268 2707.12144148371 16 19 12
-54.1114272549696 172.891313348836 2644.8945158921 18 21 14
-27.8122124469706 171.442136863705 2605.9011933442 24 27 20
259.103976280397 184.865990844669 2778.1421435743 46 51 45
214.472607553452 185.098381872472 2806.31030099601 9 14 8
202.021271046377 184.711331958851 2807.16298294087 16 21 15
212.927700502172 183.855555225723 2787.89237902573 25 30 24
167.142096998774 184.152361827451 2817.69420656138 13 16 7
140.906011607996 184.065520331203 2830.78797666186 12 15 6
147.930918610929 183.288833983775 2814.87945251626 15 18 9
148.730709333461 182.637466797199 2804.33972548233 15 18 9
166.352537910099 181.617110723125 2778.82021098294 19 22 15
129.572384005093 181.778414808175 2801.56330841906 16 19 12
123.450767501837 181.274818520947 2797.12306715961 12 15 8
121.05443557676 180.041947823757 2779.32301618605 10 12 7
130.766621896922 179.167791949094 2760.42132899368 10 12 7
123.059174822886 178.693216910897 2757.30200004394 10 12 7
92.8261010550795 178.755889404266 2774.90983401703 8 11 4
66.4772858177232 178.739750018148 2789.15727859528 9 12 5
26.0586116045616 179.080033678826 2816.67445030623 15 18 11
34.2343568239407 178.239042042631 2799.12949988945 14 17 10
40.8407886891062 177.4283499904 2782.91744194018 14 17 10
37.0097886039664 176.874546822064 2776.43205873403 15 18 11
24.3093736719961 176.547253237226 2778.33981219689 15 18 11
26.3619093596574 175.840150000054 2766.23757667358 14 17 10
47.4358759112894 174.626350080807 2735.80880210408 14 17 10
31.780584735813 174.374829861496 2740.5153275187 13 16 9
-1.31695869067228 174.600680590145 2762.22295045835 12 15 8
3.54596064087964 173.806332873135 2747.21743358777 14 17 8
-5.42734977320625 173.387623136769 2745.65080951513 13 16 7
-5.71435574391743 172.727460702866 2735.55852692144 13 16 7
-7.47822434193357 172.105226394007 2726.86590046323 15 18 9
-36.5568652171291 172.263608943511 2745.3110922673 19 22 13
-49.7461374293868 171.976375188512 2748.09970219508 18 21 12
-50.7598102483158 171.336384624835 2738.71548762196 17 20 11
-41.8450657428187 170.397853999567 2719.2356862461 18 21 12
-35.1518552871126 169.51567932796 2701.85113724631 21 24 15
-39.8518651892656 168.97105724666 2695.97087341143 19 22 13
-46.6763780224144 168.49076374142 2692.25624226427 16 19 10
-34.5262083118245 167.420425358656 2668.94542993466 16 19 12
-43.5050494394549 167.00212181258 2667.3750930642 15 18 11
-77.6031373719497 167.385512529777 2692.06360227449 13 16 9
-76.0286827664156 166.640478466769 2679.61460344488 18 21 14
-41.8951285425533 164.829684253556 2632.71244271528 22 25 18
-29.4582680499322 163.703841797083 2608.37414088358 22 25 18
-66.7775966502653 164.220866072981 2636.90365849241 16 19 12
-88.7811987426126 164.245245424519 2649.3608050525 21 24 17
236.79195304078 177.522714644892 2797.74919916407 167 172 166
236.008942388339 176.880644735762 2788.53248046273 6 11 5
225.056909958202 176.473411009118 2788.00156995928 19 24 18
206.353808434772 176.252748952234 2794.20423327646 16 21 14
178.41479847249 176.261324898361 2808.53436805643 14 17 8
162.196174442293 175.997826607235 2812.83246079125 11 14 5
151.430645366914 175.6060182777 2812.43712315954 13 16 7
184.51413879679 174.123630075961 2773.42096527358 12 15 6
165.24110569082 173.938588299683 2780.44569007659 15 18 11
151.392714771517 173.622909089532 2782.75634670551 14 17 10
152.832138716845 172.916535573981 2771.44498819813 13 16 9
158.026599443373 172.10701663343 2756.67973591497 9 12 5
118.440967652887 172.476394105335 2782.33057748659 8 10 5
130.431963430558 171.484276691117 2761.37514051612 8 10 5
120.46622248634 171.076071040577 2760.32417220713 8 10 5
130.053902161825 170.133581409745 2741.33217584401 7 10 3
26.4403863738707 172.32399494678 2826.79786830351 8 11 4
27.9577862655267 171.624296815384 2815.54307003586 15 18 11
36.131872861298 170.730502061511 2797.99694426625 14 17 10
59.070706636752 169.402941274087 2766.4491077889 15 18 11
44.0835438068747 169.158882280033 2770.40468038616 15 18 11
32.8382744421472 168.810605637824 2770.89682590632 14 17 10
34.1323766207169 168.09279549745 2759.48006262014 14 17 10
21.4417655027268 167.790581991756 2761.39505011252 13 16 9
-1.45067486002315 167.803072744822 2773.20779862355 12 15 8
-6.01170534786011 167.263133148777 2767.42860212681 12 15 8
-3.31202370374384 166.496367274126 2754.56015768589 12 15 6
0.0585350115915872 165.70244261235 2740.94287215732 12 15 6
-13.972676266552 165.455103180908 2744.35638119018 14 17 8
-25.7953832720099 165.142282245918 2745.66544053782 16 19 10
-47.6389324735003 165.159026284037 2757.00324307359 19 22 13
-50.0539954256256 164.548804968089 2749.07394388532 18 21 12
-30.363611529471 163.20217519562 2718.87654454155 16 19 10
-27.9118439918276 162.415557020811 2705.82828131829 17 20 11
-39.7024622764608 162.105776240709 2707.16061786344 20 23 14
-38.0217206942026 161.338315696169 2694.78855513698 19 22 13
-56.1308098578146 161.250675928686 2702.65783558099 16 19 10
-52.3791410469603 160.406518503532 2688.08123934888 17 20 13
-59.8998447891672 159.953845212882 2685.09739556235 15 18 11
-60.4288085369953 159.252249713767 2674.82920826873 13 16 9
-83.9678025737127 159.377590443687 2688.64419556616 18 21 14
-71.3114927467104 158.194987953237 2664.46468973947 22 25 18
-60.1589023262969 157.053649256144 2641.66538789163 22 25 18
234.841236468116 168.434398148012 2780.23239488773 21 26 20
203.66545786808 168.593417515949 2797.15703554852 16 21 14
185.813504268217 168.400901095519 2802.74182009389 15 18 9
177.306872506645 167.955285702874 2800.27832842422 12 15 6
179.608946323086 167.206625622552 2788.35707239929 13 16 7
207.238146342331 165.731237637885 2754.03286163549 11 14 5
190.96602362765 165.498422700361 2758.29232744944 12 15 8
212.979506251533 164.157194350363 2728.54398268086 12 15 8
147.153860874111 165.383402480331 2777.1717030699 12 15 8
131.082772833088 165.167254460197 2781.5769876303 9 12 5
146.903807695099 163.997963233365 2757.22135820882 8 10 5
127.668343614846 163.179889631071 2754.38922918169 7 9 4
23.0257830826837 165.726812186777 2840.34578756288 6 9 2
48.5709484298194 164.250528484908 2806.98147326523 8 11 4
52.2672002683526 163.446597146915 2793.60023894651 15 18 11
67.8220936757015 162.255618538553 2769.05156805394 15 18 11
67.6535500839766 161.559644688531 2759.04468549799 15 18 11
71.8909877216332 160.715202824817 2744.82052649153 14 17 10
64.9926563989802 160.232185236607 2741.05236894795 14 17 10
57.3614291204736 159.774142935835 2737.98837709616 13 16 9
38.7308922980774 159.688743940627 2745.47936587701 13 16 9
14.3212102008854 159.809342103941 2758.66314879597 12 15 8
-1.22656911199881 159.637059118341 2763.4480132064 12 15 8
7.27930930281318 158.633145931569 2744.90652152941 13 16 7
-6.05386172368538 158.387695610501 2747.59102777713 15 18 9
-7.05669189579727 157.708849207457 2738.21477093461 18 21 12
-22.5031488084067 157.54520760892 2743.07312988566 19 22 13
-31.4279208380572 157.151639077402 2741.54181966892 19 22 13
-44.6332200949417 156.917033214238 2744.31907782066 16 19 10
-42.8019594141063 156.130975926565 2732.05603540483 16 19 10
-47.4264341835426 155.580459948976 2726.23079322293 17 20 11
-52.0606184939396 155.029214243701 2720.39821421434 18 21 12
-58.1194319063758 154.531191125728 2716.00352848491 16 19 10
-49.3713230715154 153.462907156376 2696.40227212896 15 18 9
-40.716739774703 152.387006345131 2676.73288405672 16 19 12
-59.4846947786065 152.37674971608 2685.35996718226 15 18 11
-89.3504401287484 152.81625775793 2705.70606736924 15 18 11
-80.0735100896004 151.706737907927 2685.25291929282 19 22 15
-81.3060974123805 151.010179348158 2675.70972239593 21 24 17
-57.6623982344344 149.294335175107 2639.7304501657 20 23 16
-45.2447371537015 148.017742109662 2615.37746668904 17 20 13
-62.508980034587 147.961468573495 2622.62402200323 16 19 12
217.31148248457 160.454236369831 2786.011008375 15 20 13
200.195681046932 160.274888920226 2790.89447540727 17 20 11
195.516861247318 159.712268014537 2785.02948156234 14 17 8
210.11136545128 158.537679808889 2762.25505479656 13 16 7
203.050566232767 158.042822341132 2758.36906083671 11 14 5
223.602776333422 156.655119925463 2730.03124628904 11 14 7
179.761919275864 157.353933277825 2758.77482501127 11 14 7
176.550004409886 156.736304841192 2751.50286997565 11 14 7
101.078619467413 157.820251778627 2799.31294494573 8 10 5
89.4439345280134 155.362429714494 2769.86916910189 8 11 4
93.7704781568307 154.486201186458 2755.70944392432 15 18 11
81.6453473790668 154.190571377813 2756.79906242479 14 17 10
77.7246261569742 153.602958606886 2750.24846719941 14 17 10
74.5300156215696 152.987239836441 2742.98906611515 13 16 9
55.8112690441241 152.940570649423 2750.41630593618 13 16 9
43.0553832005276 152.68123761399 2752.28419158498 13 16 9
31.0719684717684 152.397621502537 2753.47689840251 13 16 9
14.7322034990376 152.283177528489 2758.9229651015 14 17 10
0.641710991423849 152.090107353608 2762.29377479049 14 17 10
-6.12798289651084 151.620259047715 2758.6189359736 17 20 11
-14.3446814181456 151.20726481668 2756.36578832966 18 21 12
-14.5970311331405 150.482533838404 2746.29830174293 19 22 13
-6.23678969366948 149.41143244778 2727.65089439297 19 22 13
-18.8032964797349 149.16833738525 2729.65614721065 17 20 11
-43.5085793535408 149.421232523157 2743.86105508064 16 19 10
-69.5287136160208 149.741892148361 2759.5838045716 16 19 10
-69.08542652394 148.986889743118 2748.78511551497 17 20 11
-49.520725249149 147.431385283288 2718.49554816532 17 20 11
-33.6535337356649 146.011350855463 2691.70203536338 16 19 10
-33.4406478849543 145.237698316114 2680.73622906327 15 18 9
-32.5655139124077 144.430721389417 2669.01529513597 15 18 11
-33.8382026261637 143.71089541409 2659.44320450794 14 17 10
-89.6394560948073 145.362547988073 2706.69413012431 16 19 12
-104.733108558964 145.264192590906 2711.80857523675 20 23 16
-80.1975815110278 143.41506552678 2675.23980185168 21 24 17
-31.6357492958013 140.465683635422 2612.85341002933 19 22 15
-53.7876098599048 140.666163267433 2625.20397284189 18 21 14
136.601197133138 156.154914209141 2865.81473785566 17 22 16
195.17131789018 153.447663534473 2805.74435343326 19 24 17
192.858661169346 152.801722009482 2797.8891097776 17 20 11
177.370695481208 152.612816926689 2801.48191906068 13 16 7
207.451475705849 150.824763677417 2765.22821750829 12 15 6
197.322249296537 150.442222040607 2764.05886508999 10 13 4
181.844202789505 150.254190624297 2767.65916390145 10 13 6
153.330999014543 149.807352801046 2772.92490121375 11 14 7
134.959435012473 149.744026582786 2779.36840561555 9 12 5
111.348811158984 149.88431149241 2790.66117488994 8 10 5
144.341287628414 147.15514236819 2740.45680305895 6 8 3
90.7295103870536 148.453529073675 2779.41196089229 6 9 2
118.340133456001 146.643580393661 2743.83784653272 8 11 4
113.617767093966 146.07174860035 2737.9412382004 13 16 9
64.1788005281367 147.260477278261 2773.74532248208 14 17 10
61.0544397840891 146.638931013586 2766.53652297635 12 15 8
54.2075288374573 146.164510449992 2762.80597918336 11 14 7
40.717449661301 145.959535750387 2765.37694438181 12 15 8
28.0066803472763 145.728088351641 2767.27738273495 14 17 10
11.6637233814396 145.65120651597 2772.72162022668 15 18 11
-3.15464531987431 145.518487930661 2776.80011925111 18 21 14
-11.3541675350617 145.114502508441 2774.55946870966 18 21 14
-36.2738862055014 145.420183020756 2788.60948933973 19 22 15
-26.9915013915261 144.278763072247 2769.39517059491 19 22 15
-16.3564129688694 143.06733077925 2748.69073320239 17 20 13
-13.7535242471651 142.192451072594 2735.75157388848 16 19 12
-21.9849153595395 141.786257313135 2733.48780971768 15 18 11
-35.9359013438927 141.634898324393 2736.95996193798 16 19 12
-68.4106827222495 142.316915395579 2759.1216434262 18 21 14
-51.590601285374 140.798797558406 2731.78307294738 18 21 14
-39.8817482006395 139.494897646992 2709.38619437154 17 20 13
-33.9456124218982 138.441509483171 2692.68699518075 16 19 12
-36.5509627070728 137.773469598267 2684.61945978136 15 18 11
-34.9598173413626 136.906775157492 2672.1819442062 15 18 11
-26.4081417189794 135.706241763109 2652.43761935303 14 17 10
-84.3382874422816 137.649346482907 2701.85185169136 18 21 14
-111.291867547161 138.151851602491 2719.36921518914 22 25 18
-96.4491641305096 136.653234709203 2693.06737321865 21 24 17
-69.2806419544714 134.536867925498 2653.46581405418 19 22 15
-49.2248903155743 132.74208161462 2621.06063984782 20 23 16
-45.8448733806474 131.751445649118 2606.21417777375 22 25 18
192.416031337853 146.610743006179 2818.53397451888 18 23 17
197.924739694733 145.660127917072 2803.99551789251 19 24 17
177.7579479601 145.678882084281 2811.6087013647 16 19 10
173.919395360836 145.079913127893 2805.11761440625 12 15 6
156.177509120972 145.018090800022 2810.78255664417 11 14 5
185.435517511799 143.126307162945 2775.16692144495 9 12 3
176.128605640792 142.73122269787 2773.35887670046 9 12 5
166.073462896527 142.367975663013 2772.24332684294 11 14 7
152.22482075633 142.159643205047 2774.55434508894 11 14 7
121.684787913033 142.632824175237 2791.94173718374 10 13 6
126.172977336817 141.691754952399 2777.89886406173 9 11 6
141.942297911113 140.277887583122 2753.50450702307 6 8 3
113.093917829166 140.703638281344 2769.64760632714 6 8 3
79.1133428219535 141.361063739822 2790.71728684019 6 9 2
101.518373598219 139.652666294873 2760.01588727027 8 11 4
87.8773932964463 139.461843815605 2762.47753270616 15 18 11
95.1465417588229 138.376206172876 2745.50916840144 13 16 9
57.7518568590589 139.220102466549 2770.28060440425 11 14 7
27.208650226437 139.787221728889 2788.90120819661 11 14 7
27.0942854535079 139.028360853925 2778.93357696447 13 16 9
15.8969264294737 138.75880208013 2779.46085243458 14 17 10
-7.01880467568516 139.019710205043 2791.25797527235 18 21 14
-2.01630498441641 138.028206056252 2776.3523500701 19 22 15
-16.7870252725546 137.931963069319 2780.46586967922 20 23 16
-30.7781634866116 137.806521219948 2783.90904596673 18 21 14
-35.2912079866017 137.246688095227 2778.16424029498 17 20 13
-0.0361383100120349 134.821295983234 2733.30701362106 16 19 12
-16.9479022932346 134.829481389815 2739.5743782785 15 18 11
-35.9509710687298 134.945949941871 2748.03136982444 15 18 11
-52.0092627991862 134.931161389795 2753.68198725806 16 19 12
-40.8589987371193 133.605433815789 2732.11539612362 17 20 13
-29.8156858354195 132.270967325271 2710.47122954624 18 21 14
-26.689354704168 131.31278202439 2696.67606621737 17 20 13
-41.3165702285461 131.229344464083 2700.89368035429 16 19 12
-50.9526119274017 130.902767631444 2700.08213153045 16 19 12
-74.6354978145693 131.288913185938 2713.79412958254 15 18 11
-71.5641213603662 130.326649342189 2699.95910777686 14 17 10
-99.7380420792042 130.156357883564 2707.94227263745 22 25 18
-84.2315971885073 128.536079394742 2680.88593815727 21 24 17
-82.0178490421255 127.597169748623 2667.66465268839 18 21 14
-57.7734759662867 125.481672036725 2630.88346635558 21 24 17
-42.6677360104186 123.828837786094 2603.53678189234 23 26 19
233.421233478883 137.285731188519 2783.98567127133 14 19 13
199.900060163683 137.888618119559 2802.91803236824 15 20 13
196.802087977424 137.245595879403 2795.72825371117 15 18 9
172.788179237549 137.477268247918 2806.72913606039 12 15 6
171.23481103308 135.996520931244 2788.30387530449 11 14 5
189.595060327925 134.427295543057 2762.0815465049 10 13 6
187.153514558347 133.74222060046 2754.13267020871 10 13 6
184.689095985306 133.055267411367 2746.16690893844 10 13 6
164.703207924707 133.137965441202 2753.91155723288 10 13 6
159.208648393512 132.5863720836 2748.69060321071 10 12 7
145.388314610602 132.407366994653 2751.02229133793 9 11 6
118.035251117193 132.845567030878 2765.7790728716 9 11 6
93.0599433954353 133.191117116973 2778.5539611301 7 10 3
67.4438021828499 133.580187632176 2792.09955258378 8 11 4
95.0208926303371 131.519515500614 2756.49956527055 12 15 8
97.0549412098252 130.626264295099 2744.38327964886 13 16 9
95.3236604597589 129.903970347036 2735.71376999529 12 15 8
60.2195134125325 130.762684537751 2758.44033646085 10 13 6
32.6741239264279 131.281904116728 2774.29314378713 13 16 9
-9.47696054360758 132.522626152706 2804.26441959391 13 16 9
9.54186540939661 130.815718345706 2776.04873642155 13 16 9
10.8371641914022 129.958279295773 2764.63213333078 14 17 10
-3.24252736099928 129.855102403358 2768.0112281899 16 19 12
-12.9082946199686 129.538330501471 2767.17847481409 18 21 14
-13.1202354789106 128.749419433435 2757.13966190765 18 21 14
-8.30498021687687 127.701130252808 2742.0983060723 17 20 13
-16.538183433962 127.310158789117 2739.83330537205 17 20 13
-43.4527261023954 127.882391220238 2756.14399001696 18 21 14
-46.5867280522896 127.238063250423 2748.92808600154 18 21 14
-39.7356378459357 126.069175385805 2731.65653514346 18 21 14
-28.6908240303776 124.668455107368 2710.01312102207 18 21 14
-17.7528230928652 123.259026628361 2688.29193738011 17 20 13
-32.4081675135819 123.205766141351 2692.4893131326 14 17 10
-54.7748161071566 123.575948240822 2704.68503109525 13 16 9
-75.6337919872958 123.877985546611 2715.50298028095 11 14 7
-90.0892492468242 123.841590266784 2719.84534392799 13 16 9
-105.890856993132 123.886877538534 2725.68234135552 22 25 18
-110.481153805112 123.316136455791 2719.88177306023 20 23 16
-77.567034637799 120.63842432726 2674.56129998235 18 21 14
-65.6761423342407 119.116007552435 2651.06024206095 18 21 14
-84.9639836400966 119.355802916663 2660.54645722611 17 20 13
-59.4438473682628 117.031774976395 2622.21896935508 16 19 12
258.827294439966 128.370074604968 2762.83379059134 14 19 13
217.445811711981 129.410222700359 2788.42151018468 13 18 11
201.102680356127 129.346689713551 2792.63035776569 13 16 7
170.881621662867 129.921088203764 2809.01416260958 11 14 5
187.11083476798 128.38490152797 2784.9525719097 11 14 5
180.11970324383 127.904473151647 2781.11744911148 11 14 5
176.202206180641 127.28142464397 2774.56901165871 10 13 6
175.331724431363 126.513594979587 2765.2882462946 10 13 6
182.824107138497 125.346135205307 2748.48129481273 10 13 6
174.256382374363 124.933843979734 2745.97368431519 10 13 6
169.49431024941 124.340330160344 2740.04847708125 10 12 7
160.939960486283 123.929201716361 2737.55027382007 9 11 6
146.362586423599 123.813722262048 2740.56882016854 9 11 6
110.772278317782 124.738260843749 2762.94329152105 7 10 3
105.350625574888 124.18960607185 2757.77490959312 8 11 4
124.599092740646 122.407429294492 2729.7253169845 9 12 5
134.004674708412 121.100977650744 2710.59947056755 12 15 8
100.945647304391 121.937571267324 2731.10307149779 12 15 8
68.7851969121498 122.749318610845 2751.02261312297 10 13 6
26.4321312113855 124.107190405578 2780.84806181172 13 16 9
25.5517624389001 123.339306579742 2771.56012885915 13 16 9
26.108627652575 122.491940783179 2760.84330716796 13 16 9
29.5541226028209 121.486723856518 2747.27927427831 14 17 10
13.9574428035658 121.486215818558 2752.02955975656 16 19 12
13.7036166775908 120.671323837055 2741.96054620475 15 18 11
-6.18142051396964 120.911605537674 2751.01413826798 16 19 12
-16.577734817649 120.647012570843 2750.88680219758 17 20 13
-20.4569412198496 120.028629731308 2744.36644057167 17 20 13
-36.5754575939596 120.084672661254 2749.97375865126 16 19 12
-49.7656050511073 119.986173393622 2752.76269007274 21 24 17
-39.3270478201515 118.568013072547 2731.91473590696 21 24 17
-38.2537021434346 117.665185870575 2720.33700437352 21 24 17
-23.7296303993064 115.98990782722 2695.03861578634 19 22 15
-29.8695295590776 115.482858895019 2690.58510355068 13 16 9
-50.1284228184868 115.792456304534 2700.60306709877 11 14 7
-73.1147320299983 116.273427973165 2713.58517765547 11 14 7
-97.3991087932 116.845558916496 2728.09712081693 14 17 10
-71.9215321921283 114.489560198753 2690.97394970023 21 24 17
-64.0699881928644 113.156118955933 2671.95615343963 20 23 16
-45.1903376064065 111.147652506344 2641.16797836154 19 22 15
-44.479466937924 110.216103032282 2629.32733547506 19 22 15
-38.9805269192118 108.986231630105 2612.31001534818 20 23 16
-61.7752576815267 109.48398826816 2625.43138470739 22 25 18
202.253523075459 123.20335495559 2811.96023835753 13 18 12
217.088540130968 121.675710945581 2789.35837619339 12 17 10
209.286703436802 121.232270499527 2786.17077989648 11 14 5
167.425121146619 122.457484147236 2812.64643909405 9 12 3
166.684077288413 121.680559360133 2803.45945995093 10 13 4
217.492846688774 118.336636296531 2748.8754000403 11 14 5
229.591658399459 116.888491100945 2727.99581126996 11 14 7
198.716953272975 117.595326701189 2745.14177579118 10 13 6
178.667857225938 117.770276239594 2752.84077606238 11 14 7
186.095698316346 116.547622531539 2735.98705189403 11 14 7
184.336762567423 115.788586166878 2727.29730843402 11 13 8
159.849598373238 116.208357905107 2739.19110719424 10 12 7
157.346986572027 115.489897876888 2731.19779372645 9 11 6
123.224952483026 116.43836144442 2752.16640169763 9 12 5
100.516033020055 116.801557123931 2762.87863370881 8 11 4
108.566408143389 115.528747622535 2745.24090706828 11 14 7
118.769420155797 114.128137750423 2725.45732667247 12 15 8
71.6247270000396 115.835119486844 2759.22179940063 11 14 7
52.1492854595729 116.058274008498 2767.33689823378 14 17 10
41.6209223387449 115.798064350587 2767.11415383711 16 19 12
40.6977150703898 115.006905054101 2757.79504844981 16 19 12
46.3548088304302 113.842455000281 2742.12803982344 15 18 11
24.8380767365264 114.203032203336 2752.4694640087 16 19 12
12.1761612389855 114.072606694716 2754.40612370882 17 20 13
3.19327078337217 113.73675474144 2752.83297455063 14 16 11
-2.86955028510794 113.234695374114 2748.4353631414 13 15 10
-21.9598317687888 113.490526237645 2756.83013270857 14 16 11
-27.2637781012151 112.949490618031 2751.7474117391 16 18 13
-21.0645228995618 111.728602311517 2735.23781053496 19 21 16
-33.5853476519274 111.610473012065 2737.27681221 12 14 9
-45.3527588844276 111.452865297093 2738.62674282908 16 18 13
-37.1311473851823 110.093692541214 2719.87708606166 16 18 13
-49.2860822131429 109.088873598735 2711.06062479967 11 13 8
-63.8377664449701 109.109310733083 2715.33351932829 11 13 8
-86.0796143337421 109.615378748394 2727.62039627418 16 19 12
-91.3818652490783 109.075600673007 2722.53891071845 18 21 14
-89.6951598686662 108.094381941346 2710.17008854919 19 22 15
-19.7312831238168 102.768528716336 2626.23270908363 19 22 15
-36.4304743674526 102.917918237981 2632.6548874832 17 20 13
-17.0389391886179 100.75066911425 2601.00165309851 16 19 12
-30.9599969098637 100.722312603602 2604.49612398723 21 24 17
5.41809050116226 97.411452100713 2554.27273966339 15 18 11
237.033770754353 113.744658987498 2782.77983210135 13 18 12
219.06668833307 113.826240507855 2788.28254566721 12 17 10
215.92008125215 113.144567142213 2781.0573147615 12 15 6
163.192253297538 115.062222248352 2816.95129312616 10 13 4
169.415482605397 113.899335448663 2801.69469615852 11 14 5
202.518179174315 111.295446145325 2762.68677841369 11 14 5
229.253199513765 109.002365049999 2728.94554704668 11 14 7
203.735412060972 109.506559505293 2741.32798373607 11 14 7
183.670477806137 109.728991861385 2749.01574306226 11 14 7
163.683388642663 109.957935063807 2756.76026141222 12 15 8
136.184060695243 110.612552229967 2771.41210891717 12 14 9
135.296111786069 109.803921420668 2762.11847457023 11 13 8
146.216095972835 107.4570562658 2731.73393101817 9 12 5
100.007339141852 108.342387882358 2753.8211779421 12 15 8
99.0523119608802 107.528532088317 2744.47889065884 13 16 9
73.5248987365265 108.137478542177 2758.08991663972 13 16 9
54.0421876188466 108.40892494621 2766.20028468613 15 18 11
42.7695041313023 108.207779524327 2766.67330237225 16 19 12
43.3193395175984 107.309315901648 2755.95112578861 15 18 11
35.5050455667074 106.031827629654 2742.86909787913 13 16 9
7.97082186199027 105.950739831933 2748.8463713328 11 13 8
-2.46114139836129 105.715012739818 2748.69333878427 10 12 7
-53.5579419104775 107.141057176017 2778.35638491564 12 14 9
-37.2025490242351 105.247146201747 2751.91408495239 16 18 13
-28.1573239519821 103.79582266848 2732.5262743268 10 12 7
-24.9257877424611 102.701385952053 2718.80668626407 13 15 10
-49.5522859025679 103.386512867521 2733.07119067056 14 16 11
-26.4545300547663 101.003682758302 2699.16284731244 13 15 10
-32.5831617912138 100.49665045582 2694.71750315664 12 14 9
7.89578674171221 96.9340219105279 2642.52520432818 13 15 10
-44.1396132233101 99.4362771448511 2685.09957725756 18 21 14
-93.0820898713174 101.775663790155 2724.97481035035 20 23 16
-60.6059573224977 98.703314259801 2680.56986913859 20 23 16
-29.7528232510891 94.7647433175615 2626.33814875339 17 20 13
-50.5664180767298 95.2430074915238 2637.19018273484 14 17 10
241.362105439551 105.716235273455 2779.70139111399 14 19 13
228.834567545821 105.536260278046 2780.49988192273 13 18 11
187.601184334951 106.956920874041 2806.19688938745 16 19 10
189.165014935788 106.0088279079 2794.97449156295 14 17 8
208.448387600771 104.055364795705 2768.18437172578 14 17 8
196.779057710131 103.839068771113 2768.36977522865 14 17 8
164.40412507855 104.810930256384 2786.89960848175 13 16 9
164.340010071172 103.94311981044 2776.96785252599 13 16 9
166.53063420955 102.939485289655 2764.96421827815 13 16 9
154.96681868102 102.732110503969 2765.22615658173 13 16 9
135.081494325267 103.018362398956 2773.0447366924 13 15 10
126.629088967214 102.638743291187 2770.62088918409 12 14 9
159.702429628371 99.7846193347793 2730.35538659818 12 14 9
100.594116253418 101.551661983366 2764.09332529194 10 13 6
103.415325424418 100.493102138774 2751.3115007548 13 16 9
117.372481355574 98.7440261484802 2728.07213673049 15 18 11
81.3753818399929 100.06204085009 2751.38874597203 16 19 12
55.1939489723052 100.795243726603 2765.76132516846 16 19 12
43.1786198920894 100.658805005498 2766.93164207403 16 19 12
14.9791851112191 101.547687008357 2783.54752152738 14 17 10
77.3150173880155 96.7089048185956 2713.84493539951 12 15 8
41.0461702606493 98.1124978880715 2738.20001909839 10 13 6
29.0662702737094 97.9793819748294 2739.39574166342 10 13 6
49.1692380084077 95.7722397461938 2709.49336896098 12 14 9
45.8749835300143 95.0683144225784 2702.16099259534 13 15 10
2.0187918393253 97.0268766599619 2734.60524015583 15 17 12
0.975614900496247 96.1870604506751 2725.19891973727 15 17 12
-24.5649861416315 96.9745227965645 2740.03632643499 12 14 9
-51.4223572467449 97.8681484700635 2756.39008388639 14 16 11
-61.7041919602026 97.6614714506973 2756.34632434677 17 19 14
-47.7198152357494 95.8085805459249 2731.89083630722 15 17 12
11.7594327484953 89.8741088647442 2650.23101939222 11 13 8
-40.9098657993647 91.6418996994278 2682.46096903919 18 21 14
-75.1295286032307 93.109567323715 2707.06683810699 21 24 17
-109.173605357766 94.5919074548034 2731.80006756827 18 21 14
-105.118671822457 92.4563411536549 2706.32085454952 15 18 11
-75.7916891932189 89.4024105096051 2664.57385612099 14 17 10
-51.5269725211114 86.6820565799988 2627.80435357928 19 22 15
-26.0804190228794 83.8447978156013 2589.42092437003 25 28 21
293.350229900876 94.8826940693685 2735.81521645094 11 18 10
219.128133882597 98.3244514819621 2789.48360586905 15 20 13
198.893137009257 98.6300561454669 2797.04850445791 15 18 11
197.328826731327 97.8359549861293 2788.49996602226 14 17 10
203.462464104922 96.5768068919235 2773.17793436705 14 17 10
167.927790973428 97.8205483712812 2794.35902241915 14 17 10
150.225466522968 98.0053824588925 2800.05418768289 15 18 11
137.18363840502 97.9146924289945 2801.71564188477 13 16 9
154.729546975192 95.946926756925 2776.13599805906 13 16 9
153.861354825307 95.1003759317109 2766.85649373621 14 17 10
139.293328210711 95.103936120644 2769.88212473152 14 17 10
143.700886220904 93.922587177136 2755.77958311288 13 16 9
131.43711039105 93.7863493316729 2756.76979668499 13 16 9
125.229411850603 93.2696407624073 2752.26708630341 12 14 9
109.263713837779 93.3782516333172 2756.75012083517 10 12 7
91.1088129713811 93.6365241792361 2763.352612406 11 14 7
103.615149169183 91.9132699412182 2741.53201672264 15 18 11
61.7025185194842 93.7326710994037 2770.44375281025 16 19 12
31.1261076679905 94.8370501154703 2789.04300748231 14 17 10
14.7449616222124 95.0221429104849 2794.46088784815 10 13 4
66.7061583629982 89.7281488909204 2724.64571552909 8 11 2
75.9065319631405 88.1726397678373 2705.36984766185 11 14 5
33.1309283261634 90.1419120961699 2736.12712307667 12 15 6
47.4004043678091 88.2344653918112 2711.87803328058 13 16 9
12.8809293669669 89.6748185420476 2735.03138710609 15 18 11
-2.640356160728 89.8216078521601 2739.83707359089 17 20 13
-7.27668771279633 89.2159063626834 2734.00295664873 18 21 14
-24.1579499926736 89.4708597853002 2740.29338809349 18 21 14
-35.9517100577951 89.3754018661831 2741.62453268245 19 22 15
-57.010184281918 89.9463451954342 2752.29922332312 14 17 10
-28.0596306662957 86.9398440978923 2712.74965696764 12 15 8
-11.4115587756554 84.7893011903616 2685.28318974023 11 14 7
-29.6319698462535 85.1546345618246 2693.07406495639 11 14 7
-21.6380798496738 83.6108961464636 2674.15839315042 11 14 7
-72.1892037392653 86.3716677325776 2715.33998566078 20 23 16
