ply
format ascii 1.0
comment KinectMotionCapture
element vertex 755
property float x
property float y
property float z
property uchar red
property uchar green
property uchar blue
end_header
30.6611399352521 783.266733961733 2808.24962860706 229 230 232
10.5558582080199 778.948135621634 2817.12046907996 233 234 236
-5.02240551253541 775.85447948016 2821.86843736173 234 234 236
-12.4206007881367 774.997795717994 2818.97135618442 233 233 235
-20.5469174613084 773.938809869563 2816.78045619637 228 228 230
-30.1290551735476 772.475463118901 2816.00222555905 225 225 227
-39.6900841363017 771.013538051661 2815.23959878285 221 221 223
-47.040580232043 770.15999117086 2812.37681717087 213 213 215
-55.8381254257614 768.902714755539 2810.93336155193 209 209 211
-61.7176148353726 768.454400520845 2806.66892340441 208 208 210
-68.3211238175159 767.804037236114 2803.11393570536 186 186 188
-72.7580667012973 767.758669570676 2797.42690358826 233 233 235
-79.360767630235 767.108032797905 2793.87220580193 202 202 204
-85.9600084461232 766.457447715996 2790.32031106424 215 215 217
-92.5554852105079 765.806918230598 2786.7708507724 220 220 222
-99.147294662278 765.156536478884 2783.22404974204 202 202 204
-106.445516593578 764.30535281658 2780.39946923463 222 222 224
-112.320270831649 763.855809100578 2776.13845748644 231 231 233
-118.901204626398 763.205531728774 2772.59954098066 220 220 222
-123.368720927923 763.156054678993 2766.89061920275 221 221 223
-129.94900242246 762.505352200259 2763.35217341006 227 227 229
-135.127955361084 762.254446765364 2758.36153238583 210 210 212
-140.311932457279 762.002914855945 2753.36695159232 219 219 221
-144.112114221751 762.149908963208 2746.90745892087 227 227 229
-147.926318853477 762.295557958482 2740.43779396043 229 229 231
-153.134749653652 762.041189099382 2735.42576626235 224 223 228
-159.036139111966 761.587068008981 2731.14542288928 225 225 227
-164.252627000619 761.331478869614 2726.12754825485 224 224 226
-166.740266994287 761.870230529154 2718.1511617179 221 221 223
-165.163135716934 763.598339663258 2705.7169246997 226 226 226
-163.63522663813 765.322341762706 2693.24698465637 221 223 222
-156.064809964786 768.826325667495 2674.05019018673 220 222 221
223.582662117682 809.52793014973 2785.19896118711 248 252 253
199.465058360316 804.379083011102 2796.09741941314 242 246 247
172.352613650037 798.426255202188 2809.76122219256 241 242 244
156.932213917237 795.523952788056 2813.3895620632 245 246 248
143.872179280017 793.233484275121 2815.02667565902 231 232 234
134.687189784665 791.958203165069 2813.30226220003 226 227 229
127.814265518875 791.291022359856 2809.55158995118 219 220 222
120.182050286944 790.422071678664 2806.48480057892 215 216 218
113.318799970894 789.755734315083 2802.74114545489 216 217 219
103.425226651736 788.282611941637 2801.73739346132 218 219 221
92.0405152459596 786.407973125593 2802.12072314476 216 217 219
80.6858499496408 784.535708635683 2802.52584592058 210 211 213
73.8724434574962 783.873170202451 2798.81834289055 213 214 216
65.5632814119431 782.808751618693 2796.49486687208 217 218 220
49.7918148671053 779.735947364876 2801.1028839223 219 220 222
29.6050827790206 775.462817372128 2809.91490959652 227 228 230
10.2443364151865 771.396621299307 2818.09142700454 231 232 234
-3.11117538730477 768.939616633692 2820.74853598821 232 232 234
-12.730132136725 767.487098310088 2819.94396377023 231 231 233
-21.5912871302744 766.236169476009 2818.45442820165 225 225 227
-28.9671794419377 765.386310983127 2815.57354949019 222 222 224
-37.7991384402709 764.137388887372 2814.10518888614 218 218 220
-43.694768154855 763.687976211327 2809.82904472327 209 209 211
-51.774260095433 762.640132177709 2807.67214541866 203 203 205
-56.9394269083039 762.390044853672 2802.69150239509 203 203 205
-65.0026992756911 761.343086221285 2800.54607101294 194 194 196
-73.7749436948929 760.097966514007 2799.12131251854 214 214 216
-81.0923640628214 759.251460434539 2796.28254387057 219 219 221
-86.2518823093217 759.00111378159 2791.30599429975 200 200 202
-91.4165662967601 758.750169414569 2786.32569694555 219 219 221
-97.2987049561098 758.300356069074 2782.05933070706 211 211 213
-105.311870392824 757.256033163693 2779.95053073579 211 211 213
-110.480953611429 757.004094741449 2774.96674477292 228 228 230
-117.77245522408 756.158175261303 2772.14706263204 221 221 223
-122.945477885977 755.905420236167 2767.16071122343 216 216 218
-128.824924942692 755.454600192292 2762.89629108601 228 228 230
-132.607964471414 755.59509682822 2756.44919227611 206 206 208
-137.79852679211 755.340223482862 2751.44982078779 220 220 222
-143.689124770087 754.887723420408 2747.17730859994 223 223 225
-148.888071742642 754.631524001151 2742.17214665875 220 220 222
-153.401806243362 754.571212761318 2736.42937096757 224 223 228
-158.613239692813 754.313434231934 2731.4151493143 225 224 229
-164.515639522095 753.858783211603 2727.13407081755 222 222 224
-168.367859781248 753.991853250478 2720.6367838026 220 220 222
-168.826940829065 755.102783994605 2710.42873124936 226 226 226
-167.963544408236 756.602035382462 2698.7109700214 222 224 223
-164.436928872809 758.879627121559 2683.98733461903 217 219 218
245.136983419626 806.059750361691 2777.33911885961 212 216 217
224.037710716068 801.768286022184 2785.48953150001 244 248 249
196.035595217176 795.679837176342 2799.74303709718 240 244 245
170.478030827906 790.201608001384 2812.06604200431 243 244 246
158.149468904674 788.132353139058 2812.99949964246 244 245 247
145.085961232588 785.866028133603 2814.63392337579 225 226 228
135.130727883036 784.401591943722 2813.58551670753 222 223 225
126.727264759183 783.337957798888 2811.19368379824 214 215 217
119.862286996816 782.673989733128 2807.44878841247 213 214 216
113.761805230626 782.209594839337 2803.02406673774 216 217 219
103.108953321975 780.550943551913 2802.70399437951 218 219 221
93.2379911486807 779.093035548052 2801.7167107519 215 216 218
82.6343991633625 777.43815540205 2801.43207258791 206 207 209
75.0642517990472 776.579311134627 2798.41032872846 210 211 213
63.0033293734762 774.5308016689 2799.53761455267 213 214 216
47.2386279010042 771.493824184262 2804.15071721787 215 216 218
25.5667524291581 766.876818704311 2814.35475669696 221 222 224
9.18911184537841 763.651769175992 2819.75761072683 224 225 227
-5.64575227081754 760.826713840665 2823.81080913358 225 225 227
-11.5625874737753 760.37597161837 2819.51928592522 223 223 225
-21.8997891722599 758.740909613922 2819.42786014799 217 217 219
-27.8049583031441 758.2908436264 2815.14479734951 213 213 215
-37.3721478043951 756.855393819397 2814.37783876989 208 208 210
-43.2679104018956 756.405761275 2810.10159716368 199 199 201
-50.6201849657026 755.562565716395 2807.23787321075 195 195 197
-55.7873178857609 755.30947092615 2802.25549520369 192 192 194
-63.8536038752879 754.270284186374 2800.10821302572 194 194 196
-73.3499857573294 752.83952506943 2799.39260815965 172 172 174
-81.387045076784 751.802228065353 2797.26652259043 214 214 216
-86.5441689592954 751.549167449176 2792.29140052139 183 183 185
-90.2772904221663 751.686897210208 2785.88047436797 198 198 200
-95.4494097483476 751.432243819438 2780.8947681911 213 213 215
-102.757416711952 750.590931731404 2778.06314430642 192 192 194
-107.933150771255 750.335527069947 2773.07451945002 206 206 208
-114.525965373576 749.689405674807 2769.52730582114 216 216 218
-120.411485368697 749.238213142823 2765.25848139433 202 202 204
-126.999081650587 748.592085924751 2761.71475613078 219 219 221
-132.184722862834 748.334903258844 2756.71923483885 192 192 194
-137.375410654892 748.077062430054 2751.71975736278 217 217 219
-142.571447314689 747.818529794534 2746.71669335121 228 228 230
-147.772667186095 747.559278541992 2741.70986827899 224 224 226
-152.288500315292 747.493211243128 2735.96554209167 223 222 227
-157.502253158598 747.232347241938 2730.94962343177 224 223 228
-164.779011733251 746.390389841318 2728.14035442546 220 220 222
-168.628979006132 746.515199005735 2721.6449532824 217 217 219
-170.447948174369 747.218159287122 2712.91909561679 225 225 227
-170.935298172567 748.30462461719 2702.69013189897 220 222 221
-169.427267097592 749.966346532314 2690.20546640504 215 217 216
-159.868814095175 753.935590731981 2668.74679416764 222 224 221
242.471851397835 797.455871128505 2780.30426290659 217 221 222
219.04306913758 792.623050633874 2790.46833216709 238 242 243
198.815236042867 788.588394813384 2798.01673413396 240 244 245
174.795306832187 783.572295104179 2808.98667111527 243 244 246
161.682872999526 781.32659111403 2810.58573168017 241 242 244
147.069604841231 778.689568884628 2813.56548552144 219 220 222
137.109335999621 777.238216507589 2812.5132003126 218 219 221
126.404932161114 775.591728872379 2812.15581847154 210 211 213
118.778823221604 774.733877396169 2809.09351190063 211 212 214
111.160941012835 773.876711890426 2806.03687805997 214 215 217
102.03336900264 772.627451009319 2804.35451403593 216 217 219
93.6792542653806 771.575670945846 2801.9985148685 213 214 216
83.0747179004403 769.936934740387 2801.7132738758 202 203 205
70.9911238424637 767.908375598609 2802.82452007919 207 208 210
56.6921198575656 765.295517421623 2806.03191864516 211 212 214
42.4407499539332 762.686189545466 2809.27386605486 213 214 216
25.9999460747551 759.494388973533 2814.63139455347 218 219 221
8.87664427115542 756.112067254049 2820.72794286643 222 223 225
-5.95794865769328 753.319594267202 2824.78150289869 222 222 224
-14.0896464788631 752.284368730924 2822.58682235229 220 220 222
-21.4719597902469 751.444673849999 2819.70104592478 214 214 216
-25.1735129976303 751.577921579969 2813.31327604812 210 210 212
-32.5508043195699 750.738364689028 2810.43114086688 205 205 207
-39.189974331667 750.093466238917 2806.85003492961 196 196 198
-48.009759435381 748.866660161441 2805.39090594059 194 194 196
-52.457732971404 748.803939469068 2799.69578957178 191 191 193
-60.5333955973222 747.772058532224 2797.54174707532 186 186 188
-70.7608818422942 746.160502424284 2797.53026991082 165 165 165
-79.5242708965587 744.937418283971 2796.11174799692 199 199 201
-85.4028982335349 744.487949138563 2791.84792893439 184 184 186
-89.1379374524162 744.617099662029 2785.43556910318 190 190 192
-94.3122558086362 744.359370550264 2780.44825322337 210 210 212
-100.202138610543 743.908362276613 2776.17626703813 190 190 192
-105.384483617634 743.649643967252 2771.1828329803 198 198 200
-113.396148195621 742.620976040115 2769.0752003091 215 215 217
-119.28399334563 742.16941591321 2764.80468846595 203 203 205
-125.874347698917 741.52558485921 2761.25926992513 220 220 222
-130.362770920185 741.457107922895 2755.53480155974 192 192 194
-136.255196777638 741.004429909911 2751.26096340169 212 212 214
-142.148447026046 740.551356521082 2746.9865256224 222 222 224
-148.042452748167 740.097953083289 2742.71153851232 216 216 218
-151.865487010038 740.217525530501 2736.2353406817 221 220 225
-157.079342902465 739.95372573424 2731.21933244891 222 221 226
-164.356660070642 739.117040280867 2728.40968520968 217 216 221
-168.890274793894 739.042941141376 2722.65272255952 214 214 216
-170.706378027941 739.729554686678 2713.92885967133 223 223 225
-171.190698328528 740.794200474705 2703.70227620269 219 221 220
-171.033610365195 742.045808869428 2692.70627916915 215 217 216
-169.5667742993 743.673813799372 2680.19157975081 217 219 216
273.504911649738 796.193814208466 2764.505317719 207 211 212
249.956913554556 791.411687513395 2774.58351612768 231 235 236
221.832910362681 785.466328085515 2788.74909303408 237 238 240
198.489860890512 780.70005771687 2798.97594338883 238 239 241
179.114314154029 776.915181871026 2805.90812000407 238 239 241
164.445080716779 774.303617225113 2808.84743236795 230 231 233
149.823702729984 771.695859302194 2811.82116097393 208 209 211
138.320712968381 769.868873195205 2812.11898952341 205 205 207
127.613246347095 768.238357886258 2811.75946830873 204 204 206
119.221368234121 767.191673598976 2809.37611947544 210 211 215
110.080865675015 765.952228215189 2807.68413706096 211 212 216
101.716101745963 764.907591119654 2805.32045424767 210 211 215
92.6070929631506 763.670577595345 2803.65131466158 212 213 217
82.0057156941516 762.04820862846 2803.36874114527 197 198 202
66.9159475549952 759.269117578443 2807.23738700401 197 198 202
51.8783264202272 756.494061427519 2811.14356129965 212 213 217
39.8841288278442 754.493833963195 2812.3197564143 208 209 213
26.4329966539432 752.111051495551 2814.90792410016 217 218 222
11.5379839382452 749.346652059758 2818.91753226056 216 217 221
-4.78798575707184 746.20149422188 2824.35854276437 213 213 215
-12.183070805512 745.366231246909 2821.46353028059 204 204 206
-21.0441771835905 744.147538139522 2819.97419323471 208 208 210
-26.9495190903015 743.69709969234 2815.69100330076 203 203 203
-33.5882537489138 743.054905468869 2812.11052113499 194 194 194
-39.4929549090741 742.604250082136 2807.82779459305 188 188 188
-46.8547268347148 741.770879300124 2804.95694108725 190 190 190
-52.7567153401707 741.320144949598 2800.67618060663 189 189 189
-60.1070508155428 740.48732267118 2797.81391488299 188 188 188
-68.8923998032571 739.273452393348 2796.37952041472 167 167 165
-77.6610017153503 738.060640096335 2794.95727161784 157 157 155
-83.5441929741858 737.610621990912 2790.69014129037 218 218 218
-88.7132834302937 737.350627925676 2785.70660375449 175 175 175
-93.1747257868856 737.280065057512 2780.00168382804 199 199 199
-99.0669370447248 736.828748665332 2775.72800813471 183 183 183
-104.251684980373 736.566799115761 2770.73311025285 189 189 189
-112.266226548701 735.545963535373 2768.62343166233 200 200 200
-117.452564252156 735.283466990175 2763.62737855322 188 188 188
-124.749255135877 734.452530667142 2760.80371601462 198 198 198
-130.638871082135 734.000199775932 2756.53191657941 192 192 192
-136.529309768824 733.547443770681 2752.25951856882 207 207 207
-141.030410192921 733.47176671306 2746.52611823553 216 216 216
-146.233842006692 733.206530760068 2741.51736488838 217 217 219
-152.133261764912 732.75221077445 2737.2384483855 214 211 218
-158.722068578912 732.109251886082 2733.69415610663 223 220 227
-163.24810326658 732.030498999894 2727.94237033686 211 210 215
-167.099684992429 732.138558236614 2721.44541952368 213 212 217
-170.283383970275 732.432867463743 2714.19853793158 225 225 227
-172.126002560277 733.100544957436 2705.45535758115 220 220 220
-173.318362965949 733.95310439914 2695.94946310006 208 208 208
-169.815431738497 736.11326277848 2681.20806361428 213 213 211
283.365303696922 790.620018937527 2756.80377099184 205 209 210
259.787888671128 785.895541318901 2766.86064196665 225 229 230
224.623652493093 778.292502173665 2787.03042035466 234 235 237
194.280815202754 771.855219816706 2803.29072422584 236 237 239
174.141376131304 767.925246317823 2810.90344066618 236 237 239
163.347251238873 766.304200015465 2810.48114698376 226 227 229
150.268581021592 764.109873078648 2812.10523822592 201 202 204
141.835956160795 763.068013009239 2809.69237564117 199 199 201
130.353152144584 761.26160096216 2810.00494147994 201 201 203
124.244661435442 760.795989688428 2805.57440779034 208 209 211
112.806544720254 758.993048451561 2805.91938598763 209 210 212
105.193767203157 758.146821752625 2802.86680253113 209 210 212
94.5614907845616 756.538319415389 2802.56189979907 210 211 213
84.7096210683222 755.122334574167 2801.58837457309 198 199 201
67.3538292471765 751.803963984787 2807.51700431286 195 196 198
47.8123999652671 747.919926707814 2815.56346348782 211 212 214
38.074438535018 746.512463140694 2814.67285044823 207 208 210
26.8659539627714 744.726780432495 2815.18438130439 214 215 217
13.4563800690293 742.374219493944 2817.80282855244 213 214 216
-2.87612958603911 739.266638042107 2823.23899395464 206 206 208
-12.4941159461487 737.868087252164 2822.43539854877 198 198 200
-20.6164894978171 736.849498582167 2820.2472671563 199 199 201
-27.2569565543153 736.209762871109 2816.66554159118 203 203 203
-34.6263054517417 735.381334444695 2813.78922041084 192 192 192
-41.2573227808992 734.742125291677 2810.21434782186 186 186 186
-47.1563678071578 734.291509908162 2805.93572173472 187 187 187
-51.6039581730443 734.217528675772 2800.24082609726 190 190 190
-56.7851346823989 733.954404728088 2795.24851126998 184 184 184
-64.8584239131091 732.938578045659 2793.09627061632 177 177 175
-72.1996462003909 732.111382671578 2790.24034526157 153 153 151
-78.815864977573 731.472177490004 2786.67620047885 223 223 223
-84.7131978169551 731.020774783585 2782.39881160457 183 183 183
-91.3242721425187 730.381587666789 2778.83810175909 182 182 182
-99.3532446620617 729.368066640171 2776.71799891372 179 179 179
-105.244249946135 728.916369994794 2772.44519553046 188 188 188
-111.842336813614 728.277577824976 2768.893902571 194 194 194
-116.324532819955 728.198851475783 2763.1738965313 185 185 185
-123.624085477682 727.372951131254 2760.3484794169 190 190 190
-130.215770921039 726.733841134768 2756.80182537655 189 189 189
-136.80406021702 726.094628287672 2753.25792723196 207 207 207
-141.997891140401 725.827631001728 2748.25612485365 208 208 208
-147.890164589013 725.373949690702 2743.98239209813 214 214 216
-154.47419328627 724.734215714298 2740.44157991287 214 211 218
-159.677022751853 724.465533545038 2735.43324576501 220 218 223
-164.198764029414 724.381403425069 2729.68483962012 207 206 211
-167.361474236952 724.666569474208 2722.45312692354 210 209 214
-172.588641546433 724.395049382848 2717.42713537861 226 226 228
-173.741934724245 725.231655684838 2707.94948075893 220 220 220
-174.249300355108 726.250134505137 2697.70595739378 206 206 206
-172.090792630994 728.003395996742 2684.45796886445 213 213 211
-165.946686282766 730.858080659722 2666.69429050791 215 217 214
292.580067756957 783.759000686914 2759.74359333709 204 208 209
285.395996644534 783.08023510698 2755.76730541974 214 218 219
268.841290409766 780.123629355626 2759.80812387189 210 214 215
242.995117250958 774.895198246648 2771.92317539922 220 221 223
201.721829348103 765.884925677835 2797.53842036823 229 230 232
177.68675358994 761.055463356239 2808.49832264918 230 231 233
165.338033522365 759.071442966702 2809.4175989477 218 219 221
153.794140651582 757.27911044626 2809.68595148767 202 203 205
146.888433487685 756.6222681405 2805.9115665829 196 196 198
134.625658583961 754.6450206779 2806.89288619404 202 202 204
126.215272877405 753.612878283516 2804.49619446875 206 207 209
110.964378017028 750.886661472209 2808.24830394711 207 208 210
104.117275512301 750.234357694066 2804.51642579899 207 208 210
92.7314259682519 748.454290751302 2804.89940944689 207 208 210
85.1497570948361 747.615692295636 2801.86941594864 201 202 204
67.7916143679518 744.337936282449 2807.7965471875 193 194 196
50.4986311417421 741.065030350413 2813.77064402857 209 210 212
37.7602891327902 738.921155675138 2815.64170200257 205 206 208
25.8068404222191 736.967383872785 2816.84737768133 215 216 218
10.1683721409414 734.081000778222 2821.55275227106 213 214 216
-0.963762593876538 732.319964097227 2822.11975559073 194 194 196
-8.36861826774804 731.494404990574 2819.21800380109 186 186 188
-15.0280233829405 730.855962558403 2815.62226170675 176 176 178
-26.8296435689059 728.91324629804 2816.9383515987 202 202 202
-35.6651944492643 727.717713037734 2815.46765758769 198 198 198
-42.291972032688 727.081316361357 2811.8955782496 182 182 182
-46.0012164004202 727.188360310286 2805.50180568232 180 180 180
-51.1771841308561 726.922880244378 2800.51325487584 172 172 172
-58.530626580001 726.100291306001 2797.6487886745 180 180 180
-65.1540491116458 725.463568988082 2794.0791398356 177 177 175
-71.0543237797019 725.012017576455 2789.79961761371 169 169 167
-76.9553862468491 724.560282856686 2785.51952337095 167 167 167
-82.1420890594804 724.293036972172 2780.52318153006 209 209 209
-90.1862977999999 723.286526288232 2778.39206913172 170 170 170
-98.9289260396986 722.096310276961 2776.98876365891 186 186 186
-106.946146877119 721.091507963628 2774.87722402071 170 170 170
-111.418578591274 721.008076199999 2769.16427249094 180 180 180
-114.492188402791 721.291618290243 2761.99714234726 178 178 178
-120.392458679984 720.838245047961 2757.71761408047 188 188 188
-129.092955878393 719.650068013143 2756.34486062643 186 186 186
-136.381405324055 718.829757042111 2753.52752077868 196 196 196
-142.96624102287 718.193143625317 2749.98584491 199 199 199
-149.54754394251 717.556487812052 2746.44672981358 209 209 211
-156.125378496484 716.919734998663 2742.91042299515 206 204 209
-159.944092057728 717.014176733633 2736.43723004061 214 212 217
-163.776826835702 717.107243618417 2729.95386584294 204 203 208
-167.623510612118 717.198941503503 2723.46038278437 207 206 211
-172.166387639842 717.106905308809 2717.69632036028 227 227 229
-173.318876079017 717.92421980748 2708.21915139603 217 217 217
-173.147309554102 719.102739564877 2697.2332799724 201 201 201
-173.6919603157 720.095913430704 2686.96259964569 216 216 216
-170.232218154571 722.175503492415 2672.18948338962 215 217 214
289.901179324288 775.080481908059 2762.69809252721 204 208 209
284.292746739471 774.77948941544 2757.39585884108 225 229 230
273.210118546354 773.168367946839 2756.76417875324 202 206 207
241.894870875897 766.698052674818 2773.55443089859 213 214 216
206.834682523045 759.304629861459 2793.80069752361 227 228 230
178.134227842583 753.416605054689 2808.78401396123 226 227 229
166.55707423143 751.640606448481 2809.02833781518 214 215 217
155.780230751839 750.053251665403 2808.61874245192 198 199 201
150.406336482431 749.770871057179 2803.48662486879 194 194 196
138.133462978594 747.814373012632 2804.46072888909 200 200 202
128.950245904465 746.603878296504 2802.73792845193 205 206 208
112.929311714327 743.723940698161 2807.16607798981 206 207 209
103.799226766766 742.517342428502 2805.48210837839 205 206 208
91.6573338523126 740.571007193818 2806.55121449983 204 205 207
83.3247604415321 739.552845543431 2804.21100138357 201 202 204
68.2291634323113 736.870933555866 2808.07591400112 194 195 197
51.6844416951221 733.823469055581 2813.35854684037 206 207 209
38.1940474744771 731.518966616304 2815.91864913443 203 204 206
24.0006185421966 729.033312412959 2819.20322562233 215 216 218
9.8545376712349 726.551205569923 2822.52243817543 211 212 214
-0.534578444271627 724.993219379301 2822.39376893359 195 195 197
-7.9397760567983 724.172949771355 2819.49179605767 183 183 185
-14.5995090969981 723.536930270025 2815.89582851613 169 169 171
-25.6670780946684 721.799375869337 2816.50975585894 192 192 192
-35.2387067570517 720.430837976682 2815.73991815872 197 197 197
-41.1349461385992 719.980210906417 2811.46332588411 174 174 174
-45.5746442827694 719.895607322839 2805.77409768229 177 177 177
-49.2976244826955 719.993084766324 2799.37031926089 163 163 163
-55.9316834813812 719.358139862199 2795.79326330001 177 177 177
-61.840027476662 718.906024360798 2791.50788859338 173 173 171
-67.0292922985514 718.636051326347 2786.50938120673 175 175 173
-73.6592981353272 718.000837335387 2782.93526210645 143 143 143
-80.2855465226926 717.365797893726 2779.36357326853 193 193 193
-87.6216020835055 716.548859298087 2776.5117398137 189 189 189
-96.3716354530033 715.368767403544 2775.10311748491 192 192 192
-104.396111222611 714.371383031031 2772.98635616487 158 158 158
-108.875043579854 714.281778852278 2767.2686609157 165 165 165
-113.363731771015 714.191155725294 2761.54418277018 170 170 170
-119.266378649668 713.737470464159 2757.26293007383 183 183 183
-127.969898084459 712.559742737409 2755.88803866394 180 180 180
-135.26093108896 711.744499438566 2753.068557131 187 187 187
-141.84852320865 711.110152447648 2749.52518903091 201 201 201
-147.73909010704 710.656221051423 2745.25269212333 206 206 206
-153.630362683092 710.201933768361 2740.97968185232 203 201 206
-156.766339563345 710.467598023764 2733.76695545775 211 209 214
-162.668050780903 710.011867656174 2729.48637068323 202 201 206
-168.570491748887 709.555779451584 2725.20525508453 206 205 210
-172.42677225551 709.637927912042 2718.70506125873 227 227 229
-174.9364246975 710.077484027106 2710.71221498324 213 213 213
-174.07918378695 711.410985357158 2698.98915193779 200 200 200
-176.645687605635 711.845438412633 2690.95536151508 217 217 217
-171.152187979046 714.424272447092 2673.95338937576 215 217 214
-159.692503495911 718.605122311728 2650.16862787281 209 211 208
290.364369329696 767.161951466804 2762.9937599293 200 204 205
285.540131745554 767.042730758801 2757.02559553842 242 246 247
273.672816447093 765.263060766591 2757.05955639659 191 195 196
245.46984663453 759.616515800065 2771.1696967456 204 205 207
206.509368738478 751.402208554412 2794.76017440301 216 217 219
182.456200923929 746.696563354941 2805.70758852432 213 214 216
169.321623087165 744.571002580311 2807.29120497715 203 204 206
160.078306807391 743.3664332753 2805.52516183363 192 193 195
150.851983045189 742.163200323433 2803.77114922062 193 193 195
139.344038878864 740.411538140166 2804.0657677469 200 200 202
127.866091025946 738.662276120905 2804.38214339823 202 203 205
113.37112685204 736.183559703148 2807.44816569565 202 203 205
101.961671199103 734.439408595696 2807.81451316924 201 202 204
89.0678157619154 732.332572350446 2809.57272927022 198 199 201
81.4986680895808 731.505383675552 2806.55187045064 198 199 201
69.4198277852185 729.585395331769 2807.66681820694 195 196 198
60.37819778633 728.396208963736 2806.04705967025 199 200 202
44.6164291417057 725.571190793528 2810.66306754364 197 198 200
30.4034457047027 723.113804851289 2813.93390621509 211 212 214
13.2614712713321 719.933726722267 2820.0179427439 202 203 205
3.60436402757669 718.572572754975 2819.18617719687 198 198 200
-3.81224569360805 717.756636094694 2816.27595338707 176 176 178
-11.2207632174921 716.941195274726 2813.3713038183 160 160 162
-22.2982855692342 715.221773330772 2813.9781076068 172 172 172
-30.4131478991807 714.227402318881 2811.79583840349 197 197 197
-36.3226671933712 713.775550068052 2807.50961303101 172 172 172
-40.0465864186348 713.864676921608 2801.10511159271 171 171 171
-46.691195048612 713.231595723287 2797.52041741901 164 164 164
-56.9538422701412 711.698402542498 2797.48355375888 168 168 168
-62.857910531636 711.246364576049 2793.20127901565 175 175 173
-68.0428893549734 710.973761922897 2788.20615979831 165 165 163
-73.2331269092548 710.700494278629 2783.20722504636 133 133 133
-80.5752905554655 709.888517060667 2780.3506943634 135 135 135
-85.0560644758036 709.793845188389 2774.631932934 199 199 199
-91.6799215313788 709.161030760989 2771.06198889367 179 179 179
-99.0093322928789 708.349409973414 2768.21499933141 167 167 167
-104.917118223745 707.895517495091 2763.93002017684 154 154 154
-110.121110376358 707.619900468375 2758.92080804592 165 165 165
-117.4375943444 706.808460609914 2756.08319030855 176 176 176
-127.546794124807 705.284602063137 2756.15790573201 170 170 170
-134.140400530426 704.652655064645 2752.60989542711 178 178 178
-140.730426011343 704.020669570007 2749.06448081596 202 202 202
-145.929880973926 703.743996613096 2744.05884691945 196 196 196
-151.825812112367 703.289122831174 2739.78245658641 202 200 205
-154.966005818603 703.543283741581 2732.566909535 208 206 211
-160.872284259068 703.087063890369 2728.2830114038 199 199 201
-166.094738208866 702.807392626513 2723.26068986361 203 203 205
-170.639730682251 702.703803860334 2717.49503539177 228 228 230
-174.514005801786 702.775910960607 2710.98145154855 208 208 208
-175.68981754422 703.552502531729 2701.48716875437 200 200 200
-178.249058727302 703.973643146274 2693.45828126404 219 219 219
-173.420517642135 706.330280048417 2677.20876659808 215 217 216
-165.977079433312 709.385058984783 2657.91735294091 208 210 207
297.116013875231 760.698943333509 2757.97425827259 211 215 216
289.139147090816 759.845236939379 2754.65770085002 216 220 221
277.262024525386 758.083681366679 2754.68464396417 179 183 184
249.045980499741 752.512370095086 2768.78568761061 185 186 188
207.738394745796 743.86727081723 2794.37762453309 209 210 212
183.679506245415 739.223743824822 2805.32120624812 208 209 211
173.632729012862 737.846346531312 2804.2068783346 200 201 203
164.378074287591 736.651661957938 2802.43237130106 192 193 195
152.066163828036 734.735405366363 2803.37838042997 194 194 196
138.255893370741 732.460800466323 2805.70704352754 197 197 199
126.781193941097 730.730561163545 2806.02587038404 203 205 204
116.860425552368 729.363062914222 2805.00264463415 202 204 203
105.44129926426 727.637086680418 2805.36177924022 194 196 195
94.0521227945568 725.913476972098 2805.74263709573 193 195 194
84.2035023647609 724.551445535644 2804.7720351085 191 193 192
74.3762108509518 723.191042005152 2803.81660867629 190 192 191
63.0679547291066 721.473430539591 2804.25645227819 206 208 207
47.2973100150575 718.682952518112 2808.86649512912 197 199 198
33.8226104621553 716.433759802796 2811.43825497743 207 209 208
18.902427148725 713.83009329237 2815.43043057832 192 194 193
5.51841533126307 711.587709600666 2818.06796639046 196 196 198
-3.38292377271388 710.419566857751 2816.55001430756 182 182 184
-10.7917799342068 709.609356060097 2813.64514574425 159 159 161
-18.9283731796104 708.621379632477 2811.44715572639 152 152 152
-27.0526329176655 707.634252996962 2809.25811083559 191 191 191
-32.2399242524107 707.359312227248 2804.26130338635 174 174 174
-36.7033634361666 707.26155351744 2798.55479816498 162 162 162
-44.0836891499465 706.452798077288 2795.67091378078 164 164 164
-52.9050626337419 705.289808719099 2794.21066210839 148 148 148
-60.2649095457768 704.482313597099 2791.34133515135 184 184 182
-66.176561693102 704.029243044614 2787.05355745718 162 162 160
-71.3711648261057 703.752724164747 2782.05144153591 165 165 163
-78.0024569084719 703.122294608019 2778.47611976582 120 120 120
-81.0625201412876 703.374373742933 2771.31865046007 154 154 154
-86.2751464867131 703.095827215615 2766.30345885704 147 147 147
-92.9112168101989 702.464353386101 2762.72466794855 160 160 160
-99.5438494428744 701.832899559089 2759.14866367383 141 141 141
-106.877519918933 701.025613218245 2756.29831363139 160 160 160
-115.608337460389 699.867450661055 2754.90373234285 168 168 168
-125.723055445417 698.359365523988 2754.97452739744 166 166 166
-133.019672065084 697.554195159897 2752.15134368112 170 170 170
-138.220384156145 697.274811147222 2747.14449025629 197 197 197
-142.732809681115 697.169659086467 2741.40273081899 174 174 174
-148.637807998648 696.71390140238 2737.11976301719 203 201 204
-155.232857524264 696.083121987102 2733.57071247785 192 190 193
-161.13721936173 695.626788554939 2729.28820315775 189 189 191
-164.987684090123 695.69293837883 2722.79184980043 197 197 199
-168.8521667342 695.757653876142 2716.28532729172 226 226 228
-173.411268257102 695.646958096461 2710.50970334738 195 195 197
-177.979775180467 695.53528091272 2704.7269617795 203 203 205
-179.177589959544 696.290494021107 2695.21662022835 219 219 219
-178.385454791613 697.563189183706 2683.44605264543 218 220 219
-172.265030360621 700.218053959454 2665.66419463458 210 212 211
293.649198885261 751.860575171587 2761.59209412372 210 214 215
284.899017659086 750.833734777054 2758.94910423033 215 219 220
276.161395813183 749.80803132002 2756.31522465855 184 188 189
253.402881252482 745.564626056947 2765.73313415383 156 157 159
213.632167325948 737.398023954064 2789.9715326866 195 196 198
184.127585367412 731.566145094557 2805.60724111891 197 198 200
172.53410388798 729.845580373358 2805.84000933624 195 196 198
164.824773291842 729.018058052174 2802.71752723356 187 188 190
152.511760843499 727.123399192132 2803.66284690404 188 188 190
137.933469058039 724.697925457375 2806.66902739925 198 198 200
125.695724572534 722.809065422659 2807.66893979449 201 203 202
116.540596616462 721.632719563758 2805.96667472915 200 202 201
107.402043477787 720.457577448753 2804.2767256769 196 198 197
96.7650102197415 718.929553008335 2803.96878224681 194 196 195
89.1756336847776 718.111230123066 2800.93300952296 187 189 188
79.3341713374263 716.763131313814 2799.96766715395 182 184 183
67.2606991073033 714.886712878481 2801.08672703201 201 203 202
49.2302406471286 711.601041504882 2807.76147878422 195 197 196
37.2430716085064 709.731136640019 2808.94313468012 206 208 207
20.8228687436609 706.806864957604 2814.31695238023 190 192 191
8.17518166683184 704.767019349356 2816.25396049991 194 194 196
-1.4735296612467 703.433221158352 2815.42841989374 183 183 185
-7.41140667042761 702.979071616355 2811.12162577225 159 159 161
-15.5573524794599 701.998402941829 2808.91689289663 144 144 144
-22.9572818807104 701.193784432247 2806.01852385837 181 181 181
-28.8868066065169 700.739893311644 2801.7177857943 184 184 184
-33.3590255410792 700.635728168132 2796.00517797137 159 159 159
-40.748386314222 699.831517756678 2793.11447242427 162 162 162
-50.3041473474775 698.503845596508 2792.35634450003 146 146 146
-57.6711874803615 697.701005685605 2789.48212108027 176 176 174
-62.8691803146251 697.42142375635 2784.47723790024 164 164 162
-68.0725526914845 697.141267022989 2779.4687465405 160 160 158
-73.9971678194002 696.686489142542 2775.1715630571 137 137 137
-78.4950398993822 696.5791301892 2769.4400480673 135 135 135
-84.42574970286 696.123500109172 2765.13844210696 171 171 171
-90.3572664266221 695.667595556248 2760.83624980263 137 137 137
-96.9968743679812 695.03808589168 2757.25519882535 125 125 125
-102.927928072589 694.581681154134 2752.95333963995 164 164 164
-112.373224540544 693.260348641352 2752.27502747107 160 160 160
-121.797481176257 691.940372485111 2751.61226887282 165 165 165
-130.502134176934 690.79439638038 2750.23671654506 181 181 181
-135.709681886018 690.511481774029 2745.22518442871 184 184 184
-140.922301898198 690.227936792829 2740.20967762161 165 165 165
-147.52368876939 689.599462299574 2736.65633915713 205 203 206
-155.500163560133 688.627224981503 2734.57420766882 188 186 189
-161.402562299599 688.17081160691 2730.29312103543 189 189 191
-164.565591842026 688.40030042251 2723.06089483001 193 193 195
-168.429851416717 688.456639984895 2716.5544916033 228 228 230
-172.308128907092 688.511545220702 2710.03791922521 194 194 196
-178.235736376414 688.051864909644 2705.73854169789 202 202 204
-180.106853494977 688.617053684998 2696.97447750738 218 218 218
-181.331097398072 689.350470024394 2687.44486651528 217 219 218
-178.556065543571 691.104349046965 2673.40877598407 210 212 211
283.009443714309 742.383385742542 2761.24191343307 205 209 210
275.842099810047 741.718670813744 2757.27782259521 149 153 154
261.660210775188 739.46933282282 2759.33692496003 142 143 145
221.860772010913 731.417710668863 2783.55508264101 185 186 188
187.677128683399 724.610847751445 2803.20470987361 192 193 195
173.754164358103 722.381649136193 2805.45161429602 195 196 198
163.729351827028 721.032856201481 2804.35335395007 190 191 193
155.263454020728 720.036304807923 2801.91660059442 187 187 189
140.677057358337 717.640006165058 2804.91675899194 195 195 197
129.960207445452 716.121915362728 2804.55100508122 199 201 200
118.50682048027 714.431160698457 2804.88548179552 198 200 199
110.123463912326 713.440937602841 2802.50859639915 196 198 197
102.510343411879 712.626068134934 2799.45562866023 194 196 195
92.638183559115 711.289074203352 2798.46808926283 177 179 178
80.5269174975942 709.431370666825 2799.5598463806 178 180 179
65.4447918422068 706.880552551017 2803.43518868635 197 199 198
51.1636771487605 704.507401941135 2806.65676974755 195 197 196
39.1706508200729 702.658600446116 2807.83458093863 194 196 195
24.2333421237082 700.118637475336 2811.81466465494 172 174 173
9.34781252760475 697.582550956528 2815.83259825807 175 175 177
-1.78437968710599 695.915785359395 2816.40003741097 190 190 192
-8.45838262383802 695.288627284724 2812.79406467879 181 181 183
-14.3928198438503 694.834368069212 2808.48976357836 138 138 138
-21.7954005184953 694.034822104562 2805.58949826887 153 153 153
-26.9957943504391 693.752845504933 2800.58315690193 199 199 199
-33.6598092585898 693.126008263069 2796.98413185288 178 178 178
-40.3204374746675 692.499146661955 2793.3875617658 162 162 162
-48.4272901745615 691.528634991627 2791.21121976652 159 159 159
-55.0765333869436 690.902377470175 2787.6232004484 154 154 152
-59.560634227479 690.790876685073 2781.90164754476 172 172 170
-65.4910990368403 690.335624915192 2777.60022110211 170 170 168
-69.9901790530633 690.222582058823 2771.86780166345 150 150 150
-75.9267642612729 689.766505877394 2767.56193423724 135 135 135
-81.8642012342468 689.310091846352 2763.25544763731 151 151 151
-87.802517345795 688.853397491928 2758.94832231116 176 176 176
-93.7416885231541 688.396424764284 2754.64057571955 131 131 131
-99.6817579602811 687.939080548505 2750.3321760786 130 130 130
-108.434193849572 686.800625052077 2748.92231748553 138 138 138
-116.469085648856 685.83319480173 2746.79815708682 151 151 151
-125.190028279456 684.696652942042 2745.410843845 145 145 145
-131.10923612934 684.239863614996 2741.11757002447 160 160 160
-139.111435746097 683.274185638799 2739.01711776218 170 170 170
-147.101169938027 682.309159038141 2736.92570525171 190 188 191
-155.078350218857 681.344840366833 2734.84310244809 179 177 180
-160.29359174534 681.057210024128 2729.82596903319 189 189 191
-164.828937780694 680.937625073317 2724.06752092333 188 188 190
-168.690806086791 680.985734477185 2717.56280949089 204 204 206
-171.885693008636 681.200952215521 2710.30712242841 194 194 196
-177.813553724691 680.7410422853 2706.00756015406 201 201 203
-181.036711051278 680.953352853889 2698.7316590235 214 214 216
-184.27824346368 681.163876116526 2691.44242834804 210 211 213
-181.490399888449 682.882976614147 2677.41544914651 208 209 211
-178.760731929136 684.597214878548 2663.3462725713 211 213 212
280.334597176289 733.774945306467 2764.1996976395 203 207 208
274.740072232039 733.460382509299 2758.90747716256 217 221 222
264.460882109597 732.105280438148 2757.62448663789 144 145 147
230.092388620356 725.382258866452 2777.1405367163 182 183 185
189.676549094665 717.286934371508 2802.14696207594 187 188 190
171.880926688843 714.21990165754 2807.75772783729 191 192 194
161.862017155482 712.884999417986 2806.66381705947 189 190 192
154.171364233536 712.069405134085 2803.55464074224 186 186 188
141.121073670089 710.047766626657 2805.20017970207 191 191 193
130.403281028105 708.545790026674 2804.83382400852 198 200 199
117.424108456932 706.529693408021 2806.53065151242 196 198 197
110.564917490664 705.891386513762 2802.79037555454 196 198 197
102.95155464366 705.081754868819 2799.73725866404 193 195 194
93.8343135942974 703.929548325121 2798.06287537334 176 178 177
80.9660033846073 701.921865227876 2799.84011198514 171 173 172
64.3791090673198 699.06097996897 2805.09341255873 192 194 193
50.1006354046103 696.717795731998 2808.31705994506 194 196 195
37.3636173169514 694.719982449628 2810.18981748761 195 197 196
26.8998300078791 693.237029775164 2810.00769204057 173 175 174
12.7485017976818 690.903398940121 2813.32355826871 166 166 168
0.125395744894341 688.913947517639 2815.27893543081 190 190 192
-7.2912101010143 688.118761788701 2812.36852506082 192 192 194
-14.7000949547953 687.323972929349 2809.46400829003 137 137 137
-20.6333070798486 686.869424625392 2805.16059382279 139 139 139
-26.5673775717592 686.41465742461 2800.85655599834 197 197 197
-32.5023529255302 685.95963768848 2796.55186094108 190 190 190
-37.7110678368839 685.673790694506 2791.53946784178 157 157 157
-45.8249168228284 684.710737431749 2789.35779738671 161 161 161
-51.0353435163275 684.424363429533 2784.34416071061 140 140 138
-56.9716115121313 683.968671408738 2780.03852518429 164 164 162
-61.4720169751999 683.849975359957 2774.30541074342 172 172 170
-65.981951503594 683.730347632698 2768.56508928357 144 144 144
-72.6437148453172 683.104768181498 2764.96770281404 147 147 147
-78.5901194052838 682.647418572547 2760.65471068002 124 124 124
-85.247135223848 682.021786003432 2757.06105999931 166 166 166
-89.7782092196877 681.899639202051 2751.30540132877 130 130 130
-95.0242757170183 681.60885451097 2746.26590625726 125 125 125
-103.087652009627 680.64751070503 2744.12112767049 128 128 128
-110.437740980797 679.85415882776 2741.25894609136 139 139 139
-118.47857292835 678.893984183223 2739.13051630348 160 160 160
-125.810710948492 678.101439709591 2736.28164631851 149 149 149
-136.605752342452 676.475280087831 2737.0936989738 160 160 160
-145.294733162839 675.351035861188 2735.72961782024 181 179 180
-151.207813607051 674.893637661756 2731.44078280279 178 176 177
-157.121718442218 674.435844086478 2727.15134816409 185 185 185
-163.036473391627 673.97768292339 2722.86129539752 194 194 194
-168.26887496808 673.68510766826 2717.83169724922 192 192 194
-172.144441829422 673.723414611271 2711.31700579034 195 195 197
-177.391521706907 673.429012581623 2706.27646329838 200 200 202
-180.614257620971 673.6302449397 2699.00081154543 212 212 214
-183.181189118788 673.994852700343 2690.96635730881 207 208 210
-183.754342249705 674.852747337299 2680.67403531332 204 205 207
-181.684103494321 676.367062413462 2667.36114289112 209 211 210
288.641051850144 727.581380217741 2757.83860254984 218 222 223
283.024925228756 727.262169868778 2752.53069901537 201 205 206
273.503158286546 726.089429340096 2750.56266778623 194 195 197
242.216611810658 720.144137824043 2767.37638538886 161 162 164
197.106752841525 711.143702282042 2796.38594556494 175 176 178
176.968463099623 707.605173753092 2804.00147792473 185 186 188
165.39299471635 705.942585942743 2804.24759788437 181 182 184
156.924102079076 704.961653917411 2801.80875262702 188 188 190
144.632654366998 703.133395207919 2802.77033584191 190 190 192
132.375875182739 701.3077853179 2803.75676995225 196 198 197
120.1531459914 699.48482472779 2804.76819552537 193 195 194
111.766790088749 698.51021027717 2802.3889204311 192 194 193
104.908856698795 697.874514500855 2798.64956934297 192 194 193
95.0308289295738 696.563859817244 2797.65761510416 182 184 183
81.4049943507378 694.411455942049 2800.12030420134 175 177 176
64.8158079858394 691.588382068188 2805.37213474283 191 193 192
49.7862869721439 689.106547580406 2809.28566621463 194 196 195
38.5444150788494 687.469311979293 2809.77374580309 191 193 192
28.8223447958331 686.170256432963 2808.89520170327 169 171 170
17.6359098601107 684.537123508866 2809.42348950624 148 148 150
3.51708776166548 682.235609604192 2812.76308278708 169 169 171
-5.38578156287217 681.109850620855 2811.24423609673 188 188 190
-13.5355431052131 680.152620995917 2809.03685583802 142 142 142
-18.7370174596533 679.864751353465 2804.02940685082 135 135 135
-26.1391935484483 679.075434843648 2801.12978112547 175 175 175
-32.803812860041 678.453387887395 2797.53034219521 199 199 199
-36.5554136801067 678.497973601901 2791.10554816843 162 162 162
-43.2219826482654 677.875420597209 2787.50498780431 160 160 160
-49.8847925164907 677.253012403618 2783.90685874842 138 138 136
-57.2648986655644 676.464607161353 2781.0229421321 145 145 143
-61.7629651160749 676.340365192416 2775.29149520017 160 160 158
-64.8378292405067 676.546736147726 2768.12306489128 145 145 145
-70.7879393554753 676.089056475587 2763.80738484953 143 143 143
-74.6029606331327 676.12742903707 2757.33658450874 140 140 140
-80.5614473845926 675.668622685342 2753.01482635757 123 123 123
-82.9828675822299 676.035060780481 2745.08557116179 149 149 149
-88.2488025177512 675.739768949291 2740.03165020588 119 119 119
-95.629364959509 674.949564299681 2737.14739369891 129 129 129
-105.105081903225 673.66580610366 2736.44751387628 139 139 139
-114.559624033423 672.383494456514 2735.76299145492 138 138 138
-123.296252761149 671.266861030509 2734.36440786668 144 144 144
-133.404956847423 669.822949993305 2734.43988757928 169 169 169
-140.719278207792 669.036498527019 2731.60366965648 172 170 171
-146.645781350702 668.577833707852 2727.30509782261 176 174 175
-153.260845462792 667.955201001644 2723.74157954709 190 190 190
-159.186832489452 667.49595068359 2719.44337889124 214 214 214
-166.480322700185 666.709823023367 2716.62255803053 193 193 195
-170.36016314728 666.739300136515 2710.1047238333 194 194 196
-176.290743400486 666.278721814842 2705.8031867229 194 194 196
-179.515317440716 666.468633170759 2698.52614512996 206 206 208
-184.10723065941 666.331670112414 2692.72630776113 205 206 208
-186.692013778433 666.680702280359 2684.67883360987 199 200 202
-185.949218815742 667.838575558893 2672.87191666372 203 205 204
294.596640987442 720.827891503845 2753.47588310384 195 199 200
286.618083113342 720.000205545268 2750.15793709589 179 183 184
274.7461006865 718.3334719675 2750.18938117532 188 189 191
248.898986339518 713.649171024376 2762.30650654181 135 136 138
206.091312492799 705.285847552131 2789.28279257781 160 161 163
177.415456362915 699.952326305192 2804.28674969955 183 184 186
164.295974921177 697.97398287772 2805.88235001321 178 179 181
155.061683048823 696.834149789955 2804.12288227991 184 184 186
145.077025229285 695.528668062783 2803.0539503211 184 184 186
134.348642691983 694.058035479566 2802.68007655006 195 197 196
122.120480512849 692.256191915762 2803.68737611926 193 195 194
114.489598911727 691.455576710489 2800.6218996571 190 192 191
103.833496461422 689.990460671049 2800.30015672902 191 193 192
96.2272736223806 689.191693740968 2797.25256529161 185 187 186
83.3514729141243 687.231926166117 2799.02490905973 171 173 172
70.51457754 685.275150639299 2800.82517681313 187 189 188
51.719815640797 681.996526164321 2808.1812354915 192 194 193
38.2304173888715 679.881462431872 2810.74301932894 193 195 194
27.019441004609 678.265280166165 2811.25360237054 173 175 174
19.5532271740531 677.476859395869 2808.30726437964 139 139 139
7.65025867728353 675.699369087568 2809.55072162023 159 159 159
-0.525566877880967 674.748183017691 2807.32447761418 184 184 186
-9.42541572741473 673.633262895335 2805.80758095457 152 152 152
-16.8403553006502 672.848229600488 2802.8987244023 142 142 142
-24.9792700227285 671.899466153488 2800.69925011794 163 163 163
-30.1867752430331 671.607851905714 2795.6874102602 195 195 195
-33.2171064693581 671.807405226665 2788.55122826686 165 165 165
-39.8925794204623 671.186599910008 2784.94392759083 156 156 156
-45.8414160145919 670.729501357781 2780.62917369501 141 141 139
-53.2331655446514 669.945331070196 2777.73713247124 139 139 137
-57.7418054389558 669.81457638548 2771.99769315904 150 150 148
-63.6934031136698 669.356686588689 2767.68093368916 153 153 153
-69.6458334319552 668.898550107037 2763.36356936868 146 146 146
-71.3263456442892 669.416408769244 2754.73714452903 135 135 135
-75.1641364051654 669.444254381921 2748.25007925988 135 135 135
-76.1847962597593 670.120429073354 2738.86746627198 153 153 153
-80.7651074151581 669.982773314986 2733.0763304548 149 149 149
-87.4649550823783 669.358051700495 2729.45134019006 97 97 97
-96.9658776404621 668.08578354275 2728.73324647898 134 134 134
-109.241116834778 666.168145713947 2730.94086902362 128 128 128
-119.387547517329 664.737817054237 2730.98906871888 142 142 142
-130.202875832073 663.147801928758 2731.78659803134 147 147 147
-136.834455802066 662.527008034452 2728.21141084893 169 167 168
-142.772234216185 662.067160945403 2723.9046593419 174 172 173
-149.398728748664 661.446141359814 2720.33286308148 199 199 199
-155.335970274816 660.985770198434 2716.02649812147 220 220 220
-163.3244744182 660.043456279475 2713.93609234365 193 193 195
-168.575502023191 659.74315875153 2708.89295267494 192 192 194
-174.510739188263 659.2819641928 2704.58803654838 192 192 194
-178.416181004177 659.300435609187 2698.05158762651 205 205 207
-182.335659856969 659.317381534243 2691.50495523013 205 206 208
-186.941538891289 659.173252963747 2685.69495744878 198 199 201
-186.865415751266 660.144406784085 2674.63884672924 202 204 203
-182.821723316232 662.067806616007 2659.05322072533 212 214 211
