ply
format ascii 1.0
comment KinectMotionCapture
element vertex 770
property float x
property float y
property float z
property uchar red
property uchar green
property uchar blue
end_header
-50.4181662496812 511.830114136034 2664.11024891762 184 184 184
-50.322326832549 512.256074862101 2653.06566943761 180 182 181
-51.6543640507521 512.476595620369 2643.45531885373 182 184 183
-45.4134644517408 513.803754951111 2625.75377629639 184 186 185
371.167976876959 547.7222306194 2673.47855397959 198 202 201
366.073510366376 547.412730411555 2667.31353106978 214 218 217
346.977491763945 545.215389805384 2673.22134814459 218 220 219
300.046277633708 539.255422823544 2703.39633740283 156 158 157
246.386104887595 532.372813665657 2739.80460620965 137 139 138
214.573028145165 528.432043241255 2757.48182070906 133 135 132
199.811515842208 526.793861999981 2760.35916853271 134 134 132
178.966836757728 524.327514418638 2768.70309162005 126 126 124
162.789316311278 522.490415442155 2773.02301062221 139 139 137
145.143832473793 520.450394301768 2778.74811152898 140 140 138
136.680395992892 519.656962171319 2776.31417127976 136 136 134
125.198972569398 518.451311349644 2776.63078091369 130 130 128
116.013328673862 517.557277190394 2774.90782415701 123 123 121
101.571908180932 515.943787271332 2778.01733843126 126 126 124
89.430978498017 514.642330130568 2779.09040925448 120 120 118
77.3241449255999 513.343470859514 2780.18821023458 153 153 151
68.9842396816918 512.559359083047 2777.84386762476 183 183 181
59.9119230247833 511.673858870397 2776.20340190503 137 137 135
49.3721187256799 510.585394574235 2775.96787380402 141 141 139
42.5572120880515 510.008357858038 2772.26001084659 151 151 149
34.2702468364409 509.228026988921 2769.95406471802 164 164 162
25.9956081126602 508.448579795974 2767.65676435152 174 174 172
16.9994964656532 507.568551049161 2766.07156898382 180 180 178
10.2135471939682 506.993371893648 2762.38441277083 193 193 191
4.15997394610645 506.519439306239 2757.99364777181 165 165 163
-1.1679844233301 506.146145814938 2752.89436961122 156 156 154
-6.50123835282401 505.772323350116 2747.79095542975 185 185 183
-11.8401125525454 505.397906579565 2742.68375846119 202 202 200
-18.6246325935038 504.822245769528 2738.99763588838 208 208 208
-22.5340241968035 504.647424686015 2732.45734461673 205 205 205
-25.0262397850562 504.671391909024 2724.47532812598 192 192 192
-28.9685521999443 504.493709705229 2717.9111573633 196 196 196
-35.0591389094834 504.015718161918 2713.4935399566 199 199 199
-39.7324080206074 503.736486164677 2707.63400534491 195 195 195
-43.7088761481095 503.555629118916 2701.04535277306 193 193 193
-44.1756289442894 503.869289039754 2690.82740599479 196 196 196
-45.3813575904547 504.080894308222 2681.30857403162 195 195 195
-44.5179814831378 504.58629074877 2669.58576400673 183 183 183
-48.5865284472915 504.397456109541 2662.93002663602 181 181 181
-49.1898649127653 504.699613509706 2652.61330365553 179 181 180
-50.5229912654308 504.900454642129 2643.00176937662 189 191 190
-42.8987904556184 506.374070675857 2623.83367996177 185 187 186
371.226230029178 539.7542712984 2663.59924718335 180 184 183
355.224423110554 538.007376994428 2666.81196494701 140 142 141
325.319408547488 534.429618731126 2682.16880880385 120 122 121
266.940953874617 527.096565332347 2722.56522148919 124 126 125
226.585722271217 522.123134953181 2747.6313958343 130 132 131
207.177576183174 519.90328097101 2754.54786762817 132 132 130
184.777082499191 517.284143809041 2764.23354133568 129 129 127
165.525003295519 515.076440098537 2771.26321088818 139 139 137
149.394949872176 513.278121676227 2775.61773617954 143 143 141
141.679932635355 512.592269210072 2772.49184929541 136 136 134
130.184188644344 511.404143140922 2772.79816641067 125 125 123
117.962526300091 510.117887925387 2773.81308388254 128 128 126
101.25520744466 508.232890040556 2778.98373472336 129 129 127
89.8662284938276 507.052935179816 2779.3674894835 155 155 153
80.7537864930041 506.174912959222 2777.69767944613 136 136 134
71.6578176895291 505.298090827744 2776.03981725977 128 128 126
59.6001835719795 504.024317186362 2777.17370551534 142 142 140
49.0613808980109 502.951881054086 2776.9392791766 145 145 143
40.7683975030104 502.178904023983 2774.6290076161 146 146 144
33.2256068843857 501.505858343762 2771.62774187488 173 173 171
24.218938673966 500.635568566401 2770.03464868185 197 197 195
16.6958614098256 499.963816591091 2767.04797460189 168 168 166
10.6432235585037 499.489586382389 2762.65788618427 174 174 172
4.5895090349326 499.015149463596 2758.26701621694 202 202 200
-0.0113159454171452 498.736827512206 2752.46000251125 219 219 217
-6.07151773611436 498.261641013122 2748.06442598876 216 216 214
-10.6878046205119 497.981852794138 2742.24649066893 219 219 217
-16.034108759571 497.603537847427 2737.13359335674 217 217 217
-19.949877119646 497.41953274472 2730.58892739616 216 216 216
-23.8797284235897 497.234301728355 2724.03375172252 209 209 209
-27.8238499245118 497.047825051167 2717.46822496903 203 203 203
-33.2051518750593 496.66616706899 2712.32994006326 199 199 199
-38.5920732705729 496.283899911986 2707.18787289334 194 194 194
-43.2773994695148 495.997622581348 2701.3198566324 193 193 193
-45.1528938736612 496.096116039887 2692.54996087335 194 194 194
-46.3532050287196 496.28853434226 2683.03495897934 192 192 192
-46.1844321816982 496.670427788116 2672.04302728967 186 186 186
-48.1512180712405 496.76122689915 2663.20691341121 187 187 187
-48.0572534689498 497.136880811452 2652.16072002398 181 183 182
-50.0856258794222 497.222406944336 2643.2799340535 187 189 188
-45.2251215432471 498.259442852241 2627.04690619114 182 184 183
373.260969476708 531.664166893218 2662.56322200022 185 189 188
361.141182281209 530.446053173356 2662.41700498544 135 137 136
339.745867122879 528.039674900082 2670.36235846508 124 126 125
296.782221405375 522.866477347671 2697.24173578004 127 129 128
247.084348975344 516.819465042683 2730.35111548544 128 130 129
216.083680929092 513.160428587145 2747.38365279527 127 127 125
191.355812315355 510.300525395762 2759.08634758477 132 132 130
169.02570085596 507.743846603342 2768.82335923287 146 146 144
154.40918617566 506.176095149036 2771.80617566833 143 143 141
146.680887855108 505.494174889083 2768.67038648355 134 134 132
135.928680651141 504.421432789391 2768.28125709695 126 126 124
121.423545176764 502.862275727817 2771.34456375101 131 131 129
103.198135204636 500.819239894859 2777.88428518573 142 142 140
93.3061683272536 499.852188160074 2776.88426108364 195 195 193
82.6860091668649 498.789545986401 2776.59090729998 122 122 120
71.3443507768869 497.631840649858 2777.00907844278 138 138 136
60.7771184046104 496.57321728911 2776.75411277342 137 137 135
51.7202105408705 495.709745849861 2775.12463431976 142 142 140
44.1604801559414 495.040421019897 2772.11110742727 166 166 164
34.3940259094846 494.082715730515 2771.2021174515 195 195 193
26.1203670736831 493.318816989981 2768.9059006597 172 172 170
18.5926749205447 492.651699279294 2765.91561014466 190 190 188
13.2669607829601 492.272389174976 2760.81792840029 216 216 214
8.66530051147896 491.988204405615 2755.0102794779 229 229 227
1.14521641400689 491.321339991817 2752.0257999648 227 227 225
-4.91724588081888 490.845492416166 2747.62858140614 220 220 218
-10.9808080953948 490.369421311165 2743.23056435997 219 219 217
-15.6043963184977 490.082982182654 2737.4070079787 217 217 217
-19.5197598956585 489.890376890582 2730.86259189225 213 213 213
-24.1652884493067 489.601906439397 2725.02312020809 211 211 211
-26.679048746358 489.595709758218 2717.02503823501 206 206 206
-33.4860054393398 489.022259459095 2713.32295652802 207 207 207
-38.8705392131337 488.636964137634 2708.18231038077 197 197 197
-44.2606700096533 488.251091329706 2703.03789838424 192 192 192
-45.4258869082105 488.42681643067 2693.54825251136 195 195 195
-47.3258148570184 488.506333384178 2684.7605482346 198 198 198
-47.8521121469069 488.77017786655 2674.4994785341 186 186 186
-49.1130756425657 488.937877578185 2664.94038325947 180 180 180
-48.3172600146249 489.381820911612 2653.16828592916 184 186 185
-49.6484832054669 489.54357947074 2643.55793333194 188 190 189
-46.1691404453561 490.351168619185 2628.79258303297 182 184 183
376.856125484354 523.756250014602 2660.18863668575 197 201 200
365.504250725854 522.65262726056 2659.36463907473 163 165 164
349.524106107646 520.972026100869 2662.59339609009 139 141 140
324.315005478121 518.139677423525 2673.94737509039 132 134 133
272.21799275161 511.950293443717 2709.0222500187 143 145 144
224.992998025185 506.356991941273 2740.22116531532 151 153 150
194.102653638216 502.793626016208 2757.33416319028 153 155 152
174.056514143854 500.580063169539 2765.0232084435 149 151 148
157.900386903376 498.84983146011 2769.359177141 135 137 134
149.402687455174 498.076849055355 2766.90050251746 126 128 125
137.126845421743 496.829190355798 2767.87633947536 122 124 121
120.35023818479 495.014513728448 2772.99711788076 141 143 140
105.141273736347 493.394041818207 2776.78522442549 145 147 144
95.995604846677 492.534357672008 2775.09142039327 116 118 115
86.1172570779769 491.581497710015 2774.10104648081 135 137 134
72.524570274795 490.158936084989 2776.59146190286 128 130 127
61.9540998681281 489.115957198139 2776.33422815561 132 132 132
54.3795044782591 488.450531655618 2773.31023953148 170 170 170
44.5915082515764 487.504438545867 2772.38539765547 188 188 188
34.8242273575528 486.559884607924 2771.47587503943 180 180 180
25.8140894945873 485.710283829145 2769.88037141508 132 132 132
20.489558892729 485.327947990076 2764.78353231508 126 126 126
13.6963958117589 484.759010166446 2761.09117827136 125 125 125
6.9065621994584 484.190207643325 2757.40123851586 138 138 138
-0.607226496309732 483.528856771796 2754.42135060098 154 154 154
-6.66316273671352 483.053059928813 2750.02886317542 144 144 144
-10.5516766700848 482.854105905281 2743.50358433415 142 142 142
-13.7338398999574 482.746060398121 2736.25577803248 140 140 140
-16.934728438514 482.636438188312 2728.99438936861 135 135 135
-20.8703860601875 482.433396153098 2722.43491435501 129 129 129
-23.3923431498988 482.4123761561 2714.43081526898 143 143 143
-30.2084044232984 481.840458549403 2710.72214122073 169 169 169
-35.6016709892606 481.451304288134 2705.57514493978 187 187 187
-41.0005337526869 481.061557671299 2700.42438333248 193 193 193
-44.2892258419443 480.944135340796 2693.09930449175 202 202 202
-46.8935036691891 480.915863943792 2685.03549261649 195 195 195
-48.1193696073006 481.066810977624 2675.50175545473 186 186 186
-48.6786563476833 481.305504336131 2665.21664360214 190 190 190
-48.5777269045888 481.631477929634 2654.17524753603 182 184 183
-49.9059337263819 481.773835491474 2644.56727777626 186 188 187
-46.4223991012487 482.54293074786 2629.80477127055 181 183 182
378.11150399572 515.54357286562 2659.8220519017 202 206 205
366.756490794929 514.455542909732 2658.99585814747 166 168 167
351.548270338499 512.900710342019 2661.54950539788 137 139 138
332.519399282774 510.881618421428 2667.50690202702 132 134 133
292.732993159152 506.34551185734 2691.75231412688 141 143 142
236.212712542128 499.772673290374 2731.0295342203 165 167 164
202.218800993924 495.92132326821 2750.83167232428 166 168 165
176.794336315083 493.104182398317 2763.2649374659 149 151 148
161.392307028525 491.501112990448 2766.91288085936 134 136 133
151.36447886584 490.549969565129 2765.81444859085 132 134 131
139.083115806176 489.323271400245 2766.78609493122 134 136 133
120.787909652089 487.36144880545 2773.27563098518 194 196 193
107.838490131314 486.049314623974 2774.99788729582 117 119 116
94.9276854209913 484.740178826782 2776.74785701702 124 126 123
85.8021052100746 483.892453190049 2775.06897074596 136 138 135
72.9574208125934 482.588375156517 2776.86689811159 152 154 151
64.6209662758452 481.835325926591 2774.52521433096 204 204 204
54.0682550610856 480.809587971461 2774.28094192964 199 199 199
42.8003385080951 479.694763287941 2774.75278730276 139 139 139
34.5157556841889 478.945572718308 2772.44872597865 117 117 117
25.5070630754708 478.106529252946 2770.85432352482 139 139 139
20.1849254243274 477.721161103552 2765.75920376661 148 148 148
13.3937096370103 477.15460648954 2762.06827342905 160 160 160
7.3354756155295 476.678384525404 2757.67411813962 175 175 175
-0.906125087407172 475.932018804952 2755.4012297807 177 177 177
-5.50961018379637 475.635493888547 2749.59248997553 183 183 183
-10.8457819481973 475.248455702706 2744.48689365303 199 199 199
-14.0252186972916 475.129190130286 2737.24100700362 187 187 187
-16.5048011036901 475.097633260834 2729.26786733553 189 189 189
-19.7236403919172 474.975000989446 2721.99310541459 157 157 157
-24.3897829046544 474.672892301112 2716.13891562823 145 145 145
-30.4895875674023 474.192376622288 2711.71460314528 141 141 141
-35.880768799575 473.800160552716 2706.56939753565 156 156 156
-39.8621875614016 473.584240679174 2699.97668406618 167 167 167
-43.8578723938983 473.367000799317 2693.37362213152 195 195 195
-44.3520025161388 473.588812192681 2683.13536371443 196 196 196
-45.5835244341924 473.719675185769 2673.59742468247 186 186 186
-46.8469859573766 473.847861098918 2664.0363183892 185 185 185
-49.5353197709749 473.798292354416 2655.91146466033 181 183 182
-49.4695792562489 474.096139040881 2644.84471139778 185 187 186
-44.5996610369077 475.000937487311 2628.61754357439 182 184 183
366.452617995204 506.069997270999 2659.96813645735 204 206 205
355.124270083424 504.999944675973 2659.16136399907 137 139 138
337.631637821393 503.204899124096 2663.76318001833 156 158 157
307.083474879726 499.872791610752 2679.89036726576 143 145 144
252.052241623599 493.654525284565 2717.77845781183 118 120 117
204.200734534903 488.271066159457 2749.7593004488 161 163 160
178.767989236318 485.521213056798 2762.18690361826 137 139 136
164.122343371309 484.039945282419 2765.14874581611 143 145 142
151.045037376305 482.74206532216 2766.77836669278 125 127 124
136.489680053079 481.267828143469 2769.80569659277 160 162 159
121.225228965641 479.707757915919 2773.55388563518 131 133 130
109.78237864975 478.598312810209 2773.89894503893 126 128 125
98.3691477356721 477.491087974926 2774.26548742526 150 152 149
88.4846296224078 476.56410046304 2773.27106602444 166 168 165
77.1264895693409 475.461114562582 2773.67756642266 169 171 168
65.7979672675646 474.360378670748 2774.1055487576 124 126 125
53.7563041241564 473.173441641364 2775.25116008071 131 133 132
41.7485971584006 471.989101503945 2776.42169459245 138 140 139
32.7293998102687 471.159826500689 2774.81972650802 139 141 140
24.4629852276685 470.419635481934 2772.52888131425 160 162 161
19.1453116101328 470.031387867072 2767.43698304422 159 161 160
13.0901828349215 469.554984319853 2763.04507789433 168 170 169
4.84480110504526 468.816183541704 2760.76948690621 181 183 182
-2.66082902894382 468.165460463426 2757.79527266172 182 184 183
-5.80671199080407 468.037651412811 2750.57366659434 185 187 186
-9.69443135323256 467.821331500304 2744.04887579285 184 186 185
-13.5963976651381 467.603782746234 2737.51375084932 184 184 184
-17.5126582467848 467.384986381178 2730.9682573652 184 184 184
-21.4431890254101 467.164944355299 2724.41241280123 197 197 197
-26.1024768894331 466.857401652483 2718.56316457166 199 199 199
-29.3472924459235 466.721025328084 2711.26979676018 196 196 196
-32.6106203347023 466.583064260169 2703.96270645989 174 174 174
-35.8928325862038 466.443434347108 2696.64221250604 155 155 155
-39.8992326018384 466.216663564715 2690.03133463055 148 148 148
-41.8098901561961 466.24464854523 2681.23559121415 169 169 169
-44.4493272181914 466.18510116045 2673.14642771727 188 188 188
-46.4128594290039 466.208563728857 2664.3123314271 183 183 183
-49.797300593164 466.060069631583 2656.91768465395 181 183 182
-46.9500410200254 466.671613392584 2642.92816738409 184 186 185
-44.1612268147686 467.27836268317 2628.89625753482 179 181 180
370.817318746369 498.220241110302 2656.91696299368 198 200 199
357.14909662419 496.900139963905 2658.11780912729 150 152 151
341.971323581853 495.406766416219 2660.69413413702 149 151 150
321.43928822226 493.301303257452 2668.03149065423 126 128 127
271.745104132361 487.865754042617 2701.14664129721 112 114 111
213.088199305534 481.397881128205 2742.58091293947 156 158 155
183.037166284695 478.189110099247 2759.06881052237 144 146 143
168.378621551256 476.736440663385 2762.02174138846 130 132 129
152.246199327272 475.11324856749 2766.37543653506 194 196 193
139.962425398127 473.929116731015 2767.34555079154 116 118 115
125.443764497964 472.487306072733 2770.39964695847 121 123 120
112.480458998815 471.222334910778 2772.11207591703 152 154 151
98.8038566835927 469.873972870872 2774.54203502908 154 156 153
87.4192584388105 468.78761805574 2774.92943955921 127 129 126
77.5592481279528 467.875655036834 2773.95286048938 124 126 123
65.4844246773334 466.707599170036 2775.07452883493 130 132 131
54.9298062672214 465.713609908125 2774.82903468039 132 134 133
45.1413143449821 464.80703740554 2773.90432812078 144 146 145
36.1126332166273 463.987434342025 2772.29553403196 155 157 156
25.6274139667152 462.998678851253 2772.10037531979 162 164 163
17.3704491588533 462.266855770123 2769.81642285465 185 187 186
12.0541105635508 461.875375230876 2764.7251815183 189 191 190
5.27231148160423 461.313955131904 2761.04139803577 188 190 189
-0.778349943153733 460.837226436019 2756.65272971663 185 187 186
-6.10446799730302 460.444625060558 2751.5543933646 182 184 183
-9.98956375629945 460.219810028124 2745.03146143977 180 182 181
-14.6101203667126 459.909774134212 2739.210277694 181 181 181
-18.5216132184842 459.682626475475 2732.66819813806 184 184 184
-23.8808045361676 459.286952884449 2727.54616518713 188 188 188
-29.959930975723 458.807246086994 2723.13684688661 193 193 193
-33.1908058222798 458.660532880631 2715.8532381579 200 200 200
-34.3103090175927 458.761547543931 2706.39635270098 201 201 201
-35.4617758907991 458.85988317713 2696.916282522 175 175 175
-39.4676972547068 458.624488317662 2690.30570794872 151 151 151
-42.0811776352834 458.55298898103 2682.23530046515 164 164 164
-46.1201128007858 458.314665724237 2675.60077864964 190 190 190
-46.6780527995463 458.486305777181 2665.31600896355 193 193 193
-47.2724535791753 458.654912842906 2655.00508719365 181 183 182
-44.4299148244116 459.229959028686 2641.01196283438 183 185 184
-41.6457741172649 459.800229513475 2626.97648029425 179 181 180
384.524121106047 491.371782561799 2645.82153266768 203 205 204
366.159877632522 489.559158697117 2651.0264467102 197 199 198
350.956536091393 488.093306517932 2653.58408149364 104 106 105
335.800101874491 486.63110041802 2656.1760333426 110 112 111
284.518561971959 481.174410554992 2690.61044205799 114 119 115
225.04862319748 474.803782718911 2732.69085723529 176 181 177
194.194401890551 471.591634672807 2749.83182048968 168 173 169
175.688423664901 469.743277425814 2756.16913809522 196 201 197
158.012377937855 467.984653169426 2761.87350936672 128 133 129
145.71191772411 466.820587715555 2762.83162901957 130 135 131
131.932564216232 465.491070183089 2765.18719705039 124 129 125
118.196164770429 464.16488304915 2767.57392026662 103 108 104
103.750603262782 462.758358342057 2770.6811864735 106 111 107
88.602290853069 461.271966051811 2774.51394011519 145 150 146
78.7392898217454 460.372934262444 2773.5352585075 159 164 160
65.9155497154913 459.142857902415 2775.34874366988 201 202 204
58.3330192377001 458.496669283783 2772.31910016999 212 213 215
48.5351254352171 457.602558020734 2771.38734662836 209 210 212
38.7579942856568 456.710004698916 2770.47094674523 213 214 216
26.7919333558666 455.571640272669 2771.67160975623 211 212 214
18.532229251973 454.847347038032 2769.3857096571 200 201 203
13.9458500166261 454.534523717844 2763.58928770103 200 201 203
7.15963603934178 453.975005869714 2759.90201892491 197 198 200
1.10452431427088 453.497423763396 2755.5101201654 198 199 201
-4.951664908311 453.019649816088 2751.11743933323 202 203 205
-9.56193392018267 452.704537272261 2745.30339309594 201 202 204
-14.9035531020041 452.307255221589 2740.19409041412 219 219 219
-19.5313620803346 451.990557449375 2734.36732105133 209 209 209
-24.8860669421704 451.592036081241 2729.24852600342 187 187 187
-30.2462521413887 451.192921385122 2724.12575513667 187 187 187
-33.4745869350153 451.034953497234 2716.84422521638 193 193 193
-34.5909072798862 451.116525483856 2707.38954859469 214 214 214
-36.4470799838328 451.115228833118 2698.63315409188 196 196 196
-39.0365829785646 451.031621777196 2690.57977252201 164 164 164
-40.9455863197479 451.025880960166 2681.78505745222 159 159 159
-46.3892909430874 450.619328141337 2676.60170389698 191 191 191
-46.943991331637 450.768852002471 2666.31946512762 189 189 189
-46.141003137991 451.073979136911 2654.55186421185 180 182 181
-42.6038974763829 451.692055030861 2639.82713307388 183 185 184
-41.9000351445571 451.989047313334 2627.98763250079 180 182 181
373.621044636208 481.991916965451 2645.28066323529 155 157 156
356.073429869766 480.30579146524 2649.84346744228 107 109 108
337.042608075204 478.459429755839 2655.80003037476 119 121 120
288.059100197455 473.407182176433 2688.19727023965 119 124 120
224.731622091464 466.812583404235 2733.65591047467 187 192 188
196.17088706447 463.9333292075 2748.75575268716 193 198 194
179.947764494922 462.373172163968 2753.04372202556 113 118 114
163.780505968017 460.817356921882 2757.37250486978 108 113 109
151.463269332875 459.673331034998 2758.31885891812 98 103 99
138.423575059076 458.45063870046 2759.97612617431 99 104 100
123.159249634346 456.987547442625 2763.72460305288 119 124 120
105.689756985086 455.285580093585 2769.57899603693 147 152 148
88.2852653704749 453.588703899396 2775.48024096887 199 204 200
77.6759142195207 452.622363103839 2775.19520992738 205 210 206
66.346321774641 451.57750553736 2775.62269952748 198 199 201
58.0200624450433 450.855990553923 2773.28856619727 183 184 186
46.7410833272286 449.815009192086 2773.75276611204 146 147 149
37.7086996234772 449.016026872366 2772.14168687245 143 144 146
27.2194535723678 448.05877826091 2771.94347415769 159 160 162
20.4284153923631 447.501314517404 2768.25301309553 163 164 166
16.5704084039384 447.261577374436 2761.74964281516 166 167 169
11.2378716879538 446.862197851143 2756.64661910553 172 173 175
4.44355204462932 446.304169553436 2752.953776381 178 179 181
-2.34725252743995 445.746326041603 2749.2631882656 187 188 190
-9.13475252886453 445.188630749215 2745.57499645474 186 187 189
-15.1975246245406 444.709651397851 2741.17753745177 171 171 171
-19.1038400119528 444.465463041478 2734.63912483576 166 166 166
-23.7414673111283 444.14190130096 2728.80549767231 183 183 183
-29.8185420693384 443.661389875577 2724.39766260379 200 200 200
-33.7588590668956 443.414208034325 2717.83458633235 210 210 210
-36.2926041246907 443.321078196554 2709.82157664613 208 208 208
-37.4332285883292 443.38090607568 2700.34917131187 217 217 217
-40.7236973178966 443.206179922312 2693.02251429149 207 207 207
-41.9215826324526 443.261219674384 2683.50857509159 181 181 181
-45.2560207466326 443.082722407149 2676.15002462452 182 182 182
-44.4130533636635 443.363307427721 2664.41128116564 183 183 183
-45.7067076975615 443.410290102104 2654.82787614912 177 179 178
-44.2523506562258 443.760384107346 2642.29736307177 179 181 180
-42.1550621051146 444.182607863604 2628.99854796594 180 182 181
-42.1832316630257 444.372153163939 2617.8628742427 184 186 183
375.648611249114 473.814080190259 2644.23899392951 136 138 137
358.094762726572 472.165242226969 2648.79717354537 109 111 110
331.335543915969 469.563687593298 2661.4989755478 126 128 127
265.422468841484 462.910656963636 2708.7880752797 122 127 123
213.66561284434 457.714140166422 2744.11456614845 200 205 201
195.085466271715 455.946477667974 2750.39852627124 155 160 156
181.917940271305 454.73792450219 2751.96319719844 101 106 102
166.505445501149 453.295624651908 2755.60466274601 115 120 116
151.144712571171 451.857328498123 2759.28337735868 121 126 122
137.349100781543 450.580248361237 2761.62742501983 134 139 135
124.350836015494 449.384869548754 2763.31486375872 170 175 171
108.381620330282 447.879585102802 2767.78746803377 176 181 177
90.9682407467569 446.222599742386 2773.6824719423 148 153 149
78.8552997355474 445.115780503513 2774.77711270732 131 136 132
66.0307753883296 443.933909036319 2776.590568001 133 134 136
56.96269985539 443.142689193023 2774.95335983418 137 138 140
45.6869749376807 442.120626463981 2775.42001461466 149 150 152
36.6585355518101 441.332393551325 2773.81155466612 153 154 156
28.3834813724382 440.622390181335 2771.51459935067 154 155 157
21.5901981468254 440.066944726882 2767.82222655305 154 155 157
16.9977877178633 439.741669113758 2762.0213693827 157 158 160
11.6653337925925 439.339055195461 2756.91838930697 155 156 158
4.87079571949911 438.783219723669 2753.22539934514 153 154 156
-2.64611561648942 438.151462496723 2750.24310318234 149 150 152
-9.43180908236796 437.596164305308 2746.55652758647 145 146 148
-15.4924579634941 437.116834199618 2742.1606059704 155 155 155
-20.1154155959731 436.788535869622 2736.33729469263 161 161 161
-24.7482638330605 436.459376546535 2730.5068091434 163 163 163
-29.3911625540564 436.129278956958 2724.66932750842 160 160 160
-34.0437870487906 435.798308433097 2718.82449655389 152 152 152
-37.2852937721848 435.616257167197 2711.53329603355 154 154 154
-39.1287620394096 435.582114974303 2702.7859448789 172 172 172
-40.9997654213699 435.545667450266 2694.018621255 212 212 212
-42.1943724196932 435.581287195408 2684.50696021033 199 199 199
-43.4209912414363 435.614224010125 2674.97207952213 170 170 170
-45.3790028074748 435.570459005666 2666.14164474425 197 197 197
-47.3644764446979 435.524379651453 2657.29129040227 177 179 178
-45.2069935318242 435.918142773442 2644.03596731517 177 179 178
-40.3318734973555 436.601563711007 2627.81144907785 178 180 179
-36.9098372505019 437.132451994344 2613.00315452001 181 183 180
370.68648623479 464.928198180165 2649.24268022388 199 201 200
357.018105502967 463.704282085456 2650.44419305124 153 155 154
328.714840546526 461.019257685262 2664.49633351855 155 157 156
249.706817565545 453.269241095989 2723.28445916136 154 159 155
208.737743382724 449.31071633031 2749.14552876979 137 142 138
191.701754516511 447.740404347794 2754.07980812879 142 147 143
180.834556931107 446.785814752087 2753.60762374937 134 139 135
164.663325859422 445.29983186456 2757.93388052574 148 153 149
148.548097112703 443.81822149442 2762.30075673029 126 131 127
134.00262795049 442.492676603981 2765.336302402 123 128 124
121.014099354277 441.322197736842 2767.03063074429 131 136 132
107.311481772127 440.079207293717 2769.44226456206 135 140 136
92.1509693225535 438.688895427919 2773.26666080079 134 139 135
78.5384485253435 437.452905110085 2775.74364315774 137 142 138
64.9688328194209 436.220256159553 2778.25174525568 192 194 193
55.1606656532333 435.364948083276 2777.31303535627 210 212 211
45.3735385298746 434.511244511013 2776.38929148303 206 208 207
37.0859208913208 433.8080199286 2774.0832629838 208 210 209
30.2847574951648 433.254266101244 2770.3851862508 188 190 189
23.4866865185186 432.700653665103 2766.6896464719 191 193 192
16.6921281373429 432.14727062213 2762.99635973332 193 195 194
10.6313189994909 431.66777817432 2758.60032112144 178 180 179
3.11273535803025 431.040974054648 2755.6171322342 165 167 166
-2.94582510970964 430.56148454275 2751.22272374615 148 150 149
-10.4532070411154 429.935353488834 2748.24736414978 143 145 144
-15.7878615498754 429.528912348429 2743.14306391551 120 120 118
-20.4083714998196 429.194852862451 2737.32149783365 128 128 128
-24.3214943578747 428.932593151231 2730.77805880191 182 182 182
-28.9641127702809 428.596573760164 2724.94075037351 212 212 210
-35.0423807186013 428.114905220356 2720.532044475 219 219 219
-38.9895990020692 427.849599616313 2713.9638735137 217 217 217
-39.4087274958164 427.943118560081 2703.77963002818 215 215 213
-41.2766517299426 427.889968173798 2695.01445394096 164 164 162
-42.4680999505869 427.9061432921 2685.50498427078 148 148 148
-45.0950806443768 427.776738488866 2677.42420234243 160 160 160
-47.045607746925 427.716627501858 2668.59911041624 192 192 190
-46.2338301992584 427.938765586911 2656.83746073487 185 187 186
-43.3814750327493 428.370056850659 2642.85072435495 180 182 181
-37.8153741056071 429.079738054636 2625.89220929723 180 182 179
-33.7071365457713 429.641965964217 2610.34647882761 180 182 179
359.039087512999 455.551755661645 2649.39758415121 175 179 178
329.182171133762 452.793471644792 2664.79344620659 150 154 153
250.159565188037 445.299231821886 2723.5722959068 148 153 149
213.791708080388 441.906781645967 2745.36123899503 160 165 161
191.379621370895 439.856392469415 2755.04138949161 157 162 158
178.986272997967 438.770474669719 2755.93256836882 148 153 149
159.012195233281 436.952558507413 2763.67615121323 155 160 156
145.190358212697 435.727123268021 2766.00144923638 153 158 154
129.140171256706 434.285687332323 2770.41567911451 161 166 162
117.675302329077 433.286283959592 2770.74533413978 184 189 185
106.240095171957 432.2892088413 2771.09650340857 199 204 200
93.3335938679916 431.149223240267 2772.85074401699 205 210 206
79.7173239349074 429.939828853407 2775.32514325897 208 213 209
65.3978846108534 428.661500548791 2778.52448746837 194 199 195
55.5888940981455 427.81928434756 2777.58524702042 166 171 167
48.0260686386726 427.194397155805 2774.56970152774 133 138 134
39.7313810825053 426.498306783379 2772.25858403053 123 128 124
34.3978828758384 426.089330588471 2767.15510918377 113 118 114
24.6485607980222 425.251564438685 2766.25885172103 92 97 93
15.6526913990751 424.486547224959 2764.67441452021 56 61 57
5.94295567227832 423.651793843685 2763.8068693084 5 10 6
-0.103567728801934 423.172831389813 2759.4211894165 8 13 9
-6.15112295765141 422.693725602569 2755.03476080462 13 18 14
-12.1998046547991 422.214438943108 2750.64751467568 14 19 15
-18.971558589046 421.664601435815 2746.97107180321 13 15 10
-21.4217674253674 421.535910470542 2739.01843918256 11 13 10
-26.047524724369 421.195317085666 2733.1930360899 10 12 9
-27.1069027299666 421.202894111968 2723.77926338609 11 13 8
-33.902758591873 420.650760552805 2720.08533688194 11 13 10
-40.6951699502898 420.098776190831 2716.39361365057 3 5 2
-43.2323073250458 419.962639773737 2708.37792696459 22 24 19
-44.3797502405157 419.962768905183 2698.90027640316 99 101 96
-44.8549722605494 420.029160485606 2688.6752321179 140 142 139
-46.0685107310133 420.02378578044 2679.14963960009 186 188 185
-48.0137929623052 419.947162314889 2670.32826615405 192 194 189
-45.8007994505454 420.278693150466 2657.11257418891 197 199 196
-43.6420556663602 420.6057349598 2643.85782717772 176 178 175
-40.1506373355887 421.064521839716 2629.09916948835 176 178 173
-33.9583171972531 421.78966071685 2611.35965576797 186 188 183
370.357667091971 448.24920036586 2640.27398443935 202 206 205
331.194031880912 444.710400702239 2663.74087139118 123 127 126
258.315973069629 438.043110446847 2717.0970466382 115 120 116
216.542672263967 434.255890142559 2743.61131400177 173 178 174
192.588619931032 432.119491759786 2754.64359279258 160 165 161
177.136623754394 430.771020388498 2758.25660371031 157 162 158
157.928079143812 429.072903452137 2765.3204135759 135 140 136
143.349580583064 427.803963612687 2768.33230224747 132 137 133
130.332823145373 426.679496191579 2770.00669443421 137 142 138
115.844558001363 425.417616931558 2773.08373652145 92 97 93
102.156403109551 424.229477945594 2775.50613248554 35 40 36
90.7630229717173 423.254296929088 2775.88773395119 33 38 34
78.6509125505805 422.211714412369 2776.98300772332 32 37 33
66.5727085110466 421.171754625486 2778.10316871673 50 55 49
56.7609618512477 420.342508170384 2777.16170149624 60 65 59
52.1627433138554 419.99901812259 2771.35654164443 62 67 61
41.6375726592104 419.102705842515 2771.13288954945 45 50 44
20.813590236342 417.244857554744 2780.73022936359 15 20 14
39.0442689638064 419.032108418588 2753.19593667926 20 25 19
24.1419488749646 417.726449305886 2757.20763637624 20 25 19
2.50724951539638 415.876472481547 2757.57146469349 22 27 21
0.085093718837026 415.736054559065 2749.63940339772 21 26 20
-9.60231574912318 414.915984645921 2748.78811734207 28 33 27
-22.1570145295293 413.827097070807 2750.79764592923 32 34 29
-36.8326571308626 412.538870755861 2754.97405175203 35 37 32
-20.5986225692552 414.146406846341 2728.46151206902 41 43 38
-25.2496064080407 413.797731127498 2722.61807525772 40 42 37
-29.1971208222621 413.515105699062 2716.04960189658 38 40 35
-45.2460253721059 412.096903788872 2721.69991573242 31 33 28
-49.1846669800406 411.814743245483 2715.13787681266 20 22 17
-52.4310509167822 411.597705201914 2707.84296348135 23 25 20
-52.878459916589 411.643875914265 2697.63768454831 22 24 19
-49.8513922245172 412.017135376327 2683.77730706421 25 27 22
-47.5828193420011 412.319797262412 2670.60205402115 42 44 39
-43.9726896829071 412.749363026376 2655.92959917342 39 41 36
-41.8163676471235 413.042831367919 2642.67263205188 79 81 76
-39.7141097363283 413.331860168582 2629.3764502052 185 187 182
-35.5925321047983 413.811885894364 2613.83997386798 176 178 173
332.433607309103 436.547095724187 2663.36278621763 154 158 157
262.622206449259 430.38840567259 2714.00418242585 116 121 117
220.062610630563 426.656699830325 2741.18376557501 61 66 62
194.563818732968 424.445060383154 2753.56621631361 46 51 47
175.285608375125 422.787466777521 2760.57972925092 88 93 89
153.795711760693 420.93168184049 2769.69434410756 92 97 93
139.228676415658 419.693213965967 2772.71469705534 53 58 54
128.496082452512 418.796786122623 2772.34038431502 64 69 65
113.25740151417 417.497374796701 2776.1085749772 57 62 58
94.305513825879 415.86548510482 2783.35877637713 30 35 31
81.4336148653547 414.776486066456 2785.13835921975 74 79 75
0.497295227702477 407.962460847186 2790.65799581742 33 38 32
40.6991240503349 411.628856153642 2742.00682779255 28 33 27
8.03370786862034 408.824808907153 2752.89614886956 25 30 24
11.4096555740955 409.190724227266 2739.28864475311 22 27 21
-15.6969920950636 406.820141233859 2755.44516244298 24 29 23
-58.5649847002858 403.032472736618 2787.34163418903 22 24 19
-32.0911841045493 405.47294241485 2750.96464768755 24 26 21
-40.9878600810802 404.736099217873 2749.45196614545 32 34 29
-35.556519841748 405.287350167406 2733.62999433792 35 37 32
-66.1560926140867 402.660961460438 2743.5477160068 42 44 39
-71.4461918024998 402.247734374033 2738.47568050295 32 34 29
-83.1023139025788 401.261224953461 2739.90179396158 29 31 26
-66.5426066781667 402.815924941238 2712.39033156458 25 27 22
-40.9946518403546 405.181958353996 2675.34180268029 18 20 15
-38.7506700705778 405.449220934631 2662.14824923333 27 29 24
-42.1441183021758 405.208574191246 2654.74660627345 36 38 33
-39.9904758356695 405.468413729147 2641.48752633844 11 13 8
-36.5039010382353 405.849002267935 2626.72525585539 50 52 47
-32.3889768200003 406.286832617896 2611.18374258899 189 191 186
274.636646006296 423.365774872104 2704.15140770603 170 175 171
134.345772297623 411.549659111562 2777.77957230148 44 49 45
125.900092260557 410.865010151038 2775.35905508553 50 55 51
-7.27183398426212 399.865763346024 2788.69038124579 26 31 25
15.2590540225308 401.840875643326 2756.86354486502 23 28 22
20.8514026765387 402.36098951873 2741.15813377796 21 26 20
11.1104128649715 401.563145484439 2740.26841324325 27 32 26
-8.02847804645013 399.956890879662 2748.61821849186 32 37 31
-9.75308239726269 399.847989850645 2739.95665565865 33 35 30
-15.8261295924718 399.365056487284 2735.55172798891 35 37 32
-59.2326152529361 395.669152812178 2768.29333606331 39 41 36
-21.5338236053741 398.953143100157 2720.29579927436 37 39 34
-128.332186355721 389.835560244412 2807.10114981342 30 32 27
-44.5110348025906 397.133669278588 2701.15983926752 25 27 22
-25.1094997695553 398.886199729843 2659.6525319822 32 34 29
-41.1196676244432 397.546443002998 2665.33132421522 20 22 17
-56.3710217413727 396.271629448867 2670.32548904154 42 44 39
-28.4221428998199 398.722905309936 2630.0774319818 40 42 37
-29.1308203717007 398.702814140207 2619.68271280514 26 28 23
-29.8758435896298 398.67970387994 2609.26163052921 30 32 27
116.542145714543 402.383503652472 2794.46985549866 53 58 52
62.68716894769 397.978609985313 2833.21982456638 39 44 38
91.4570597462676 400.356485281857 2797.27196917184 14 19 13
31.9182922249777 395.563160500285 2792.37584711582 25 27 22
29.5953950878491 395.388310361156 2784.51527165757 21 23 18
-0.0532130611743398 392.968285066048 2802.53422187708 18 20 15
-16.3193005597289 391.647480823211 2808.02758849687 13 15 10
-22.2559362115908 391.17532200102 2803.72160304124 22 24 19
1.0584646222993 393.107143565701 2771.22749592453 22 24 19
-6.42662911658776 392.507801377071 2768.26872368248 20 22 17
-8.08869707037063 392.387058993941 2759.65243483928 16 18 13
-8.32887822472417 392.383186547575 2749.59712631541 16 18 13
-15.830427417836 391.782324584214 2746.62641746545 19 21 16
-49.9749104362461 388.990611368187 2770.03017473126 22 24 19
-45.8901040080271 389.342123336594 2755.70142784571 28 30 25
-71.2190782534088 387.274672853356 2770.67778662841 29 31 26
-93.5754311909882 385.451306151723 2782.86985737468 27 29 24
-93.7757654604126 385.450109117131 2772.84344825956 31 33 28
-25.2138498965948 391.105760266483 2692.88582169296 25 27 22
-97.5879606439913 385.24341611772 2703.38217006481 39 41 36
-57.8333755020068 388.531366266839 2650.69946428723 49 51 46
-34.9697613434954 390.429313701195 2615.4080329747 10 12 7
218.491601683271 402.779676798838 2754.7455832917 62 67 61
82.7696817110213 392.095411471448 2825.51613537955 29 34 28
80.5374994639694 391.913810709711 2817.72128688784 23 28 22
47.300582316145 389.299207900257 2838.07845075616 12 17 11
15.8558987993858 386.818933178289 2847.38427370699 21 26 20
72.1271593828172 391.22757726008 2785.68343989444 24 29 23
2.64210090837391 385.755794682358 2820.50823389643 23 26 19
6.32994664384468 386.038288285497 2807.12640877071 18 21 14
4.05517169861813 385.852945789101 2799.30066497049 19 22 15
-12.9601267556996 384.511241186578 2805.48613782128 24 27 20
-11.5689585628986 384.613317476017 2794.14389264671 26 29 22
-16.8060582473997 384.19539249631 2789.11025381856 27 30 23
-27.8826348754231 383.319398329764 2789.72201531034 28 31 24
-20.7530455130751 383.871234783313 2772.66077576479 29 32 25
-26.7512682386748 383.393377263505 2768.31011566005 28 31 24
-37.0864649326055 382.575342826366 2768.22457623614 29 31 26
-39.4714430997598 382.380694663551 2760.31919111048 32 34 29
-44.752316250517 381.95886219161 2755.25350569322 31 33 28
-54.335081548915 381.19964543562 2754.47868113957 26 28 23
-65.3244564532163 380.330095739114 2755.15368966436 18 20 15
-49.2422479900809 381.582873205743 2728.52929108007 22 24 19
-16.9813336637943 384.103724601924 2685.2319953574 14 16 11
-26.6853419165163 383.33447671114 2684.36922838903 24 26 21
-62.4533017570101 380.522118787591 2710.30109797788 23 25 20
-89.6034385881583 378.385428952509 2727.66231079029 17 19 14
-96.3052736013581 377.851501721884 2724.03663422451 28 30 25
-113.479288104017 376.496739525868 2731.3420209146 37 39 34
212.765305531441 394.464841488662 2760.43352919061 7 12 6
210.310926369595 394.251394669645 2752.47744410688 31 36 30
66.1771776506317 383.396392641638 2860.37844399607 31 36 30
87.7530901173347 384.955337080343 2821.68173987083 29 34 28
82.4764193333545 384.531510460609 2816.61938521521 28 33 27
75.6827646709426 383.994085015798 2812.92683443002 21 26 20
49.2985785390254 381.990704307075 2827.13857212288 34 39 33
56.8453916051514 382.526427466448 2810.37999980421 31 36 30
81.5439877024207 384.344682384351 2777.65341903043 33 38 32
49.2880874423571 381.902564723845 2797.48758001872 30 33 26
38.7846599262831 381.087644918157 2797.28010225783 32 35 28
12.7116721665677 379.108862374059 2811.71755888656 40 43 36
7.4878862146357 378.688939148687 2806.69356134577 40 43 36
13.3319209910772 379.096026999588 2791.17003040101 45 48 41
-17.6962176690125 376.747848183888 2810.65936668739 39 42 35
-16.2880963675609 376.823307886777 2799.32927636483 37 40 33
-14.9251351571476 376.895101650674 2787.9664299598 35 38 31
-34.760132935072 375.38379041264 2797.04742449831 30 33 26
-45.0588554441809 374.5847594736 2796.98842224584 28 31 24
-44.4570969047116 374.59936246199 2786.30851072642 27 30 23
-41.0049124604597 374.826403292849 2772.75556882222 36 38 33
-41.2140016442726 374.779920658443 2762.72258370232 33 35 30
-35.7125813367638 375.159106447277 2746.95083736486 29 31 26
-43.1738428094537 374.571183846234 2744.00910500662 28 30 25
-56.3393355318085 373.557935446872 2746.81127578681 28 30 25
-53.8027996905055 373.715276549701 2733.82953873278 26 28 23
-23.6467841332666 375.930592084305 2692.70991925988 23 25 20
-27.6704731511208 375.597943703101 2686.08597192681 25 27 22
-52.1581400008082 373.740732418074 2700.43824066883 23 25 20
-60.3641630352225 373.096617786166 2698.191661243 23 25 20
-76.266202778128 371.879455014144 2703.94945881451 30 32 27
-87.9163379817207 370.979046376527 2705.38064289663 22 25 18
251.993201699653 389.455825339751 2736.96993000576 173 178 174
203.950939587155 385.973076315037 2768.82211772645 11 16 10
171.527160875128 383.606860518974 2787.2999278709 36 41 35
195.238422715986 385.246455018399 2756.32707020908 34 39 33
58.9456151675769 375.473967036076 2867.44725109841 34 39 33
73.6205255790936 376.470291566765 2844.74210860943 28 33 27
93.4982298891063 377.836351286706 2817.16460987378 32 37 31
89.7227036381212 377.516025225279 2810.72062344145 25 30 24
72.3257892803453 376.225483122372 2816.62941945086 15 20 14
113.033059124865 379.072003261506 2769.57583468626 18 23 17
37.0097655364998 373.557488432162 2819.42247004932 14 19 13
57.9292931505733 374.993557620868 2790.13019813673 25 28 21
49.6356257797661 374.35140894423 2787.82009341898 24 27 20
18.3281515682374 372.07384141561 2807.10758553992 25 28 21
-4.68442374736444 370.386813296772 2818.82463726168 23 26 19
8.58310612285118 371.276952559702 2796.33375336321 24 27 20
-4.76692273154167 370.276535549704 2799.00221495661 29 32 25
-12.2021494091979 369.696166212566 2796.07939403567 32 35 28
-13.7758648886792 369.531600377298 2787.52722628923 35 38 31
-40.1819345255316 367.605922882634 2802.95853037364 42 45 38
-41.7355944696887 367.442836987433 2794.42061433192 45 48 41
-38.2406793013352 367.637149667437 2780.898483067 47 50 43
-34.0812709854648 367.877935933932 2766.62325583438 31 33 28
-25.660098127843 368.41980532553 2748.02818898478 27 29 24
-28.1064046512407 368.191706018012 2740.07817618822 24 26 21
-27.7104207940773 368.164382264399 2729.24888184294 26 28 23
-40.9237946292529 367.174274101334 2732.01645979247 28 30 25
-51.2464113942352 366.388810981134 2731.94020480767 26 28 23
-48.0588498384258 366.558090167233 2718.19513955018 24 26 21
-50.5898099188471 366.322853771968 2710.18342895576 28 30 25
-32.6899077287335 367.529705107979 2681.17137283316 27 29 24
-42.3621770178488 366.789312815494 2680.33146579912 26 28 23
-50.6117655167051 366.149398251201 2678.05332611256 32 34 29
-69.8601236783944 364.675885484625 2676.44356659124 15 18 11
271.009133379504 382.770725326172 2721.07788843411 177 182 176
176.616627841794 376.290461349732 2793.42240534386 28 33 26
159.652653980476 375.065915335817 2798.41034681256 37 42 35
104.546657023603 371.111250987806 2817.72897780062 42 47 40
103.808095231743 370.987564515701 2808.54710674121 42 47 40
84.0800730728808 369.579280149683 2816.47084093415 35 40 33
88.6255345440521 369.812597162993 2802.47543403934 32 37 30
47.8735276661952 366.985010372122 2829.73491989961 34 39 32
58.4394631826832 367.624852850442 2810.2247657905 35 40 33
35.9330243433638 365.957499205228 2811.19290768366 39 40 34
34.411025484431 365.780324622538 2802.67787207633 37 38 32
35.8332071432095 365.801122647786 2791.35769753468 32 33 27
15.729287515553 364.371808215788 2800.24416021523 32 33 27
6.04732400450736 363.644879483138 2799.39729382841 31 32 26
6.69468375700566 363.612939597743 2788.75020385267 15 16 10
-15.456424936642 362.047846953468 2799.85733211131 18 19 13
-20.6776945691496 361.621361590962 2794.83512546565 21 22 16
-30.2826340435387 360.900396349132 2794.04412565304 27 28 22
-29.6814853310416 360.864556026621 2783.36351655172 30 31 25
-36.3743026413474 360.338939327052 2779.7444192057 31 32 26
-27.1552408302727 360.879895486696 2760.49242335433 27 29 24
-28.1226102497425 360.737165222589 2751.1445883021 28 30 25
-21.9349118744658 361.073021664248 2734.63478900396 30 32 27
-35.885076750737 360.060342866966 2738.10317370839 30 32 27
-44.7879357823744 359.38576254183 2736.58661978844 30 32 27
-57.9466292056892 358.426894139007 2739.39399497101 28 30 25
-78.8708838087837 356.949871671081 2750.15561092884 28 30 25
-54.4125180658463 358.503211630714 2714.78346693956 29 31 26
-48.4871311001065 358.817646159351 2698.08340399642 28 30 25
-34.1986805738339 359.688507830543 2672.62710525963 25 27 22
-43.173983320008 359.007689935345 2671.05770927344 26 28 23
-54.9282329635368 358.141974433568 2672.41359430371 33 36 29
-58.9850236516631 357.788810919076 2665.76554695024 34 37 30
-66.5281643765137 357.203545348727 2662.7644720331 31 34 27
194.850097472484 369.831325413189 2788.08079245768 211 216 210
211.773633337881 370.822020187547 2763.2999991908 36 41 34
142.398682152324 366.074006354937 2794.50287398307 31 36 29
121.753307936114 364.65329060051 2802.99686823116 38 43 36
98.908327799061 363.092947726472 2813.60101833105 48 53 46
67.0575385373739 360.957614073031 2832.49507574281 45 50 43
50.4800951706548 359.801612095131 2837.76386308209 46 51 44
52.0609716054032 359.807253785698 2826.55865300043 40 45 38
42.3188052213086 359.088897775325 2825.66818768868 37 42 35
38.5948623923968 358.754969293364 2819.26152628091 28 33 26
17.6647162102341 357.323380851954 2828.78406481045 38 39 33
46.7548401003985 359.081052491141 2791.83017513512 35 36 30
32.5388358962222 358.077404173023 2795.10589297862 27 28 22
27.2605140717044 357.643242544147 2790.04228909962 26 27 21
16.0673474527386 356.832841519969 2790.569864261 21 22 16
5.64030488922551 356.071561272524 2790.41803127731 36 37 31
-12.8384049727592 354.799470795203 2798.01307183559 37 38 32
-24.6548252111565 353.951204860338 2799.32397646035 37 38 32
-24.7589677340088 353.845885328169 2789.36677139417 36 37 31
-31.4485211408384 353.322800415759 2785.74975846841 36 37 31
-30.8803005801277 353.25905367421 2775.04543217265 35 36 30
-27.4596450965472 353.374940987566 2761.46907123751 30 32 27
-24.8183732219762 353.44055120473 2748.56250045713 28 30 25
-27.2632018499284 353.184081291355 2740.61341531581 26 28 23
-37.6141011306776 352.428421446275 2740.51651421419 26 28 23
-44.3676683164127 351.899884747103 2736.85336319663 28 30 25
-53.9666431709214 351.192135606616 2736.06675420642 27 29 24
-55.7342957427938 350.977473247973 2727.37344909709 26 28 23
-62.4844811880254 350.449001404143 2723.71274990389 25 27 22
-53.7074261985457 350.895892394046 2704.13985741603 24 26 21
-64.7197232872876 350.099075898234 2704.79861756814 21 23 18
-49.0564951190671 350.975447694134 2677.86887913467 21 23 18
-46.1130428248318 351.052399912087 2663.94638620963 27 30 23
-42.5312749641691 351.168231013455 2649.25178216102 32 35 28
-45.263533726996 350.887972808791 2641.09391781146 26 29 22
-60.4817103104351 349.82705632754 2646.1132171707 36 39 32
168.930500983482 360.130265665041 2781.59323575413 31 36 29
129.054420901651 357.594281044622 2807.0188089291 32 37 30
87.0815564600576 354.935154028513 2834.62915899819 36 41 34
97.8099834556536 355.466255764296 2815.23654211375 37 42 35
103.889115063715 355.714591486419 2799.88263376862 28 33 26
61.5291967372809 352.920218234645 2818.56586980917 30 35 28
54.0160261208409 352.348716966246 2815.58659058212 35 40 33
53.2588083856353 352.183864197338 2806.39098691583 30 35 28
