ply
format ascii 1.0
comment KinectMotionCapture
element vertex 791
property float x
property float y
property float z
property uchar red
property uchar green
property uchar blue
end_header
236.194465133639 -219.255707017352 2759.48759396041 14 17 10
194.269608757224 -212.641708665402 2785.94467967944 17 20 13
181.098952918372 -211.77405934216 2787.51759809487 16 19 12
185.665930841844 -214.490301809325 2773.52255435825 13 16 9
177.126141910896 -214.557221190208 2771.03694451884 11 14 7
212.210404637033 -223.534372236182 2729.72811465531 11 14 7
195.178109301877 -221.888042261096 2734.68106998244 12 15 8
201.788820576578 -225.094525361396 2718.45997911449 13 16 9
114.266520101558 -208.851044165582 2787.25381470534 13 14 8
106.628263971524 -209.062196999187 2784.18597803291 13 14 8
172.149103525421 -224.52904198721 2714.26807068287 13 14 8
61.2691522114996 -204.960924322932 2795.78952155975 26 27 21
28.3122689550792 -199.796354013496 2816.38909101764 23 24 18
14.8917132597934 -198.727021684226 2819.0169098874 21 22 16
31.2400468610714 -203.9828511753 2793.78779482398 20 21 15
31.8958077477705 -205.92325396153 2783.13712826887 20 21 15
22.1685332454102 -205.646360671893 2782.26279401093 21 22 16
23.5106949704922 -207.749410771982 2770.87385360217 20 23 16
27.0110524972855 -210.333020921866 2757.34159689224 18 21 14
15.8104197152662 -209.738023309743 2757.87087829385 15 18 11
0.990157122251478 -208.343544685993 2761.95573995071 14 17 10
14.6035834546812 -213.1664004731 2738.45162970408 14 17 10
23.0185697465699 -216.881189124643 2719.83051726878 14 17 10
10.3677612734079 -215.965690961019 2721.7805264975 15 18 11
7.85175549235717 -217.288136184421 2713.77414966679 17 20 13
16.0967574015514 -221.016575979052 2695.0297427791 18 21 14
11.3515608062933 -221.863604743901 2689.11548487361 19 22 15
15.1712607427563 -224.639309673222 2674.5784221874 19 22 15
-3.15401633893697 -222.433355730074 2682.30260090023 19 22 15
63.8097044083135 -239.546008471448 2603.54115611446 18 21 14
70.1453621952046 -242.992370226505 2585.8844214414 18 20 15
243.843158782402 -221.296542139899 2793.42986179611 14 19 13
257.141790061403 -225.773902056932 2772.16937316028 18 21 14
228.175993391909 -221.742738729763 2787.0105801708 18 21 14
239.815328357175 -225.913044184716 2767.01915525281 17 20 13
237.380528120945 -227.245957354219 2759.07188750935 17 20 13
217.120247967501 -224.939892784779 2766.6285904327 17 20 13
185.360305876372 -220.249575835299 2784.38804153392 15 18 11
175.294779125181 -219.989958173438 2783.26841349768 14 17 10
179.064744775971 -222.588200657698 2769.9315273549 13 16 9
174.358931886219 -223.44172775962 2764.04549214564 12 15 8
197.876893317073 -230.188140232942 2732.89003011279 11 14 7
208.288023694617 -234.238854106688 2713.24389586211 11 14 7
99.4602882970694 -215.036968424906 2791.31074582221 13 14 8
32.4156756177203 -206.181757540929 2823.03679911533 19 20 14
21.9699578734969 -205.729100106067 2822.87757692827 23 24 18
26.4597214249038 -208.489266273967 2808.82633636329 21 22 16
42.779500517732 -213.829676232195 2783.57609311057 20 21 15
-1.06164478216808 -206.129554289955 2814.82529362348 19 20 14
21.0818370143642 -212.767627653999 2783.90902735901 18 19 13
29.0602179279147 -216.351241045671 2766.20711142508 18 21 14
24.4677466023906 -217.19300687444 2760.40359398475 16 19 12
5.9522550947948 -214.95957672019 2767.98972689627 14 17 10
6.49303496426512 -216.933520368182 2757.25553825687 14 17 10
13.2584972054084 -222.190565318467 2730.02003007316 15 18 11
-5.87394591547352 -219.784400415998 2738.39512763559 14 17 10
-21.3215323967852 -218.185407190884 2743.26159583106 17 20 13
-23.0501482067034 -219.678509056046 2734.59011375542 19 22 15
11.0376979832956 -229.333728536133 2690.08515799454 21 24 17
13.4324395506056 -231.820675157131 2676.9869429296 21 24 17
40.7097334986659 -240.036936422171 2638.66837420506 21 24 17
243.458301932404 -230.725208923113 2784.45726743778 15 18 11
234.047206094666 -230.623490364677 2782.57591944064 16 19 12
221.538707501634 -229.877805630992 2783.39290089379 19 22 15
230.026596216403 -233.471602146985 2766.0605809359 18 21 14
226.043517873692 -234.496303939676 2759.46256776095 17 20 13
212.78271316538 -233.587754779745 2760.97004802575 14 17 10
208.79790278641 -234.612526784498 2754.37107338214 15 18 11
175.630656622823 -229.49808605649 2773.58256125683 14 17 10
164.81284474724 -229.062040421839 2773.15351595102 11 14 7
208.208375630145 -240.123266383793 2724.27256466599 8 11 4
203.373825794849 -240.993306124793 2718.29341613477 7 10 3
259.501592335518 -256.875728051919 2646.50460571402 9 10 4
69.6016304839961 -219.718593452193 2799.2847946444 21 22 16
53.8026273798504 -218.117091724461 2803.89652613644 15 16 10
35.0684651744682 -215.857394529058 2811.32456751724 12 13 7
66.3655645738905 -224.544052000351 2772.21196006012 14 15 9
72.9085931336875 -227.848561325111 2755.94130802557 15 16 10
11.1829801820247 -216.085110717449 2803.88919826497 18 19 13
17.7771270520051 -219.38482170703 2787.6556272889 19 20 14
17.6643051744789 -221.212847817005 2777.68340452485 19 22 15
24.8615990527781 -224.687865246856 2760.65114309603 18 21 14
1.94927872582928 -221.420790237069 2772.46596530764 17 20 13
10.5371783267714 -225.230902163997 2753.96971858904 19 22 15
13.212020597742 -227.728524425012 2741.07450042761 20 23 16
-5.21581412730754 -225.440646120259 2748.7244534021 19 22 15
-22.1224636921702 -223.476915100612 2755.00543083461 21 24 17
-12.2711347763069 -227.632424231954 2734.95295374897 20 23 16
-10.4291106271734 -229.972947281083 2722.69013480249 20 23 16
-9.35327005855813 -232.151521030063 2711.10774996167 18 21 14
-11.8963423163512 -233.503013784864 2703.08160493286 16 19 12
7.62857527992811 -240.011217535992 2672.73811114731 16 19 12
-18.2466947973783 -237.900662230579 2677.45872885828 19 21 16
241.477281748646 -234.341873868148 2806.47032732547 14 19 15
236.802895990355 -235.203967371563 2800.60703092398 15 17 12
260.310934811962 -241.934386394998 2770.6794934191 15 18 11
211.026561347846 -233.503991279846 2802.92692164294 15 18 11
218.829218072992 -236.978419802026 2786.33350364381 17 20 13
221.89307351529 -239.478462144794 2773.72027717403 19 22 15
209.417071908736 -238.708338300243 2774.56094017511 21 24 17
201.608006819495 -238.918721201645 2771.36928434277 17 20 13
195.347033088348 -239.45669796306 2766.82784591091 14 17 10
175.265873048866 -237.03712716501 2774.5149717589 12 15 8
184.353712987337 -240.861583171452 2756.38106980465 11 14 7
193.352888672642 -244.693580434104 2738.18285504313 9 12 5
190.084932900649 -245.895211540644 2730.86731667012 9 12 5
222.469483915562 -254.856118464072 2691.30689481672 10 11 5
228.899465012179 -258.217770536067 2674.95370834726 11 12 6
68.4456861977139 -228.711264628799 2790.99076205762 20 21 15
72.1066689313985 -231.38925185339 2777.57446794958 14 15 9
73.472295458322 -233.573504689776 2766.20212636857 15 16 10
70.33192799009 -234.763196996173 2758.97884547518 16 17 11
30.1042756919716 -227.625731268069 2786.66892211615 17 18 12
10.7749656780909 -225.140103906591 2794.90170915951 17 18 12
10.6854748528789 -226.988106177494 2784.94629839 20 23 16
6.15114647434245 -227.836184513031 2779.18489803868 19 22 15
0.87474020762901 -228.517563117569 2774.12113610867 21 24 17
0.705582258178961 -230.371740108463 2764.10823614146 22 25 18
-11.150215934159 -229.54557772058 2765.39878167958 23 26 19
-30.2315225494385 -227.037350077766 2773.81146615412 20 23 16
-23.1785759583367 -230.572822559261 2756.67396360251 21 24 17
-1.77452408454815 -237.480070219648 2725.22059986297 19 22 15
16.5839184101348 -243.727625307367 2696.50319135475 18 21 14
3.23668253524056 -242.567726140738 2699.18462006592 17 20 13
5.66180174396491 -245.11795990262 2686.10810583968 15 18 11
0.905640560498355 -245.982316828951 2680.18551722262 15 18 11
1.11357095797304 -248.031577256238 2669.2099518803 20 23 16
15.448096411701 -253.471717568551 2643.75508737248 19 21 16
304.892683191826 -255.30167868827 2753.5250473783 16 21 17
233.280507323048 -242.115748641021 2804.19404429581 16 18 13
260.720973191019 -249.777076382669 2770.93701421979 15 18 11
214.552968467413 -241.860960502861 2800.5005187307 13 16 9
227.022580743743 -246.381682527942 2779.87416799628 13 16 9
205.212917101797 -243.595782046721 2788.78048796224 16 19 12
195.881882729473 -243.465711380355 2786.95732183899 21 24 17
209.735897864618 -248.333501216178 2764.86242857925 20 23 16
194.982096292054 -247.038289080715 2767.75992981465 14 17 10
187.954513507031 -247.409172811677 2763.89893758475 11 14 7
183.993430692598 -248.448522270455 2757.31679524434 9 12 5
163.985081018514 -245.973644885639 2765.05698301882 10 13 6
172.984195847585 -249.860312669226 2746.85844722436 11 14 7
251.731686677647 -269.190102641802 2665.51215999572 11 12 6
256.566900041073 -272.269344624647 2650.47469056064 15 16 10
56.0872698696282 -231.476902229013 2812.89585088917 23 24 18
66.5873847489036 -235.700116761835 2793.31334965298 23 24 18
79.9822102333358 -240.606290598321 2770.88568007034 24 25 19
70.884700660383 -240.455031553886 2769.23190838113 23 24 18
47.6734206051779 -237.089312460237 2780.83050795734 22 23 17
14.922737665354 -231.514057036256 2801.58163662634 19 20 14
-1.40541753113377 -229.653617367001 2807.04612267489 18 19 13
-1.45641026055943 -231.520296996971 2797.11881986912 21 24 17
-1.5432036925227 -233.389887241484 2787.1652551502 21 24 17
-3.86434234110977 -234.752187059412 2779.30023426812 23 26 19
-12.0523824516829 -234.754406111023 2777.06994237522 24 27 20
-23.1412695538902 -234.073674665812 2777.68066486367 24 27 20
-32.7478139627724 -233.731419630523 2776.89388702011 21 24 17
-33.646415599399 -235.436443347384 2767.58798987691 18 21 14
0.065529928578556 -245.351043993249 2724.04425851647 17 20 13
12.6686920894508 -250.322198159613 2701.04207168044 16 19 12
27.3082505755009 -255.816956822681 2675.80834995179 16 19 12
-5.37738872637661 -250.00055427643 2697.84288822895 17 20 13
-37.1880095862571 -244.341675363203 2719.27591153108 18 21 14
-10.5637049153575 -252.766369785064 2681.71795781821 19 22 15
61.9092339283007 -272.394997348442 2597.05663690694 18 20 15
243.074038714324 -249.976720692843 2806.31332583864 18 23 19
219.543817475828 -246.812555232284 2816.44466060646 21 23 18
246.246481852906 -254.418995461708 2783.8880971295 23 26 19
260.265037338825 -259.343654676964 2761.91219462688 25 28 21
214.96480477438 -251.449802382531 2790.86932181946 20 23 16
229.697230237871 -256.54886365778 2768.17499888831 17 20 13
216.424487084103 -255.568025369269 2769.67448535493 16 19 12
200.100850503746 -253.906355057581 2773.90620360957 16 19 12
190.765607727553 -253.765811688312 2772.08003977085 16 19 12
189.895346613583 -255.490883693657 2762.79458572881 14 17 10
179.803588029343 -255.179502181515 2761.65620387108 13 16 9
148.351359661632 -250.10292639443 2779.64067969451 14 17 10
201.284185092409 -265.827583545415 2711.71206501249 15 18 11
32.3911174127423 -233.428356223175 2835.23223667763 27 30 23
32.4584994385138 -235.307920210711 2825.39038651931 25 28 21
54.189199005553 -242.162050743662 2795.40912234154 19 22 15
50.3905885943205 -243.194869689323 2788.94479279188 15 18 11
20.5429382924747 -238.215161730253 2806.85693421479 14 17 10
21.2432685346857 -240.27544436764 2796.23796972157 14 17 10
13.0296828631464 -240.272683124388 2793.98918453253 13 16 9
-1.06972220225732 -238.889556827359 2797.36181154106 11 14 7
-2.62538785847033 -240.435949209091 2788.81543479581 12 15 8
-13.7354920322954 -239.738475744405 2789.41086137787 14 17 10
-7.27975559026328 -243.188961074537 2773.076190027 15 18 11
-24.2102288532435 -241.105412503141 2779.34020957483 15 18 11
-35.2655207155459 -240.40260247271 2779.97539780203 14 17 10
-15.1564350071756 -247.1578996132 2750.05412837097 15 18 11
-9.6438844817941 -250.452489929615 2734.27184216573 15 18 11
12.3494952258563 -257.752327019265 2702.00837510076 15 18 11
4.0374119357458 -257.755513891878 2699.68815675759 15 18 11
-1.40112084098121 -258.454447594137 2694.50677694049 17 20 13
8.8418935622232 -262.991363594691 2673.50127249342 17 20 13
42.4405030784722 -273.299546708244 2628.63835123738 19 22 15
31.8560147984392 -272.789455718832 2628.37882223968 22 24 19
209.597880966611 -250.369053441321 2835.15416068487 18 23 19
203.444833000196 -250.897988293094 2830.69100574216 21 23 18
261.540766868606 -265.459970050453 2771.4518632037 24 27 20
246.611687701517 -264.119979850926 2774.22282325696 26 29 22
250.429708115298 -266.892186701291 2760.9198918736 20 23 16
242.535965491066 -267.094025881435 2757.66660028764 16 19 12
223.028639495289 -264.716686613278 2764.53475461694 13 16 9
202.050387486711 -261.988914167698 2772.80815708295 12 15 8
184.236117283399 -259.943077903261 2778.43159682431 12 15 8
198.750005898882 -265.134702100828 2755.57838301878 11 14 7
194.761297080343 -266.193017842286 2748.97611793047 10 13 6
201.451515840339 -269.672242797981 2732.81128224412 11 14 7
191.311589974568 -269.351391116594 2731.63773638733 13 16 9
191.824159793395 -271.453589927629 2720.8824480425 7 10 3
184.724357099998 -271.825066820852 2716.96909905529 6 9 2
126.289034409376 -260.392222092442 2759.88970760999 12 15 8
47.0781178441508 -244.067581318802 2822.35780413697 15 18 11
12.5775160235837 -237.970186647356 2844.31339173785 10 13 6
17.908386825936 -241.088554892679 2829.63503677586 11 14 7
33.619171218378 -246.653250696306 2805.17722084541 10 13 6
42.5056798803114 -250.658073297977 2786.89645595981 9 12 5
43.1436419820468 -252.748321621227 2776.23212768845 11 14 7
31.1678818551009 -251.868478941605 2777.43627663833 11 14 7
19.9640765543752 -251.160553680995 2777.96383021423 11 14 7
-12.5306754009122 -245.366573989493 2798.9015965973 12 15 8
-19.2126911046304 -245.700451975279 2795.29100628377 14 17 10
-5.42881522903116 -250.952410222414 2771.90828506 15 18 11
3.86384208859081 -255.159192470827 2752.68588640793 15 18 11
-23.9830624823805 -250.395728550439 2769.57694805508 15 18 11
-29.9727472901603 -250.907605560313 2765.23230495374 15 18 11
15.2985186382355 -263.944728438605 2710.29029699669 15 18 11
-3.80545743781191 -261.290770051403 2718.68728605029 15 18 11
-6.32628033232274 -262.695902620146 2710.67699836351 15 18 11
18.3148543240024 -270.827881662586 2675.38828940986 17 20 13
22.7963254833892 -274.015110137202 2660.09413220599 17 20 13
27.9220959416193 -277.385075502724 2644.03078460927 19 22 15
29.4327041645297 -279.873109931092 2631.52667353387 23 25 20
236.849176898835 -265.809156228303 2802.95592736241 17 19 14
243.142146105189 -269.127820000456 2787.73896690015 15 18 11
224.356823800153 -266.883309715787 2793.89451320197 12 15 8
252.398313893266 -275.086535043772 2759.83510248892 7 10 3
239.837040856343 -274.236859477093 2760.61464783253 8 11 4
209.487769133913 -269.368305787465 2776.92725905802 12 15 8
195.425530015179 -270.095123252146 2769.19992807948 12 15 8
193.778100010441 -271.684258164273 2760.58681290029 11 14 7
205.893782216371 -276.43219152846 2739.70244535735 9 12 5
190.402083148855 -274.86940131771 2743.30171539307 10 13 6
193.243641092942 -277.519725043803 2730.52657951794 11 14 7
189.195846209644 -278.591240935018 2723.88170929598 12 15 8
194.22221748181 -281.777352328916 2708.98227299382 9 12 5
176.527775144153 -279.679868512737 2714.69284011728 16 19 12
95.6522578749213 -262.751317767384 2778.42765872808 24 27 20
47.4925574160543 -253.382575273019 2812.7301759588 24 27 20
54.9701766185033 -257.081097846124 2795.89970176526 23 26 19
66.8457714916491 -261.848649834866 2774.84148489589 19 22 15
60.7556766971866 -262.371230157519 2770.42399823796 18 21 14
36.116164430819 -258.457789559138 2783.46038385714 19 22 15
27.1205424103922 -258.264939437789 2781.88068329615 18 21 14
4.86597951646717 -254.869769250082 2792.93764562931 16 19 12
-9.20397676886719 -253.424274482991 2796.33193659558 16 19 12
-3.43138944896326 -256.785513198116 2780.73752454785 15 18 11
1.53915434511864 -259.974354925889 2765.79760388572 15 18 11
-2.30209301057904 -261.025802868611 2759.30227154556 15 18 11
-6.15752792422342 -262.078150828114 2752.79694426013 15 18 11
-38.275948764273 -256.152727430015 2774.00789241119 14 17 10
-19.6871578930238 -262.752750310292 2745.45568303817 14 17 10
-7.00829024283745 -267.930758188893 2722.50732897214 14 17 10
-14.5413649307031 -268.092137048275 2719.51599268682 15 18 11
-14.1955000885226 -270.22916936359 2708.63967990819 16 19 12
-1.76348542025329 -275.42741406197 2685.51227434399 17 20 13
16.9531883484884 -282.255703079067 2655.81657717033 16 19 12
278.967602094395 -280.931383028077 2777.83110458609 14 19 15
271.051689483936 -281.124144849987 2774.5617874826 14 19 13
269.414165080969 -282.728717257255 2765.95606936859 15 18 11
277.910941674981 -286.633487598147 2748.62832280328 14 17 10
269.176271866769 -286.652806315542 2746.00168076373 14 17 10
230.919268212031 -279.940117442318 2768.94239898346 14 17 10
189.741304654988 -272.50266333032 2794.7100575833 15 18 11
194.357962058593 -275.521386491023 2780.74978991471 13 16 9
196.600568847531 -278.012314183678 2768.77630556649 14 17 10
188.035758386981 -278.017035986174 2766.27287212929 13 16 9
194.808463629649 -281.582181530406 2750.16739744986 11 14 7
193.865138715975 -283.371064275279 2740.82865468618 10 13 6
173.081922768049 -280.522810211087 2749.244347695 11 14 7
227.204819039454 -297.33746959369 2679.70284642813 5 8 1
202.616543504812 -293.596321373101 2691.5401708465 5 8 1
102.072353609281 -271.746004247702 2773.1549868126 20 23 16
55.3889397526905 -262.585618435784 2806.05656708076 28 31 24
26.9105184239979 -257.714873817754 2822.49037215088 24 27 20
40.3661383352949 -262.900035595839 2800.10506613974 21 24 17
60.4053797740507 -269.714691311125 2771.3679010734 19 22 15
41.7014421579078 -267.174478357481 2778.81897929456 19 22 15
16.4124768909044 -263.004706146868 2792.62089757291 18 21 14
14.105289104406 -264.421437537512 2784.76571426184 17 20 13
2.9495529420176 -263.671202867445 2785.32832848747 16 19 12
0.623371508144732 -265.089124850835 2777.45907576846 15 18 11
-3.18784904686287 -266.146564165776 2770.98548014944 14 17 10
1.73339660906402 -269.380313747557 2756.00988922478 14 17 10
-13.0325599992418 -267.719896824025 2760.13575995584 15 18 11
-8.90975460346866 -270.777861193737 2745.81699518597 14 17 10
-31.5739317025927 -267.112535336859 2757.81371893812 14 17 10
-21.0139249907288 -271.812024186886 2737.03718551701 14 17 10
-26.3493963017281 -272.510902792981 2731.93081191195 15 18 11
-23.8174737001757 -275.216600549274 2718.93093428869 16 19 12
8.62653469264529 -285.595707150128 2675.70102653185 16 19 12
274.647797648881 -287.710051945925 2782.07605958913 15 20 16
274.606217558846 -289.687162645582 2772.15472637437 16 21 15
269.824947253682 -290.591779374141 2766.21402617233 13 16 9
269.724989747569 -292.574037502251 2756.25034785008 12 15 8
269.589232978856 -294.559484130575 2746.26099620501 14 17 10
226.662109696433 -286.656357278611 2773.23308357364 15 18 11
205.645590186475 -283.776639368611 2781.47980922198 16 19 12
190.122852126759 -282.151372749832 2785.05660040815 16 19 12
168.485527837281 -279.078292033824 2794.08960195014 17 20 13
189.976721373833 -286.11145142066 2765.16884455231 16 19 12
175.288447868734 -284.661093292439 2768.11463432729 11 14 7
186.630574975112 -289.359892930192 2747.90508016244 11 14 7
210.063014617211 -296.966016840233 2716.68326695188 11 14 7
229.524178336121 -303.680095667447 2688.76288155762 9 12 5
215.500397241692 -302.418953363364 2690.95438101742 9 12 5
156.194912535899 -290.249931189944 2734.48295607023 9 12 5
112.260609583703 -281.692852816919 2764.43363415996 17 20 13
67.0431528826758 -272.752603964387 2795.92643528274 28 31 24
31.039449684839 -265.980274932311 2819.26588455145 24 27 20
49.7142382576428 -272.514533845711 2792.01138648422 21 24 17
39.9549869148834 -272.119399170535 2791.11447044818 19 22 15
19.0837131758905 -268.979251694599 2800.70284361189 18 21 14
16.0601757612397 -270.224828839174 2793.56426672691 17 20 13
5.64013003838637 -269.639233215475 2793.42403361712 14 17 10
-0.340610165348032 -270.151938951863 2789.08587045248 13 16 9
-0.454799513180504 -272.133427857407 2779.11217353773 12 15 8
1.58875310195139 -274.669207574786 2766.99445786357 12 15 8
-11.726446862645 -273.344986634422 2769.69994241198 13 16 9
4.80166357801171 -279.568549772277 2743.36091854813 15 18 11
19.7431112767754 -285.434844407826 2718.34386637243 14 17 10
3.49172291240452 -283.375501606668 2723.86530429647 14 17 10
-5.49645373974617 -283.158210545193 2722.29112484002 14 17 10
-20.2119752280778 -281.459773327444 2726.45374964617 15 18 11
-27.0013922644652 -281.792972239964 2722.76530525417 16 19 12
-33.0736173451631 -282.310759262862 2718.36079701212 16 19 12
18.4779448978114 -297.854143863117 2655.6075654489 17 20 13
-43.0927298184027 -283.902771277614 2707.38426034249 20 22 17
267.960963057849 -293.910530317558 2788.31314246146 15 20 16
246.710102521434 -290.998954657417 2796.39015066443 15 17 12
274.156209264557 -299.364025774948 2763.13364518025 14 17 10
245.89766664099 -294.810351173458 2777.25516573563 13 16 9
249.729555133881 -297.723505347283 2763.96157369279 13 16 9
227.845768337355 -294.617229205829 2772.81578296801 15 18 11
224.65668987888 -295.889420404277 2765.55706704211 19 22 15
203.667728529541 -292.955622702719 2773.82374963699 17 20 13
188.157822240131 -291.296566598339 2777.41030847472 15 18 11
158.862703255383 -286.33330402537 2793.25254060646 14 17 10
205.586030544933 -299.525853800773 2741.83274338618 13 16 9
189.329388573332 -297.681436535138 2746.11395311179 10 13 6
233.338816898332 -310.359015012016 2696.43480541041 10 13 6
213.221713481775 -307.599426529154 2704.0975973939 9 12 5
172.72342787762 -299.857838957448 2730.35950954276 9 12 5
127.133313541822 -290.808158233223 2761.58271748719 12 15 8
102.865064321688 -286.908692017656 2773.6528377225 20 23 16
83.2083222187428 -284.108990816605 2781.64985310267 20 23 16
50.1487265468539 -277.972136247635 2802.17988895006 21 24 17
53.0913719007513 -280.711533697308 2789.47758231964 21 24 17
24.7087128790446 -275.668795516476 2805.98167871107 20 23 16
3.13836727266903 -272.284869117075 2816.29984565371 17 20 13
-7.97788148907963 -271.493677435979 2816.8912925941 15 18 11
-4.3046928896211 -274.419030889075 2803.48259381994 14 17 10
-2.16087901297968 -276.976809567361 2791.43715376783 14 17 10
7.26927820181356 -281.401988528632 2772.3133255032 15 18 11
16.6062289787363 -285.834777994654 2753.12189135393 16 19 12
-2.58745847122954 -282.993571725338 2761.45450068845 16 19 12
7.37605885259907 -287.621587238745 2741.48095803598 16 19 12
23.0400143763552 -293.754306573495 2715.75128107888 15 18 11
16.1714162178308 -294.092416086204 2712.00570620551 15 18 11
-11.9178110012959 -291.013867933585 2718.83139209839 16 19 12
-14.4356745508205 -292.473535482535 2710.82326795055 17 20 13
-15.5488407216158 -294.310888419986 2701.36115812391 17 20 13
-6.02006333065153 -298.973943484867 2681.07228573406 22 25 18
278.572711760709 -306.138059815502 2770.00635463928 12 17 11
262.803769525211 -304.468384033369 2773.40518658235 11 14 7
237.70247128617 -300.57564461871 2784.87137773314 12 15 8
215.045442426847 -297.229039541113 2794.40130127787 13 16 9
223.585959081504 -301.285709498044 2777.10478789151 14 17 10
215.758066771411 -301.454970888632 2773.89939761651 16 19 12
216.444131692918 -303.665589482623 2763.26933040661 15 18 11
199.355159599688 -301.605335173215 2768.18359062765 13 16 9
172.331722802095 -297.121414786511 2781.96478132966 12 15 8
169.193210287224 -298.40020372252 2774.74268831657 10 13 6
221.843941224191 -313.288423273643 2717.730027131 9 12 5
224.606791268289 -316.076788227718 2704.89742949044 8 11 4
218.19524280837 -316.628277585355 2700.2467677803 10 13 6
168.582838466953 -306.522097799808 2734.73496085879 8 11 4
122.998612223061 -297.33016800102 2765.9631577263 15 18 11
112.303131042301 -296.736824223737 2765.62358929794 23 26 19
81.348167530813 -291.077430851874 2783.97149511377 18 21 14
87.9928922168207 -294.792277183883 2767.77219185655 16 19 12
57.2165854801225 -289.117335232152 2786.24968853777 16 19 12
19.8822248636863 -281.736805491593 2811.09796423802 16 19 12
13.1745767948517 -282.060561888136 2807.46913822086 14 17 10
3.50961302979336 -281.629898864323 2806.64045874317 13 16 9
-11.3010644110418 -279.8764990778 2810.73438136487 14 17 10
1.90508513950149 -285.295275645147 2788.16704566029 14 17 10
3.99040490841296 -287.887903881361 2776.07902546128 15 18 11
3.83191329535881 -289.916833724812 2766.07297259131 16 19 12
8.74279732508665 -293.274624819177 2751.08894753096 16 19 12
8.49691497970539 -295.310514798925 2741.01950799965 16 19 12
19.8136627821781 -300.386092932051 2719.55461074922 14 17 10
35.3603042187047 -306.610523505896 2693.73942577117 15 18 11
-2.54352576499328 -298.772527957071 2720.64727138692 15 18 11
-0.747582513781708 -301.388110609539 2708.34965418301 16 19 12
-4.01342255631865 -302.673699968567 2701.0349298053 16 19 12
-8.7257115028252 -303.579061282183 2695.14423189081 17 20 13
307.300341243637 -320.744737722884 2746.29308272778 12 17 11
292.235126766818 -319.236734145913 2748.9659119336 11 14 7
268.613481632634 -315.66093192073 2759.03305658972 12 15 8
208.428026307391 -303.250268357044 2800.68990949307 13 16 9
196.76843388976 -302.469159084586 2800.8874239524 13 16 9
213.836191492674 -308.648029244733 2776.17515931807 13 16 9
219.943988376697 -312.201192817115 2760.82277569986 14 17 10
212.869996731762 -312.554985591794 2756.92822726606 13 16 9
196.571904812217 -310.643498634469 2761.179434284 12 15 8
182.495341872316 -311.344890490648 2753.44184844753 9 12 5
191.47370058494 -315.670564478358 2735.22604244833 8 11 4
219.369354962378 -324.74138381437 2699.82148114881 10 13 6
209.922573041538 -324.534230331326 2697.91509207415 8 11 4
175.550074606238 -318.059650469944 2718.73012396399 16 19 12
75.7725194804406 -295.0349964092 2799.67130697734 23 26 19
67.4639705312825 -294.984665221443 2797.35392183289 17 20 13
66.6603345925965 -296.83750880863 2788.11611861401 14 17 10
74.7898294396827 -300.980658469719 2770.52091423392 14 17 10
56.0202291465783 -298.261086434062 2777.92559514537 14 17 10
14.3026906812866 -289.613711593466 2807.01334275374 13 16 9
11.2988756768884 -290.890490357401 2799.88890502249 13 16 9
7.53857060125274 -291.977380974825 2793.45206994441 14 17 10
-5.80446703108461 -290.574641557861 2796.13777208495 14 17 10
6.58063818599963 -295.87984437557 2774.21115020075 15 18 11
18.1234940782402 -301.002415580178 2752.90963102378 16 19 12
2.57007713070845 -299.024557161557 2757.70129948265 16 19 12
18.3450431441892 -305.311861974613 2732.05131339271 16 19 12
33.987171384124 -311.610286591667 2706.30497404182 14 17 10
24.9195109241276 -311.367710639189 2704.67330314975 15 18 11
35.3263042551237 -316.331610894233 2683.78436278323 15 18 11
8.98998969019527 -311.456544783166 2699.30097539204 15 18 11
11.4262800365763 -314.301724931149 2686.2310654003 16 19 12
18.0929987118237 -318.311834675335 2668.81146833569 16 19 12
3.3246715670483 -316.519048624157 2672.93599661298 13 16 9
299.062459981298 -326.61839934217 2753.87780189381 12 17 11
287.157622993331 -325.838925392943 2753.89781952411 12 15 8
269.806870269822 -323.724790616728 2758.62228781774 12 15 8
261.87863944507 -323.891665634537 2755.34417209959 12 15 8
228.286341018104 -317.764638160548 2774.25295394601 11 14 7
224.325423374318 -318.878415032391 2767.67055435181 11 14 7
225.765571740202 -321.330974368096 2756.35087621692 14 17 10
219.447556833698 -321.87464748953 2751.76805856654 13 16 9
215.436439911214 -322.992789781862 2745.14924633219 12 15 8
199.140005889365 -321.045730075548 2749.40212985556 11 14 7
167.604577319121 -315.256937360712 2767.32989959574 9 12 5
200.269343397134 -325.585979756672 2727.96568174578 9 12 5
196.971990299118 -326.900230071876 2720.62796770824 9 12 5
203.512460748323 -330.717190103587 2704.35286558087 7 10 3
125.307577381904 -312.970058305077 2765.08738898256 15 18 11
81.439715801904 -303.862136407217 2795.08902197197 22 25 18
53.5741904853584 -298.787730101253 2810.73312339855 15 18 11
58.8084310306742 -302.201343611564 2795.98351810259 15 18 11
36.3301395508762 -298.46667145666 2806.88001445364 14 17 10
38.5325034438742 -301.110327939923 2794.87687804692 14 17 10
27.3155267408045 -300.270957927697 2795.39554918575 14 17 10
23.5344790083749 -301.367952809592 2788.94362613299 14 17 10
8.66354274461001 -299.554433388821 2792.99417036576 14 17 10
12.2496098561133 -302.593547107984 2779.52173914754 14 17 10
28.9898354733529 -309.138196032582 2753.33485573915 15 18 11
30.9568125872239 -311.800861726247 2741.16098614743 16 19 12
6.60906579633025 -307.452568190519 2754.41108140222 16 19 12
10.0117739719665 -310.506595772179 2740.80565383666 16 19 12
19.8833057018666 -315.322369978799 2720.76447782929 14 17 10
5.0752829974976 -313.501782312184 2724.86066524597 14 17 10
13.3848022166321 -317.936066373618 2706.15945309276 15 18 11
32.3844132224855 -325.314626840442 2676.66578145006 15 18 11
18.2752684372569 -323.69075568289 2680.03227287099 16 19 12
0.642677675430914 -321.081564622801 2687.02530604902 16 19 12
6.57535956133337 -324.946029735751 2670.30936439866 10 13 6
248.288222261015 -319.948677362355 2807.26870375425 10 15 11
281.379038595479 -330.119596061011 2769.44888190743 12 17 11
275.801121827433 -330.859742714055 2764.16654538572 12 15 8
289.780006215881 -336.426336858858 2742.15863293095 11 14 7
273.213417122953 -334.466989263866 2746.21573751849 10 13 6
256.703138489517 -332.502721430773 2750.31368768181 11 14 7
237.145944392084 -329.759379202067 2757.14725096011 13 16 9
227.720690978175 -329.528924510961 2755.25629190776 12 15 8
214.454787747155 -328.32713717818 2756.76185593082 11 14 7
214.305858527299 -330.422922359938 2746.76239640828 11 14 7
234.066089178552 -337.575320405943 2719.0562963654 10 13 6
249.086622957452 -343.573196761899 2695.33123999585 9 12 5
215.169909954196 -337.118339614088 2715.24154394369 9 12 5
223.239074523812 -341.370868633247 2697.60205082994 10 13 6
205.441058851755 -338.996618182321 2703.23893731051 10 13 6
135.535807078422 -323.140456079477 2756.39388181335 15 18 11
91.6324083194802 -313.89937642224 2786.37042761365 21 24 17
68.2447045498682 -309.922850078627 2797.84422773335 16 19 12
68.1927258456252 -312.009646054908 2787.91509524071 17 20 13
37.4642353010493 -306.060848157498 2806.4286420344 15 18 11
12.8412160332552 -301.669495028504 2819.4794045014 14 17 10
20.2737817370418 -305.715612581517 2802.61450942809 14 17 10
27.6263166091812 -309.768322653676 2785.69185938159 14 17 10
17.1742455232375 -309.104129596698 2785.52880851413 14 17 10
21.4744495251096 -312.377785774841 2771.33784573519 14 17 10
33.0537220037135 -317.628354914349 2750.06237186109 15 18 11
32.815726219269 -319.729752756504 2739.99802317885 16 19 12
0.433155339694125 -313.140755257928 2761.02113893969 16 19 12
-32.5193807600619 -306.340296329303 2782.86747694881 16 19 12
19.5550847463148 -322.685849225378 2721.72428260917 13 16 9
8.36348842953072 -321.823214064419 2722.26147037423 14 17 10
5.13228197802462 -323.139324406829 2714.971992508 14 17 10
14.8198978115022 -328.03003002804 2694.79740687699 15 18 11
6.49677756698264 -327.961233920889 2692.469257741 15 18 11
0.32894014226903 -328.487722510995 2687.99539399515 16 19 12
-18.6580650975623 -325.430456951812 2696.47922053453 16 19 12
283.434265878815 -334.165036223588 2788.21025426778 4 9 5
256.584309770851 -329.634331635415 2800.88240516597 12 17 13
273.920121381339 -336.035191812075 2776.36303970207 12 17 11
292.693094661059 -342.838628589703 2750.41368549152 11 14 7
320.716662762882 -352.003329165189 2716.33641268283 10 13 6
284.552023702699 -345.117399404218 2737.08969826208 10 13 6
231.346108254639 -336.014656616531 2762.79231822079 16 19 12
214.973316679919 -334.00322527782 2766.99017457955 11 14 7
218.719559809266 -337.101175019065 2753.63356035894 10 13 6
228.563749384756 -341.779234950111 2734.80829761948 10 13 6
263.274287726457 -355.104572164493 2683.32534608917 8 11 4
248.384227324363 -353.491677684256 2686.12597399186 8 11 4
198.551610195685 -342.783017557211 2720.45758180299 11 14 7
117.785861185153 -326.053716916815 2773.15475143217 15 18 11
82.9768994952582 -319.050912399713 2794.89138846241 21 24 17
82.9203132684517 -321.160127104512 2784.95880232305 17 20 13
68.584176968304 -319.499142786837 2788.16093073605 17 20 13
34.8613354818665 -312.665746414552 2809.44873028886 15 18 11
21.4228322225694 -311.190265858971 2812.06559580728 14 17 10
13.9721942018252 -311.304221146995 2809.13425983098 13 16 9
27.2743238585069 -316.99888588988 2786.63510472566 14 17 10
35.2906928367731 -321.306593671276 2768.95705946972 14 17 10
29.9660040663943 -322.026345520061 2763.85839663138 14 17 10
31.244762114774 -324.545449985958 2752.42138614689 15 18 11
22.9616565837341 -324.466889806526 2750.12258846463 16 19 12
7.39226641728674 -322.384220380993 2754.90320848463 16 19 12
1.3392050309573 -322.902665452089 2750.51258908046 16 19 12
5.86631971229989 -328.558500678831 2725.3578393952 14 17 10
-0.239614399607735 -329.080631592201 2720.92887275438 14 17 10
-7.78384700002066 -329.20008840982 2717.9293657265 15 18 11
0.446665027241444 -333.749685910006 2699.17029548851 15 18 11
2.15807322555994 -336.492082425427 2686.81075468347 15 18 11
-0.453172801652801 -338.027732023274 2678.7342562436 14 17 10
43.7772761235928 -352.895593533685 2623.02875925376 14 16 11
315.504961753542 -349.904328525242 2761.97397014223 99 104 100
290.931475661008 -345.904376143622 2772.5882900077 10 15 8
288.498240977296 -347.442382491098 2764.6411183293 12 17 10
304.881520891124 -353.741157274341 2740.66709049932 12 15 8
265.452906668508 -348.095559215839 2754.1072328312 16 19 12
223.277014305491 -339.49680552484 2780.39239038325 17 20 13
221.663246313829 -341.230531328387 2771.80323961137 17 20 13
227.762438399896 -344.958903669545 2756.44373072453 12 15 8
227.616540332014 -347.098066637656 2746.44595435468 11 14 7
234.361083149874 -351.036741719983 2730.31817213174 10 13 6
251.006408263806 -357.579141532183 2705.29783582164 9 12 5
251.450266049027 -359.933350021909 2694.49146017856 9 12 5
192.340115645701 -346.677903703129 2736.93210355916 9 12 5
240.044329084089 -361.446331208529 2683.74531625154 9 12 5
191.093326936898 -350.772245243913 2717.4808138232 10 13 6
97.7596664216054 -328.233605996681 2791.97493318154 18 21 14
84.1226359276872 -326.748518520609 2794.44793073175 19 22 15
84.0652794135481 -328.879672222011 2784.5143805923 17 20 13
58.4782004603319 -324.169471491066 2798.10292727446 15 18 11
49.4522606872705 -323.882172977551 2796.5017271273 14 17 10
32.2435954689331 -321.374804655339 2802.56652059739 13 16 9
17.3298179790411 -319.467313689084 2806.58648429546 13 16 9
23.2168294296571 -323.212815284204 2791.07307437478 14 17 10
33.4656826162067 -328.177612153297 2771.3046719146 12 15 8
49.5100141321605 -334.770133000969 2745.84840864656 13 16 9
41.1856312870711 -334.687209792153 2743.51971025805 14 17 10
27.0159843373357 -332.980536063963 2746.84276178009 16 19 12
9.97378380232616 -330.457531468588 2753.02830825246 15 18 11
2.20789532743026 -332.715646559665 2739.97640343739 14 17 10
-11.8237834538923 -330.996182788158 2743.39953581319 13 16 9
-22.9230124816584 -330.087291110619 2744.00391689566 13 16 9
10.5871028135569 -341.820045620239 2700.30495966148 13 16 9
51.7394023009943 -355.818631354242 2648.54792712941 13 16 9
2.55858435444889 -344.097763842145 2687.06256947233 13 16 9
15.0705092415833 -352.315076316562 2652.86158726382 8 11 4
319.086597425749 -358.644680467799 2759.58566167737 89 94 90
296.07975717312 -354.98413133865 2768.86388414329 9 14 7
290.485141735241 -355.733706543608 2763.56910016495 11 16 9
289.595918426545 -357.689611460909 2754.26873080907 12 15 8
297.287303929073 -361.861302944075 2737.59111815167 14 17 10
243.223847649153 -350.131807400107 2773.80131209794 19 22 15
226.79568006789 -348.054125458309 2777.95936078014 19 22 15
238.371433203499 -353.234592209724 2757.91672737081 14 17 10
256.0384027039 -360.039376733115 2732.40063721994 13 16 9
229.569171278119 -355.334742762335 2745.34966455193 11 14 7
225.535549838276 -356.487447782277 2738.71436324565 10 13 6
217.650593995799 -356.628891063728 2735.46774730244 9 12 5
219.72300783971 -359.404534126499 2723.36973879381 9 12 5
218.394155793979 -363.546926176699 2703.85871620829 9 12 5
82.2652547307103 -331.486880246175 2806.66376107956 18 21 14
71.6904232578299 -330.785244945777 2806.41220271715 18 21 14
67.9107766320186 -331.915762090364 2799.96112555961 16 19 12
74.6165939374692 -335.903457621143 2783.80502208804 14 17 10
64.7963569332086 -335.405137517557 2782.864124422 13 16 9
49.7783564024843 -333.474067094995 2786.80865404814 13 16 9
25.8922278010738 -329.083378495534 2799.15826981304 13 16 9
17.6752934391589 -328.98368534623 2796.9075480661 13 16 9
23.5112009011589 -332.776939919447 2781.35684989521 12 15 8
33.6965020070359 -337.806917391719 2761.5423414999 13 16 9
39.3770461912744 -341.613236073616 2745.87895100105 14 17 10
22.283236407949 -339.054035942224 2752.02697368843 15 18 11
-6.42821594211762 -333.197557545088 2769.53217364018 15 18 11
-18.98865522612 -331.859100747019 2771.54983579156 14 17 10
4.05257924972924 -340.615579472248 2738.80327172711 13 16 9
-3.4729409457388 -340.723114594159 2735.81768458369 13 16 9
-11.7116671996897 -340.623334772869 2733.55116586816 13 16 9
31.8418591420588 -355.401137250301 2679.82548267645 13 16 9
41.3937271965601 -360.483276635771 2659.55122645668 13 16 9
22.257391924136 -357.292034846457 2667.92747908459 13 16 9
-14.6141827774917 -348.913384201348 2694.35133047919 10 13 4
298.071602843428 -363.28264226264 2767.79541424852 10 15 9
294.834707648254 -364.64569414495 2760.50157472246 10 15 9
290.794582388656 -365.8066927428 2753.86151664983 13 16 9
282.825409701304 -365.949451738524 2750.55413793116 13 16 9
260.028606068015 -362.214065646084 2759.98470501179 19 22 15
241.995332975566 -359.696560082373 2765.45147950603 19 22 15
205.392320517429 -352.266380193055 2787.12477221715 12 15 8
214.641299412525 -356.89591395219 2769.10360545389 12 15 8
221.485628092061 -360.918510742274 2753.04773505162 11 14 7
201.309269357819 -357.771733071121 2760.66982725734 10 13 6
184.282113508501 -355.43900825432 2765.62998503263 9 12 5
197.169471524184 -361.111822585465 2744.06530041893 9 12 5
194.68062968942 -362.682234094021 2736.07765379148 9 12 5
230.223554662614 -374.54378032779 2693.85137684269 12 15 8
80.3852466569546 -338.336365608049 2808.97161347645 19 22 15
79.624680462862 -340.300368446951 2799.76446939106 19 22 15
82.5942290530675 -343.299682551702 2787.08034896168 16 19 12
78.7594331898287 -344.442971789874 2780.58922825182 15 18 11
68.1796365007958 -343.725070202919 2780.3341528902 14 17 10
44.9485984203211 -339.484032010262 2791.92286311604 14 17 10
44.1230608039254 -341.452880052247 2782.66859531815 14 17 10
21.7682116963291 -337.407446964468 2793.6564462216 14 17 10
10.5961110542978 -336.468672155071 2794.20815247968 13 16 9
17.8768227924913 -340.723529237176 2777.23211791912 13 16 9
5.24041578701162 -339.367807096206 2779.19479690034 13 16 9
-7.35706789606216 -338.008453781516 2781.18571062125 13 16 9
-27.2187615458666 -334.561294155748 2790.27246838498 13 16 9
-48.4536605574692 -330.689638128218 2800.83598369266 12 15 8
-35.4791503884269 -336.623651173036 2778.09811788267 13 16 9
-2.35603072813317 -348.418933636687 2735.35333916663 13 16 9
4.55454480595963 -352.70389536683 2718.10883248664 13 16 9
35.1221502440331 -363.904462528453 2677.21992368841 13 16 9
31.7607694774149 -365.27498076086 2669.83550961939 14 17 10
17.657275097247 -363.500565035342 2673.20715415448 14 17 10
1.46353431590152 -361.091900425584 2678.77185694851 13 16 9
325.461544194139 -375.982763530081 2755.47333047061 72 77 73
290.522556793761 -371.315666474886 2764.75262854661 9 14 8
283.354384260289 -371.657861801757 2760.78957064312 14 17 10
247.995644087995 -364.562084848663 2780.89280133611 15 18 11
259.657864460305 -369.860112644273 2760.91225440211 18 21 14
235.394133247175 -365.645738512589 2771.7522082786 17 20 13
216.667078721779 -362.873032579228 2777.95266955248 10 13 6
201.881767654283 -361.131219061639 2780.82959100659 11 14 7
194.093815039876 -361.253203341282 2777.65368781427 10 13 6
191.704153735555 -362.828664016306 2769.73791369493 10 13 6
186.220849072359 -363.574419519063 2764.5238406202 9 12 5
190.685451282353 -367.02611704899 2750.4511517962 10 13 6
214.173593274751 -375.690750151175 2719.26435685039 10 13 6
208.56302605317 -376.447342676394 2713.95826801653 13 16 9
165.755244245046 -366.978809606626 2742.25983428705 13 16 9
95.1079725128383 -351.959444566556 2786.22708326271 20 23 16
90.5110163380325 -352.902610868001 2780.41950656901 16 19 12
88.1551168816634 -354.474679274851 2772.52822431628 16 19 12
62.5873367667085 -349.550167396879 2786.13184666635 15 18 11
52.7960267243994 -349.021902244153 2785.21207044994 14 17 10
51.2060923018747 -350.801741648593 2776.63966908946 14 17 10
38.4673064526964 -349.430834016354 2778.52820837952 14 17 10
24.2889723886002 -347.63560678141 2781.84541096794 13 16 9
21.9510024695619 -349.205266794737 2773.96713841845 13 16 9
10.0375186797845 -348.03684524875 2775.21760004602 13 16 9
-15.7619471119679 -342.857167821944 2789.88959759758 12 15 8
-24.6431381475622 -342.523182556144 2788.39385985392 12 15 8
8.73147418400677 -354.44465324574 2745.83045989715 12 15 8
10.6474253080835 -357.291102265922 2733.61866957771 12 15 8
5.99964645432127 -358.236115506176 2727.77424108431 13 16 9
4.22902146686166 -360.029278497559 2719.07078579059 13 16 9
54.2313969845605 -377.09414967296 2658.89250792111 13 16 9
26.4270744840158 -371.263258525207 2675.81984494921 14 17 10
5.18960128013157 -367.33302312181 2686.38179088605 14 17 10
36.0814633492517 -378.91748280961 2644.49066704209 15 18 11
315.485242074136 -383.459014846113 2754.3791995722 13 18 12
279.907158366838 -376.280936275095 2774.32384032957 9 14 8
242.134347846765 -368.461648635679 2796.38612899752 16 19 12
270.3355066998 -378.210166842918 2762.43493283998 18 21 14
231.166263965733 -369.957869011957 2785.95718453506 20 23 16
212.432986276754 -367.141875007712 2792.15335376746 16 19 12
204.643616016881 -367.25835821382 2788.9764507577 9 12 5
236.364300123124 -378.087984562595 2751.39538544069 10 13 6
204.536775066467 -371.694648703957 2769.11447033442 10 13 6
170.543156581 -364.657545178229 2788.97197304966 10 13 6
207.358946287639 -376.98588070615 2746.43102190142 10 13 6
228.613028680646 -385.118835125347 2717.33280689678 10 13 6
204.658123619371 -380.815337517533 2728.3970868694 11 14 7
201.360406733194 -382.205720565814 2721.05901796378 13 16 9
88.7340916167778 -355.369222398781 2802.58634486035 18 21 14
101.539768960095 -361.184989161587 2780.96172410185 19 22 15
90.1523284548213 -360.227335043014 2781.35742152491 15 18 11
53.2818389247041 -352.053715564123 2805.31094780181 14 17 10
57.7411030818293 -355.54342439562 2791.23419677463 13 16 9
38.2667729414194 -352.237384038257 2799.36571670993 13 16 9
46.3910303536905 -356.795042373078 2781.76461603343 13 16 9
58.1388968774559 -362.424291149086 2760.60944149363 13 16 9
41.683816424372 -359.964806669974 2765.98495099502 13 16 9
40.7705693962619 -361.978876706564 2756.66687171445 13 16 9
25.8609849385203 -359.939549920703 2760.69054280543 12 15 8
-2.18670680648536 -354.049632047458 2777.44175525646 11 14 7
-2.34066484713313 -356.274393310079 2767.43799694513 11 14 7
-18.5550402153352 -353.793258257324 2772.98810836387 11 14 7
7.41083064165515 -363.731891395357 2737.41524678797 12 15 8
16.5303127286864 -368.755301182055 2718.06317333602 12 15 8
35.6619244151775 -376.790805256414 2688.66186425486 13 16 9
0.669219875025995 -368.729917864259 2712.74102930546 14 17 10
0.28685591931632 -370.972774704925 2702.57130853719 14 17 10
11.3114553088032 -376.661034391621 2680.89152331457 15 18 11
301.68044745077 -387.605014635071 2766.58294074521 17 22 16
291.34755840114 -387.095879123932 2765.27075993014 7 12 6
270.037142439717 -383.61936171028 2773.30716219888 20 23 16
254.293717112632 -381.619983691475 2776.72616190025 22 25 18
190.163676585678 -366.458573741738 2821.71320598205 19 22 15
197.253961668893 -370.598666453462 2805.83474500874 15 18 11
229.129008437087 -381.548289128838 2768.36526715161 11 14 7
240.646676744972 -386.984026959998 2748.27923381274 11 14 7
223.480828903906 -384.548666029508 2753.13937067552 10 13 6
219.470851399101 -385.731777031047 2746.52105535004 12 15 8
199.317106169935 -382.43573003627 2754.16000216972 15 18 11
229.791104856806 -393.226591385505 2716.9107154452 12 15 8
243.25233323653 -399.333623834049 2694.52480567583 10 13 6
176.434810571782 -385.241925270015 2733.85251946153 11 14 7
74.7399066927796 -358.782074759289 2815.89183760513 19 22 15
67.9629504436181 -359.085348202524 2812.21257788212 18 21 14
76.2442087309987 -363.681667396603 2794.72509466567 12 15 8
50.667738516621 -358.616266671592 2808.32313100701 14 17 10
37.9263312318763 -357.196820451671 2810.21001581999 14 17 10
58.0536768512205 -365.244680092984 2781.53047293339 14 17 10
64.6356520128801 -369.42779327708 2765.28360381993 13 16 9
65.9501407541305 -372.107940187263 2753.87167956551 12 15 8
69.4385249278389 -375.439108898836 2740.32695658491 12 15 8
46.3251236061613 -370.999332154078 2752.00195085764 13 16 9
38.0148216494249 -370.874283979049 2749.68367337685 13 16 9
31.9158449707988 -371.397165626665 2745.25974652528 14 17 10
26.5469492944268 -372.136450326502 2740.12893821962 14 17 10
-8.69695687481276 -363.989220972226 2764.02614471042 13 16 9
7.80434358177473 -371.229346255945 2737.66253662928 13 16 9
26.3407909033657 -379.132201114529 2709.06578319922 11 14 7
38.2295385800235 -385.091900336363 2686.77602598786 13 16 9
8.26301893421011 -378.445640360943 2705.84547453025 16 19 12
-7.20806622729842 -376.140596939331 2710.69818983737 15 18 11
299.723380153465 -394.865447257557 2768.83284973754 13 18 14
332.735935641078 -406.132243556894 2730.9510385736 14 19 13
230.409853004414 -382.767864715424 2797.695505133 19 22 15
211.659371281616 -379.865929330348 2803.87934362715 15 18 11
201.549759260252 -379.324367374218 2802.72918534117 11 14 7
227.20474125181 -388.68527294051 2770.63928446068 9 12 5
238.732217663693 -394.182708236555 2750.56004871588 11 14 7
242.431923480073 -397.53224536457 2737.16842426423 12 15 8
224.501711245579 -394.842144615655 2742.7110784795 13 16 9
275.400092969136 -413.881677983128 2676.99656047703 12 15 8
260.473110241545 -412.061964702445 2679.77117569898 11 14 7
241.785459633256 -409.15486919419 2686.00088242298 12 15 8
80.4289867331907 -367.733381894444 2811.32478764362 18 21 14
76.6567845357669 -368.903921751641 2804.87890438816 16 19 12
87.1752800743404 -374.205934912392 2785.30426335642 12 15 8
64.5670301206351 -369.942951015611 2796.10952051643 13 16 9
74.2391275569978 -375.03541512239 2777.15740547384 14 17 10
80.8330012617135 -379.263865848578 2760.91893222458 14 17 10
70.9819312772875 -378.699626533472 2759.95631144403 13 16 9
60.4105702564048 -377.915094749723 2759.70739429634 12 15 8
63.1787074016295 -381.061434536986 2746.87681617512 13 16 9
48.1943295714209 -378.963355167308 2750.84627107063 13 16 9
22.2325786089126 -373.576957050901 2765.40196619664 14 17 10
42.573008750677 -381.982695164935 2735.64004347358 14 17 10
53.2529462966629 -387.551240057563 2714.94604853339 14 17 10
11.3662015106231 -377.327113073535 2745.15445253548 13 16 9
19.0949206504847 -382.020529682765 2727.26593008168 13 16 9
36.1549660940281 -389.57876155507 2700.07072026401 12 15 8
22.0242469980696 -387.687731245108 2703.42292522045 13 16 9
-17.9745246958758 -377.864620599469 2732.52785672313 16 19 12
463.111499545135 -442.58474098941 2653.59596862045 127 131 132
281.860031641664 -402.335684245508 2764.49133431397 24 27 20
269.2171603765 -401.143356701708 2765.21346296034 19 22 15
232.381113196707 -393.201301527925 2786.72012210073 11 14 7
219.875533166272 -391.997493400106 2787.54183424452 11 14 7
215.176375186046 -392.970924911568 2781.66001598173 14 17 10
