ply
format ascii 1.0
comment KinectMotionCapture
element vertex 793
property float x
property float y
property float z
property uchar red
property uchar green
property uchar blue
end_header
-73.8356560382565 142.022377577772 2855.23250701631 15 18 7
-68.632956827891 141.047430772077 2840.47238906115 16 19 8
-72.2554592583995 140.467323460614 2834.13801701872 21 24 15
-64.2498632948572 139.349451010982 2816.46831931932 18 21 12
-57.7800280393752 138.292130714669 2800.1559903519 15 18 9
-50.6627826986059 137.194695047448 2783.07744847324 18 21 12
-76.0727400894246 137.624669699046 2798.00804527323 20 23 14
-85.5502652588995 137.310546138315 2797.31147154273 19 22 13
-80.6744318034149 136.309224112841 2782.31426803051 19 22 13
-70.864688674372 135.060034164375 2762.24636560015 19 22 13
-68.9875427342814 134.185810997062 2750.01643428745 18 21 12
-96.2702638405282 134.742489984382 2767.29517637341 19 22 13
-106.434252781723 134.465800538516 2767.3361966453 19 22 13
-121.512136061721 134.438839456235 2772.46243480214 24 25 19
170.466266877001 137.574631726953 2808.751829768 205 210 204
163.53774295735 137.097199167236 2804.9621077328 14 19 12
88.1203397710131 139.540706652716 2861.46404703058 13 16 7
55.3029764757271 140.20201402414 2880.90691094203 28 31 20
31.055500833395 140.511006498892 2892.97390392988 17 20 9
19.1202767575249 140.294866364703 2894.20159248223 17 20 9
15.5878947167905 139.712620287062 2887.93253980034 18 21 12
13.5582823505889 139.061782829471 2880.28245623896 18 21 12
-15.724440891848 139.629795298712 2897.34644812976 16 17 11
-29.7881056637503 139.527240058755 2900.73745876991 16 19 12
-23.5003355066863 138.503303381987 2885.528352651 13 16 9
-22.5325101060159 137.714680809001 2875.1097423157 13 16 9
-41.7907676648435 137.857938107256 2883.3821722339 12 15 8
-51.2805253004021 137.55508599842 2882.67678801981 12 15 8
-52.5740367954017 136.869017975803 2874.32481013315 16 19 12
-41.2979823831772 135.582645084656 2854.08464307646 16 19 10
-47.8556450195171 135.136630532599 2850.56392543851 16 19 10
-46.307046258804 134.299940222707 2839.33075552744 15 18 9
-46.2726028347422 133.53108900345 2829.47094792996 16 19 10
-58.7218012334296 133.369787244942 2831.56165440035 17 20 11
-52.8823796879407 132.30940984288 2816.02734622522 21 24 15
-52.2091218213587 131.497162989783 2805.39507793644 21 24 15
-53.7533153779628 130.791010963797 2796.86127354407 21 24 15
-58.2187305426058 130.229221682812 2791.15127996268 18 21 12
-60.5302782563224 129.556235949291 2783.29640878868 17 20 11
-68.6168973268408 129.177482963162 2781.13773195354 19 22 13
-95.327446434903 129.766659354381 2797.5963817083 18 21 12
-72.6058318528056 127.788058309387 2764.65274412554 19 22 13
-82.3772739808501 126.692567280858 2753.85826395137 21 24 15
-96.1237647799082 126.617951640573 2757.47904781582 22 25 16
-80.8873348897259 124.985467189775 2731.46224297998 22 25 16
185.566891999607 128.455634345611 2786.30406085862 16 21 14
86.9827990468037 132.205465971188 2863.07263277854 14 17 8
61.8402145386643 132.604815565315 2875.72623655282 8 11 2
47.5209782548189 132.510491702761 2878.93172516632 16 19 8
25.6175882232514 132.78104242473 2888.99269123602 16 19 10
22.0680701737108 132.188625798436 2882.71116477982 17 20 11
23.8154812775209 131.339897591021 2871.62235168182 17 20 11
-21.3879274587065 132.759030330151 2903.08724053821 14 15 9
-58.0658559569598 133.792065114124 2927.14389547033 14 16 11
-17.0931767721729 131.028706139032 2880.25400197991 13 15 10
-13.1417386417962 130.064804843384 2867.05694737072 12 15 8
-51.870574229971 131.226069742491 2893.33320433728 11 14 7
-56.8568010284396 130.713600421281 2888.48065525536 12 15 8
-57.3884748612594 129.974382981021 2879.44564390696 16 19 12
-40.1643711577104 128.322650970056 2853.6346121156 15 18 11
-45.9852350930707 127.840596099648 2849.41250192252 15 18 9
-44.4396142689074 126.97574466846 2838.17732507708 15 18 9
-58.3646004467995 126.914912800485 2841.66878364965 16 19 10
-38.5543480179282 125.080511669117 2812.7911400115 16 19 10
-37.8829660539872 124.242811341251 2802.157382914 20 23 14
-51.8111679388256 124.181972876366 2805.64651031857 21 24 15
-67.1434439211271 124.203526742308 2810.58857951428 21 24 15
-55.6487863569668 122.773097484937 2789.27111624455 19 22 13
-55.8020649148221 121.966773762073 2779.27474069356 17 20 11
-61.7448181877112 121.475441934128 2774.96422332883 16 19 10
-56.217960591169 120.345453685801 2759.20327276103 17 20 11
-75.7775979475106 120.613161432331 2768.49259855049 17 20 11
-74.5917693264717 119.719610898786 2756.99645529204 18 21 12
-86.2366893885813 119.550851703867 2758.43512589018 20 23 14
-71.3052173208608 117.017354161091 2722.31151034712 22 25 16
82.9650870758884 124.233690197106 2857.64936127729 24 27 18
64.7575565824519 124.357114112235 2864.21301747341 21 24 15
37.4599628836201 124.952184421087 2879.0108048238 14 17 8
36.9222543685637 124.192299630684 2869.97131412126 12 15 6
25.7283822408394 123.978420787014 2870.50139934674 12 15 8
0.187040223004864 124.515054097461 2884.10196176764 13 14 8
-25.9955850690277 125.100697702454 2898.47292913342 11 13 8
14.8938977164348 122.159921169555 2851.52212061974 12 14 9
-11.2490174195394 122.748960971494 2865.92189192751 10 12 7
-32.0389183812799 123.067144555527 2875.55496015058 10 13 6
-69.8930448740915 124.31904114697 2901.23044036876 14 17 10
-46.5919311516367 122.268684314143 2869.94156725195 16 19 12
-15.3091946452879 119.756995093955 2830.85011973571 17 20 13
-27.8546146145917 119.635872598733 2832.87127665198 18 21 14
-50.6253208884768 119.279859358945 2834.88922979193 18 21 12
-45.4816935560216 118.175038459291 2820.08563153393 18 21 12
-40.4050386785988 117.064736877643 2805.23316127626 15 18 9
-52.1416298645152 116.908973325769 2806.60514886886 16 19 10
-55.2493291439549 115.427335772999 2789.52348357185 19 22 13
-40.9717749415977 113.752946930848 2765.28143029088 19 22 13
-47.6778851988071 113.299969754304 2761.65306453747 17 20 11
-52.9462472729774 112.762075345247 2756.59586079004 16 19 10
-63.2243403095138 112.523708630403 2756.55465315732 16 19 10
-77.7529671007282 112.545655211693 2760.84427016236 16 19 10
-85.8355591827353 112.183224863062 2758.6885952545 18 21 12
-82.5739309728262 111.127804085114 2744.99101914847 20 23 14
101.026200451347 115.880318431936 2842.29203252085 18 21 12
54.437553936991 117.57330527603 2873.98915670367 18 21 12
61.5210034727047 116.377053483165 2858.12094610775 13 16 7
38.079272439985 116.843869083075 2869.53780333459 10 13 4
43.5811940226425 115.726242984487 2854.99358088706 10 13 6
53.5570846373736 114.350522842592 2836.28081252068 12 13 7
27.971295647466 114.954292129803 2849.84949443994 11 13 8
9.27084246333409 115.185360313109 2857.29140232672 12 14 9
2.64805138353719 114.740287565156 2853.7231819836 10 12 7
-44.3661510799738 116.608290365531 2887.58306580281 10 13 6
-59.0678942796399 116.646876100235 2891.74727130946 16 19 12
-51.4082511732878 115.39401558972 2875.06113788894 16 19 12
-21.5856255590783 112.833313103488 2837.38134430024 16 19 12
-41.5047459631146 113.173493071822 2846.41044024277 17 20 13
-16.3815853182479 110.852388326292 2812.73592654528 17 20 13
-28.9213506188757 110.756074104564 2814.76101383332 18 21 12
-33.3636078959632 110.177864327331 2809.06772472578 17 20 11
-37.9082485415396 108.752481748287 2793.41474816754 16 19 10
-39.4891056371369 107.9923980924 2784.85409241898 16 19 10
-13.5919410126435 105.526342689377 2749.26956878531 19 22 13
-67.2689364244421 107.996437352883 2791.8887878715 21 24 15
-37.2025490242351 105.247146201747 2751.91408495239 21 24 15
-51.1084248136855 105.248139420314 2755.42000468666 18 21 12
-62.106651692065 105.07091580738 2756.09210299463 17 20 11
-82.5924384924268 104.63237120341 2756.06091509831 18 21 12
-48.1679666809756 101.511191042997 2710.59775152546 20 23 14
87.6068403917882 109.20233930196 2854.76235846022 18 21 12
43.3470732610246 110.910407725908 2884.44270351253 13 16 7
33.6673999959527 110.644117580392 2883.59983059915 11 14 5
18.6788042896593 110.690860437873 2887.55613191945 11 14 7
2.98276761080007 110.786586214026 2892.23487891854 11 14 7
50.930112421129 107.121517297446 2839.28028895433 12 15 8
2.70558738762094 109.146794945805 2873.49861737029 10 13 6
7.40777067264808 108.028983828601 2859.60997773261 13 16 9
-14.2163531842543 108.494195118608 2869.87408132929 10 13 6
-30.5120084119292 108.648156813032 2875.35377812848 10 12 7
-43.0168845690282 108.578491847332 2877.40429228497 18 21 14
-45.0702625965196 107.869196521008 2869.73668438791 18 21 14
-42.6968868378299 106.881397500383 2857.86561089967 16 19 12
-23.3670358972193 104.824913233323 2829.87362570474 17 20 13
-24.0921577124795 104.01075848442 2820.69800021325 18 21 14
-10.149275964433 102.260944332811 2797.44828479004 18 21 12
-51.2856490954985 104.014139558398 2826.92241117297 17 20 11
-37.417516578079 102.258329629296 2803.61847806746 18 21 12
-57.1753055816431 102.664029732449 2812.76515293459 15 18 9
-53.6124103441604 101.560321656424 2799.28572714152 12 15 6
-85.5830200773215 102.782807609784 2820.58029989012 15 18 9
-72.6457196481922 101.057808747882 2797.8367794322 19 22 13
-66.300319718064 99.754763259398 2781.4329999953 23 26 17
-67.9218618090571 98.9748645002513 2772.84275045791 20 23 14
-75.2923486246595 98.5791832532711 2769.9680908032 18 21 12
-77.6641380126692 97.8448892388486 2762.06923861535 17 20 11
-63.0010722727281 95.9408504817221 2736.87045102391 17 20 11
-69.0148147539769 95.4428715789785 2732.50843839831 20 23 14
105.674566197483 100.710658590874 2839.4091226335 19 22 15
59.0592456112993 102.690893936843 2871.08865965971 10 13 6
25.6593787576915 103.891336747532 2891.34672728996 8 13 6
2.31645300644212 104.49143945761 2902.83588569944 9 15 5
-13.3330960650697 104.626165163412 2907.54853009952 10 16 6
-23.6265956659893 104.432732314179 2907.49638151837 14 17 8
-2.94224303826862 102.284109094197 2879.25080017176 13 16 7
-17.0387535447307 102.327121966505 2882.61844309213 12 15 6
2.686424975479 100.209343802879 2854.91272883069 11 14 5
-12.1627425643007 100.300424804173 2858.97003470886 13 16 9
-29.1987023802922 100.541303020311 2865.1485457916 16 19 10
-35.010469162589 100.057849279362 2860.93302323336 16 19 10
-30.4389014861788 98.8906233613185 2846.94944725781 16 19 10
-22.9717093080963 97.5222058405678 2830.12321673324 16 19 10
-25.90773696418 96.8360644697858 2823.05091119228 16 19 10
-35.4785759422627 96.5929445668707 2822.28705193803 16 19 10
-64.0851143326235 97.6405244345561 2839.84394823904 16 19 10
-70.6338907120132 97.2068395820927 2836.32944041373 18 21 14
-69.893884098065 96.2741796471393 2825.74494980041 18 21 14
-79.3980639517353 95.1536052439935 2815.14408670035 15 18 11
-91.7419095735286 95.1226409385656 2817.31182583195 20 23 16
-79.5766178479265 93.3722959892001 2795.24386251265 24 27 20
-76.8501387709117 92.2738899060535 2782.39316427969 21 24 17
-67.7399605823694 90.7118506183404 2763.05187875714 22 25 18
-77.2640241105982 90.473789604591 2762.32195364899 21 24 17
-91.0325216063646 90.546033788647 2765.92752826331 19 22 15
-46.6406032829685 86.3926100854621 2710.39335462592 20 23 16
86.10343380085 94.51311591741 2857.30350749043 22 24 19
51.0285896973026 95.8989246223701 2878.81894949365 10 12 7
55.8412816262734 94.7122496184645 2865.01007112117 8 13 6
40.7879689919572 94.8183074529244 2868.91946372425 9 14 7
9.07746566421119 96.031048429525 2887.93247053845 10 16 6
13.1078869506815 94.8927309936845 2874.79178905256 11 17 7
-13.8783494315806 95.8188682434608 2889.81696288576 13 16 7
-20.414517864642 95.3876236908687 2886.31160719041 12 15 6
12.8390780219365 92.262417852108 2846.1756968581 11 14 5
-17.0101476563964 93.4037613586202 2864.06695970729 13 16 7
-29.5550981049661 93.3791780973042 2866.08894597941 16 19 10
-10.0654521944965 91.1482973363953 2838.2119162157 16 19 10
-6.30617991005478 89.9878943198204 2824.87456116381 15 18 9
-13.7004572674164 89.5990278841867 2821.98239527901 15 18 9
-18.1372616915263 89.003172408808 2816.29296968202 16 19 10
-54.936590107223 90.6997646248216 2841.50031137862 16 19 10
-58.56303368727 90.0582201133505 2835.16277112125 16 19 10
-65.1272192352379 89.6255124035003 2831.63709781022 19 22 15
-71.6880909945072 89.193222507029 2828.11382885163 19 22 15
-74.6132620377842 88.4970723326418 2821.04934280443 17 20 13
-52.9316859190811 85.9963083899883 2789.81948202143 15 18 11
-77.6311226837811 86.8875767786999 2804.03186134704 16 19 12
-84.9402912970507 86.5067953992246 2801.20172803656 21 24 17
-72.1470481031385 84.6264573551128 2778.35299059092 20 23 16
-63.0468274484226 83.005510535835 2759.00418826133 21 24 17
-67.5919759090116 82.4019579514645 2753.23588829573 21 24 17
-65.0366637689195 81.25640355488 2740.26116315883 20 23 16
-58.9908262496279 79.8349086232278 2723.63933009054 21 24 17
112.501880015292 86.2512913969029 2844.28514857669 19 20 12
48.8506361958025 89.6562471940181 2890.79477048095 28 29 23
67.5132558508933 87.4943888605292 2864.78892908272 13 14 8
60.8216335014711 87.0521489540968 2861.17082583222 11 14 7
66.3227466077845 85.7678467952888 2846.62517305583 11 14 7
72.5164426526561 84.4251731486718 2831.34625613976 12 15 6
27.1333208951821 86.6816789975607 2862.68510865167 12 15 6
3.87956306752724 87.4144374438758 2874.23957871935 13 16 7
0.304865417008138 86.7676902148445 2867.93952383783 12 15 6
-27.3109718373621 87.8339330035704 2883.74432733088 12 15 6
-39.0789323898684 87.7820721483047 2885.09439536485 14 17 8
-31.4050654121139 86.3308793310728 2868.41756854003 15 18 9
-11.9037421643275 84.0072363905859 2840.54853406862 15 18 9
14.1252995721235 81.1824479029494 2806.29283054321 14 17 8
10.3705335269351 80.5211878055389 2799.86216672899 15 18 9
-29.5428750054003 82.5374648874697 2827.75410555197 15 18 9
-42.7790050074499 82.5960708713874 2830.5104990144 17 20 11
-42.0406832421998 81.6127311772462 2819.92453031532 17 20 11
-44.2671394302987 80.8469711865725 2812.13087388428 18 21 14
-58.9069152466082 81.0212068223277 2816.34068796307 18 21 14
-59.6889300219214 80.1437896186068 2807.12349911387 19 22 15
-55.431871539166 78.8735076043424 2792.91140671244 18 21 14
-54.1263534658121 77.821922490096 2781.50122841597 17 20 13
-48.5458835481989 76.4299440871234 2765.77752105505 16 19 12
-57.393207159075 76.158425787123 2764.30297305839 17 20 13
-61.2147448518801 75.4929513179008 2757.82388370522 20 23 16
-69.3309415891714 75.1665574175275 2755.64403059731 21 24 17
-71.7454461178639 74.3863803139731 2747.71427536252 21 24 17
-69.2199297589213 73.2050945914764 2734.71747516476 22 25 18
113.675500834002 78.7169986120773 2843.86273204698 25 25 15
48.4738991562859 82.4354891563392 2891.72042230425 13 14 6
35.7226775000372 82.4414426262397 2893.59273837343 14 15 9
55.1049952780875 80.1325287359899 2866.87254553205 13 14 8
65.1976452929959 78.475987145578 2848.24299613062 13 14 8
53.1635583021348 78.422989107298 2849.39984319294 13 14 8
22.2240245098551 79.7664995647908 2867.73707354368 13 14 6
11.8238498421035 79.6120705380867 2867.60779149208 12 15 6
-0.810649895382376 79.6281323895172 2869.5650674491 11 14 5
-42.6947897727183 81.8430306017406 2898.49946037617 12 15 6
-34.2004553739725 80.2914563343917 2881.18215729046 14 17 8
-19.8177389077294 78.2795897825569 2858.24966561692 15 18 9
10.8213849295495 75.0072187484174 2819.92312764436 15 18 9
-5.51376146968496 75.3097201497397 2825.37465435638 14 17 8
11.5111119104059 73.0427717314249 2799.41578558235 15 18 9
-8.49089265700465 73.6342810543699 2808.38636453576 15 18 9
-33.5594768670231 74.6358734757959 2822.33199429026 17 20 11
-23.3120581747992 72.874334151587 2802.57877706551 17 20 11
-27.7864680397228 72.2637373642905 2796.86201581429 16 19 12
-39.5603386286263 72.2337464946249 2798.20761583552 17 20 13
-54.2072335958754 72.4399657790391 2802.41243109335 19 22 15
-58.6581511569986 71.8316650427195 2796.71241706743 19 22 15
-37.1137629932958 69.1101761701429 2765.38198779284 19 22 15
-35.1821919580384 67.9641112186287 2753.18983898387 17 20 13
-45.5056850963955 67.8178956687913 2753.11618661227 18 21 14
-59.3825946743887 67.9701170609872 2756.6438705719 21 24 17
-48.2374757152417 66.0468826288496 2735.0702286755 22 25 18
-67.076004247286 66.6180635046997 2743.64909663996 21 24 17
-65.9801596942293 65.5220402138823 2732.08669644585 22 25 18
138.804353945075 68.429192296536 2812.62206528407 17 17 7
69.839294102664 72.6526401227706 2863.92957973278 17 17 9
42.5066869745487 73.7783563511351 2878.70467292727 15 14 9
51.1154354593386 72.1834016635993 2861.47009132386 14 13 8
44.441421744863 71.7471735907907 2857.86478339974 12 13 7
18.8276058206021 72.7731372547459 2871.41528649391 12 13 7
10.7041700028687 72.4595395227276 2869.23025043721 12 15 6
-12.4737055906663 73.3238326084054 2880.8403954047 11 14 5
-17.5241545529035 72.7799479767884 2875.94113118095 13 16 7
-13.5929439685047 71.5252330228447 2862.72794016349 14 17 8
-14.9472185529405 70.6814729993097 2854.3314095525 15 18 9
-40.1540000834919 71.7419344558197 2868.17715530334 14 17 8
-6.60273708536296 68.0909757090168 2827.01874158735 15 18 9
-4.37159517957797 66.9381677212629 2815.04401841779 15 18 9
-26.541741000087 67.7655123400467 2826.14946442329 16 19 10
-35.3728164750584 67.5153693062098 2824.68680331704 16 19 10
-28.0497490336249 65.935846641775 2807.75531888295 16 19 10
-19.3440965852643 64.2283882156119 2789.35478959391 17 20 13
-30.4143475692871 64.1569267160887 2789.97550627361 17 20 13
-45.8161691636259 64.4542847892814 2794.86855737366 17 20 13
-59.7123129428332 64.6340478122487 2798.38214307713 21 24 17
-51.162993592512 62.9140993155368 2779.86851580135 22 25 18
-57.1091771877605 62.4187854766833 2775.55549155307 19 22 15
-50.8485198975983 60.8732900900253 2759.08905231144 15 18 11
-46.0955843688999 59.4455274677978 2744.00030298661 20 23 16
-54.9701331830665 59.1931321647306 2742.50611572081 22 25 18
-20.4270786139857 55.1401407846789 2697.12448998914 22 25 18
-38.6236728650693 55.6923152697341 2704.9332824361 23 26 19
130.755075354686 61.5013504972201 2820.33816692153 16 16 6
106.268406601086 62.442945340026 2832.23526245112 17 17 9
42.8987291428564 66.4864653613833 2878.95193779624 16 15 10
22.5443047504941 67.1508398744993 2887.66740917409 13 14 8
46.356533204821 64.2831314354847 2856.74491398712 12 13 7
23.7660043839227 65.1343718437294 2867.54573642111 12 13 7
-9.30827486022112 66.8531019426092 2888.04274916216 11 14 5
-0.030506601412128 65.1371418775858 2870.05721024821 11 14 5
-16.3852263148709 65.5134692528953 2875.49492179014 13 16 7
-13.2032592448315 64.2845307348524 2862.9737553514 15 18 9
-25.7597158896152 64.3557256441658 2864.98788567165 15 18 9
-21.1498955662726 62.9972669222603 2851.03107122436 14 17 8
-29.9672827938691 62.758419109607 2849.57839023328 16 19 10
-32.8460341264711 62.0197130567435 2842.54733927107 16 19 10
-43.8621515098321 61.9709530395224 2843.20711906362 16 19 10
-50.4332322687104 61.5465885691546 2839.67648952719 16 19 10
-30.5886683336902 58.8465160188398 2810.8193342357 16 19 10
-21.8713382139519 57.0847210717074 2792.42728959168 19 22 15
-35.1212704973876 57.2234007617526 2795.17408307489 18 21 14
-36.6951234102277 56.3453976013006 2786.61790752234 18 21 14
-46.2699443071197 56.1687935118014 2785.85149860587 21 24 17
-65.2185411803292 56.8279172848815 2794.35102112897 22 25 18
-56.7112574727369 55.0493153392142 2775.80662422742 19 22 15
-39.6740924736678 52.4892943409095 2748.62014481071 14 17 10
-34.2358551496449 50.9526693554294 2732.79259734384 16 19 12
-38.1491857473795 50.2536804618726 2726.24679559776 22 25 18
-47.7700514055663 50.0741930049925 2725.44728772338 23 26 19
-28.2829393594868 47.2215332734177 2695.09490393882 24 27 20
73.6982742098258 57.6648518713343 2861.71067967109 20 20 12
45.5842404018032 59.0049623567521 2877.15542256722 18 17 12
51.9048649679261 57.4954711541412 2861.9679683582 16 15 10
55.8737840657932 56.1712969546354 2848.78176122212 14 15 9
34.7698292090568 56.9520112172871 2858.18950788354 14 15 9
-6.65440449902199 59.4711527885095 2886.22380103099 11 14 5
-31.2933999118836 60.5930308131295 2899.24642151352 11 14 5
-6.98063909110713 57.5327609447135 2867.45046645306 18 21 12
-22.5539062134659 57.8850548932238 2872.21951129206 17 20 11
-21.6365435732211 56.8154569847784 2861.76319070635 14 17 8
-20.7596749990671 55.7425533110459 2851.27720388658 16 19 10
-21.4087216629486 54.7967922599844 2842.15606028397 15 18 9
-37.6385460075426 55.2219067374285 2847.68455826048 15 18 9
-47.9020703074604 55.1275378429454 2847.6546411932 15 18 9
-49.3077730092395 54.246129737524 2839.22034407044 16 19 10
-39.7336220664442 52.373236551118 2820.21382776284 17 20 11
-44.885293043194 51.8154164012068 2815.24111495444 16 19 12
-47.1249399700415 50.9920207789766 2807.43789881656 16 19 12
-46.4786601276157 49.9007953092666 2796.78466050064 18 21 14
-63.2735031869838 50.4068583038209 2803.13930547913 19 22 15
-49.6451415710792 48.1097919038921 2779.65881575942 21 24 17
-46.2253037645537 46.7416736905953 2766.07434529218 22 25 18
-34.9612525267415 44.6291720026692 2744.58596126675 21 24 17
-35.979564368589 43.6541684719507 2735.19698133721 17 20 13
-52.0236201495938 44.0965278600039 2740.86023425883 19 22 15
58.9767231719658 50.5822268150921 2865.82416123953 17 18 12
81.2763148967837 47.6333495697279 2836.27508000549 15 16 10
59.311434888861 48.5263530425894 2846.29432904795 14 15 9
41.2284586693747 49.093771636769 2852.95052621596 13 14 6
16.4110137844093 50.2686888392376 2865.84405352175 11 14 5
-3.02096700219745 50.9835906243999 2873.99314877971 12 15 6
-13.9238962330577 49.939656428935 2864.84905833852 18 21 12
-18.2593463899516 49.3160505803663 2859.23267157471 14 17 8
-13.6650183913005 47.8785951678656 2845.26422627682 15 18 9
-10.6189790991922 46.5718766928457 2832.64442339722 14 17 8
-29.8438291585101 47.3047084453485 2840.9437629586 15 18 9
-38.6532439086256 47.0877752904914 2839.49697238864 16 19 10
-43.0291806344887 46.4613480153081 2833.8515162329 17 20 11
-46.6809058833975 45.7655691841391 2827.49537404672 16 19 10
-51.0785457504706 45.1375376495922 2821.83388221784 16 19 12
-62.0521856188143 45.1303204029495 2822.52466528987 16 19 12
-39.5372786094474 41.9408385770014 2790.6600842556 17 20 13
-34.5991523798588 40.4031495717064 2775.70532130023 19 22 15
-49.9709632639269 40.8089542471798 2780.62067710803 20 23 16
-68.1694918569338 41.498801010617 2788.42876464648 22 25 18
-58.9892631465148 39.5359695497364 2769.13623015082 23 26 19
-43.4553136292999 36.9340673736332 2743.32989887308 19 22 15
-52.3357455337976 36.712825247207 2741.83189910356 20 23 16
-49.0964941099046 35.2942162978908 2728.11626196811 23 26 19
-77.1437238020534 36.9821145767565 2746.08156194266 25 28 21
81.3934912243415 42.2923714035422 2856.09502897094 17 18 12
57.0757477742898 43.4439290262835 2868.11535108397 15 18 11
67.184042506268 41.4985388658524 2849.49567979687 14 17 10
44.4972473751508 42.5210328435099 2860.22758416125 12 15 6
31.764318724969 42.6496287081224 2862.11378242882 11 14 5
47.8022933714657 40.1377917945092 2837.90861702826 10 13 4
17.7226018735235 41.870385031133 2855.63609955989 13 16 7
-3.19664627448013 42.7754833946258 2865.1783740863 17 20 11
-18.7823686321238 43.1970868006554 2869.9387409255 16 19 10
-12.6395637397199 41.584549913156 2854.62156501642 14 17 8
-17.0000079613826 40.9530299232261 2848.987313912 13 16 7
11.3183934445051 37.2110201134659 2812.68116579687 14 17 8
-24.268704927161 39.5461255647469 2836.30014538265 16 19 10
-24.9703499902521 38.5568816420811 2827.14065182864 17 20 11
-35.276011199054 38.4910770651363 2827.08033350076 17 20 11
-34.5443989433707 37.3563257565777 2816.48873400533 16 19 10
-50.6875805485483 37.8650508332592 2822.08046465686 16 19 12
-44.1490201655126 36.1537263189919 2805.81464334078 16 19 12
-38.4138385462656 34.5081524644688 2790.20180528312 16 19 12
-37.8272729411764 33.3618001191437 2779.50499961369 18 21 14
-56.0823755873501 34.0929573617877 2787.27257913639 19 22 15
-82.9141704754071 35.7007012971023 2803.64820000612 22 25 18
-65.7787866601143 32.8842362865662 2776.53191704292 23 26 19
-55.9502252911877 30.7849376757766 2756.47335038828 21 24 17
-43.3625974832401 28.385347647003 2733.47292784763 21 24 17
-64.358534365748 29.4193234137226 2744.19529849243 21 24 17
-76.7444209959891 29.5798824507765 2746.33353130329 22 25 18
140.840324148564 30.4801434797712 2813.9057641206 18 19 13
134.729757665482 29.9665391211381 2809.47348256373 16 19 12
95.7210307110787 32.5299403084743 2834.31861129624 15 18 11
46.9830857957421 36.0419168210795 2868.17228110579 15 18 11
54.7785870002429 34.2517887620445 2851.58220723094 12 15 6
26.0881674210065 35.9164284699089 2867.84609069154 11 14 5
28.5353979386986 34.627902697169 2856.02703285395 11 14 5
30.9330928640854 33.3353444754852 2844.17233966024 14 17 8
-23.1083968753347 37.4887522330001 2884.0654876069 16 19 10
-28.8909390744123 37.003304710705 2879.87114047382 15 18 9
-27.1997091134426 35.7874549257181 2868.73974092325 15 18 9
-10.6482127684215 33.1035508977312 2843.67093017799 14 17 8
-0.917332270306881 31.069231203824 2824.77721281273 14 17 8
2.79322366094981 29.6159007852526 2811.40305850171 15 18 9
-22.3624943695708 31.0350486260038 2825.28763809072 16 19 10
-24.5742618209501 30.1710648783369 2817.50413231571 17 20 11
-34.886085422146 30.1208769730315 2817.43942583959 16 19 10
-48.1007162035421 30.3702690008125 2820.21237091482 16 19 12
-48.1349542686562 29.2821987852114 2810.30115773295 16 19 12
-48.2052578367029 28.1911965032818 2800.36349056982 16 19 12
-27.2737413306769 24.9257770163229 2769.82105906465 17 20 13
-42.6689165380449 25.4000820712938 2774.7198245438 19 22 15
-64.4972702185149 26.5564784049821 2786.07470967763 22 25 18
-61.7888881087705 25.1563189145501 2773.20936412639 23 26 19
-49.1013939820246 22.6931415290624 2750.28101472899 21 24 17
-82.9680290934891 25.1477346572395 2773.91276344804 21 24 17
-49.0016753898108 20.3979609022523 2729.34458224073 21 24 17
-44.3942879315724 18.7506630817396 2714.14921002441 22 25 18
162.794712489586 20.8224484600785 2795.18837471884 15 17 12
145.879105231444 21.3406299721258 2800.22049990589 15 17 12
119.076586191561 22.8296860483999 2814.14666902693 13 18 11
79.4207193657845 25.5946717991659 2839.75872995079 13 18 11
37.674553201601 28.5998825293155 2867.56240390356 10 16 6
25.7196876943073 28.7036476256405 2868.77747434616 9 15 5
22.8757567832996 27.9100498897782 2861.77138741348 12 15 6
0.403961766221705 29.0704392553358 2872.65955393915 16 19 10
2.09216774347354 27.8262947727102 2861.52581892002 14 17 8
-17.2595380535452 28.6947545508019 2869.73417950961 13 16 7
-29.0567283323759 28.8121892563046 2871.06362132955 16 19 10
-15.4757235467651 26.3503458666815 2848.78300363418 14 17 8
-5.72623363997238 24.2595673057243 2829.90249065112 15 18 9
-4.96229059339459 23.0768769481844 2819.33408561525 15 18 9
-17.5377129524601 23.2680244713241 2821.33507486811 15 18 9
-36.7041020719121 24.1527217152207 2829.67785771808 16 19 10
-41.8381883167196 23.5834812044409 2824.71783461076 17 20 11
-39.6557974782221 22.2433700677223 2812.70682202476 16 19 12
-48.4729565860342 22.0579218341904 2811.25457688197 16 19 12
-35.4393350745124 19.5511667285296 2788.57692188277 15 18 11
-21.0701385316336 16.8796648517554 2764.39654599311 17 20 13
-31.4208948430483 16.8430064231249 2764.30368489396 19 22 15
-51.8429452522851 17.9003731299441 2774.2071599411 23 26 19
-56.3599791125533 17.2455527473758 2768.45898116776 23 26 19
-38.6665175424663 14.1612509009305 2740.51057292639 23 26 19
-26.8361266601014 11.6931413222886 2718.19590274232 22 25 18
-65.6959103253283 14.8049670039578 2746.85718588656 22 25 18
-80.2079901068653 15.2511357374585 2751.16094694088 23 26 19
216.315803804501 7.87037362116391 2748.69763976498 8 10 7
129.400996695983 15.4048456629466 2815.41767415505 15 17 12
114.12289960712 15.8159327842453 2819.16595522038 14 16 11
108.817480425448 15.2278042727209 2814.08192801628 17 20 13
26.6510242151417 22.4550153246426 2878.06681486977 13 16 9
46.5954080432627 19.3250716054942 2850.51488039602 12 15 8
37.6404833154793 19.1371256735417 2848.96275336391 19 22 13
36.2456803828164 18.1713013388347 2840.53593013155 17 20 11
11.5064838047023 19.6250789398107 2853.48759378778 13 16 7
0.375587060394533 19.6785622172622 2854.06468545451 14 17 8
-12.2210988336937 19.8916457077439 2856.05037142704 15 18 9
-20.3058693357163 19.6359952479455 2853.89365819722 15 18 9
-3.84734943194309 16.7790434288994 2828.75627584728 14 17 8
-15.6862246997604 16.9148134846557 2830.05588667829 15 18 9
-31.1856242371178 17.4497539928714 2834.8794048469 15 18 9
-41.4715069730096 17.4336454640384 2834.83367607641 16 19 10
-20.1458634402283 13.9968958440131 2804.5757933661 16 19 10
-12.1667800560523 11.9826703842532 2786.88263040442 17 20 11
-27.6372837446601 12.5206687042556 2791.72711127888 16 19 8
-16.1171391007313 10.0976638549227 2770.42280206912 15 18 9
-19.9446590066139 9.35306696297797 2763.93897531136 16 19 10
-31.7454756406219 9.49323455644915 2765.26619793262 18 21 12
-51.4467592283372 10.5242355323533 2774.45700205378 21 24 15
-68.1887126067113 11.2387921188168 2780.85074947488 26 29 20
-35.3971730706992 6.36446533935142 2737.90065725545 24 27 18
-38.581218757219 5.5335613357744 2730.64782489999 25 28 19
-73.8473933112549 8.36648631968776 2755.7370071933 32 35 28
-74.128217895602 7.21460282161981 2745.64671495437 30 33 26
127.429000514666 9.2261655984871 2827.54341663538 8 10 7
145.158592929079 6.24840508857441 2802.09181332541 16 18 13
63.4225919993874 12.4870317731578 2855.26782040663 18 20 15
59.7660153373978 11.7462163575217 2848.90793320839 15 18 11
57.6129750888961 10.8437011965483 2841.16709934387 16 17 11
69.0575768822095 8.49067992069055 2821.04371309635 19 22 13
43.4297550309743 10.0817205984763 2834.58663074462 17 20 11
11.1442189614044 12.4101130987246 2854.42347167658 13 16 7
-0.735578226850553 12.5634484859611 2855.69350630601 14 17 8
-13.3289370829335 12.801017262309 2857.68143366517 15 18 9
-9.47835246707918 11.2510288469194 2844.40829954417 14 17 8
0.262091707341483 9.04352486356216 2825.5206378794 14 17 8
-12.3301028858913 9.28155677945339 2827.50970606046 15 18 9
-55.1869329743195 12.8833652370345 2858.21636780451 16 19 10
-46.2012415655098 9.60429416976827 2830.13000221872 16 19 10
-22.7573470115487 5.81164052204564 2797.70077226772 17 20 9
-18.4784549558266 4.15450868881034 2783.50254801869 16 19 8
-31.0085049479152 4.39865039912402 2785.53669709466 15 18 7
-26.8041740444487 2.73552766646443 2771.28409705303 15 18 9
-46.5445276911249 3.8147730848446 2780.44682282227 17 20 11
-53.2154788494679 3.39926572831797 2776.84413444199 20 23 14
-51.9706482089064 2.0642730382647 2765.38823253809 23 26 17
-108.137598185332 7.43050294685851 2811.15783538894 27 30 21
-91.0793193247701 4.25523296325969 2783.98354550361 34 37 28
-79.8646797999243 1.74174108194819 2762.4576052556 18 21 14
-127.014908046988 6.13729669579086 2799.93679352226 20 23 16
180.234722451869 -1.53393948418939 2801.54229299333 22 27 21
99.4951974896932 3.56612682863752 2843.08365001345 17 19 14
75.8796731006979 4.95622875291468 2854.37919735465 17 19 14
59.2352905414839 5.6109308976145 2859.60833614107 19 21 16
68.5334497467398 3.45438407064777 2841.63534740056 22 25 18
67.1162116186927 2.45274800406542 2833.19207902279 23 24 18
67.1853372221909 1.28242460829542 2823.3550852646 18 21 12
15.1475312483282 5.86323843697426 2860.99780134206 17 20 11
3.25677423989212 6.03706388401073 2862.25970027311 14 17 8
-6.3491958031201 5.96257308102432 2861.47152237682 13 16 7
-14.437998880894 5.72206958575247 2859.31196256913 13 16 7
-18.7852586620147 5.06203413564593 2853.68683023358 13 16 7
-20.911488673633 4.14830828825311 2845.96537489759 14 17 8
-31.9581250134497 4.24685363989066 2846.60377697803 15 18 9
-13.4048133605771 0.96043462415954 2819.27766864847 15 18 9
-45.117183739225 3.4333190517605 2839.53044702482 15 18 9
-2.45673327673668 -2.67173364121828 2788.90668762113 15 18 9
-6.24490123521526 -3.43078652557022 2782.45160918442 15 18 7
-23.1949975576771 -2.6531844860336 2788.694788681 15 18 7
-30.61313082742 -2.98290004316076 2785.78592322408 14 17 6
-47.4618449102413 -2.19642772959919 2792.10264179947 15 18 9
-28.0537673407781 -5.70346685252909 2762.92498078172 16 19 10
-40.5525731767851 -5.43201069220006 2764.98162328927 18 21 12
-52.2935714819168 -5.24338416188611 2766.35245494779 22 25 16
-69.0206828891364 -4.44595541486806 2772.75738139435 23 26 19
-79.9625579891483 -4.33668284140598 2773.47178146873 18 21 14
-75.1926588211262 -6.13665387364251 2758.39373861611 29 32 25
220.920706094256 -13.5997198821705 2766.74869891046 7 12 5
134.451298353321 -7.71412078986569 2812.78616585933 16 19 12
83.931542867361 -3.2883839837457 2847.82315927196 17 20 13
60.3908320538484 -1.82940070383444 2859.17328946827 19 22 15
62.8375166389787 -3.27103435772449 2847.35306035092 24 26 21
72.82648209307 -5.57418885968408 2828.64507257675 24 25 20
46.3867886994356 -3.76036643740313 2842.83590675741 17 20 11
4.96895107091744 -0.214113799991256 2870.88003907947 16 19 10
-3.8816800738164 -0.361558231750603 2869.40372183953 14 17 8
-8.21357889078844 -1.02640291131578 2863.78999511203 13 16 7
-19.2888608828974 -0.911896569530279 2864.40771219336 13 16 7
-15.4144127532554 -2.5319729433847 2851.15152223346 14 17 8
-22.7551971827065 -2.85112082713551 2848.29878212892 14 17 8
-20.4472446166939 -4.30354524314375 2836.37792855289 15 18 9
-14.4917479244824 -6.19705641757257 2820.92354574197 15 18 9
13.5082097016621 -10.7245212710099 2784.38257245034 14 17 8
0.144659668868563 -10.352819164641 2787.04847678381 14 17 8
-10.9772219607753 -10.2413112435923 2787.63239760581 15 18 9
-22.7999443869638 -10.0389728678012 2788.94376068108 14 17 8
-26.576128800702 -10.8053398281662 2782.49703784743 14 17 8
-42.7117233548151 -10.0677787416983 2788.0954276137 14 17 8
-28.3794721150661 -13.0508504055232 2763.88669112295 15 18 9
-36.5466896176305 -13.2883863085356 2761.67030205673 16 19 10
-49.7387475782474 -12.9010990914303 2764.46030911778 19 22 15
-64.3224841788958 -12.3314796152474 2768.71274991704 27 30 23
-54.5385246891799 -14.7987092607138 2748.61998676508 25 28 21
-40.5746792677959 -17.8117856223201 2724.1437385777 31 34 27
-11.8094694167639 -22.7214003593021 2684.45017292606 26 29 22
129.403786347368 -13.4620301990444 2827.62472973872 9 12 3
97.2169786313914 -10.9921513258841 2846.29882098834 13 16 9
103.474707771102 -12.9055978280692 2831.06343195221 18 21 14
54.0925901034952 -9.59897075844241 2855.80324169246 26 28 23
54.9992057418911 -10.8958936478037 2845.33768445289 24 25 20
41.4796645293603 -10.51165690693 2847.89027646453 13 16 9
18.943791100932 -9.05754994152724 2858.73377339689 14 17 8
-5.75436661223216 -7.32814578353949 2871.71628862796 14 17 8
-19.0856153426198 -6.9276993506715 2874.40545998355 13 16 7
-17.4070643461892 -8.31157517260398 2863.26401809599 14 17 8
-6.07357092164307 -10.8637620292067 2843.05907820786 15 18 9
-7.48946217308788 -11.8982870832805 2834.6169140975 14 17 8
-21.5421528777306 -11.4057218019634 2838.01859999895 15 18 9
-22.2357555789743 -12.5315905549881 2828.86424449297 15 18 9
0.633859783425006 -16.5505569537667 2797.25259761078 14 17 8
-22.9830909701936 -14.88146806843 2809.78356070298 13 16 7
-25.2402742310007 -15.833732823042 2801.96697935481 13 16 7
-26.0589207671846 -16.9695522897798 2792.72192650199 13 16 7
-14.5241749099785 -19.6560692512122 2771.42686728255 13 16 7
-34.3286573253541 -18.4273721126541 2780.54386174121 13 16 7
-43.1883748315538 -18.5631557993737 2779.0610166679 13 16 7
-46.9780725056099 -19.3387426433949 2772.60445108294 14 17 10
-41.4256731580673 -21.3088404159088 2756.85776095515 20 23 16
-62.4928041282877 -19.8809161687247 2767.53051691313 22 25 18
-51.9945194877143 -22.5011227142341 2746.71977182013 26 29 22
149.781944786774 -22.1049814411114 2820.12138172023 10 16 4
122.87035925817 -20.1844191768885 2833.97067187992 12 15 6
74.5649623717473 -15.721045156473 2866.90768737339 16 19 12
99.276600408432 -19.848411786752 2835.39577634076 18 21 14
112.353628474531 -22.6282102540626 2813.98324129006 21 24 17
40.012143681408 -15.2236268900989 2869.03499841421 27 29 24
36.5701374462666 -17.224009840258 2852.94310147502 12 15 8
19.3321417436847 -16.3500237691403 2858.97835924802 13 16 7
2.91207483823808 -15.5622323263223 2864.37078336252 14 17 8
0.815519408349452 -16.5161216699796 2856.67063632808 13 16 7
5.43255832758094 -18.300995010675 2842.71660044388 14 17 8
1.03135601755744 -18.9832534495725 2837.05254593114 16 19 10
2.57322939873905 -20.4062215319378 2825.81182551344 14 17 8
-29.3148577695086 -17.6620265592292 2845.93859728042 15 18 9
-35.9007629691144 -18.0623099824193 2842.39763764282 14 17 8
-38.0580383975324 -19.0206208590741 2834.65315651266 13 16 7
-15.9740625118601 -23.0576585198792 2803.70722237913 13 16 7
-24.847802137032 -23.184780168923 2802.21425624746 13 16 7
-27.8579656513331 -24.0591908152071 2795.08725441975 13 16 7
-29.4293111669826 -25.1226596901891 2786.53195711253 13 16 7
-36.1134209583887 -25.5303415726564 2782.91947491886 13 16 7
-55.1067571431985 -24.3366503819745 2791.38897817253 13 16 7
-38.6404031034635 -27.7596066852868 2765.01966587847 13 16 9
-70.5428256391758 -24.8596960122218 2786.37216546859 8 11 4
-62.8159081970456 -27.15621722589 2768.49447767336 23 26 19
-60.8974928176664 -28.7003800336876 2756.29107008158 22 25 18
-60.4549561757763 -30.0583479447855 2745.48878286844 31 34 27
220.617519544756 -36.8584130810565 2768.88147037942 21 27 15
147.866435046897 -29.409245051986 2822.40119466022 11 17 7
149.469932052166 -30.8559278367541 2811.20502640309 1 4 0
27.4494438466202 -20.9315035741477 2880.89621276349 22 24 19
10.9665973269446 -20.1113684800021 2886.24329042282 17 18 12
36.9601635872199 -24.5562568023799 2853.18870047178 13 16 9
33.3142895536356 -25.3391609888796 2846.83635864936 14 17 8
15.3465441615834 -24.3279354525502 2853.57833707298 15 18 9
6.4582983462147 -24.4468226138848 2852.07489680377 15 18 9
-0.16765841899602 -24.8487077056386 2848.50489481875 15 18 9
2.16732056479074 -26.3907390524439 2836.60317939296 15 18 9
-11.920536685313 -25.8417464304491 2839.97995260773 15 18 9
-17.7984902693074 -26.3382092488162 2835.7163839309 15 18 9
-29.595931368168 -26.0698670494021 2837.04640830226 15 18 9
-17.0174955252689 -28.9592897706824 2815.27217231704 14 17 8
-3.8145632606521 -31.9539229535412 2792.71478309739 14 17 8
-8.32457074282988 -32.6503831265574 2786.97148698173 14 17 8
-8.45832545516156 -33.9255824505114 2776.98718421268 13 16 7
-25.3912167446804 -32.9835158678612 2783.24366905015 13 16 7
-40.8058728188265 -32.2292313153058 2788.12973058459 13 16 9
-32.2582950383752 -34.6676058527103 2769.61120183812 13 16 9
-40.410925129539 -34.8804209495299 2767.40551271349 14 17 10
-44.2311658785273 -35.6755688543918 2760.92670672105 18 21 14
-71.0356621093911 -33.3531879407561 2777.32603122417 17 19 14
-61.9327977863628 -35.9019316331864 2757.97415139506 12 14 9
210.997431306782 -42.1347061766179 2787.81847372345 25 31 21
211.730505797274 -43.5219209425315 2777.22665545607 20 26 16
56.6067206292513 -30.5790045114166 2864.93032928694 23 26 19
35.4544310532132 -29.1504904920404 2874.3063183123 19 21 16
11.3500601466097 -27.3279752957019 2886.48471726806 16 17 11
18.4104257822661 -29.4667635121235 2870.59499852754 13 16 9
38.2365032891343 -33.2613225524583 2842.95393486911 14 17 8
12.7218746904156 -31.2359450980312 2856.58110872319 15 18 9
-12.679635476659 -29.200885608302 2870.29062806087 15 18 9
-19.99712257691 -29.4980124828484 2867.45488822822 15 18 9
-22.8273405381585 -30.380966389005 2860.45828949884 15 18 9
1.86608404166133 -34.8897091995211 2827.69591229087 14 17 8
18.9561954983017 -38.4321949656699 2801.77816961967 15 18 9
14.4496208912477 -39.1347397538347 2796.03733124868 15 18 9
-7.77354418266119 -37.4736787261065 2807.10856540388 14 17 8
-12.2468990616529 -38.1730842672074 2801.3918246236 13 16 7
15.5385127125069 -43.2240195858383 2764.69267098412 13 16 7
-15.3737833987937 -40.3664507548074 2784.29264662147 14 17 10
-46.1372062124934 -37.4961747027986 2804.00031357691 14 17 10
-36.0526689291474 -40.1818231878783 2784.12433934772 14 17 10
-13.0239503096874 -44.6687279529653 2751.39062298272 14 17 10
-20.5117526139555 -44.9783378945121 2748.43135479477 14 17 10
-63.9997856771601 -40.287245054829 2781.15632920743 7 9 4
-64.182055903852 -41.5876538330922 2771.13643433877 24 26 21
-37.2020145213745 -46.7048487800541 2733.85311489683 17 19 14
247.172457957111 -54.3868555325431 2757.16465538217 12 17 10
205.940577141476 -50.5116330021623 2782.87518480537 24 29 22
230.617578117938 -54.9716810961907 2751.33647953138 14 19 12
269.765203272286 -61.3171949479279 2706.81082546968 11 14 7
226.402242174824 -57.1311388948352 2734.68317363774 14 17 10
67.6964900723327 -39.3000532878576 2855.63338079837 23 26 19
22.8851073568874 -34.7451216867103 2886.16330449372 18 20 15
14.0129023807862 -34.841948385392 2884.67160431181 16 17 11
-0.904510232791367 -34.1407106862723 2888.68282292055 13 16 7
-8.21475191733856 -34.4325411983204 2885.85206779446 14 17 8
-22.2972733237867 -33.8241491678871 2889.23300994589 15 18 9
-24.3141925570813 -34.8135674800423 2881.59011845163 15 18 9
-32.3456058831195 -35.0023735109303 2879.47242355759 15 18 9
-23.9368309886832 -37.4008725163509 2862.08851224348 15 18 9
7.46765456113163 -42.9274235177758 2823.07005233781 13 16 7
25.2894075598653 -46.6570114196688 2796.44641341905 14 17 8
28.1668188551327 -48.3773754857426 2783.70227330938 14 17 8
17.707733222363 -48.2798727196767 2783.53156152621 13 16 7
27.1387878370719 -50.9184700342095 2764.41713871717 13 16 7
-5.33446238943758 -47.7730737205637 2785.35707656533 13 16 9
-44.2321441682731 -43.6980011497382 2812.76072896443 14 17 10
-41.3727593433699 -45.4191189935431 2800.00322278663 14 17 10
-20.3944826270723 -49.6986953771499 2769.48955185118 14 17 10
-8.27657976429608 -52.7636839525636 2747.38028192772 14 17 10
-7.83018165791516 -54.197233200799 2736.58070561525 13 16 9
-49.2019328929623 -49.6760031602069 2767.13325865863 18 20 15
-41.5279821574757 -52.1343194781937 2749.21664912031 8 10 5
-18.9048555996734 -56.764488294043 2716.1881847534 20 22 17
224.961607096044 -60.6824434045075 2766.96947774857 21 26 22
192.372748131763 -57.7836245522747 2785.35399165663 19 24 18
218.531067667707 -62.5610827119096 2752.41715033934 23 25 20
55.8561748225701 -45.0447094293172 2866.78304422538 20 22 17
43.8495462948518 -44.7305723802355 2867.96195060224 17 20 13
16.6762691693871 -42.3714721160889 2882.85879284921 16 17 11
-1.28079895988042 -41.2293491886303 2889.60917446957 13 16 7
-22.19106526321 -39.6713597089045 2899.16126714909 14 17 8
-23.4242792414274 -40.7750661572027 2890.8508847982 15 18 9
-1.39561809522393 -45.0692023715081 2861.09858620389 15 18 9
-15.4857662243866 -44.4315367695434 2864.47385338065 15 18 9
-14.5912759318481 -45.8540870591678 2853.99916436857 15 18 9
16.7943639764734 -51.5195560291395 2814.96604473128 12 15 6
1.92572944834346 -50.7809400965095 2819.01281294326 13 16 7
18.2003355136544 -54.3964417687735 2793.73855979937 14 17 8
35.818044899147 -58.2309504534761 2766.96647386642 14 17 8
-18.0853196934006 -51.9747621543552 2808.20573378401 13 16 7
-34.28644402602 -51.0154533411145 2813.75774281131 12 15 8
-17.5111052013253 -54.7542766404394 2787.61082025332 12 15 8
-30.7729444515445 -54.2115432883474 2790.35102873365 14 17 10
-11.2739259468779 -58.3851955188921 2761.23562173677 14 17 10
3.7207549294882 -61.9412755102885 2736.2688611202 13 16 9
-0.92513353543211 -62.665819931063 2730.42721420507 12 15 8
-32.9579631464187 -59.3838373319884 2751.68711419293 13 15 10
-41.8491355901858 -59.4687283767563 2750.18172454537 12 14 9
-54.303910657661 -59.0228574352099 2752.27146381897 19 21 16
-53.1569964640024 -60.587660620707 2740.74371063463 24 26 21
184.270298978499 -63.0121482359493 2802.92133266428 25 29 28
178.073650110179 -64.8936164202061 2788.53854318466 19 21 18
188.7892021595 -67.7100851027578 2769.11963687278 16 18 13
130.396283483991 -61.1508319362541 2810.81096819469 13 15 10
44.2367933574581 -52.0371455348106 2868.2056650287 16 19 12
17.8196558141228 -49.7069522287564 2882.41546594693 15 16 10
-3.93169807639926 -47.9967557534101 2892.59364387243 13 16 7
-17.2779457746381 -47.4358576402992 2895.27275487552 14 17 8
4.83845681620698 -51.8243308172658 2865.58358409161 15 18 9
-11.5306255796819 -50.8424237282647 2871.01395119917 15 18 9
0.630875484844751 -53.8740485611298 2850.17178664275 15 18 9
4.46874607212644 -55.7491472801386 2836.88778910333 15 18 9
3.03489087455944 -56.8861946359638 2828.43178877237 12 15 6
17.9108842502029 -60.3643453110974 2804.61471488717 13 16 7
14.0712931174214 -62.5507475241724 2788.23365794656 14 17 8
5.12140625898549 -62.6315725202122 2786.68602003914 14 17 8
-23.6246249539158 -59.8201504403242 2804.15043474768 12 15 8
-3.94880730301672 -64.0754882793189 2775.16277947127 13 16 9
-4.85167180406565 -65.335556809198 2765.85604587242 14 17 10
-29.0569969377472 -63.1542538800067 2779.19840939132 14 17 10
14.2723120372561 -70.9895787643638 2726.58038789231 14 17 10
-0.523166668617181 -70.2105940848153 2730.68039279672 12 14 9
-34.0021012022831 -66.6144529503662 2753.36364499803 14 16 11
-55.8204236092128 -64.737808949096 2764.72945021256 18 20 15
-51.7598754072601 -66.7606666649331 2750.37109137054 7 9 4
-30.6261332958648 -71.3982890134915 2718.73297593818 14 16 11
178.470532499274 -69.8334133989277 2808.56328910515 15 20 16
125.120704759441 -63.8652328417377 2845.26191989051 13 18 12
126.80190368049 -65.4440771964809 2834.12140998597 10 15 8
131.514998945912 -67.4539308058756 2820.23586782764 10 15 8
70.3976612627302 -61.6291004049187 2855.00834315602 13 16 9
26.3227004912934 -56.7662048838505 2884.83834362635 18 21 14
-0.0455488138366711 -54.358357089244 2899.08397800708 12 15 8
-30.8449745687105 -51.2939718543077 2917.53149223421 14 17 10
29.2137286429801 -61.1680047646184 2853.56347084237 14 17 10
19.543966671868 -61.1283952565532 2852.72933227955 15 18 11
0.124862607936205 -59.6790696874249 2860.89177662685 15 18 11
-1.23137082272207 -60.8265869546294 2852.49199293909 15 18 11
2.6151775721206 -62.7369185792869 2839.21410766595 15 18 11
9.3833435700712 -65.0875114991082 2823.11149433964 15 18 11
2.70609542042033 -65.4815834884505 2819.5040552333 13 16 9
10.8435499246551 -68.0598458872532 2801.92254744105 13 16 9
27.0183300572233 -71.8486262223682 2776.57505065754 15 18 11
8.46068086736818 -70.4972636005801 2784.12615471955 15 18 11
-16.6287613401219 -68.1513476892214 2798.06347333006 13 16 7
-29.1649370039984 -67.6652618245851 2800.09440727067 13 16 7
-12.4802890127482 -71.582060429023 2773.88083951207 13 16 7
-24.2996949569647 -71.2068236272057 2775.1954825405 13 16 7
-40.4357896249916 -70.165296651933 2780.79504941067 12 15 6
-16.0263388001129 -75.3186180782827 2746.5888064975 12 15 8
-36.4888350691621 -73.6113786775768 2756.46625321102 12 15 8
-50.3973007240806 -72.8963533787879 2759.97361773277 12 15 8
-29.8742076913807 -77.5183644599233 2729.12823993173 16 19 12
-21.6553422701464 -80.2591756871673 2710.36988867954 22 24 19
162.582025577354 -75.1937554341217 2822.95575624605 20 25 21
117.006138167308 -70.1474100229192 2852.93396328078 14 19 13
131.82791589057 -73.6105566226681 2830.31269993995 10 15 8
132.683470471436 -75.1124149900018 2819.80908941149 9 14 7
101.281211257182 -72.0096698899915 2837.81979109908 10 13 6
17.553407652982 -62.6847491873274 2893.27293496665 18 21 14
-4.22923051168267 -60.8631257595982 2903.42899865366 13 15 10
4.41107825583664 -63.4520310361502 2886.21196674003 13 16 9
25.064336668057 -67.8183096062224 2857.93261167147 14 17 10
29.7312579413371 -69.8701996094663 2844.01338407822 14 17 10
1.26079330767759 -67.0423774809854 2860.44260932122 15 18 11
-0.0968239620422473 -68.2066948925564 2852.04203183996 14 17 10
-5.21800319210475 -68.8163519989425 2847.09116058506 14 17 10
32.1260546879878 -75.7863240038948 2802.49023021878 15 18 11
16.467962892623 -74.8424181311945 2807.2007804731 13 16 9
11.236141942077 -75.4609787070362 2802.16965757597 13 16 9
