ply
format ascii 1.0
comment KinectMotionCapture
element vertex 795
property float x
property float y
property float z
property uchar red
property uchar green
property uchar blue
end_header
-41.6084547163464 236.292714966862 2835.84296406875 21 24 17
-37.9136220803593 235.85113438441 2822.46253631783 24 27 20
-36.474064140118 235.397219215039 2811.15255369752 28 31 24
-54.7923502295702 234.876114063548 2818.86769276086 25 28 21
-58.4788369646336 234.404515790155 2812.48748675024 21 24 17
-56.3741755525591 233.947737919117 2800.42460070133 22 25 18
-61.5538247797747 233.468790787905 2795.43200536946 24 27 20
-77.5584626464627 232.964893911984 2801.11933468089 24 27 20
-91.3450964027025 232.470328069464 2804.70889092842 22 25 18
-78.5597854363154 232.026876969713 2781.86168135741 20 23 16
-65.1755431040013 231.575131543964 2758.21357127379 21 24 17
-70.4355527851277 231.089775137468 2753.16268846967 26 29 22
-115.475899579893 230.562685727513 2788.44133077308 26 29 22
-93.7171940136057 230.107767002883 2756.04241427581 20 23 16
-42.9793304515851 229.157914082724 2682.89235230094 17 20 13
-75.0737611842667 228.657358113398 2705.32376812371 18 20 15
25.7213962755327 227.615698498919 2578.29639484885 15 16 10
20.6905839432774 227.092195161752 2572.17672672034 90 89 84
29.5020444811169 226.553929174952 2551.38874890522 4 0 0
33.3824933317541 226.013862078982 2535.67201172052 51 42 33
33.7546069052608 225.473651242872 2523.58777879381 73 56 48
33.3953921813577 224.931041867084 2512.20870933414 198 178 169
26.8416559943425 224.397913093403 2507.45506570617 107 83 73
28.4655697003031 223.845566127607 2493.8078602029 145 115 105
38.8668366441096 223.265739310695 2470.46675210121 141 108 99
71.5380084135337 240.742076081041 2969.76285889856 17 22 16
115.545076355083 240.554957889106 2923.85067111324 44 49 43
115.969027794127 240.109808419273 2914.27486580151 37 42 35
110.07553238571 239.628911891754 2910.00010937081 29 32 25
110.445124466036 239.179322211336 2900.3845808323 29 32 25
100.628088631375 238.678117926425 2899.44123545136 20 23 14
44.1154713995409 237.964770765729 2938.7536903754 17 20 11
56.9882794018777 237.575911592453 2918.44025905029 20 23 16
41.8826147289613 237.062963626016 2922.30885963395 21 24 17
40.7252156855247 236.608720434945 2914.05672680669 26 29 22
51.0879052430941 236.194987134315 2895.62922990167 26 29 22
16.8344569047356 235.618836661272 2916.49485040828 22 25 18
12.5947613342614 235.152986052096 2910.94867724906 20 23 16
6.0553376984358 234.679406100327 2907.44104182764 20 23 14
0.2804177065725 234.208242459547 2903.25229254592 19 22 13
-1.70119179401107 233.746769287269 2895.63767197667 22 25 16
12.9404161770879 233.322436239096 2872.90119192721 23 26 17
7.09207425761704 232.845324603355 2868.65918739549 23 26 17
-7.03215478980757 232.352579695046 2872.00402283519 23 26 19
-9.85828724327131 231.882233893276 2865.01247571899 22 25 18
-28.4080382444394 231.388219678761 2872.55995814906 18 21 14
-31.2253141905332 230.918632426731 2865.57483514626 20 23 16
-33.3178979265503 230.448239205956 2857.88001628065 23 26 19
-24.31449809597 229.983745570453 2839.70192076196 19 22 15
-43.4181024535918 229.025092015994 2838.19970422582 17 20 13
-40.449235283041 228.548005768409 2825.52786540214 20 23 16
-44.8588454937047 228.068554473928 2819.85844860394 26 29 22
-53.6601033955721 227.590599626625 2818.41654345804 24 27 20
-68.9969357867384 227.119059302384 2823.35251751942 21 24 17
-48.7114514258511 226.615888384753 2793.59108596502 22 25 18
-58.2547917344087 226.137413697663 2792.84596896477 23 26 19
-76.4345232477528 225.673864340724 2800.66184072868 25 28 21
-84.4711888482752 225.198471144219 2798.53888672828 25 28 21
-82.4572485118724 224.703680341154 2786.41004249254 23 26 19
-57.6184304005856 224.152459072981 2751.3030365268 21 24 17
-48.6478612734185 223.625721562412 2731.86549494684 21 24 17
-62.5045043954198 223.155306702656 2735.40471671756 24 27 20
-85.5201754705463 222.717104750827 2748.36088643711 26 29 22
-73.8369437934634 222.171970440125 2725.94927765343 20 23 16
-78.4525815379238 221.676152631128 2720.13071867654 16 19 12
-62.7318528563188 221.100782332587 2693.23501575541 13 15 10
-12.8795981230827 220.372276016014 2630.56029129877 20 21 15
17.7947279581745 219.698015060001 2587.33169665304 22 23 17
27.3850199129946 219.102341750645 2565.87298294458 72 72 64
35.487147016283 218.505216301516 2545.80582715627 24 17 9
40.0427421576537 217.918579739927 2529.34324541334 65 54 48
39.0199480805769 217.356508641444 2518.71777669377 138 121 113
30.4133420693553 216.835265038523 2516.18142848518 208 189 182
25.9224450574989 216.290128959567 2509.21771581446 79 59 50
30.9610867114012 215.683170176636 2491.87016523193 125 101 91
123.055277654161 233.259758137395 2918.14210606878 39 44 38
114.798025287159 232.773519428614 2915.85889460213 41 46 39
131.68368400614 232.332215688514 2892.27901561193 34 37 30
120.248018513844 231.837459310011 2892.63239696721 31 34 27
59.6421238936298 231.28122365527 2935.15382118132 20 23 14
67.8730706389579 230.823510586796 2918.88616001649 22 25 16
42.6319467046166 230.331057258401 2931.46381330016 20 23 16
42.2792411783797 229.862747499728 2922.55991209739 22 25 18
76.643003645025 229.405248506589 2883.24200319517 27 30 23
59.1884735193755 228.921105139452 2889.11341135046 27 30 23
24.1399005438865 228.443665534577 2910.63816565802 21 24 17
19.8805159944149 227.970166259659 2905.07797527277 19 22 15
11.031200356594 227.498400812191 2903.60096892198 19 22 13
5.24316799599145 227.025607357066 2899.402705949 19 22 13
11.5981556255464 226.54027358597 2884.24505534029 20 23 14
19.3952256162606 226.047217494241 2867.66268863727 24 27 18
15.0385828062447 225.565825123199 2862.03165920624 24 27 18
6.15758411107192 225.091552738561 2860.5316724329 23 26 19
-16.2106871180199 224.645594408784 2871.48704357106 22 25 18
-33.9952437732813 224.197410690106 2878.35442722382 19 22 15
-36.0483340597995 223.715927748975 2870.68788735395 20 23 16
-33.6630035155567 223.220369748047 2858.82826791972 23 26 19
-21.6887513161572 222.692001518537 2837.86304215308 20 23 16
-25.3445812876787 222.205239955472 2831.50498307955 22 25 18
-42.2808386767755 221.76367700769 2837.75201940325 17 20 13
-54.7433860085411 221.310923958939 2839.83157268893 19 22 15
-47.3871101143963 220.782117555639 2822.92948385592 26 29 22
-54.7190191271496 220.309065061514 2820.08210369614 24 27 20
-72.2381960570613 219.88278706493 2827.1419777321 19 22 15
-69.3599217741805 219.3649425865 2814.40425974232 19 22 15
-59.2978389067906 218.806198610883 2794.52307549548 20 23 16
-78.9187392501542 218.396649953863 2803.76456000102 24 27 20
-101.334662325355 218.009941243759 2815.9207240392 24 27 20
-53.366590673684 217.220531616899 2758.05557866904 23 26 19
-60.0683188108093 216.73643276191 2754.42993749354 23 26 19
-50.3729869305891 216.147930167947 2734.28244241894 21 24 17
-54.9872524268715 215.64612218923 2728.46484787265 22 25 18
-70.2367116507503 215.217240398301 2733.46467115853 25 28 21
-62.8329325704555 214.630028259157 2715.36139145614 22 25 18
-54.8102032475768 214.03065458326 2696.47170376387 18 21 14
-46.7274457909013 212.872155932317 2666.50648657477 17 18 12
38.4542194507826 211.607814559365 2566.44851193096 22 21 16
28.5208057163193 211.111308044992 2565.42082552196 72 69 62
41.4743768731394 210.412854520006 2540.22393198087 17 8 1
47.3961094909137 209.767819176884 2522.28132338965 42 31 25
44.2870451667599 209.201193832899 2513.84885414124 198 183 176
30.1744285247807 208.740153989773 2517.20226825387 177 160 153
25.0020674488454 208.193436498109 2510.979870836 77 58 51
34.8207533026308 207.490350005332 2488.45114404091 112 92 83
133.313122109753 226.402531825125 2919.3677311247 3 8 2
131.357556241486 225.914561548411 2911.77215040428 25 30 24
123.865705065824 225.432958061735 2908.80878144481 24 29 22
103.813560909216 224.97367339481 2916.50265403207 24 27 20
69.7402451220848 224.548396965893 2936.26458404686 26 29 20
63.9435824656278 224.074254646565 2932.06005795597 23 26 17
63.5985124609588 223.586785357064 2923.16130038191 21 24 15
55.4545093187238 223.117457078958 2920.96056582683 23 26 19
55.8423362093934 222.624349217133 2911.35833014034 26 29 22
67.0067836829311 222.094247535771 2892.27612412396 31 34 27
31.8655422330734 221.712873279029 2913.73448214376 30 33 26
33.751115763212 221.211086808397 2902.74758326543 25 28 19
33.294643990204 220.714558283788 2893.76831676228 25 28 19
14.481275947662 220.291047998829 2901.12505468949 21 24 15
10.9685446746379 219.806980931749 2894.87074456454 21 24 15
16.5514996005891 219.279650118008 2880.38825487889 22 25 16
29.6368313705981 218.709973007185 2858.99322853777 24 27 16
20.7234361636228 218.243434227754 2857.46979601388 25 28 17
3.54843835236363 217.822809176672 2863.54387036516 24 27 20
-22.5662581078567 217.45824805533 2877.95956229355 23 26 19
-33.4142966818089 216.505718581834 2868.85543176689 19 22 15
-22.8525663756769 215.926580141277 2849.3363493094 22 25 18
-28.7028273818299 215.448319797185 2845.09294777236 20 23 16
-31.5966625215376 214.949488797526 2838.05188277389 18 21 14
-44.8296645509292 214.523463644019 2840.8080890182 18 21 14
-49.2002322872884 214.035132269032 2835.16722444049 18 21 14
-45.520266752511 213.48368448771 2821.7754627116 19 22 15
-35.3236235244756 212.87486994816 2801.99127604754 20 23 16
-64.5560285156685 212.583579447895 2820.32272327979 22 25 18
-66.0548608421285 212.067861353727 2811.82276679661 23 26 19
-50.2065632056352 211.396635633968 2786.25438691296 24 27 20
-87.1786262482108 211.19399773832 2812.56192624645 21 24 17
-94.4612515099943 210.730134645985 2809.75061395267 20 23 16
-68.7387192534175 209.948274085672 2774.04773189054 21 24 17
-48.932371876873 209.207393943655 2743.9374651898 20 23 16
-80.6162447117649 208.978220685865 2765.43254669513 20 23 16
-80.1603123206858 208.425925765402 2754.64434571601 21 24 17
-69.1172565236296 207.755618751606 2733.00306237965 23 26 19
-61.7128966810241 207.115773708051 2714.90023156524 26 29 22
-69.8833396542551 206.645226647505 2712.68002956202 27 30 23
35.4079470611421 203.649760042383 2570.37566705006 158 157 152
34.5235074103707 203.053872762679 2559.85032312113 18 15 8
54.3940708875232 202.187792872633 2527.31590062235 100 89 85
58.8971909943607 201.50796164316 2510.81480655764 195 181 178
42.6695214241217 201.100444301499 2516.34064913175 42 27 22
29.2483369023939 200.660148838427 2518.96036558942 72 57 52
24.7650927231931 200.098247274042 2512.00211569993 82 67 60
39.3636858110016 199.260546958672 2484.29191846307 75 60 53
164.613365379147 218.916088924551 2893.85006287872 0 3 0
149.142810266968 218.470220118223 2897.45448636498 13 18 12
120.330754894433 218.094946658087 2912.38482425162 20 25 18
96.3588631072283 217.705513300165 2923.41301956357 19 22 15
72.4869168936833 217.324258796081 2934.51370898232 22 25 16
79.1838246422838 216.777916004234 2919.60361454212 21 24 15
73.3445866181461 216.299719699181 2915.36820412435 20 23 14
62.8431707667927 215.850251482813 2915.16403574651 25 28 21
58.5645699931123 215.363016052695 2909.58955105687 25 28 21
42.6890171332239 214.952417801402 2914.13559831425 25 28 19
39.9642214490004 214.45560012336 2907.21737829943 24 27 18
43.3657136011569 213.913113300775 2894.85882729078 25 28 19
42.8839027868815 213.394753094417 2885.86108139409 26 29 20
31.678710017895 212.956134416911 2886.38182169356 23 26 17
24.3106050138264 212.489655534824 2883.50853006088 21 24 13
22.2654542327327 211.980142484872 2875.8476037299 19 22 11
29.2823779235536 211.391734279724 2859.93424597688 20 23 12
15.0863216522641 210.981942406643 2863.22743250261 22 25 14
-8.09506763300716 210.657399916679 2874.82900863341 24 27 20
-19.1681622820123 210.229721635352 2875.44556509443 22 25 18
-21.2319952130384 209.718817500936 2867.77138310517 17 20 13
-15.1115202340102 209.125530782955 2852.44318246839 19 22 15
-31.3798546694819 208.751424240162 2857.93971544614 23 26 19
-44.6207909881744 208.351592495722 2860.69030262959 21 24 17
-68.1721579628078 208.065354633874 2873.25919916437 19 22 15
-52.5414133232824 207.361548149262 2848.76798207161 18 21 14
-45.8607375755096 206.745892642806 2832.61073299584 17 20 13
-44.3862518330207 206.182869509202 2821.32551763143 17 20 13
-34.1884809235844 205.513218834891 2801.54184030067 17 20 13
-49.5862393632727 205.142230885354 2806.43445156387 18 21 14
-54.7597207131227 204.650709883844 2801.44655824583 19 22 15
-54.8698859349324 204.094926965813 2791.48270551079 19 22 15
-61.5134804546442 203.619932486565 2787.89925275064 18 21 14
-90.4640988479528 203.439207369901 2806.43553313678 17 20 13
-66.8985036565954 202.564620455162 2772.87427052913 20 23 16
-88.5770753559856 202.295293509086 2784.33021977105 19 22 15
-82.3500317085799 201.642978359174 2767.84393741642 19 22 15
-90.4163463521783 201.18855429323 2765.69959640473 20 23 16
-66.5807197302035 200.267931919653 2731.098521059 22 25 18
-70.4831947967155 199.744117558038 2724.56147601271 26 29 22
-82.1467527336426 199.337374998893 2725.98543018499 27 30 23
-95.1800433065117 198.95534318057 2728.8866343611 11 16 9
26.0812718462424 195.820825923791 2580.8665967678 182 181 176
34.2693768984565 195.056046521124 2560.86062455218 4 0 0
59.6935631903026 193.992527501612 2522.4702596962 100 89 85
60.7288561830162 193.32631256014 2509.63081034157 89 75 72
43.1170603088784 192.980302528653 2516.62394950134 62 47 42
31.7541582111494 192.530371360166 2517.03030564272 79 64 59
32.7397587960547 191.860335305253 2504.15510832351 75 62 56
153.929527223398 211.549488009994 2903.35949802617 149 154 148
159.032419018011 210.970519860494 2889.7640698845 7 12 6
138.85751598161 210.598661572058 2897.36939477183 17 22 15
114.046048535709 210.274070343453 2909.02432883872 17 20 13
112.06321998836 209.755267573826 2901.40853417075 16 19 12
95.9921963648078 209.363687058912 2905.81297682857 19 22 13
82.3148205955686 208.954644238791 2908.24713308433 19 22 13
73.3423236113415 208.503943264887 2906.68123111945 18 21 12
51.9894035965001 208.177987550095 2915.90289212296 17 20 11
47.7211504979755 207.685556271731 2910.33588236588 16 19 10
40.3612019257285 207.224607272524 2907.46853151465 16 19 10
36.0821642293128 206.731302321457 2901.89369934708 18 21 12
36.3894286634641 206.186628633517 2892.23280102549 19 22 13
38.9522616808593 205.613176833501 2880.50116789767 22 25 14
28.5175566427363 205.185139215411 2880.34546816222 22 25 14
18.867510927477 204.750227983279 2879.52351326996 20 23 12
6.96684496019184 204.34450488839 2880.77529345766 16 19 8
4.91579210371773 203.820305034872 2873.11030867174 16 19 8
-15.2266078883931 203.522509975998 2881.97431300657 19 22 15
-21.7749459588181 203.057057408236 2878.46025648806 19 22 15
-17.0927439609785 202.443811635731 2864.5593932348 15 18 11
-31.8762205317569 202.086828882999 2868.66234484409 18 21 14
-33.9589593339982 201.560174134155 2860.97437780535 22 25 18
-27.1622004325587 200.906699749409 2844.90079384792 19 22 15
-64.0815470681058 200.872043648373 2870.01236266159 19 22 15
-57.3069090080518 200.216832395014 2853.9230285136 18 21 14
-35.1676863664259 199.325432954523 2823.03278273319 18 21 14
-9.53164111267935 198.364605580645 2788.50162900101 17 20 13
-35.2460350344452 198.180231086156 2803.20842146319 17 20 13
-46.9979639232969 197.787147323558 2804.56808835396 16 19 12
-57.2629470356123 197.373568532056 2804.53549690138 17 20 13
-68.22680198291 196.973954989404 2805.23138570689 17 20 13
-72.6624386402708 196.468501470396 2799.54297007566 16 19 12
-91.5048587878184 196.2066353819 2808.11479737789 16 19 12
-88.7398658258998 195.579315189379 2795.29440482493 19 22 15
-87.4597749666393 194.972792900123 2783.86804812927 16 19 12
-83.3719353030076 194.311594207829 2769.53637052166 21 24 17
-68.6816785153792 193.451234819182 2744.36258074272 22 25 18
-70.4229842965998 192.882118415454 2735.68657960459 21 24 17
-39.6880545494833 191.699031777254 2693.73437717639 19 22 15
-31.020166233839 190.915029667721 2674.07640719774 19 22 15
15.3543523006672 188.096774281238 2592.81335847337 169 166 161
27.0588165176044 187.205959147825 2569.18035404024 10 5 1
47.6609756617186 186.118749302885 2535.93982968043 64 53 51
50.8110392398651 185.381535481429 2520.9279531437 82 68 67
40.8084903200745 184.919386500013 2519.85002871409 67 52 49
38.380980109495 184.294866584159 2510.67630271107 76 62 59
177.618654319312 203.304518760974 2874.7908948867 0 2 0
143.204358284823 203.145513892189 2894.30698976125 14 19 12
127.023606541008 202.779979371745 2898.63202009108 16 19 12
132.060095102094 202.156611640481 2884.98822993567 15 18 11
109.679905160393 201.874609595639 2894.70046030938 16 19 10
92.0669325946051 201.539622244757 2900.45776566311 15 18 9
87.730748734935 201.035541672167 2894.8414524416 17 20 11
83.3846995461069 200.53067225627 2889.21827811381 16 19 10
55.8456632535185 200.343612965261 2903.83707693473 16 19 10
26.8874041931664 200.188176235094 2919.89757879352 17 20 11
23.4164764894791 199.681115094941 2913.67345649859 18 21 12
29.1255527134355 199.038979268027 2899.28210780042 17 20 11
35.5319617854612 198.380017347214 2884.16085423194 21 24 13
33.4872827953303 197.841962569999 2876.50012534282 22 25 14
14.7083065569511 197.559496795047 2883.88250904108 21 24 13
-3.99724861428785 197.283086387425 2891.31844238643 15 18 7
-27.1601282149256 197.085124533426 2902.93407773851 16 19 8
-2.03040257529885 196.111863195461 2870.50589239059 17 20 13
-22.8814594816678 195.881565639255 2880.09184919916 17 20 13
-40.6512372319825 195.608011738213 2886.97083092997 15 18 11
-38.1985977150676 194.99501722086 2875.15941036737 18 21 14
-41.0048929087561 194.468745164332 2868.18196042662 21 24 17
-32.6995464476085 193.743805059567 2850.73154853971 19 22 15
-33.3567666460688 193.171863562657 2841.6063732372 18 21 14
-50.2732402620114 192.894484912217 2847.8685828661 18 21 14
-35.5022677688295 192.033947918929 2823.9886358313 18 21 14
-29.6540525645241 191.329668985976 2808.46250607606 17 20 13
-28.2634233241714 190.703850181738 2797.11618327121 17 20 13
-61.9003732782062 190.757346471855 2819.66694252753 16 19 12
-69.2136184550129 190.305804355134 2816.83349561206 17 20 13
-72.8970387746326 189.782006893827 2810.45524811226 19 22 15
-96.0938564491345 189.655872706522 2823.28168148081 19 22 15
-75.2668040945064 188.626401299589 2792.67484720075 18 21 14
-53.8862454342186 187.568395391408 2761.234080292 19 22 15
-79.1867537905102 187.491913467067 2776.24115925346 17 20 13
-86.5348291917978 187.037838074425 2773.38215585639 23 26 19
-83.9190426173468 186.365036598229 2760.45366451428 23 26 19
-57.9613949601336 185.164702300987 2723.68406634251 21 24 17
-56.2331180905866 184.493265306135 2711.3472438155 18 21 14
24.7146650365044 179.297733516255 2572.38141287685 9 4 0
40.4770748617 178.223912399646 2544.27836412537 70 56 55
44.3449462087626 177.432610976025 2528.55153116553 54 40 39
44.0110081767693 176.740771329719 2517.18973496149 33 19 16
189.096969703615 195.620378095242 2865.78115826392 174 179 173
160.164481377395 195.471866519123 2880.62534032592 2 7 0
123.497479120257 195.456405116845 2902.21453182512 16 19 12
94.0557411114238 195.34286608918 2917.92476169632 19 22 13
105.393141938702 194.583401659136 2898.96677148953 16 19 10
93.2478688917073 194.200191155919 2900.04134481569 12 15 6
95.1282207751514 193.58597322215 2889.05009116672 17 20 11
96.1885646126825 192.981264583033 2878.69977545809 15 18 9
77.1124182296887 192.720324179178 2885.86684320684 13 16 7
24.96848715169 193.047252500674 2922.17574905654 15 18 9
23.8103258289093 192.490852844287 2913.92254619407 18 21 12
23.3911028779019 191.918334428066 2904.96989725314 17 20 9
25.2325507003111 191.301009639344 2893.95042548324 21 24 13
20.9335245592226 190.794032086626 2888.36103401113 21 24 13
6.74777977251573 190.473895098454 2891.66244414877 16 19 8
-32.3898072097224 190.639899413942 2917.63705283851 14 17 6
-1.8424272998645 189.460712856488 2880.48964675629 16 19 8
-6.15224340304454 188.952958280208 2874.89242947461 17 20 13
-19.4834692919892 188.626279524728 2877.57793435602 17 20 13
-36.5156443781089 188.379842794566 2883.75672072395 16 19 12
-44.524054261353 187.952588270449 2881.65449372788 19 22 15
-41.354951542232 187.290905702583 2869.12687490984 23 26 19
-34.5289017837629 186.545456674175 2853.07435312708 20 23 16
-29.2586282303953 185.825934440287 2838.36422055407 17 20 13
-47.6638152499276 185.620596379766 2846.0179627012 17 20 13
-48.3418543806988 185.02729019803 2836.87758709401 17 20 13
-19.7175996625794 183.767408840291 2799.57069441291 15 18 11
-27.1279764841206 183.312755078389 2796.66681893418 13 16 9
-50.5674518953081 183.231956711169 2809.3175741657 13 16 9
-62.274309296132 182.885524852739 2810.71015064111 16 19 12
-76.1207825944195 182.593925623535 2814.2576504705 22 25 18
-36.4662797434421 181.010962928741 2765.18283065807 23 26 19
-15.8143367253607 179.864994429155 2734.44846580219 23 26 19
-57.7867813747042 180.259953835699 2765.77999410209 23 26 19
-83.0781643685188 180.257900585951 2780.79435970649 22 25 18
-83.2780178215282 179.627632660892 2770.76511277737 23 26 19
-89.2048941880712 179.141709362675 2766.46613231615 21 24 17
-81.6596763544009 178.302600868565 2748.46410867984 19 22 15
-62.8889484363881 177.156272553778 2718.83637676368 24 27 20
28.6315986673542 171.234630024915 2569.00456282555 14 9 5
43.0006674688328 170.111593405193 2542.36127540278 38 28 26
48.2471828732174 169.238184478634 2525.16306731571 138 127 125
148.747171594303 188.217200764644 2890.83866984051 0 5 0
165.57155249625 187.290514993654 2867.2116162203 9 14 7
100.726921087076 187.931642477333 2912.84212665736 15 21 11
97.9767053861949 187.386568589352 2905.90523470276 12 18 8
106.90291377275 186.606903065462 2888.9046216804 20 26 16
108.747549622227 185.961764417323 2877.88732009666 14 19 12
90.390331628686 185.726316340177 2884.34064687208 11 16 9
74.4215280592533 185.448322731892 2888.81976636869 14 20 10
59.2795774020804 185.158703694136 2892.66319367303 16 22 10
28.0470235593966 185.218606152882 2910.78150580831 15 18 7
29.917411901244 184.575650827524 2899.78288381485 18 22 8
23.3355932309189 184.113845783701 2896.24428049337 17 21 7
9.13627024462249 183.8221641721 2899.53569715943 18 21 10
-9.57538619620535 183.637384456626 2906.96767169178 17 20 11
-8.51279297818852 183.007740345702 2896.61856582697 17 20 11
-5.97987154487667 182.339740410765 2884.86477024856 19 20 12
1.77670095114424 181.543784603144 2868.2515118006 18 21 14
-16.8356971223727 181.367274539267 2875.75518825208 17 20 13
-14.4050314579263 180.690986169086 2863.92751777904 17 20 13
-34.424986708844 180.558111250733 2872.8814147499 20 23 16
-43.1948200993393 180.155631511304 2871.4623777222 22 25 18
-23.7401628200722 179.047382317221 2843.56537582623 21 24 17
-26.6396951285031 178.490525773832 2836.52018139477 16 19 12
-45.0540015949286 178.330556225785 2844.16754246069 21 24 17
-53.830437147194 177.9277461634 2842.74401218891 20 23 16
-39.1179106463901 176.907667809379 2818.82059382146 16 19 12
-28.9176266380611 175.994503298002 2799.03750484413 16 19 12
-34.1265871934824 175.486964445823 2794.02381075924 14 17 10
-49.5176078475528 175.257293696612 2798.92202218651 14 17 10
-57.6054494090008 174.831729479579 2796.76222203349 15 18 11
-57.733777628167 174.184600944622 2786.78503434751 19 22 15
-68.7026916423505 173.840848767067 2787.4775386763 21 24 17
-86.1046082905808 173.685008741855 2794.62378701455 23 26 19
-73.3701041672741 172.662149854765 2771.73681166404 24 27 20
-87.8708200563474 172.426409300095 2776.04506216452 24 27 20
-96.6279452233307 172.025870161679 2774.63524742878 22 25 18
-96.8574694217712 171.370872214814 2764.58466075768 20 23 16
-75.2045542731232 170.046310614125 2732.10464961636 22 25 18
156.545436851711 179.987751572186 2875.45301988477 0 2 0
142.688723771081 179.671271218549 2877.75763954339 24 29 22
124.964804700908 179.448762607765 2883.43508713537 12 18 8
129.140448780722 178.720133518849 2870.40175590383 16 22 12
103.708828665829 178.687726496545 2882.84364466607 12 17 10
87.6908126016462 178.440741067101 2887.28724603753 12 17 10
79.4611779658041 178.010306657254 2885.02463239038 18 24 14
55.8230342329891 177.960669486338 2896.29648992417 19 25 13
45.3550687230826 177.59340026679 2896.11698676683 16 20 6
31.845887249502 177.305633947374 2898.67368494633 17 21 7
15.3218710848746 177.099552513247 2903.98571986241 18 22 8
-5.715054632353 177.016760431632 2913.43768354766 18 21 10
-38.0660991956838 177.239552190207 2933.2163706916 16 19 10
-14.9411020821129 176.009508940587 2903.03931304275 17 20 11
-1.05197141612257 175.008726609269 2880.98946293609 19 20 14
2.92690148507369 174.264164328407 2867.81340737311 21 24 17
3.84255632970776 173.597315064801 2857.35759429418 18 21 14
-43.9712838566475 174.279051608792 2891.86683161972 15 18 11
-30.2973562658633 173.260701004785 2869.66088722442 18 21 14
-21.9515029022814 172.381027487655 2852.23905590031 21 24 17
-18.1450374802421 171.622468406331 2838.93794757978 20 23 16
-13.6567671904055 170.837658215205 2824.89592456209 17 20 13
-16.6117515223911 170.26477141518 2817.81045057895 21 24 17
-31.3589311857265 170.040557004737 2821.94009261186 20 23 16
-48.9891786971848 169.908928993071 2828.92094167315 18 21 14
-40.2177223450719 168.982167008928 2810.57236389668 18 21 14
-32.9939544067346 168.092982772998 2793.57239183387 16 19 12
-46.9348915851735 167.852934146466 2797.05137941753 15 18 11
-48.5060146229124 167.229414345826 2788.49847181809 15 18 11
-66.7254871412244 167.132045267607 2796.28738925468 17 20 13
-69.0215824978626 166.531461653657 2788.44438103213 19 22 15
-72.0589710589805 165.95239207855 2781.29913914771 21 24 17
-82.2753138709198 165.606993231117 2781.30215343177 22 25 18
-93.1800424928737 165.287476659264 2782.04130987929 23 26 19
-84.1295753760307 164.301897072276 2762.65936393158 21 24 17
-98.5835152482333 164.102665993829 2767.00200276965 19 22 15
197.067056411358 171.462222680388 2841.79353794866 72 77 70
168.194716656886 171.555233638933 2856.68225187619 0 2 0
160.56632101883 171.096711274811 2853.62031030939 16 22 12
129.547103382501 171.268655692487 2870.65880529888 9 15 5
83.8899667576216 171.854440018369 2900.55522494554 15 20 13
59.3957523431201 171.882000388005 2912.4422206997 15 20 13
71.3546252077952 170.905915073804 2892.69861497901 18 24 14
63.1610541295391 170.486106276073 2890.46190391818 17 23 11
41.137615079526 170.46152801557 2900.43434900596 17 21 7
32.2409019806695 170.069104905857 2898.92338510874 17 21 7
9.59803528709546 170.078795792798 2909.68200408765 18 22 8
-12.1866764711629 170.073942549688 2919.82731311799 18 21 10
-21.7171613145761 169.714659317576 2919.09241352402 16 19 10
-14.550567135454 168.855436850376 2903.28618337448 17 20 11
2.36591297998823 167.691168182535 2878.4893599292 19 20 14
4.83069185432061 166.956174444939 2866.68612149575 23 26 19
-4.02487249951999 166.567368625599 2865.20500552424 19 22 15
-42.0831268050996 167.097632080802 2890.72885392054 15 18 11
-37.3738429230719 166.29192284749 2876.84694251474 17 20 13
-37.1960947603431 165.624438524596 2867.09153302391 19 22 15
-24.4300891581957 164.544777940063 2845.46214268509 18 21 14
-11.0348400019538 163.431747957987 2823.05369877559 19 22 15
3.72119849114094 162.26039375786 2799.16135141499 19 22 15
-27.2793980069468 162.605150773215 2818.68429385327 19 22 15
-55.1961956772455 162.862996136919 2835.50186665487 20 23 16
-50.791454258674 162.032578227828 2821.39906076373 21 24 17
-49.3670128157941 161.297710442876 2810.0766967915 21 24 17
-47.2604020932184 160.533855027698 2798.01337395405 21 24 17
-66.9533353796745 160.531718025054 2807.20499833926 17 20 13
-51.1468340432266 159.276889341665 2781.60336336166 15 18 11
-59.9735124514567 158.891319763292 2780.14320382077 15 18 11
-65.9101890564628 158.402907305708 2775.83710634947 18 21 14
-77.5773884936402 158.124513114495 2777.25907083028 20 23 16
-96.3499141264674 158.11330082093 2785.88254129173 22 25 18
-79.7334961657161 156.074171983822 2748.5128098016 22 25 18
-62.3635823000748 154.693048447446 2720.33848185834 22 25 18
178.019679551088 163.732096208554 2848.94362843845 27 32 25
146.895754449401 163.982530212773 2865.90661631697 12 17 10
97.1888990650354 164.813805089269 2899.04432396767 16 21 14
75.7314823902582 164.804778669091 2908.19183842169 18 23 16
52.0337205318158 164.875168870894 2919.4210854662 19 24 17
53.1886996050543 164.177298694756 2909.13860650098 17 23 13
59.7024660809624 163.30496615987 2894.09409784147 15 21 9
53.8388925327351 162.820840378211 2889.84101604897 17 20 9
31.1014964477847 162.882482721837 2900.53137179909 17 20 9
10.7542575416875 162.877058566772 2909.24836494995 18 21 10
1.92730445001565 162.500886745247 2907.78834836369 18 21 10
-0.799975994776769 161.923270476793 2900.8676233551 16 19 10
-5.0625231393906 161.395219070354 2895.30486401983 17 20 11
2.76057253671613 160.454938958911 2878.73880413672 19 20 14
0.704570765782009 159.844762640842 2871.06979628936 23 26 19
-25.4241902949071 160.067248302149 2885.47797151937 20 23 16
-40.1949562351371 159.905604543182 2889.59112676651 16 19 12
-54.9139286948952 159.748265763004 2893.74155554152 17 20 13
-43.5076967040886 158.663409812767 2873.59677771271 19 22 15
-39.6312290867267 157.83822420559 2860.34607800099 18 21 14
-20.2614426904639 156.441567152757 2832.38638502505 18 21 14
-15.8095030729601 155.575915304967 2818.31761564873 17 20 13
-23.9348567396493 155.170089518606 2816.13072214912 17 20 13
-48.1949692216588 155.371014099393 2829.42304366621 19 22 15
-61.3699303093433 155.165325008429 2832.22244107341 20 23 16
-48.2380832861826 153.959032430513 2809.62257894292 22 25 18
-48.3141771809632 153.248669755059 2799.68293674004 22 25 18
-57.1281866504865 152.874462182037 2798.23201873399 21 24 17
-69.5404857915982 152.643904466383 2800.34912346859 16 19 12
-48.0393933998231 151.071423201918 2768.99283363798 15 18 11
-66.944859302084 151.098083087881 2777.5204191681 18 21 14
-85.7718864761123 151.131266258672 2786.10460517099 18 21 14
-104.520707467333 151.170989528227 2794.7458121087 19 22 15
-83.3237238166469 149.573827256356 2763.16894234751 21 24 17
-77.1994494788173 148.582990047658 2746.60644564619 22 25 18
-52.0486471253674 146.783807119124 2710.48424591463 23 26 19
127.238087295929 156.472327691663 2873.85044493635 11 16 9
89.355219217774 157.069688553525 2897.03140667801 16 21 14
58.6339473756468 157.440528030734 2914.28689637489 20 25 18
37.3362009915121 157.498975320086 2923.55050099777 16 22 12
65.4997854190871 155.825292269832 2889.61296696932 13 19 9
61.9286497735994 155.257269764304 2883.31589301751 18 21 10
41.4674590724231 155.293959474593 2891.95078787232 18 21 10
18.0291373291608 155.448396944113 2903.36853430903 17 20 9
11.4701823347483 154.997256325763 2899.84655937158 19 22 13
9.47736529072474 154.377934839353 2892.2233091591 18 21 14
3.67023562981439 153.898067987018 2888.01116631741 18 21 14
3.91089380171117 153.190570605587 2878.30086448374 18 19 13
-1.91597882602856 152.709164096575 2874.0744017454 16 19 12
-32.5501421209593 153.178470186664 2892.62857366914 14 17 10
-51.7977982131566 153.22482303636 2900.90819797661 15 18 11
-39.5801381768806 152.052394475074 2880.11586697593 18 21 14
-39.3910974085827 151.340905098121 2870.3684208416 18 21 14
-41.4667889607647 150.715068597284 2862.68476565268 16 19 12
-44.3064659280907 150.117125478144 2855.68275352376 16 19 12
-27.2251352690198 148.710397072672 2829.76946349709 16 19 12
-26.4799773953777 147.954174662715 2819.1896008327 17 20 13
-38.9894419063546 147.739411487275 2821.23634831954 19 22 15
-52.192175922275 147.558357196228 2824.01573731847 18 21 14
-50.0282018269182 146.737754615892 2811.99371097857 17 20 11
-37.0014960250029 145.450993359465 2789.31751662027 20 23 14
-42.948022524345 144.960550734401 2785.00426846715 22 25 16
-58.2954876467894 144.87533377066 2789.9344914387 18 21 12
-59.1692896959293 144.167763077726 2780.65162434193 17 20 11
-73.7299812321832 144.056840668043 2784.91732392135 19 22 13
-91.8210988629968 144.108871221189 2792.80004529371 18 21 12
-74.8389906720825 142.604006313675 2765.57899859541 16 19 10
-72.2405470539729 141.729142793299 2752.63691149005 17 20 11
-83.1832724722637 141.462931282779 2753.34879324966 21 24 15
-24.7461063930137 138.019723669616 2683.29712291229 22 25 16
146.372302545504 148.332327650897 2858.03707477024 1 6 0
106.096087701573 149.124711424319 2883.18944055895 13 18 11
69.8920141793766 149.785286841105 2905.11764323726 18 23 16
64.0370242839246 149.300736234514 2900.87078176603 17 22 15
55.8662081231183 148.905842309909 2898.65098690625 15 21 11
66.1739503741092 147.789847012803 2880.17980595357 18 21 10
32.656043737489 148.391544137595 2900.3495657381 17 20 9
18.4210566422345 148.244984059994 2903.61615827667 17 20 9
11.0991679335286 147.82665838147 2900.77631925125 19 22 13
7.58820520291792 147.254959719565 2894.52284730913 19 22 15
-0.487637990254086 146.868088255491 2892.37194101575 18 21 14
1.27988617676333 146.076969385339 2881.29800010916 18 19 13
-12.8328327384912 145.940702728691 2884.65327959895 13 16 9
-14.1166075934516 145.272211494573 2876.30844904035 12 15 8
-32.6697709694854 145.331126164394 2883.85625846085 14 17 10
-20.5036577592919 144.088082035258 2863.02649686113 18 21 14
-17.38715592928 143.221324309935 2850.45970778992 17 20 13
-30.6718034831994 143.060100618915 2853.17981636294 15 18 11
-8.35252484084315 141.344845910507 2822.41621850772 17 20 13
-10.577060850262 140.692620301003 2814.6245291292 16 19 12
-26.8172840765586 140.662032816086 2820.14318051417 18 21 14
-42.2628304035915 140.603539420106 2825.00273216451 20 23 16
-48.867608264608 140.151616975875 2821.44782977007 18 21 14
-44.5211718864238 139.199636319289 2807.30184709456 14 17 8
-49.6969575207811 138.678616835707 2802.31213393587 18 21 12
-59.2307931497484 138.359573036874 2801.57471462958 21 24 15
-73.0832900263911 138.245776311136 2805.11874844321 19 22 13
-68.8624217549407 137.283797891398 2790.88198260375 17 20 11
-78.3619718521744 136.967860193982 2790.16943334412 20 23 14
-97.8734013412563 137.136052193714 2799.49349645551 22 25 16
-63.0061339758736 134.679064538174 2754.35498357243 17 20 11
-63.2897303708191 133.907275261676 2744.26431276399 17 20 11
-48.699555225497 132.397689795048 2719.01468320862 19 22 13
-27.8682824457741 130.560949051963 2687.17178279725 22 25 16
35.7958245817782 143.221416385238 2926.06693497895 21 26 19
52.4025621030946 141.796572099616 2902.27958375631 8 14 4
34.2499351440195 141.837860089161 2908.88262466153 13 16 5
13.8644061741244 141.98391655614 2917.57292228423 29 32 21
18.047344721372 141.075063743755 2904.54396609911 18 21 10
21.4092600538685 140.19479045637 2892.15501405425 18 21 12
12.5445676612617 139.846807345934 2890.66778222472 16 19 12
-16.7855225264382 140.410833204819 2907.69741661307 14 17 10
11.5058918214519 138.40910466423 2872.61555650059 14 15 10
11.692951472138 137.652273534417 2862.8664445469 13 16 9
-28.0123983012235 138.708928564867 2889.66931230037 11 14 7
-27.0313826768702 137.921404419009 2879.26026940347 14 17 10
-8.14850953718804 136.299306341383 2852.18149734255 17 20 13
-12.5194089492142 135.744536221992 2846.53976132371 16 19 12
-5.00901060466297 134.628999925567 2829.74642724156 17 20 13
-14.6218232538746 134.316089372554 2828.95178687394 17 20 13
-3.5272875191168 133.014757532963 2808.57995728413 16 19 12
-52.9365198497074 134.619869190833 2845.64274223858 17 20 13
-41.8661605965063 133.316713210196 2825.2533773617 20 23 16
-58.7218012334296 133.369787244942 2831.56165440035 20 23 16
-52.8823796879407 132.30940984288 2816.02734622522 17 20 11
-54.3925086341643 131.605987558327 2807.51824982257 16 19 10
-80.600324056936 132.139918201719 2823.10602549486 16 19 10
-87.1541949876096 131.694768027975 2819.5877664465 17 20 11
-75.6752437433508 130.32948657007 2798.25924731674 18 21 12
-66.459939932189 129.066472509136 2778.99538974622 19 22 13
-47.3036170677981 127.275253460769 2749.64391733699 18 21 12
-81.8952639400075 128.273833480859 2773.97775119392 21 24 15
-55.7605589932 126.09532626485 2737.33155099129 21 24 15
-59.6521726810597 125.48517329383 2730.8019422681 21 24 15
-10.461579404605 122.03044027321 2670.10382968356 23 26 17
54.7641517692252 135.198293758294 2910.13390102352 5 10 3
43.5333865732215 134.962502311187 2910.63713068481 26 32 22
23.0955715973962 135.15573258155 2919.28976401059 16 19 10
19.6260207912546 134.569839001653 2913.06624055623 12 15 6
29.152853546484 133.372334293149 2895.26387988963 17 20 11
32.4859030949658 132.456221210969 2882.85382088628 16 19 10
23.5900129123494 132.116065925174 2881.34371828544 15 18 9
29.8855391821298 131.048233501762 2866.14001239755 13 16 9
13.4131935844293 131.073666067012 2871.49097155136 14 15 10
13.5973012640367 130.29412176173 2861.73931012712 13 16 9
-14.084623956943 130.88070453931 2877.49377547027 11 14 7
-9.39207017182486 129.878882612017 2863.59874271071 15 18 11
-18.2216405770483 129.544548046424 2862.13674621493 17 20 13
8.00624730567723 127.446804779073 2828.02887313191 16 19 12
-17.2474652316519 127.936883829262 2841.83770849504 17 20 13
12.4575545992052 125.630771011593 2804.073655034 18 21 14
-24.5555879932227 126.735814215041 2829.1230019585 15 18 11
-56.2276561109911 127.588196780486 2849.39708261946 15 18 11
-74.5247306684318 127.761042916344 2857.13111337511 19 22 15
-45.1453531480199 125.428295528648 2819.13085994433 21 24 17
-54.6763036362989 125.135783095448 2818.39596100172 19 22 13
-67.8259616712669 125.040145715856 2821.21425856545 17 20 11
-72.2235993526588 124.477862426994 2815.55310134884 14 17 8
-77.3548449103096 123.954252765524 2810.59566312253 14 17 8
-83.9340487648106 123.509380351221 2807.05904110395 15 18 9
-63.9022303015033 121.594645261375 2777.10627739906 19 22 13
-50.48248108388 120.026087576882 2753.47825014009 17 20 11
-32.8945514844272 118.207109027386 2725.459748633 19 22 13
-45.3788357152245 118.068012519708 2727.5251331089 22 25 16
-45.0388367928443 117.203854804586 2716.65101536061 22 25 16
31.1547507326182 129.129597972097 2931.27698902031 6 11 4
47.0133733165032 127.584812191138 2908.18203689286 20 25 18
38.8820099407319 127.216250174543 2905.99097557522 22 25 16
27.6922384353591 127.002554167477 2906.52403435546 10 13 4
30.3109512356237 126.095852657916 2894.83122169929 14 17 8
32.1169588525487 125.223926251994 2883.78476896071 13 16 9
36.9222543685637 124.192299630684 2869.97131412126 12 15 8
46.9772561382964 122.881223658475 2851.31622255492 12 15 8
29.6981479155765 122.97969492317 2857.31745437228 13 14 9
8.7112659948958 123.281368222444 2866.80764326659 11 14 7
-10.6841914195137 123.51083347725 2874.98105074179 11 14 7
-21.7503598743356 123.307778005798 2875.6037659076 16 19 12
0.868829007454774 121.302825392355 2845.05581753132 17 20 13
-30.2348677948885 121.378495316128 2854.62177539197 18 21 14
-31.6178766996742 120.651193132748 2846.20500454086 17 20 13
-47.0712399855762 120.697379886153 2851.05941973649 16 19 12
-69.8372988562856 121.158411981707 2862.96605683855 17 20 13
-46.9519202430841 119.073912954053 2831.37563553187 16 19 12
-57.20149431516 118.837024757548 2831.35481491708 15 18 11
-51.3595228670489 117.68809991099 2815.82220118753 19 22 13
-61.6068448277898 117.451588328018 2815.80301508393 20 23 14
-42.7934642602303 115.540411701991 2787.4373655054 21 24 15
-34.2624402072231 114.206300236057 2768.91242991879 17 20 11
-91.4755658290394 116.713045777099 2815.14419049494 14 17 8
-88.6766044319784 115.720731820208 2802.34657362017 14 17 8
-55.8146643855804 112.93270156726 2759.45808373635 16 19 10
-47.4971984445183 111.581353833983 2740.77795353473 20 23 14
-51.3845416282379 110.954037305997 2734.25164813135 21 24 15
-48.8918314481861 109.936868777256 2721.23189732034 22 25 16
57.7540949489626 119.003983084318 2889.98692107915 22 25 16
63.402663230586 117.898411657665 2875.54936148961 12 15 6
37.5936140769948 118.483392391921 2888.95610218388 13 16 7
34.037363250885 117.872865653972 2882.66960326297 13 16 9
43.407932014317 116.55174261866 2864.75333734268 12 15 8
42.0630267848843 115.810071705514 2856.36382140154 12 15 8
6.63277935625839 116.960608496139 2878.85546888029 13 14 9
-5.98777156464325 116.856923683185 2880.82225009167 10 13 6
-18.5696254134882 116.756497829838 2882.81680566668 11 14 7
-27.3618355891705 116.446115130762 2881.38201371952 17 20 13
-31.6493640133078 115.880201140943 2875.80095314015 17 20 13
-18.7919259648532 114.32426914442 2854.23543172433 15 18 11
-41.7407774799479 114.832507077387 2866.00979764436 18 21 14
-35.6730340090978 113.657457333533 2850.64042406753 17 20 13
-46.6796423784657 113.478415016291 2851.30673171874 17 20 13
-61.3414026063122 113.520617794037 2855.49964557896 17 20 13
-28.1865512777322 110.712145350078 2814.05842642011 16 19 12
-17.9779647909728 109.251615947304 2794.27858357549 13 16 9
-58.9985102416131 110.88333603795 2823.83635509736 17 20 11
-56.8425003789266 109.908751186679 2811.80806984168 20 23 14
-40.2150951722289 108.037055475379 2785.56306993926 23 26 17
-54.126584181978 108.03723549761 2789.06491641133 20 23 14
-97.5772390826122 109.887271576586 2821.80230206211 15 18 9
-71.0156447552321 107.371676309317 2785.46415014132 15 18 9
-63.3011309008147 106.019685757866 2767.58225495467 16 19 10
-49.9513986980888 104.296260671824 2743.90268643344 19 22 13
-61.6700127598393 104.164267782469 2745.2878264301 20 23 14
-61.9848817647419 103.300324775437 2735.17431313951 21 24 15
134.301437953468 108.23604215904 2833.02689774397 9 14 7
61.2293359244145 111.535784958929 2887.52792853793 25 28 19
56.8877188503967 110.958902429631 2881.90760238413 7 10 1
61.7259095687492 109.852084136994 2868.11731864122 11 14 5
42.8304617752122 110.112760881842 2875.41802074745 13 16 9
45.3273518178268 109.134679534988 2863.63682909851 13 16 9
5.26037873476115 110.652655254779 2890.17988507759 13 15 10
-4.33014799662024 110.393930499619 2889.40167470917 13 14 9
-9.37113327475636 109.86696865639 2884.50965110627 9 12 5
-29.4693656323253 110.243461032172 2893.40938337777 10 13 4
-35.2275197551255 109.764738849347 2889.23274974682 17 20 11
-11.0588834461331 107.46361835015 2857.33645547024 17 20 13
-19.1451060297183 107.114754455527 2855.17821745108 15 18 11
-32.4257338564233 107.088489094777 2857.90192360069 18 21 12
-24.8985893293343 105.774829404544 2841.11943117257 21 24 17
-25.5852428690808 104.963791014968 2831.97170793992 17 20 13
-37.3616134204189 104.847267807511 2833.31505738168 16 19 10
-38.8140807048982 104.080508785401 2824.84773481215 17 20 11
-51.2856490954985 104.014139558398 2826.92241117297 18 21 14
-73.9470055428508 104.609384576992 2838.90562911108 11 14 3
-56.4469744022318 102.616828769229 2812.05786003852 15 18 7
-59.4217939018493 101.939408551394 2804.95718315966 21 24 13
-51.5559338389822 100.547039851927 2787.18509202315 20 23 12
-55.3231193410866 99.9117479725606 2780.74555661372 19 22 11
-88.6070180418799 101.240758518422 2803.55871098916 18 21 10
-49.9875541595505 97.7719055966478 2754.95934803996 17 20 9
-47.4009184127808 96.6954583076137 2742.00768009515 18 21 10
-36.3124605955272 95.0328514226749 2720.39428345768 19 22 11
-67.2656007705523 96.232859274035 2741.19129111763 20 23 12
70.8677083536409 103.67448544326 2879.65384839161 13 18 11
53.4422786309978 103.882353107571 2885.54956274535 15 20 13
47.5704683202203 103.393273437548 2881.29048485548 10 15 8
60.0270683227291 101.775972720681 2860.6694076474 13 16 9
34.3007002007543 102.509408678082 2874.13683754096 14 17 10
17.0402828075886 102.731196811642 2880.1522433638 13 16 9
5.14453578743312 102.62556500969 2881.40940389983 12 15 8
-15.0211496195385 103.047932386994 2890.2601759052 10 13 4
-33.5991716458446 103.381427579724 2897.79165004112 14 17 6
-34.0902536373164 102.566547079529 2888.78568133648 16 19 8
-24.1362681142134 101.073049405345 2870.05614245825 16 19 10
-41.1370385020493 101.31686797333 2876.26017800191 17 20 11
-26.8269502745484 99.522634272774 2853.27613892144 15 18 7
-24.5048292269012 98.4999104065456 2841.36802737514 17 20 11
6.61006026043154 95.5613757362441 2802.15274191642 18 21 12
-34.01844767478 97.3773018159339 2830.76031173315 18 21 10
-67.8249401719375 98.7659844230227 2853.19522344068 16 19 8
-77.2779627806797 98.5327674228409 2852.51682194705 16 19 10
-62.5958233479837 96.6595679551928 2828.56734859583 14 17 6
-59.6944416172374 95.5750770263538 2815.84351151217 14 18 4
-50.3101427483985 94.0351698910567 2796.70105402451 16 20 6
-41.7434650480026 92.5379187057613 2778.20113819294 21 24 13
-80.9131282229081 94.3653605546352 2806.63127741014 22 25 14
-62.3031676084027 92.1562561080093 2778.11636082628 19 22 11
-63.2172659569079 91.3077189393872 2768.80356805914 20 23 12
-34.1201423643434 88.3132559400644 2729.36031438324 20 23 12
-44.4610954228171 88.1178308898247 2729.27375568711 22 25 16
-24.207873409233 85.7144996757262 2698.24398067591 22 25 16
85.6658717093168 96.2916163267796 2876.75737629973 10 15 8
55.0840475591992 97.3713811522137 2894.11754545116 10 15 8
19.2639649754924 98.808398083845 2916.3280441849 9 14 7
27.2804575557375 97.435101758385 2899.8999885324 10 15 8
44.3832569200104 95.458298846123 2875.23441071774 13 16 9
24.0309870997906 95.9165525097498 2883.95039994817 14 17 10
0.723210437707067 96.5821888861348 2895.46537062345 13 16 9
22.1953463741298 94.2892775532455 2866.55480825549 12 15 8
5.75393380720346 94.5066533185624 2871.92886917658 10 13 4
-23.4262417985665 95.5902385112891 2889.07010599219 14 17 6
-27.6981432209553 95.0075673642315 2883.49999440455 16 19 8
-51.4407762537141 95.750646704263 2895.93515730951 16 19 8
-17.6143863354223 92.5599387019449 2854.97881470722 17 20 9
-18.9944392048547 91.7649070422359 2846.56354920905 15 18 7
-20.4021504764589 90.9677048456879 2838.12851702771 13 16 5
-21.8371904884953 90.1683082299166 2829.67336806702 16 19 8
-37.3120508641698 90.3534800359951 2834.5129035502 17 20 9
-57.8777213831783 90.9082372389701 2844.30971949853 18 21 10
-57.0967901242523 89.9536060868841 2833.75478474518 19 22 11
-49.7786697627163 88.5233409108644 2816.8204700859 17 20 9
-38.8974251424645 86.8231911725325 2796.29200112405 15 19 5
-18.6742917384215 84.4275583020062 2766.4754898605 14 18 4
-47.1373790190535 85.5720332472029 2784.136573248 21 24 13
-56.6911239480006 85.3442885640383 2783.38547819031 22 25 14
-77.0217965578706 85.9193975823591 2793.35275222404 19 22 11
-59.2291417254733 83.6619652914761 2765.48043955272 20 23 12
-52.3148240472717 82.1990071083011 2748.25293963717 20 23 14
-54.7534524263371 81.4308706925386 2740.30575749688 22 25 16
-47.9713431886168 79.9572170872078 2722.98236268693 23 26 17
72.4300399153028 88.9509301493685 2879.476507066 12 15 6
10.4298844723218 92.2611980589743 2924.71219082211 9 12 3
19.2414178746407 90.7881787889108 2907.62522996 13 16 7
33.3168116337652 88.9409277544817 2885.70611841375 13 16 9
15.5441466260986 88.3876128159861 2882.70041360062 12 15 8
14.2569999374751 87.5829461821276 2874.35244897259 11 14 7
16.7185280483952 86.5100543928564 2862.54514247112 11 14 5
6.32905067056466 86.3406449189555 2862.42353923436 15 18 9
-25.0584259741333 87.6732375391785 2881.67102758002 16 19 10
-37.5815528725567 87.6745736660992 2883.70896549619 15 18 9
-9.7582943625234 84.7668416468676 2848.28314013967 16 19 10
4.46962873473078 82.816692090548 2825.23904253527 15 18 9
2.99480500775884 81.9969260752259 2816.75495033557 16 19 10
-33.2800152616173 83.735656493808 2841.10769599009 17 20 11
-49.4590801429615 84.0134474183007 2846.67224436193 17 20 11
-54.5460224444025 83.473651611839 2841.74684052552 16 19 10
-44.9735872066153 81.8328631573786 2822.73996164594 16 19 10
-48.6533755322924 81.1782745295758 2816.36368457302 20 23 12
-29.7536906151659 78.8052349926765 2788.05825943262 19 22 11
-21.1776396506871 77.1979183691226 2769.56458097707 17 20 9
-6.17087435516051 75.0814334843393 2744.61387244686 16 19 8
-50.5151420888115 77.5421775071994 2777.9418835467 18 21 10
-51.4259054288051 76.6544646574787 2768.63130996586 23 26 17
-59.546681908103 76.3273711559446 2766.44813336161 20 23 14
