ply
format ascii 1.0
comment KinectMotionCapture
element vertex 759
property float x
property float y
property float z
property uchar red
property uchar green
property uchar blue
end_header
-61.8105530738831 793.927133083344 2736.99998855591 228 228 228
-54.1830956935883 791.030824184418 2726.99999809265 231 231 231
-46.5926639735699 787.844002246857 2716.00008010864 230 230 230
-39.0762872993946 784.94656085968 2706.00008964539 222 222 222
-31.6727347671986 783.498883247375 2700.99997520447 219 219 219
-24.2872461676598 781.760573387146 2694.9999332428 210 210 210
-16.9594679027796 781.182050704956 2693.00007820129 208 208 208
-9.63176041841507 779.732644557953 2687.99996376038 200 199 197
-2.33117584139109 778.282701969147 2683.00008773804 196 195 191
4.94042504578829 776.542127132416 2677.00004577637 187 182 176
12.1931219473481 775.671243667603 2674.00002479553 211 204 196
19.4586031138897 775.960028171539 2674.99995231628 158 149 140
26.7194807529449 775.958299636841 2674.99995231628 157 145 131
33.967599272728 775.665819644928 2674.00002479553 153 139 126
41.1177128553391 773.632407188416 2667.00005531311 150 138 126
48.1753423810005 770.728290081024 2657.00006484985 144 131 122
55.1368854939938 767.243325710297 2644.99998092651 176 166 157
62.1509738266468 765.20824432373 2638.00001144409 184 175 168
69.2320242524147 764.333009719849 2634.99999046326 154 149 145
76.3546228408813 764.037311077118 2634.0000629425 153 150 145
83.5033133625984 764.031231403351 2634.0000629425 168 167 163
90.583011507988 763.444304466248 2631.99996948242 166 167 162
97.5402742624283 761.986911296844 2627.00009346008 167 168 163
104.430332779884 760.238766670227 2621.00005149841 163 164 159
111.415274441242 759.360373020172 2618.00003051758 164 165 160
118.519522249699 759.35161113739 2618.00003051758 162 161 157
125.383585691452 757.892072200775 2612.99991607666 165 164 160
132.47375190258 757.882297039032 2612.99991607666 168 167 163
139.350011944771 756.711900234222 2608.99996757507 169 168 164
146.372631192207 756.411135196686 2608.00004005432 170 169 165
153.271839022636 755.529820919037 2605.00001907349 168 167 163
160.092920064926 754.357993602753 2601.0000705719 161 160 156
167.084738612175 754.055738449097 2599.99990463257 155 154 150
174.070820212364 753.753066062927 2598.99997711182 152 151 147
181.190475821495 754.029810428619 2599.99990463257 151 150 146
188.025623559952 753.146171569824 2596.99988365173 151 150 146
194.844096899033 752.26217508316 2594.00010108948 150 151 145
201.801583170891 751.957654953003 2592.99993515015 154 155 149
208.994850516319 752.522766590118 2595.00002861023 146 147 141
216.032028198242 752.507269382477 2595.00002861023 146 147 142
223.326712846756 753.361403942108 2598.00004959106 152 153 148
230.193868279457 752.76517868042 2595.99995613098 146 147 142
237.232521176338 752.748489379883 2595.99995613098 147 148 143
244.082510471344 752.151548862457 2594.00010108948 163 163 161
251.211643218994 752.424001693726 2595.00002861023 169 169 167
258.345723152161 752.695977687836 2595.99995613098 176 176 174
265.689224004745 753.547549247742 2598.99997711182 185 185 183
273.992925882339 757.008075714111 2611.00006103516 197 197 195
282.791823148727 761.627793312073 2627.00009346008 204 206 203
293.332248926163 770.59543132782 2657.99999237061 200 202 199
-116.394177079201 804.327964782715 2799.00002479553 222 224 221
-108.448021113873 801.750302314758 2789.99996185303 169 171 168
-100.586667656898 799.459517002106 2782.00006484985 207 209 206
-92.935711145401 798.604905605316 2779.00004386902 181 183 180
-85.1164609193802 796.025276184082 2769.99998092651 213 215 212
-77.261857688427 792.583107948303 2757.99989700317 216 216 216
-69.3710371851921 787.990808486938 2742.00010299683 224 224 224
-61.5894943475723 783.685207366943 2726.99999809265 228 228 228
-54.0283396840096 781.39066696167 2719.00010108948 228 228 228
-46.4933440089226 778.808057308197 2710.00003814697 226 226 226
-39.0504412353039 777.087152004242 2703.9999961853 217 217 217
-31.6752009093761 776.227831840515 2700.99997520447 215 215 215
-24.3071597069502 775.080382823944 2697.00002670288 208 208 208
-16.9418938457966 773.070275783539 2690.00005722046 205 205 205
-9.62175987660885 771.634340286255 2684.99994277954 199 198 196
-2.32961936853826 770.485281944275 2680.99999427795 196 195 193
4.93896426633 769.04833316803 2676.00011825562 201 196 192
12.1712693944573 767.035901546478 2668.99991035461 203 198 192
19.4237437099218 767.322063446045 2670.00007629395 184 177 169
26.6316533088684 766.170620918274 2665.99988937378 149 141 130
33.8559038937092 765.880882740021 2664.99996185303 150 140 130
40.9821383655071 763.866305351257 2657.99999237061 142 132 122
48.0884127318859 762.138545513153 2651.99995040894 169 160 151
55.0994649529457 759.54806804657 2642.99988746643 176 169 161
62.1793530881405 758.394002914429 2638.99993896484 158 153 147
69.2373812198639 757.239401340485 2634.99999046326 160 159 154
76.3025358319283 756.3716173172 2631.99996948242 161 162 157
83.3512395620346 755.503356456757 2628.99994850159 167 169 166
90.4523134231567 755.209267139435 2628.00002098084 167 169 166
97.4734947085381 754.339933395386 2625 169 171 168
104.398481547832 752.895295619965 2619.99988555908 169 171 168
111.381240189075 752.025008201599 2617.00010299683 167 168 163
118.392750620842 751.441359519959 2615.00000953674 165 164 160
125.201180577278 749.707937240601 2608.99996757507 164 163 159
132.179617881775 749.123513698578 2607.00011253357 168 167 163
139.200314879417 748.825788497925 2605.99994659424 167 166 162
146.159172058105 748.240351676941 2604.00009155273 164 163 159
152.930319309235 746.792256832123 2598.99997711182 167 166 162
159.674033522606 745.343863964081 2594.00010108948 166 165 161
166.840150952339 745.906174182892 2595.99995613098 157 156 152
173.949807882309 746.180832386017 2596.99988365173 151 150 146
181.203916668892 747.029483318329 2599.99990463257 155 154 150
188.039496541023 746.153771877289 2596.99988365173 154 153 149
195.008665323257 745.85235118866 2595.99995613098 157 158 152
201.816365122795 744.975864887238 2592.99993515015 153 154 148
208.848983049393 744.960844516754 2592.99993515015 145 146 140
215.714678168297 744.370758533478 2591.00008010864 147 148 143
222.827032208443 744.642078876495 2592.00000762939 150 151 146
229.855686426163 744.625747203827 2592.00000762939 146 147 142
237.066686153412 745.183527469635 2594.00010108948 149 150 145
244.005754590034 744.879007339478 2592.99993515015 162 162 160
251.326203346252 745.723247528076 2595.99995613098 178 178 176
258.662462234497 746.566951274872 2598.99997711182 171 171 169
266.116708517075 747.697412967682 2602.9999256134 179 179 177
273.802042007446 749.401986598969 2608.99996757507 186 186 184
281.950056552887 752.255082130432 2618.99995803833 213 215 212
291.255414485931 757.97975063324 2638.99993896484 200 202 199
-116.403140127659 796.791851520538 2799.00002479553 204 206 203
-108.456388115883 794.23850774765 2789.99996185303 171 173 170
-100.48595815897 791.115164756775 2779.00004386902 190 192 189
-92.7756875753403 789.699375629425 2773.9999294281 189 191 188
-84.9694386124611 787.144124507904 2765.00010490417 213 215 212
-77.0717561244965 783.164739608765 2750.99992752075 216 216 216
-69.1993162035942 778.615534305573 2734.99989509583 221 221 221
-61.4813603460789 774.919807910919 2721.99988365173 223 223 223
-53.9530701935291 772.931456565857 2714.99991416931 221 221 221
-46.4455112814903 770.657896995544 2707.00001716614 218 218 218
-39.0101633965969 768.953084945679 2700.99997520447 214 214 212
-31.6307656466961 767.817139625549 2697.00002670288 211 211 209
-24.2730136960745 766.680538654327 2693.00007820129 205 205 203
-16.9369224458933 765.543282032013 2688.99989128113 202 202 202
-9.61176212877035 763.551473617554 2681.99992179871 196 196 196
-2.32893321663141 762.982547283173 2680.0000667572 194 194 192
4.93196723982692 760.704874992371 2671.99993133545 186 185 181
12.1585410088301 758.996069431305 2665.99988937378 186 185 181
19.3816125392914 758.42547416687 2664.00003433228 196 193 188
26.5737995505333 757.284939289093 2660.00008583069 186 183 174
33.7315090000629 755.859017372131 2654.99997138977 183 179 170
40.8619903028011 754.432678222656 2650.00009536743 183 179 170
48.0015017092228 753.575146198273 2647.0000743866 175 170 164
55.1037676632404 752.432286739349 2642.99988746643 159 156 151
62.1370710432529 750.719606876373 2637.00008392334 163 162 157
69.1639333963394 749.291121959686 2631.99996948242 171 171 169
76.1924982070923 748.146653175354 2628.00002098084 166 168 165
83.3259969949722 748.140454292297 2628.00002098084 169 171 168
90.3904661536217 747.564256191254 2625.99992752075 169 171 168
97.3324775695801 746.133685112 2621.00005149841 169 171 168
104.167453944683 744.133174419403 2614.00008201599 172 173 168
111.304678022861 744.409441947937 2615.00000953674 165 166 161
118.22073161602 743.261992931366 2611.00006103516 170 169 165
125.114798545837 742.114067077637 2607.00011253357 165 164 160
132.037594914436 741.250097751617 2604.00009155273 162 161 157
139.050632715225 740.954995155334 2602.9999256134 162 161 157
145.945698022842 740.090191364288 2599.99990463257 162 161 157
152.765363454819 738.940298557281 2595.99995613098 165 164 160
159.747645258904 738.643884658813 2595.00002861023 165 164 160
166.852697730064 738.916099071503 2595.99995613098 159 158 154
173.895850777626 738.903284072876 2595.99995613098 153 152 148
181.078061461449 739.459216594696 2598.00004959106 153 152 148
188.053488731384 739.160776138306 2596.99988365173 153 152 148
195.098221302032 739.146530628204 2596.99988365173 155 156 150
201.909080147743 738.278090953827 2594.00010108948 151 152 146
208.864316344261 737.978160381317 2592.99993515015 145 146 140
215.563923120499 736.82427406311 2588.99998664856 147 148 143
222.757294774055 737.377524375916 2591.00008010864 150 151 146
229.783654212952 737.361013889313 2591.00008010864 147 148 143
237.083777785301 738.197922706604 2594.00010108948 148 149 144
244.023233652115 737.895965576172 2592.99993515015 159 159 157
251.440912485123 739.01641368866 2596.99988365173 176 176 174
258.879840373993 740.136563777924 2601.0000705719 167 167 165
266.339927911758 741.25611782074 2605.00001907349 173 173 171
273.716270923615 742.090821266174 2608.00004005432 178 178 176
281.539022922516 744.063138961792 2615.00000953674 208 210 207
290.502935647964 748.88026714325 2631.99996948242 206 208 205
300.350040197372 755.688428878784 2655.99989891052 201 203 200
-124.895438551903 794.885098934174 2819.00000572205 214 216 213
-116.661712527275 790.946841239929 2805.0000667572 195 197 194
-108.464807271957 786.72581911087 2789.99996185303 180 182 179
-100.45762360096 783.35028886795 2778.00011634827 184 186 183
-92.5822257995605 780.537843704224 2767.99988746643 195 197 194
-84.8531201481819 778.570890426636 2760.99991798401 213 215 212
-77.0217478275299 775.193393230438 2749.00007247925 217 217 217
-69.1541433334351 770.687282085419 2733.00004005432 220 220 220
-61.3958202302456 766.462445259094 2717.99993515015 221 221 221
-53.7983141839504 763.365089893341 2707.00001716614 217 217 217
-46.2947264313698 760.830998420715 2697.99995422363 214 214 214
-38.9265678822994 759.988367557526 2694.9999332428 211 211 209
-31.5863378345966 759.427130222321 2693.00007820129 209 209 207
-24.265905842185 759.1472864151 2691.99991226196 203 203 201
-16.9130582362413 757.174849510193 2684.99994277954 200 200 200
-9.60176717489958 755.483984947205 2678.99990081787 194 194 194
-2.32477113604546 754.356443881989 2674.99995231628 192 192 192
4.92866476997733 752.946317195892 2670.00007629395 192 191 189
12.1458172798157 750.971734523773 2663.00010681152 187 186 184
19.3322096019983 749.278485774994 2657.00006484985 177 176 172
26.5159457921982 748.430550098419 2654.00004386902 189 189 181
33.6452163755894 746.736168861389 2648.00000190735 184 184 176
40.8189371228218 746.451258659363 2647.0000743866 157 154 147
47.969002276659 745.883762836456 2644.99998092651 159 156 149
55.1080927252769 745.315730571747 2642.99988746643 169 168 163
62.118373811245 743.337154388428 2635.99991798401 171 172 167
69.037951529026 740.794062614441 2627.00009346008 167 169 166
76.0534703731537 739.660322666168 2622.99990653992 167 169 166
83.1105336546898 739.090263843536 2621.00005149841 169 171 168
90.2253985404968 739.083468914032 2621.00005149841 169 171 168
97.1543490886688 737.666130065918 2615.9999370575 170 172 169
104.095816612244 736.530363559723 2611.99998855591 174 175 170
111.228168010712 736.804068088531 2612.99991607666 174 175 170
118.27514320612 736.513197422028 2611.99998855591 166 165 161
125.172436237335 735.375881195068 2608.00004005432 166 165 161
132.098451256752 734.520018100739 2605.00001907349 166 165 161
139.114737510681 734.22771692276 2604.00009155273 164 163 159
146.013006567955 733.370900154114 2601.0000705719 158 157 153
152.777001261711 731.949687004089 2595.99995613098 157 156 152
159.698203206062 731.373846530914 2594.00010108948 160 159 155
166.736766695976 731.361448764801 2594.00010108948 159 158 154
173.908963799477 731.91237449646 2595.99995613098 156 155 151
181.021943688393 732.180893421173 2596.99988365173 151 150 146
188.067555427551 732.167065143585 2596.99988365173 153 152 148
195.112764835358 732.152760028839 2596.99988365173 154 155 149
202.00189948082 731.57411813736 2595.00002861023 149 150 144
208.879739046097 730.994999408722 2592.99993515015 146 147 141
215.829581022263 730.697453022003 2592.00000762939 148 149 144
223.031505942345 731.245040893555 2594.00010108948 149 150 145
230.155155062675 731.510400772095 2595.00002861023 148 149 144
237.009525299072 730.929553508759 2592.99993515015 149 150 145
243.852600455284 730.348348617554 2591.00008010864 152 152 150
251.265317201614 731.458067893982 2595.00002861023 175 175 173
258.798748254776 732.849061489105 2599.99990463257 164 164 162
266.154289245605 733.675897121429 2602.9999256134 163 163 161
273.210734128952 733.656823635101 2602.9999256134 163 163 161
280.912697315216 735.328376293182 2608.99996757507 202 202 200
289.971232414246 740.381479263306 2627.00009346008 209 209 207
299.805343151093 747.124910354614 2651.00002288818 188 190 187
-133.685454726219 793.986022472382 2842.99993515015 207 212 208
-124.94945526123 787.572681903839 2819.9999332428 195 197 194
-116.753973066807 783.95140171051 2806.99992179871 181 183 180
-108.473278582096 779.212355613709 2789.99996185303 187 189 186
-100.429311394691 775.589764118195 2776.99995040894 181 183 180
-92.3218727111816 770.849347114563 2759.99999046326 209 211 208
-84.4909772276878 767.784178256989 2749.00007247925 210 212 209
-76.6915529966354 764.438807964325 2736.99998855591 214 214 214
-68.9571350812912 761.093080043793 2724.99990463257 215 215 215
-61.2877123057842 757.746577262878 2713.00005912781 215 215 215
-53.6634363234043 754.120230674744 2700.00004768372 211 211 211
-46.1954213678837 751.889646053314 2691.99991226196 209 209 209
-38.7996397912502 750.217318534851 2686.00010871887 204 206 203
-31.4480774104595 748.823463916779 2680.99999427795 202 204 201
-24.1596531122923 748.546421527863 2680.0000667572 200 200 198
-16.8766006827354 748.268663883209 2678.99990081787 198 198 198
-9.59177501499653 747.431814670563 2676.00011825562 193 193 193
-2.32234806753695 746.315062046051 2671.99993133545 191 191 191
4.91982419043779 744.359731674194 2664.99996185303 184 184 182
12.1422177180648 743.521213531494 2661.99994087219 181 181 179
19.3191822618246 741.564691066742 2654.99997138977 177 178 173
26.4980606734753 740.725040435791 2651.99995040894 164 165 159
33.5970558226109 738.48819732666 2644.00005340576 153 154 148
40.791317820549 738.764524459839 2644.99998092651 161 160 155
47.9365102946758 738.202393054962 2642.99988746643 164 163 158
55.0915822386742 737.9190325737 2641.99995994568 171 172 166
62.0761327445507 735.679984092712 2634.0000629425 168 169 164
69.0696612000465 733.999013900757 2628.00002098084 165 167 164
76.0304480791092 732.317507266998 2621.99997901917 171 173 170
83.1170529127121 732.031941413879 2621.00005149841 167 169 166
90.0603234767914 730.628609657288 2615.9999370575 168 168 166
96.97625041008 729.224920272827 2611.00006103516 169 168 164
103.944525122643 728.379189968109 2608.00004005432 169 168 164
111.109100282192 728.929281234741 2609.99989509583 169 168 163
118.239045143127 729.199647903442 2611.00006103516 176 175 171
125.134125351906 728.073060512543 2607.00011253357 175 174 170
132.057949900627 727.225363254547 2604.00009155273 164 163 159
139.018595218658 726.656258106232 2601.99999809265 158 157 153
145.968064665794 726.086676120758 2599.99990463257 157 156 152
152.906402945518 725.516736507416 2598.00004959106 158 157 153
159.833520650864 724.946200847626 2595.99995613098 156 155 151
166.749447584152 724.375307559967 2594.00010108948 157 156 152
173.922151327133 724.920749664307 2595.99995613098 155 154 150
180.896192789078 724.628090858459 2595.00002861023 151 150 146
187.936872243881 724.614143371582 2595.00002861023 154 153 149
194.977104663849 724.599659442902 2595.00002861023 155 156 150
202.016964554787 724.584817886353 2595.00002861023 149 150 144
209.05639231205 724.569499492645 2595.00002861023 147 148 142
216.178640723228 724.832892417908 2595.99995613098 149 150 145
223.305895924568 725.095808506012 2596.99988365173 149 150 145
230.260699987411 724.799931049347 2595.99995613098 148 149 144
237.118229269981 724.224448204041 2594.00010108948 147 148 143
244.058519601822 723.927676677704 2592.99993515015 149 149 147
251.283437013626 724.468111991882 2595.00002861023 175 175 173
258.618205785751 725.287199020386 2598.00004959106 163 163 161
265.76429605484 725.547552108765 2598.99997711182 162 162 160
273.020207881927 726.086616516113 2601.0000705719 161 161 159
280.609458684921 727.462708950043 2605.99994659424 203 203 201
289.770781993866 732.746481895447 2625 200 200 198
299.713104963303 739.704251289368 2650.00009536743 191 193 190
310.485273599625 748.33607673645 2680.99999427795 191 193 190
-133.225619792938 783.562958240509 2832.99994468689 203 208 204
-124.781973659992 778.871119022369 2815.99998474121 187 189 186
-116.721510887146 776.114583015442 2805.99999427795 177 179 176
-108.481794595718 771.69805765152 2789.99996185303 181 183 180
-100.509539246559 768.663704395294 2779.00004386902 184 186 183
-92.3291593790054 763.415932655334 2759.99999046326 208 210 207
-84.4054222106934 759.550511837006 2746.00005149841 209 211 208
-76.5294879674912 755.407750606537 2730.99994659424 212 212 212
-68.8360556960106 752.370834350586 2720.00002861023 212 212 212
-61.2247884273529 749.60994720459 2710.00003814697 211 211 211
-53.6676906049252 746.848404407501 2700.00004768372 209 209 209
-46.2162457406521 744.916081428528 2693.00007820129 207 207 207
-38.7738272547722 742.430031299591 2684.00001525879 202 204 201
-31.4036533236504 740.496516227722 2677.00004577637 200 202 197
-24.1164937615395 739.945411682129 2674.99995231628 196 198 195
-16.8527420610189 739.947021007538 2674.99995231628 195 195 195
-9.58178471773863 739.394843578339 2673.00009727478 190 190 192
-2.31818691827357 737.735688686371 2667.00005531311 188 188 190
4.91283088922501 736.075937747955 2661.00001335144 185 185 185
12.1294977143407 735.521912574768 2658.99991989136 179 181 180
19.3207189440727 734.414219856262 2654.99997138977 164 166 163
26.4901742339134 733.305871486664 2651.00002288818 166 171 165
33.5870124399662 731.090664863586 2642.99988746643 170 175 169
40.7637096941471 731.087625026703 2642.99988746643 167 168 162
47.8858985006809 730.254352092743 2640.00010490417 168 169 163
55.0125390291214 729.697048664093 2638.00001144409 168 169 164
62.057476490736 728.309273719788 2632.99989700317 169 171 168
69.0751224756241 726.921081542969 2628.00002098084 169 171 168
76.0364532470703 725.2556681633 2621.99997901917 165 167 164
82.9650312662125 723.589777946472 2615.9999370575 170 172 169
89.8952633142471 722.199976444244 2611.00006103516 171 172 167
96.8724340200424 721.362769603729 2608.00004005432 167 166 162
103.952676057816 721.354961395264 2608.00004005432 164 163 158
111.032649874687 721.346497535706 2608.00004005432 164 161 156
118.248261511326 722.167313098907 2611.00006103516 152 151 147
125.09585916996 720.774829387665 2605.99994659424 156 155 151
132.118910551071 720.488309860229 2605.00001907349 162 161 157
139.02935385704 719.648003578186 2601.99999809265 166 165 161
145.923212170601 718.807280063629 2598.99997711182 161 160 156
152.80045568943 717.965960502625 2595.99995613098 154 153 149
159.661069512367 717.124283313751 2592.99993515015 152 151 147
166.826486587524 717.664778232574 2595.00002861023 151 150 146
174.002408981323 718.204855918884 2596.99988365173 152 151 147
181.049361824989 718.19132566452 2596.99988365173 149 148 144
188.023492693901 717.900812625885 2595.99995613098 153 152 148
195.066928863525 717.886328697205 2595.99995613098 153 154 148
202.265679836273 718.424379825592 2598.00004959106 145 146 140
209.313690662384 718.408942222595 2598.00004959106 146 147 141
216.361299157143 718.39314699173 2598.00004959106 149 150 145
223.408401012421 718.376636505127 2598.00004959106 146 147 142
230.27765750885 717.806875705719 2595.99995613098 147 148 143
237.044170498848 716.96013212204 2592.99993515015 142 143 138
243.982210755348 716.666042804718 2592.00000762939 144 144 142
251.398503780365 717.753887176514 2595.99995613098 174 174 172
258.836001157761 718.841254711151 2599.99990463257 158 158 156
265.783339738846 718.545854091644 2598.99997711182 158 158 156
273.039638996124 719.079494476318 2601.0000705719 159 159 157
280.629366636276 720.442056655884 2605.99994659424 192 192 190
289.460003376007 724.845111370087 2621.99997901917 196 196 194
299.055457115173 730.906128883362 2644.00005340576 206 208 205
310.275226831436 740.559935569763 2678.99990081787 189 191 188
-133.141994476318 775.383949279785 2831.00008964539 199 204 200
-124.836072325706 771.559596061707 2816.99991226196 184 186 183
-116.813905537128 769.10400390625 2808.00008773804 176 178 175
-108.645878732204 765.278220176697 2793.99991035461 176 178 175
-100.481316447258 760.9041929245 2778.00011634827 187 189 186
-92.2026336193085 754.885911941528 2756.00004196167 210 212 209
-84.2276588082314 750.510334968567 2740.00000953674 210 212 209
-76.3674080371857 746.407985687256 2724.99990463257 209 209 209
-68.5884281992912 742.305099964142 2710.00003814697 209 209 209
-61.1166842281818 740.940690040588 2704.99992370605 209 209 209
-53.6321997642517 739.027857780457 2697.99995422363 207 207 207
-46.2027676403522 737.388372421265 2691.99991226196 206 206 206
-38.7191325426102 734.104812145233 2680.0000667572 202 202 200
-31.3474982976913 731.916129589081 2671.99993133545 199 201 196
-24.0733399987221 731.370568275452 2670.00007629395 196 196 194
-16.822587698698 731.372177600861 2670.00007629395 194 194 194
-9.56821069121361 731.099367141724 2668.99991035461 190 190 190
-2.31489492580295 729.456305503845 2663.00010681152 188 188 188
4.90768440067768 728.086590766907 2657.99999237061 180 180 180
12.1122198179364 727.264106273651 2654.99997138977 180 180 180
19.3149875849485 726.988911628723 2654.00004386902 172 174 171
26.4523178339005 725.069642066956 2647.0000743866 171 173 170
33.5769839584827 723.697543144226 2641.99995994568 171 173 168
40.7052636146545 722.872793674469 2638.99993896484 167 168 163
47.8352941572666 722.321569919586 2637.00008392334 171 172 166
54.9126341938972 721.221685409546 2632.99989700317 168 169 164
61.9445592164993 719.847500324249 2628.00002098084 167 167 165
69.0017566084862 719.02060508728 2625 172 172 170
76.01348310709 717.919170856476 2621.00005149841 170 172 169
82.9715952277184 716.543257236481 2615.9999370575 168 168 166
89.9368077516556 715.440809726715 2611.99998855591 170 171 166
96.8429371714592 714.063942432404 2607.00011253357 168 167 162
103.881128132343 713.782072067261 2605.99994659424 165 164 159
110.956221818924 713.773608207703 2605.99994659424 166 163 158
118.031077086926 713.764607906342 2605.99994659424 167 166 161
124.865621328354 712.385654449463 2601.0000705719 160 159 155
131.875604391098 712.101697921753 2599.99990463257 145 144 140
138.879865407944 711.81732416153 2598.99997711182 152 151 147
145.709916949272 710.710644721985 2595.00002861023 161 160 156
152.576819062233 709.877490997314 2592.00000762939 156 155 151
159.427061676979 709.043800830841 2588.99998664856 153 152 148
166.775032877922 710.400521755219 2594.00010108948 150 149 145
173.881709575653 710.661232471466 2595.00002861023 150 149 145
180.993467569351 710.9215259552 2595.99995613098 148 147 143
188.037812709808 710.907459259033 2595.99995613098 151 150 146
195.15685737133 711.166739463806 2596.99988365173 150 151 145
202.358797192574 711.699306964874 2598.99997711182 142 143 137
209.571152925491 712.231516838074 2601.0000705719 145 146 140
216.377437114716 711.394011974335 2598.00004959106 148 149 144
223.339021205902 711.103677749634 2596.99988365173 146 147 142
230.20601272583 710.539281368256 2595.00002861023 147 148 143
237.335920333862 710.795640945435 2595.99995613098 143 144 139
244.188368320465 710.230469703674 2594.00010108948 144 144 142
251.416832208633 710.759818553925 2595.99995613098 175 175 173
258.954346179962 712.110161781311 2601.0000705719 157 157 155
266.00706577301 712.091088294983 2601.0000705719 158 158 156
273.374199867249 712.893009185791 2604.00009155273 160 160 158
280.75709939003 713.694453239441 2607.00011253357 184 184 182
289.259701967239 717.232882976532 2619.99988555908 201 201 199
298.624068498611 722.687065601349 2640.00010490417 210 212 209
309.833645820618 732.246518135071 2674.99995231628 194 196 193
-141.783446073532 772.898972034454 2849.99990463257 196 198 195
-133.199483156204 768.028259277344 2832.00001716614 189 191 188
-124.934546649456 764.512896537781 2819.00000572205 177 177 175
-116.781517863274 761.268019676209 2806.99992179871 168 168 166
-108.693368732929 758.022487163544 2795.00007629395 176 176 174
-100.453093647957 753.149032592773 2776.99995040894 179 179 177
-92.1430513262749 746.918857097626 2753.99994850159 202 202 200
-84.0806439518929 741.772830486298 2734.99989509583 204 204 202
-76.2333571910858 737.710952758789 2720.00002861023 208 208 206
-68.4926509857178 733.919739723206 2706.00008964539 209 209 207
-61.053778976202 732.839941978455 2701.99990272522 209 209 207
-53.5768494009972 730.946063995361 2694.9999332428 207 207 205
-46.1549758911133 729.322671890259 2688.99989128113 205 205 203
-38.693331182003 726.342558860779 2677.99997329712 202 201 199
-31.3500091433525 724.718034267426 2671.99993133545 198 197 195
-24.0482203662395 723.364174365997 2667.00005531311 192 191 189
-16.792431473732 722.823262214661 2664.99996185303 190 189 187
-9.55105200409889 722.553133964539 2664.00003433228 183 182 180
-2.31160316616297 721.197485923767 2658.99991989136 179 178 176
4.90438519045711 720.383703708649 2655.99989891052 175 174 172
12.0949419215322 719.026923179626 2651.00002288818 174 173 171
19.3092599511147 719.568133354187 2653.00011634827 173 172 170
26.4444407075644 717.667579650879 2645.99990844727 173 172 170
33.5796736180782 716.580331325531 2641.99995994568 174 173 171
40.6931005418301 715.492427349091 2638.00001144409 172 171 167
47.8209778666496 714.946448802948 2635.99991798401 172 171 167
54.875310510397 713.586151599884 2631.00004196167 173 172 168
61.855211853981 711.683034896851 2624.00007247925 173 172 168
68.8758045434952 710.592865943909 2619.99988555908 172 171 167
75.8455097675323 709.230959415436 2615.00000953674 172 171 167
82.8830301761627 708.682179450989 2612.99991607666 170 169 165
89.9095088243485 708.132922649384 2611.00006103516 169 168 164
96.8505963683128 707.040727138519 2607.00011253357 165 164 160
103.769741952419 705.947935581207 2602.9999256134 164 163 159
110.794648528099 705.668151378632 2601.99999809265 163 162 158
117.859192192554 705.659210681915 2601.99999809265 158 157 152
124.827399849892 705.10721206665 2599.99990463257 157 156 151
131.784498691559 704.554855823517 2598.00004959106 156 155 150
138.783827424049 704.272985458374 2596.99988365173 156 155 150
145.721271634102 703.719437122345 2595.00002861023 146 145 140
152.706399559975 703.436732292175 2594.00010108948 141 140 135
159.62415933609 702.882170677185 2592.00000762939 153 154 149
166.852205991745 703.683137893677 2595.00002861023 154 155 150
173.895090818405 703.669905662537 2595.00002861023 149 150 145
181.007340550423 703.927338123322 2595.99995613098 141 142 137
188.269481062889 704.726755619049 2598.99997711182 149 150 145
195.547446608543 705.525457859039 2601.99999809265 140 139 135
202.919170260429 706.594884395599 2605.99994659424 139 138 134
209.909275174141 706.308245658875 2605.00001907349 144 143 139
216.476991772652 704.665303230286 2598.99997711182 147 146 142
223.441734910011 704.3776512146 2598.00004959106 147 146 142
230.578020215034 704.631745815277 2598.99997711182 149 148 144
237.71920800209 704.885423183441 2599.99990463257 147 146 142
244.582906365395 704.325377941132 2598.00004959106 151 150 146
251.628965139389 704.307079315186 2598.00004959106 162 161 157
259.072780609131 705.372750759125 2601.99999809265 159 158 154
266.026347875595 705.082535743713 2601.0000705719 154 153 149
273.288905620575 705.605149269104 2602.9999256134 152 152 150
280.561804771423 706.127345561981 2605.00001907349 161 161 159
289.280295372009 710.172772407532 2619.99988555908 205 205 203
298.079609870911 714.217782020569 2634.99999046326 204 204 202
309.044629335403 723.140716552734 2667.99998283386 203 203 201
-141.595587134361 764.145970344543 2845.99995613098 188 190 187
-133.162975311279 760.129451751709 2831.00008964539 188 190 187
-124.900102615356 756.64895772934 2818.00007820129 175 175 173
-116.749159991741 753.436505794525 2805.99999427795 169 169 167
-108.702011406422 750.491857528687 2795.00007629395 178 178 176
-100.533448159695 746.204018592834 2779.00004386902 169 169 167
-92.2173112630844 740.035772323608 2756.00004196167 202 202 200
-83.8721469044685 732.524156570435 2727.9999256134 202 202 200
-76.0152116417885 728.234231472015 2711.99989318848 208 208 206
-68.3462545275688 725.017786026001 2700.00004768372 209 209 207
-60.9456934034824 724.217414855957 2697.00002670288 208 208 206
-53.4618571400642 722.07373380661 2688.99989128113 207 207 205
-46.0556857287884 720.466613769531 2683.00008773804 204 204 202
-38.6386439204216 718.053221702576 2674.00002479553 199 198 196
-31.2938652932644 716.176331043243 2667.00005531311 196 195 193
-23.9960458129644 714.567303657532 2661.00001335144 190 189 187
-16.7370680719614 713.226318359375 2655.99989891052 188 187 185
-9.52313560992479 713.227331638336 2655.99989891052 180 179 177
-2.30744224973023 712.690770626068 2654.00004386902 176 175 173
4.9010869115591 712.690711021423 2654.00004386902 172 171 169
12.0913535356522 711.615920066834 2650.00009536743 172 171 169
19.2962549626827 711.883187294006 2651.00002288818 173 172 170
26.4265816658735 710.001587867737 2644.00005340576 174 173 171
33.5823744535446 709.46204662323 2641.99995994568 175 174 172
40.6809411942959 708.116412162781 2637.00008392334 173 172 168
47.7703846991062 707.038700580597 2632.99989700317 173 172 168
54.8171363770962 705.691933631897 2628.00002098084 174 173 169
61.7894418537617 703.807651996613 2621.00005149841 173 172 168
68.855032324791 703.265249729156 2618.99995803833 172 171 167
75.7355466485024 701.111316680908 2611.00006103516 172 171 167
82.7944800257683 700.836360454559 2609.99989509583 169 168 164
89.8133516311646 700.292527675629 2608.00004005432 168 167 163
96.8583077192307 700.016677379608 2607.00011253357 164 163 159
103.817850351334 699.203073978424 2604.00009155273 163 162 158
110.888600349426 699.194490909576 2604.00009155273 162 161 157
117.913790047169 698.916971683502 2602.9999256134 162 161 156
124.981284141541 698.907315731049 2602.9999256134 158 157 152
131.845578551292 697.823226451874 2598.99997711182 154 153 148
138.901591300964 697.812616825104 2598.99997711182 155 154 149
145.844981074333 697.26437330246 2596.99988365173 148 147 142
153.012678027153 697.78972864151 2598.99997711182 143 142 137
160.006105899811 697.509050369263 2598.00004959106 149 150 145
167.058020830154 697.496294975281 2598.00004959106 152 153 148
174.042537808418 697.214543819427 2596.99988365173 151 152 147
181.160733103752 697.469353675842 2598.00004959106 136 137 132
188.501268625259 698.529064655304 2601.99999809265 143 144 139
196.013376116753 700.124979019165 2608.00004005432 133 132 128
203.246101737022 700.646579265594 2609.99989509583 137 136 132
210.166960954666 700.094044208527 2608.00004005432 143 142 138
216.659933328629 698.198854923248 2601.0000705719 145 144 140
223.630547523499 697.913706302643 2599.99990463257 148 147 143
230.772718787193 698.16517829895 2601.0000705719 148 147 143
238.011211156845 698.684394359589 2602.9999256134 146 145 141
244.789317250252 697.86125421524 2599.99990463257 149 148 144
251.647531986237 697.306096553802 2598.00004959106 160 159 155
258.892625570297 697.824060916901 2599.99990463257 157 156 152
265.841156244278 697.536468505859 2598.99997711182 153 152 148
272.993713617325 697.785198688507 2599.99990463257 153 153 151
280.366599559784 698.570370674133 2602.9999256134 156 156 154
288.969814777374 702.306985855103 2617.00010299683 195 195 193
297.874510288239 706.579685211182 2632.99989700317 198 198 196
308.371424674988 714.340329170227 2661.99994087219 202 202 200
-149.753883481026 758.591711521149 2854.00009155273 209 211 208
-141.55700802803 756.21098279953 2845.00002861023 172 174 171
-133.032366633415 751.703143119812 2828.00006866455 190 192 189
-124.821357429028 748.523592948914 2815.99998474121 165 165 163
-116.550400853157 744.546055793762 2801.00011825562 169 169 167
-108.593977987766 742.162704467773 2792.00005531311 160 160 158
-100.650005042553 739.512920379639 2782.00006484985 147 147 145
-92.4589186906815 734.469950199127 2763.00001144409 201 201 199
-84.0326100587845 726.502358913422 2733.00004005432 202 202 200
-75.9652554988861 720.394730567932 2710.00003814697 207 207 205
-68.3011114597321 717.210590839386 2697.99995422363 207 207 205
-60.8375892043114 715.620696544647 2691.99991226196 205 205 203
-53.3866286277771 713.764548301697 2684.99994277954 202 202 200
-46.00790143013 712.439358234406 2680.0000667572 199 199 197
-38.6562086641788 711.113572120667 2674.99995231628 193 192 190
-31.3315950334072 709.787309169769 2670.00007629395 192 191 189
-24.0070018917322 707.66270160675 2661.99994087219 186 185 183
-16.7384203523397 706.069350242615 2655.99989891052 182 181 179
-9.50956344604492 705.007076263428 2651.99995040894 175 174 172
-2.3050201125443 704.741656780243 2651.00002288818 172 171 169
4.89409547299147 704.4757604599 2650.00009536743 171 170 168
12.0832026004791 703.943431377411 2648.00000190735 171 170 168
19.2832536995411 704.208016395569 2648.9999294281 171 170 168
26.4287143945694 702.876925468445 2644.00005340576 171 170 168
33.5596576333046 701.811134815216 2640.00010490417 171 170 168
40.6225025653839 699.947237968445 2632.99989700317 174 173 169
47.6835146546364 698.614537715912 2628.00002098084 175 174 170
54.7172389924526 697.281181812286 2622.99990653992 175 174 170
61.7472566664219 696.213245391846 2618.99995803833 174 173 169
68.8342675566673 695.942103862762 2618.00003051758 171 170 166
75.712613761425 693.809688091278 2609.99989509583 170 169 165
82.7376544475555 693.271696567535 2608.00004005432 167 166 162
89.7860899567604 692.999005317688 2607.00011253357 166 165 161
96.9031751155853 693.257331848145 2608.00004005432 161 160 156
103.826113045216 692.186057567596 2604.00009155273 161 160 156
110.897414386272 692.177534103394 2604.00009155273 160 159 155
117.923147976398 691.902577877045 2602.9999256134 157 156 151
125.03919005394 692.158758640289 2604.00009155273 157 156 151
131.90670311451 691.085338592529 2599.99990463257 152 151 146
138.965979218483 691.074728965759 2599.99990463257 149 148 143
146.08108997345 691.329300403595 2601.0000705719 150 149 144
153.201296925545 691.583275794983 2601.99999809265 152 151 146
160.264953970909 691.571056842804 2601.99999809265 143 144 139
167.263939976692 691.292464733124 2601.0000705719 148 149 144
174.257099628448 691.013395786285 2599.99990463257 153 154 149
181.523397564888 691.796958446503 2602.9999256134 138 139 134
188.878029584885 692.84576177597 2607.00011253357 136 137 132
196.329027414322 694.159686565399 2611.99998855591 127 126 122
203.417390584946 694.144368171692 2611.99998855591 134 133 129
210.182905197144 693.065583705902 2608.00004005432 143 142 138
216.759651899338 691.454946994781 2601.99999809265 145 144 140
223.647400736809 690.906703472137 2599.99990463257 148 147 143
230.790033936501 691.15537405014 2601.0000705719 148 147 143
238.120451569557 691.934943199158 2604.00009155273 147 146 142
245.184138417244 691.916942596436 2604.00009155273 149 148 144
252.247363328934 691.898465156555 2604.00009155273 158 157 153
259.110867977142 691.348195075989 2601.99999809265 156 155 151
265.962898731232 690.797448158264 2599.99990463257 152 151 147
273.118615150452 691.043436527252 2601.0000705719 154 154 152
280.494600534439 691.820323467255 2604.00009155273 153 153 151
288.548856973648 694.190800189972 2612.99991607666 187 187 185
296.87762260437 697.092115879059 2624.00007247925 195 195 193
307.119011878967 704.243242740631 2651.00002288818 201 201 199
-149.608269333839 750.110626220703 2851.0000705719 206 208 205
-141.617983579636 748.806595802307 2845.99995613098 168 170 167
-133.089989423752 744.344651699066 2828.9999961853 194 196 193
-124.831296503544 740.934431552887 2815.99998474121 160 160 158
-116.601303219795 737.260341644287 2802.00004577637 171 171 169
-108.719356358051 735.427558422089 2795.00007629395 149 149 147
-100.875154137611 733.594059944153 2788.00010681152 148 148 146
-92.7005931735039 728.865504264832 2769.99998092651 202 202 200
-84.1008499264717 719.663083553314 2734.99989509583 204 204 202
-75.9993940591812 713.354349136353 2710.99996566772 206 206 204
-68.2559832930565 709.413170814514 2696.00009918213 206 206 204
-60.7294961810112 707.050144672394 2687.00003623962 202 202 200
-53.3511713147163 706.002235412598 2683.00008773804 199 199 197
-45.9772758185863 704.690515995026 2677.99997329712 193 193 191
-38.6448837816715 703.641355037689 2674.00002479553 189 188 186
-31.3223898410797 702.328503131866 2668.99991035461 188 187 185
-23.9909086376429 699.962496757507 2660.00008583069 183 182 180
-16.7334731668234 698.648393154144 2654.99997138977 179 178 176
-9.49957501143217 697.070598602295 2648.9999294281 172 171 169
-2.30433722026646 697.334170341492 2650.00009536743 171 170 168
4.89449175074697 697.334110736847 2650.00009536743 169 168 166
12.0933093130589 697.33339548111 2650.00009536743 169 168 166
19.277535378933 696.805834770203 2648.00000190735 171 170 168
26.410860940814 695.225119590759 2641.99995994568 172 171 169
33.5115194320679 693.643748760223 2635.99991798401 174 173 171
40.5486449599266 691.535651683807 2628.00002098084 174 173 169
47.6147793233395 690.479516983032 2624.00007247925 175 174 170
54.6173490583897 688.896596431732 2618.00003051758 175 174 170
61.6579167544842 688.102424144745 2615.00000953674 174 173 169
68.682037293911 687.307775020599 2611.99998855591 170 169 165
75.6606757640839 686.249554157257 2608.00004005432 169 168 164
82.680843770504 685.716807842255 2605.99994659424 166 165 161
89.7588431835175 685.709893703461 2605.99994659424 164 163 159
96.8737751245499 685.965597629547 2607.00011253357 160 159 155
103.914141654968 685.694336891174 2605.99994659424 158 157 153
110.991433262825 685.685813426971 2605.99994659424 157 156 152
118.068434298038 685.676634311676 2605.99994659424 155 154 149
125.049114227295 685.1407289505 2604.00009155273 150 149 144
132.069364190102 684.86750125885 2602.9999256134 148 147 142
139.083862304688 684.593617916107 2601.99999809265 153 152 147
146.092593669891 684.319317340851 2601.0000705719 153 152 147
153.15443277359 684.307515621185 2601.0000705719 150 149 144
160.215899348259 684.295237064362 2601.0000705719 141 142 137
167.469918727875 685.071647167206 2604.00009155273 138 139 134
174.538761377335 685.058355331421 2604.00009155273 141 142 137
181.816458702087 685.833752155304 2607.00011253357 152 153 148
189.03748691082 686.345458030701 2608.99996757507 150 151 146
196.494475007057 687.645852565765 2614.00008201599 124 123 119
203.510850667953 687.367498874664 2612.99991607666 127 126 122
210.279554128647 686.299443244934 2608.99996757507 143 142 138
216.942757368088 684.967935085297 2604.00009155273 147 146 142
223.836377263069 684.425055980682 2601.99999809265 147 146 142
230.896145105362 684.407830238342 2601.99999809265 150 149 145
238.13833296299 684.916317462921 2604.00009155273 149 148 144
245.202466845512 684.898257255554 2604.00009155273 149 148 144
252.362936735153 685.142576694489 2605.00001907349 158 157 153
259.229570627213 684.597611427307 2602.9999256134 156 155 151
266.187071800232 684.315264225006 2601.99999809265 153 152 148
273.453623056412 684.821486473084 2604.00009155273 154 154 152
280.730426311493 685.327231884003 2605.99994659424 153 153 151
288.348823785782 686.621367931366 2611.00006103516 169 169 167
296.446323394775 688.966989517212 2619.99988555908 195 195 193
305.982321500778 694.467544555664 2641.00003242493 201 201 199
-149.410203099251 741.384029388428 2846.99988365173 195 197 194
-141.579478979111 740.874886512756 2845.00002861023 160 162 159
-133.1946849823 737.239897251129 2831.00008964539 196 198 195
-125.018581748009 734.385550022125 2819.9999332428 148 148 146
-116.77709966898 730.749368667603 2805.99999427795 171 171 169
-109.000369906425 729.716718196869 2802.00004577637 133 133 131
-101.064175367355 727.381348609924 2792.99998283386 159 159 157
-92.6745757460594 721.138715744019 2769.00005340576 201 201 199
-84.0153694152832 711.509764194489 2732.00011253357 204 204 202
-75.865350663662 704.744935035706 2706.00008964539 205 205 203
-68.1348964571953 700.84410905838 2690.99998474121 204 204 202
-60.6439933180809 698.765873908997 2683.00008773804 198 198 196
-53.2958284020424 697.989106178284 2680.0000667572 193 193 191
-45.9123253822327 696.430385112762 2674.00002479553 186 186 184
-38.6046543717384 695.652484893799 2671.0000038147 181 180 176
-31.3131958246231 694.873988628387 2667.99998283386 181 180 176
-24.0199156105518 693.574011325836 2663.00010681152 179 178 174
-16.7411342263222 691.7524933815 2655.99989891052 175 174 170
-9.51469223946333 690.972208976746 2653.00011634827 170 169 165
-2.30539403855801 690.451860427856 2651.00002288818 168 167 163
4.89673623815179 690.451800823212 2651.00002288818 168 167 163
12.0805986225605 689.409196376801 2647.0000743866 168 167 163
19.2791018635035 689.668476581573 2648.00000190735 171 170 166
26.4030061662197 687.843441963196 2641.00003242493 172 171 167
33.5269570350647 686.799228191376 2637.00008392334 175 174 170
40.5673570930958 684.712529182434 2628.99994850159 174 173 169
47.6730801165104 684.188187122345 2627.00009346008 174 173 169
54.6843595802784 682.621359825134 2621.00005149841 175 174 170
61.6629011929035 681.053996086121 2615.00000953674 174 173 169
68.6086863279343 679.485976696014 2608.99996757507 169 168 164
75.6087452173233 678.698897361755 2605.99994659424 168 167 163
82.7509686350822 679.213464260101 2608.00004005432 166 165 161
89.8694023489952 679.466962814331 2608.99996757507 164 163 159
96.993014216423 679.719746112823 2609.99989509583 159 158 154
103.88258844614 678.40963602066 2605.00001907349 157 156 152
110.829912126064 677.619755268097 2601.99999809265 156 155 151
117.851309478283 677.350282669067 2601.0000705719 160 159 154
124.8669475317 677.080035209656 2599.99990463257 154 153 148
131.978362798691 677.330315113068 2601.0000705719 145 144 139
138.987958431244 677.05911397934 2599.99990463257 147 146 141
146.104127168655 677.308320999146 2601.0000705719 151 150 145
153.107598423958 677.036106586456 2599.99990463257 152 151 146
160.228475928307 677.284121513367 2601.0000705719 147 148 143
167.354390025139 677.531659603119 2601.99999809265 141 142 137
174.552381038666 678.039073944092 2604.00009155273 135 136 131
181.76081776619 678.545892238617 2605.99994659424 148 149 144
189.197063446045 679.833471775055 2611.00006103516 154 155 150
196.735173463821 681.380689144135 2617.00010299683 126 125 121
203.760161995888 681.104898452759 2615.9999370575 123 122 118
210.618078708649 680.307865142822 2612.99991607666 142 141 137
217.292562127113 678.989827632904 2608.00004005432 148 147 143
224.111467599869 678.192019462585 2605.00001907349 145 144 140
231.091096997261 677.914381027222 2604.00009155273 151 150 146
238.247662782669 678.156912326813 2605.00001907349 150 149 145
245.314955711365 678.138732910156 2605.00001907349 149 148 144
252.478629350662 678.380489349365 2605.99994659424 157 156 152
259.149193763733 677.320182323456 2601.99999809265 155 154 150
266.309022903442 677.561044692993 2602.9999256134 152 151 147
273.473650217056 677.801489830017 2604.00009155273 153 153 151
280.858665704727 678.562045097351 2607.00011253357 156 156 154
288.259267807007 679.322123527527 2609.99989509583 162 162 160
296.015083789825 680.862665176392 2615.9999370575 197 197 195
305.193215608597 685.525834560394 2634.0000629425 200 200 198
-157.429471611977 734.985291957855 2851.99999809265 211 213 210
-149.317100644112 733.193576335907 2845.00002861023 171 173 170
-141.391679644585 732.174217700958 2841.00008010864 169 169 167
-133.205309510231 729.607939720154 2831.00008964539 192 192 190
-125.117257237434 727.29879617691 2822.00002670288 150 150 148
-117.077797651291 724.988877773285 2812.99996376038 159 159 157
-109.398156404495 724.740326404572 2812.00003623962 133 133 131
-101.434178650379 722.429156303406 2802.99997329712 128 128 126
-92.8828865289688 715.22045135498 2775.00009536743 199 199 197
-83.8683769106865 702.856123447418 2726.99999809265 205 205 203
-75.8153945207596 696.934521198273 2703.9999961853 201 201 199
-68.140409886837 693.589687347412 2690.99998474121 197 197 195
-60.6715120375156 691.790699958801 2684.00001525879 193 193 191
-53.3001534640789 690.764367580414 2680.0000667572 190 190 188
-45.9160432219505 689.221858978271 2674.00002479553 181 181 179
-38.5788828134537 687.93648481369 2668.99991035461 179 178 174
-31.2805287539959 686.908364295959 2664.99996185303 178 177 173
-23.9948071539402 685.621917247772 2660.00008583069 173 172 168
-16.7361926287413 684.334695339203 2654.99997138977 171 170 166
-9.51187871396542 683.562576770782 2651.99995040894 167 166 162
-2.30558170005679 683.305323123932 2651.00002288818 167 166 162
4.89898212254047 683.562934398651 2651.99995040894 168 167 163
12.0861446484923 682.531237602234 2648.00000190735 169 168 164
19.2588251084089 681.756734848022 2644.99998092651 171 170 166
26.3751596212387 679.950654506683 2638.00001144409 172 171 167
33.4788151085377 678.659319877625 2632.99989700317 173 172 168
40.5552238225937 677.367627620697 2628.00002098084 174 173 169
47.6769506931305 677.106320858002 2627.00009346008 174 173 169
54.7096617519856 675.813376903534 2621.99997901917 173 172 168
61.6443194448948 673.746764659882 2614.00008201599 172 171 167
68.5879364609718 672.19489812851 2608.00004005432 168 167 163
75.5568221211433 671.158134937286 2604.00009155273 166 165 161
82.6941728591919 671.667218208313 2605.99994659424 164 163 159
89.7732898592949 671.660304069519 2605.99994659424 160 159 155
96.9636589288712 672.425985336304 2608.99996757507 155 154 150
103.851057589054 671.129286289215 2604.00009155273 155 154 150
110.796205699444 670.347452163696 2601.0000705719 154 153 149
117.815405130386 670.080542564392 2599.99990463257 154 153 148
124.82888251543 669.81315612793 2598.99997711182 153 152 147
