ply
format ascii 1.0
comment KinectMotionCapture
element vertex 802
property float x
property float y
property float z
property uchar red
property uchar green
property uchar blue
end_header
91.4923250675201 100.062966346741 2642.99988746643 18 21 14
98.7434089183807 100.099019706249 2644.00005340576 18 21 14
106.440402567387 100.551374256611 2655.99989891052 16 19 12
113.517567515373 100.397847592831 2651.99995040894 15 18 11
120.891198515892 100.509203970432 2654.99997138977 16 18 13
129.004612565041 101.188242435455 2673.00009727478 17 18 12
136.705845594406 101.488560438156 2680.99999427795 17 17 9
142.99975335598 100.766696035862 2661.99994087219 17 14 7
149.640992283821 100.347563624382 2651.00002288818 18 15 8
156.931728124619 100.382521748543 2651.99995040894 19 16 9
164.103463292122 100.341647863388 2651.00002288818 23 20 13
172.238558530807 100.868403911591 2664.99996185303 13 13 5
179.304242134094 100.75157135725 2661.99994087219 17 16 11
190.277576446533 102.754041552544 2714.99991416931 16 17 11
196.952119469643 102.371975779533 2704.99992370605 13 16 9
204.85545694828 102.633140981197 2711.99989318848 11 14 5
-139.777466654778 98.1771722435951 2795.00007629395 64 67 60
-131.347179412842 97.5824072957039 2778.00011634827 21 24 15
-123.4100908041 97.3036214709282 2769.99998092651 21 24 15
-115.599818527699 97.0949530601501 2763.99993896484 19 22 11
-108.056381344795 97.0969349145889 2763.99993896484 17 20 9
-99.8579487204552 96.466451883316 2746.00005149841 14 17 6
-92.2282487154007 96.3276401162148 2742.00010299683 13 16 5
-84.959976375103 96.5751335024834 2749.00007247925 13 16 7
-77.7094811201096 96.8927443027496 2757.99989700317 14 17 8
-70.4095363616943 97.2102507948875 2766.99995994568 15 18 9
-62.6285448670387 96.8601107597351 2756.99996948242 16 19 10
-54.5821189880371 95.9477052092552 2730.99994659424 13 16 7
-47.1260920166969 95.9486067295074 2730.99994659424 12 15 6
-39.7134460508823 96.0547849535942 2733.99996757507 12 15 6
-32.3550254106522 96.371628344059 2743.00003051758 10 13 6
-24.657242000103 95.5640599131584 2720.00002861023 12 15 8
-17.3193365335464 96.0563123226166 2733.99996757507 8 10 5
-9.9373497068882 96.8646258115768 2756.99996948242 8 10 7
-2.41049518808723 96.8998819589615 2757.99989700317 5 7 4
5.01044606789947 94.8269367218018 2698.99988174438 6 8 5
12.2330235317349 93.7025025486946 2667.00005531311 11 13 8
19.6759328246117 94.4751724600792 2688.99989128113 12 15 8
27.4097044020891 95.8449691534042 2727.9999256134 13 16 9
34.19354185462 94.017468392849 2676.00011825562 12 15 6
41.344627737999 93.6654508113861 2665.99988937378 13 16 9
48.7145148217678 93.8403233885765 2671.0000038147 13 16 9
56.1534352600574 94.085305929184 2677.99997329712 12 15 8
62.7061054110527 92.9600149393082 2645.99990844727 13 16 9
69.5859417319298 92.5021171569824 2632.99989700317 13 16 9
76.8610388040543 92.6062166690826 2635.99991798401 15 18 11
84.3116417527199 92.8858444094658 2644.00005340576 15 18 11
91.0093635320663 92.3573225736618 2628.99994850159 15 18 11
98.2970744371414 92.461034655571 2631.99996948242 15 18 11
106.161817908287 93.0564180016518 2648.9999294281 16 19 12
113.776482641697 93.3706313371658 2657.99999237061 16 19 12
121.030002832413 93.3685600757599 2657.99999237061 13 18 12
127.703875303268 92.9448530077934 2645.99990844727 12 14 9
134.515702724457 92.6615372300148 2638.00001144409 13 16 9
142.357736825943 93.0806174874306 2650.00009536743 18 19 13
150.151744484901 93.4292897582054 2660.00008583069 17 18 10
157.171279191971 93.2861119508743 2655.99989891052 12 12 4
165.158793330193 93.7047600746155 2667.99998283386 13 14 6
171.659976243973 93.2803750038147 2655.99989891052 11 12 6
179.913699626923 93.8041284680367 2671.0000038147 11 12 7
189.229741692543 94.8193818330765 2700.00004768372 12 14 9
198.266267776489 95.6237390637398 2723.00004959106 12 17 11
208.182811737061 96.779078245163 2756.00004196167 10 15 8
-130.923867225647 89.7088348865509 2769.00005340576 22 25 18
-122.565679252148 89.1277343034744 2750.99992752075 20 23 14
-115.643613040447 89.5832628011703 2765.00010490417 19 22 11
-107.549995183945 89.1314893960953 2750.99992752075 17 20 9
-99.7141972184181 88.8415947556496 2742.00010299683 14 17 6
-93.171626329422 89.7503718733788 2769.99998092651 13 16 5
-85.3632092475891 89.4926339387894 2762.00008392334 10 13 4
-77.6826292276382 89.3319547176361 2756.99996948242 12 15 6
-69.9272453784943 89.0415459871292 2747.99990653992 15 18 9
-62.016274780035 88.4593948721886 2730.00001907349 15 18 9
-54.8029094934464 88.8491943478584 2742.00010299683 14 17 8
-48.3348444104195 90.7618254423141 2801.00011825562 11 14 5
-39.9901233613491 89.2071947455406 2753.00002098084 12 15 6
-32.4145592749119 89.0457630157471 2747.99990653992 12 15 8
-24.8661674559116 88.884212076664 2743.00003051758 14 17 10
-17.2752905637026 88.3660912513733 2726.99999809265 8 10 5
-9.92670748382807 89.2412215471268 2753.99994850159 7 9 4
-2.39917426370084 88.9496952295303 2744.99988555908 3 5 2
5.05694327875972 88.2691815495491 2723.99997711182 5 7 2
12.370839715004 87.3941257596016 2697.00002670288 10 12 7
19.5079725235701 86.3893330097198 2665.99988937378 12 15 8
26.7872158437967 86.3889530301094 2665.99988937378 11 14 5
33.9385680854321 86.064413189888 2655.99989891052 10 13 4
41.314322501421 86.3230302929878 2664.00003433228 12 15 8
48.5147275030613 86.192674934864 2660.00008583069 12 15 8
56.0285821557045 86.5806415677071 2671.99993133545 12 15 8
63.1811544299126 86.3852426409721 2665.99988937378 12 15 8
69.7985664010048 85.5741128325462 2641.00003242493 13 16 9
76.512448489666 85.0220620632172 2624.00007247925 16 19 12
84.3768492341042 85.7335701584816 2645.99990844727 16 19 12
91.5301963686943 85.6673344969749 2644.00005340576 15 18 11
98.8589525222778 85.7629850506783 2647.0000743866 15 18 11
106.885015964508 86.4093005657196 2667.00005531311 17 20 13
114.377707242966 86.5694880485535 2671.99993133545 17 20 13
120.71330845356 85.8872085809708 2651.00002288818 15 17 12
126.306384801865 84.7836807370186 2617.00010299683 12 14 9
132.937207818031 84.4576060771942 2607.00011253357 14 15 9
141.661748290062 85.4272618889809 2637.00008392334 15 16 10
150.549426674843 86.3967537879944 2667.00005531311 12 13 5
159.363478422165 87.2365087270737 2693.00007820129 16 17 9
164.728239178658 86.1973091959953 2661.00001335144 9 10 2
173.084765672684 86.7452621459961 2677.99997329712 15 16 10
180.927097797394 87.0015472173691 2686.00010871887 13 15 10
190.284162759781 87.9378914833069 2714.99991416931 12 14 9
199.580192565918 88.7769013643265 2740.9999370575 8 13 7
-129.791110754013 81.4390107989311 2744.99988555908 22 25 18
-122.74581938982 81.7375853657722 2755.00011444092 18 21 14
-115.227170288563 81.7393586039543 2755.00011444092 16 19 10
-107.434384524822 81.5333276987076 2747.99990653992 15 18 9
-100.624896585941 82.098625600338 2766.99995994568 14 17 8
-93.7785506248474 82.7231854200363 2788.00010681152 15 18 9
-85.117295384407 81.7156955599785 2753.99994850159 13 16 7
-77.3739069700241 81.4795345067978 2746.00005149841 14 17 8
-69.7247758507729 81.3026055693626 2740.00000953674 16 19 10
-61.9490928947926 80.9178575873375 2726.99999809265 16 19 10
-54.863728582859 81.4528465270996 2744.99988555908 15 18 9
-47.248438000679 81.2458992004395 2737.99991607666 15 18 9
-39.9762280285358 81.6619992256165 2752.00009346008 13 16 9
-32.5212329626083 81.8109139800072 2756.99996948242 10 13 6
-24.8393639922142 81.3068896532059 2740.00000953674 9 12 5
-17.4212697893381 81.6039517521858 2750 8 11 4
-9.94488690048456 81.8712264299393 2759.0000629425 8 11 4
-2.42281099781394 82.2570845484734 2772.0000743866 8 11 4
5.19254524260759 82.9989165067673 2796.99993133545 7 10 3
12.526991777122 81.0402855277061 2730.99994659424 11 14 7
19.4936450570822 79.0518745779991 2664.00003433228 13 16 9
26.8177799880505 79.1998878121376 2668.99991035461 12 15 8
34.0924374759197 79.1697576642036 2667.99998283386 12 15 8
41.1598868668079 78.753761947155 2654.00004386902 13 16 9
48.3331009745598 78.6343961954117 2650.00009536743 13 16 9
56.4907863736153 79.939216375351 2694.00000572205 13 16 9
63.2769465446472 79.226166009903 2670.00007629395 13 16 9
70.3811049461365 79.0174603462219 2663.00010681152 13 16 7
77.0968347787857 78.4525722265244 2644.00005340576 15 18 9
84.6332982182503 78.7480846047401 2654.00004386902 15 18 9
91.8085649609566 78.6873996257782 2651.99995040894 16 19 10
100.092999637127 79.5167535543442 2680.0000667572 16 19 10
107.327535748482 79.4558525085449 2677.99997329712 16 19 8
114.465110003948 79.3355256319046 2674.00002479553 16 19 10
121.489301323891 79.1557431221008 2667.99998283386 17 18 10
128.721579909325 79.1242122650146 2667.00005531311 14 15 9
133.449226617813 77.6388943195343 2617.00010299683 13 13 5
140.858128666878 77.7851864695549 2621.99997901917 13 13 5
151.624292135239 79.6816349029541 2686.00010871887 13 14 8
159.661799669266 80.0353065133095 2697.99995422363 15 16 10
167.764142155647 80.3888589143753 2710.00003814697 14 15 9
171.924039721489 78.9031982421875 2660.00008583069 12 13 7
182.681232690811 80.4430246353149 2711.99989318848 13 14 9
190.987944602966 80.8258950710297 2724.99990463257 11 13 8
199.073538184166 81.0899809002876 2733.99996757507 9 11 6
-129.272848367691 73.650062084198 2733.99996757507 24 27 20
-122.61389195919 74.1366744041443 2752.00009346008 20 23 16
-115.228824317455 74.2191076278687 2755.00011444092 17 20 11
-107.865981757641 74.3283852934837 2759.0000629425 16 19 10
-100.9536460042 74.7877955436707 2776.00002288818 15 18 9
-93.3762490749359 74.7891217470169 2776.00002288818 15 18 9
-85.4275822639465 74.4670405983925 2763.99993896484 14 17 8
-77.1777778863907 73.7946107983589 2739.00008201599 15 18 9
-69.8275715112686 73.9303231239319 2743.99995803833 17 20 11
-62.949538230896 74.658676981926 2770.99990844727 17 20 11
-54.7046288847923 73.7434327602386 2736.99998855591 15 18 9
-47.0592938363552 73.4746903181076 2726.99999809265 14 17 8
-39.8170128464699 73.8524943590164 2740.9999370575 11 14 7
-32.4273370206356 74.0685388445854 2749.00007247925 10 13 6
-24.9122455716133 74.0419924259186 2747.99990653992 9 12 5
-17.2568075358868 73.3956322073936 2723.99997711182 9 12 5
-9.96305327862501 74.473574757576 2763.99993896484 10 13 6
-2.42896424606442 74.8778209090233 2779.00004386902 10 13 6
5.1369252614677 74.5544731616974 2766.99995994568 8 11 4
12.2840600088239 72.1563249826431 2677.99997329712 11 14 7
19.6914989501238 72.506383061409 2690.99998474121 12 15 8
27.079414576292 72.6138353347778 2694.9999332428 13 16 9
34.3101657927036 72.3439678549767 2684.99994277954 13 16 9
41.3776040077209 71.8854144215584 2667.99998283386 13 16 9
48.0602085590363 70.9956660866737 2634.99999046326 13 16 9
56.6593520343304 72.8001371026039 2701.99990272522 13 16 9
64.9131387472153 73.7961977720261 2739.00008201599 13 16 9
70.7785561680794 72.1517726778984 2677.99997329712 13 16 7
77.8269320726395 71.9082728028297 2668.99991035461 16 19 10
84.9215090274811 71.7455148696899 2663.00010681152 16 19 10
92.3637971282005 71.8790143728256 2667.99998283386 16 19 10
99.7209399938583 71.9315856695175 2670.00007629395 15 18 9
106.968365609646 71.9032362103462 2668.99991035461 15 18 7
114.081464707851 71.7939734458923 2664.99996185303 15 18 7
121.809795498848 72.0617696642876 2674.99995231628 16 16 8
128.675132989883 71.817621588707 2665.99988937378 16 16 8
136.00081205368 71.8427747488022 2667.00005531311 16 16 8
142.686665058136 71.5445727109909 2655.99989891052 15 15 7
150.045812129974 71.5964809060097 2657.99999237061 14 15 9
160.078316926956 72.86037504673 2704.99992370605 14 15 9
168.633207678795 73.3699426054955 2723.99997711182 13 14 8
174.70571398735 72.8020220994949 2703.00006866455 12 13 7
182.414367794991 72.9342997074127 2707.99994468689 12 14 9
193.23343038559 74.2514878511429 2756.99996948242 12 14 9
199.076309800148 73.6294537782669 2733.99996757507 10 12 7
-123.105570673943 66.8907761573792 2763.00001144409 23 26 19
-115.774028003216 67.0132786035538 2767.99988746643 20 23 14
-108.414731919765 67.135713994503 2773.00000190735 18 21 12
-100.373081862926 66.8222457170486 2759.99999046326 15 18 9
-92.5028696656227 66.5813088417053 2750 15 18 9
-84.7178176045418 66.3645043969154 2740.9999370575 15 18 9
-77.263318002224 66.3897097110748 2742.00010299683 16 19 10
-70.0829476118088 66.6811615228653 2753.99994850159 17 20 11
-62.5414550304413 66.657766699791 2753.00002098084 16 19 10
-55.5647909641266 67.3122406005859 2779.99997138977 15 18 9
-47.6639047265053 66.877044737339 2762.00008392334 12 15 6
-39.8320592939854 66.3933157920837 2742.00010299683 12 15 8
-32.4041619896889 66.5148198604584 2746.99997901917 11 14 7
-24.8491112142801 66.369891166687 2740.9999370575 10 13 6
-17.485098913312 66.830225288868 2759.99999046326 9 12 5
-9.9451607093215 66.8061748147011 2759.0000629425 9 12 5
-2.41588521748781 66.9273212552071 2763.99993896484 8 11 4
5.08129689842463 66.2735253572464 2736.99998855591 8 11 4
12.3392650857568 65.1353672146797 2690.00005722046 10 13 6
19.7649337351322 65.4015243053436 2700.99997520447 11 14 7
27.1400548517704 65.4012262821198 2700.99997520447 13 16 9
34.4384014606476 65.2555748820305 2694.9999332428 14 17 10
41.3005985319614 64.4802749156952 2663.00010681152 13 16 9
48.6627332866192 64.6007806062698 2667.99998283386 13 16 9
56.0939125716686 64.7696256637573 2674.99995231628 13 16 9
64.2977803945541 65.6889751553535 2713.00005912781 13 16 9
71.3873654603958 65.3975903987885 2700.99997520447 13 16 7
77.9154226183891 64.6945163607597 2671.99993133545 15 18 9
84.5718160271645 64.2092823982239 2651.99995040894 15 18 9
91.4302542805672 63.9418736100197 2641.00003242493 15 18 9
98.4897017478943 63.8438686728477 2637.00008392334 15 18 9
106.007866561413 64.0362948179245 2644.99998092651 14 17 6
114.04013633728 64.4949525594711 2664.00003433228 14 17 6
121.173843741417 64.4208863377571 2661.00001335144 17 17 9
128.676801919937 64.540408551693 2665.99988937378 17 17 9
136.512488126755 64.8050829768181 2677.00004577637 17 17 9
143.172010779381 64.5128935575485 2664.99996185303 16 16 8
150.217086076736 64.4142776727676 2661.00001335144 15 16 10
160.021185874939 65.4532909393311 2703.9999961853 13 14 8
166.716232895851 65.1850551366806 2693.00007820129 12 13 7
175.80671608448 65.836526453495 2720.00002861023 11 12 6
184.370175004005 66.2458315491676 2736.99998855591 11 13 8
191.764011979103 66.2193670868874 2736.00006103516 12 14 9
-131.687521934509 59.8194412887096 2785.00008583069 17 20 13
-116.402767598629 59.779167175293 2782.99999237061 20 23 14
-107.98591375351 59.329304844141 2762.00008392334 18 21 12
-100.4833355546 59.3519136309624 2763.00001144409 16 19 10
-92.2684967517853 58.9233450591564 2743.00003051758 15 18 9
-84.904246032238 59.0102300047874 2746.99997901917 16 19 10
-77.3205608129501 58.9466691017151 2743.99995803833 16 19 10
-69.7274878621101 58.8615424931049 2740.00000953674 15 18 9
-62.5421777367592 59.1415353119373 2753.00002098084 14 17 8
-55.2256479859352 59.3570098280907 2763.00001144409 13 16 7
-47.5264005362988 59.1642297804356 2753.99994850159 12 15 6
-40.0358997285366 59.2076741158962 2756.00004196167 12 15 8
-32.2865769267082 58.7998852133751 2736.99998855591 12 15 8
-24.8675309121609 58.9291006326675 2743.00003051758 11 14 7
-17.504308372736 59.3590028584003 2763.00001144409 9 12 5
-10.0930677726865 60.1540431380272 2799.99995231628 9 12 5
-2.39668413996696 58.9080713689327 2742.00010299683 8 11 4
5.0163771957159 58.0487065017223 2701.99990272522 8 11 4
12.4907847493887 58.4997683763504 2723.00004959106 9 12 5
19.9188329279423 58.4780983626843 2721.99988365173 9 12 5
27.1604731678963 58.0696575343609 2703.00006866455 11 14 7
34.0171009302139 57.1885034441948 2661.99994087219 12 15 8
41.1770045757294 57.0377111434937 2654.99997138977 12 15 8
48.4626702964306 57.080190628767 2657.00006484985 13 16 9
55.9477768838406 57.315930724144 2667.99998283386 13 16 9
63.1135180592537 57.2078637778759 2663.00010681152 14 17 10
70.4102739691734 57.2286136448383 2664.00003433228 14 17 8
78.6161720752716 57.9152330756187 2696.00009918213 13 16 7
84.9554836750031 57.2269223630428 2664.00003433228 14 17 8
91.3274586200714 56.6674433648586 2638.00001144409 14 17 8
98.6775830388069 56.7523278295994 2641.99995994568 14 17 8
106.329724192619 56.9875091314316 2653.00011634827 15 18 7
114.169873297215 57.2870299220085 2667.00005531311 15 18 7
121.630609035492 57.3716722428799 2671.0000038147 17 18 10
129.450529813766 57.6065853238106 2681.99992179871 17 17 9
137.177005410194 57.7769801020622 2690.00005722046 17 17 9
144.355580210686 57.711023837328 2687.00003623962 15 16 8
150.7268846035 57.344313710928 2670.00007629395 14 15 9
158.484324812889 57.5144737958908 2677.99997329712 13 14 8
165.479972958565 57.4053563177586 2673.00009727478 12 13 7
175.356283783913 58.2625605165958 2713.00005912781 10 13 6
186.527863144875 59.4632253050804 2769.00005340576 11 13 8
191.27556681633 58.6022436618805 2729.00009155273 11 13 8
-125.91527402401 52.9867596924305 2825.99997520447 21 24 17
-116.780392825603 52.3504093289375 2792.00005531311 19 22 13
-108.84715616703 52.2014796733856 2783.99991989136 17 20 11
-100.920774042606 52.033718675375 2775.00009536743 16 19 10
-93.1440144777298 51.9221350550652 2769.00005340576 16 19 10
-85.6160074472427 51.9417375326157 2769.99998092651 17 20 11
-77.2086456418037 51.3799637556076 2740.00000953674 16 19 10
-69.7027593851089 51.3619109988213 2739.00008201599 13 16 7
-62.2929185628891 51.4187999069691 2742.00010299683 12 15 6
-55.1262721419334 51.719393581152 2757.99989700317 12 15 6
-47.4060885608196 51.5136085450649 2746.99997901917 12 15 6
-39.8184023797512 51.4015108346939 2740.9999370575 12 15 8
-32.735176384449 52.0394556224346 2775.00009536743 12 15 8
-25.0944327563047 51.9084595143795 2767.99988746643 11 14 7
-17.5425000488758 51.9274175167084 2769.00005340576 10 13 6
-10.0354952737689 52.208848297596 2783.99991989136 9 12 5
-2.35475320369005 50.5211241543293 2694.00000572205 8 11 4
5.03499433398247 50.858661532402 2711.99989318848 8 11 4
12.7569688484073 52.152544260025 2780.99989891052 9 12 5
19.9775826185942 51.1959828436375 2730.00001907349 11 14 7
27.0100235939026 50.4081286489964 2687.99996376038 11 14 7
34.1963581740856 50.1828007400036 2676.00011825562 12 15 8
41.1774292588234 49.7886314988136 2654.99997138977 11 14 7
48.9373989403248 50.3132790327072 2683.00008773804 11 14 7
56.2838762998581 50.3315255045891 2684.00001525879 12 15 8
63.1852596998215 49.9934032559395 2665.99988937378 13 16 9
71.1246207356453 50.4615716636181 2690.99998474121 13 16 7
78.6752998828888 50.5921207368374 2697.99995422363 14 17 8
85.3709280490875 50.1975640654564 2677.00004577637 14 17 8
92.5747230648994 50.140455365181 2674.00002479553 15 18 9
99.7617468237877 50.0832907855511 2671.0000038147 16 19 10
107.372857630253 50.2323098480701 2678.99990081787 17 20 9
114.128232002258 49.9875098466873 2665.99988937378 17 20 9
121.950604021549 50.2113848924637 2677.99997329712 19 20 12
129.837974905968 50.4351928830147 2690.00005722046 16 17 9
138.300269842148 50.8463978767395 2711.99989318848 15 16 8
146.45229279995 51.1075407266617 2726.0000705719 13 14 6
152.817144989967 50.7499203085899 2707.00001716614 13 14 8
161.14903986454 51.0484054684639 2723.00004959106 12 15 8
172.415390610695 52.2091463208199 2785.00008583069 11 14 7
182.080194354057 52.8073757886887 2816.99991226196 10 13 6
186.664462089539 51.9433505833149 2770.99990844727 10 12 7
191.487744450569 51.2105412781239 2732.00011253357 10 12 7
200.320944190025 51.5648648142815 2750.99992752075 8 10 5
-124.713361263275 44.8392778635025 2799.00002479553 24 27 20
-117.116041481495 44.8562689125538 2799.99995231628 19 22 13
-109.278187155724 44.7770915925503 2795.00007629395 18 21 12
-101.830862462521 44.8580496013165 2799.99995231628 17 20 11
-93.5484990477562 44.5544421672821 2780.99989891052 16 19 10
-84.9367752671242 44.0264753997326 2747.99990653992 16 19 10
-77.8574347496033 44.2674607038498 2763.00001144409 13 16 7
-70.1868906617165 44.1879518330097 2757.99989700317 11 14 5
-62.8387033939362 44.3166717886925 2766.00003242493 13 16 7
-54.966863244772 44.0608039498329 2750 15 18 9
-47.768909484148 44.3496182560921 2767.99988746643 12 15 6
-40.3562635183334 44.5102117955685 2778.00011634827 13 16 9
-32.8416340053082 44.6066372096539 2783.99991989136 12 15 8
-25.2759791910648 44.670969247818 2788.00010681152 12 15 8
-17.5426565110683 44.3667136132717 2769.00005340576 11 14 7
-9.87697672098875 43.9021699130535 2740.00000953674 9 12 5
-2.37750029191375 43.5817651450634 2720.00002861023 10 13 6
5.01461653038859 43.2773195207119 2700.99997520447 10 13 6
12.7479089424014 44.5270203053951 2779.00004386902 12 15 8
20.3070640563965 44.4627963006496 2775.00009536743 12 15 8
27.1107498556376 43.2288609445095 2697.99995422363 12 15 8
34.0816490352154 42.7319146692753 2667.00005531311 16 19 12
42.0463234186172 43.4365831315517 2710.99996566772 12 15 8
49.3573546409607 43.3560982346535 2706.00008964539 11 14 7
56.8295978009701 43.4197522699833 2710.00003814697 11 14 7
63.9679431915283 43.243020772934 2698.99988174438 12 15 8
70.2794641256332 42.6016002893448 2658.99991989136 13 16 7
77.2179514169693 42.4247644841671 2648.00000190735 15 18 9
84.8614349961281 42.632382363081 2661.00001335144 15 18 9
92.9563641548157 43.0161580443382 2684.99994277954 15 18 9
100.434936583042 43.0794544517994 2688.99989128113 16 19 10
107.934929430485 43.1426949799061 2693.00007820129 16 19 8
114.899791777134 42.9976098239422 2684.00001525879 17 20 9
121.860601007938 42.8684949874878 2676.00011825562 15 16 8
129.501268267632 42.9796166718006 2683.00008773804 16 17 9
138.097509741783 43.3790124952793 2707.99994468689 16 17 9
146.077498793602 43.5540713369846 2719.00010108948 15 16 8
156.205654144287 44.3217307329178 2766.99995994568 12 15 8
163.103431463242 44.1442579030991 2756.00004196167 12 15 8
170.559614896774 44.1269017755985 2755.00011444092 8 11 4
180.724382400513 44.7821877896786 2796.0000038147 13 16 9
186.396643519402 44.316254556179 2766.99995994568 6 11 5
-124.045923352242 36.9984954595566 2783.99991989136 25 28 21
-116.322182118893 36.9594320654869 2780.99989891052 20 23 14
-109.591782093048 37.2525788843632 2802.99997329712 18 21 12
-102.340787649155 37.399485707283 2813.99989128113 17 20 11
-93.8183143734932 37.0678827166557 2789.00003433228 16 19 10
-85.153765976429 36.6165973246098 2755.00011444092 16 19 10
-77.7453035116196 36.6703160107136 2759.0000629425 13 16 7
-70.4419016838074 36.7904342710972 2767.99988746643 12 15 6
-62.9754886031151 36.8440523743629 2772.0000743866 14 17 8
-55.1471672952175 36.6716608405113 2759.0000629425 15 18 9
-47.8555597364903 36.8580967187881 2773.00000190735 12 15 6
-40.4001399874687 36.9647294282913 2780.99989891052 13 16 9
-32.9244621098042 37.0979011058807 2790.99988937378 11 14 7
-25.1583103090525 36.885429173708 2775.00009536743 11 14 7
-17.4604281783104 36.6330221295357 2756.00004196167 12 15 8
-9.88786574453115 36.4603139460087 2743.00003051758 12 15 8
-2.3976219817996 36.460354924202 2743.00003051758 11 14 7
12.5553393736482 36.3805368542671 2736.99998855591 13 16 9
20.2194005250931 36.7260202765465 2763.00001144409 12 15 8
27.7741570025682 36.7391481995583 2763.99993896484 10 13 6
35.0914560258389 36.4996828138828 2746.00005149841 14 17 10
41.3642190396786 35.4493595659733 2667.00005531311 14 17 10
48.938199877739 35.6617234647274 2683.00008773804 14 17 10
56.6412881016731 35.9006151556969 2700.99997520447 13 16 9
63.7551099061966 35.75399518013 2690.00005722046 14 17 10
70.623591542244 35.5142951011658 2671.99993133545 15 18 9
77.1018788218498 35.1416431367397 2644.00005340576 15 18 9
84.7026035189629 35.3005900979042 2655.99989891052 15 18 9
92.6108434796333 35.5525128543377 2674.99995231628 16 19 10
100.323632359505 35.6980636715889 2686.00010871887 16 19 10
108.577027916908 36.0030382871628 2709.00011062622 17 20 11
115.842461585999 35.9624139964581 2706.00008964539 17 20 9
122.225813567638 35.6692373752594 2684.00001525879 15 16 8
128.826454281807 35.469051450491 2668.99991035461 16 17 9
136.97661459446 35.6940813362598 2686.00010871887 16 17 9
145.809948444366 36.0652171075344 2713.99998664856 14 15 7
156.658440828323 36.8748046457767 2775.00009536743 12 15 8
164.643362164497 36.9667485356331 2782.00006484985 11 14 7
168.951198458672 36.2613946199417 2729.00009155273 15 18 11
174.972996115685 35.9679386019707 2707.00001716614 2 5 0
-124.581351876259 29.5245815068483 2796.0000038147 26 29 22
-115.737296640873 29.2189940810204 2766.99995994568 21 24 15
-108.61499607563 29.3357539921999 2778.00011634827 19 22 13
-101.504914462566 29.4735971838236 2790.99988937378 17 20 11
-94.0207242965698 29.5163653790951 2795.00007629395 16 19 10
-85.4633748531342 29.2000323534012 2765.00010490417 14 17 8
-77.7457654476166 29.1371047496796 2759.0000629425 14 17 8
-70.4932287335396 29.2536728084087 2769.99998092651 15 18 9
-62.8168433904648 29.2012300342321 2765.00010490417 16 19 10
-55.1674924790859 29.148742556572 2759.99999046326 16 19 10
-47.9076243937016 29.3179973959923 2776.00002288818 12 15 6
-40.5166074633598 29.4555313885212 2789.00003433228 13 16 9
-32.9010672867298 29.4557325541973 2789.00003433228 13 16 9
-25.1221992075443 29.265783727169 2770.99990844727 13 16 9
-17.4161866307259 29.0335454046726 2749.00007247925 14 17 10
-9.94199700653553 29.128672555089 2757.99989700317 13 16 9
-2.42735585197806 29.3293744325638 2776.99995040894 10 13 6
5.07780956104398 28.8857817649841 2734.99989509583 9 12 5
12.5967022031546 29.0019121021032 2746.00005149841 13 16 9
20.1609805226326 29.0968772023916 2755.00011444092 13 16 9
27.7642756700516 29.1812382638454 2763.00001144409 10 13 6
34.6443951129913 28.6318771541119 2710.99996566772 11 14 7
41.6126251220703 28.3359549939632 2683.00008773804 14 17 10
48.4277717769146 28.0399955809116 2654.99997138977 14 17 10
56.4319305121899 28.41991558671 2690.99998474121 13 16 9
64.1821175813675 28.5991262644529 2707.99994468689 13 16 9
70.703312754631 28.250252828002 2674.99995231628 13 16 7
77.685572206974 28.1336847692728 2664.00003433228 13 16 7
84.8944634199142 28.1121283769608 2661.99994087219 14 17 8
92.5421640276909 28.2278172671795 2673.00009727478 14 17 8
100.43628513813 28.396263718605 2688.99989128113 15 18 9
108.337186276913 28.5435449331999 2703.00006866455 15 18 9
116.356857120991 28.7013407796621 2717.99993515015 15 18 7
122.18102067709 28.3311195671558 2683.00008773804 17 18 10
129.696056246758 28.3726863563061 2687.00003623962 17 18 10
137.74237036705 28.5198017954826 2700.99997520447 17 18 10
145.434722304344 28.582401573658 2707.00001716614 13 16 7
153.44150364399 28.6977533251047 2717.99993515015 12 15 8
163.697436451912 29.2037110775709 2766.00003242493 11 14 7
169.323652982712 28.8755316287279 2734.99989509583 7 10 3
175.620406866074 28.6845881491899 2717.00000762939 15 20 13
-134.198561310768 22.2193896770477 2838.00005912781 31 34 27
-124.626480042934 21.8988992273808 2796.99993133545 25 28 21
-108.1463098526 21.6571036726236 2766.00003242493 18 21 12
-101.505398750305 21.8532681465149 2790.99988937378 16 19 10
-94.2902714014053 21.9476167112589 2802.99997329712 15 18 9
-86.3601416349411 21.8775048851967 2793.99991035461 14 17 8
-78.4787982702255 21.8073613941669 2785.00008583069 14 17 8
-70.2899694442749 21.6275602579117 2762.00008392334 16 19 10
-62.8171339631081 21.651316434145 2765.00010490417 16 19 10
-55.0678111612797 21.5732473880053 2755.00011444092 16 19 10
-47.7870516479015 21.68308198452 2769.00005340576 13 16 7
-40.3715260326862 21.761566400528 2779.00004386902 14 17 10
-32.7360667288303 21.7303894460201 2775.00009536743 15 18 11
-25.1132491976023 21.6913502663374 2769.99998092651 16 19 12
-17.5049640238285 21.6366201639175 2763.00001144409 14 17 10
-10.0177461281419 21.7619705945253 2779.00004386902 11 14 7
-2.42212251760066 21.699346601963 2770.99990844727 8 11 4
5.16509404405952 21.7854809015989 2782.00006484985 7 10 3
12.6151097938418 21.5348582714796 2750 13 16 9
20.2196203172207 21.6365940868855 2763.00001144409 14 17 10
27.493093162775 21.4250646531582 2736.00006103516 12 15 8
34.7467921674252 21.2918184697628 2719.00010108948 12 15 8
42.047094553709 21.2290175259113 2710.99996566772 14 17 10
49.1211265325546 21.087883040309 2693.00007820129 13 16 9
56.9354854524136 21.259943023324 2714.99991416931 13 16 9
64.7038444876671 21.3771592825651 2730.00001907349 12 15 8
71.020819246769 21.0401806980371 2687.00003623962 12 15 6
77.044390141964 20.6875205039978 2641.99995994568 15 18 9
85.9791710972786 21.110026165843 2696.00009918213 15 18 9
93.5119837522507 21.1488176137209 2700.99997520447 16 19 10
100.511454045773 21.0701320320368 2690.99998474121 16 19 10
108.738496899605 21.2419722229242 2713.00005912781 16 19 10
115.672446787357 21.1554020643234 2701.99990272522 17 20 9
122.819133102894 21.1157836019993 2697.00002670288 17 20 11
129.79319691658 21.0526492446661 2688.99989128113 17 20 11
138.762950897217 21.3026516139507 2720.99995613098 16 19 10
146.133840084076 21.2942603975534 2720.00002861023 13 16 7
151.409864425659 20.9961868822575 2681.99992179871 11 14 7
161.449238657951 21.355677396059 2727.9999256134 12 17 10
168.829172849655 21.3472042232752 2726.99999809265 8 13 6
-117.955088615417 14.3801588565111 2819.9999332428 21 24 15
-109.12412405014 14.2325703054667 2790.99988937378 18 21 12
-101.069308817387 14.1716497018933 2779.00004386902 16 19 10
-94.4924056529999 14.3248904496431 2809.00001525879 15 18 9
-86.9786068797112 14.3506238237023 2813.99989128113 16 19 10
-78.7326544523239 14.2488433048129 2793.99991035461 16 19 10
-71.0536763072014 14.2388390377164 2792.00005531311 16 19 10
-62.5901594758034 14.050317928195 2755.00011444092 15 18 9
-55.1279559731483 14.065770432353 2757.99989700317 15 18 9
-47.7354265749455 14.1067039221525 2766.00003242493 16 19 10
-40.3280779719353 14.1578204929829 2776.00002288818 18 21 14
-32.6418019831181 14.1120133921504 2766.99995994568 15 18 11
-25.0770673155785 14.1069898381829 2766.00003242493 14 17 10
-17.600055783987 14.1682475805283 2778.00011634827 12 15 8
-10.0321974605322 14.1937835142016 2782.99999237061 9 12 5
5.01658162102103 13.7806823477149 2701.99990272522 7 10 3
12.6151517033577 14.0254683792591 2750 14 17 10
20.1318673789501 14.0305245295167 2750.99992752075 17 20 13
27.4027455598116 13.9080584049225 2726.99999809265 12 15 8
34.7213484346867 13.8569762930274 2717.00000762939 11 14 7
42.3729419708252 13.9333782717586 2732.00011253357 15 18 11
49.4861006736755 13.836357742548 2713.00005912781 15 18 11
56.9985881447792 13.8617176562548 2717.99993515015 14 17 10
64.3485337495804 13.8462595641613 2714.99991416931 15 18 11
70.8888918161392 13.6777879670262 2681.99992179871 15 18 9
78.2985836267471 13.6928940191865 2684.99994277954 18 21 12
85.6286436319351 13.6926816776395 2684.99994277954 18 21 12
93.5469120740891 13.7791428714991 2701.99990272522 18 21 12
100.922651588917 13.7788914144039 2701.99990272522 19 22 13
108.177721500397 13.7633224949241 2698.99988174438 19 22 11
116.229362785816 13.8446222990751 2714.99991416931 19 22 11
123.730309307575 13.854512013495 2717.00000762939 18 21 12
131.096854805946 13.8490842655301 2716.00008010864 18 21 12
139.426365494728 13.9405177906156 2733.99996757507 17 20 11
145.11351287365 13.771889731288 2700.99997520447 13 16 7
152.878165245056 13.8071998953819 2707.99994468689 11 14 7
159.615114331245 13.7507142499089 2697.00002670288 8 13 6
-134.813979268074 6.75394106656313 2851.0000705719 26 29 22
-126.364886760712 6.71856198459864 2835.99996566772 27 30 21
-117.704354226589 6.66658859699965 2813.99989128113 21 24 15
-108.459651470184 6.57196063548326 2773.9999294281 19 22 13
-101.760506629944 6.62894733250141 2798.00009727478 17 20 11
-94.3580344319344 6.64564967155457 2805.0000667572 15 18 9
-86.5769535303116 6.6362819634378 2801.00011825562 16 19 10
-78.3382952213287 6.58662617206573 2779.99997138977 16 19 10
-70.1630860567093 6.53222249820828 2756.99996948242 15 18 9
-62.5902786850929 6.52756402269006 2755.00011444092 14 17 8
-55.0081320106983 6.52052694931626 2752.00009346008 16 19 10
-47.6319715380669 6.53954362496734 2759.99999046326 17 20 11
-40.1683561503887 6.55144499614835 2765.00010490417 19 22 15
-32.5946770608425 6.54674973338842 2763.00001144409 13 16 9
-25.0680521130562 6.5515236929059 2765.00010490417 11 14 7
-17.5684113055468 6.57050451263785 2773.00000190735 11 14 7
-10.0790783762932 6.62501901388168 2796.0000038147 10 13 6
-2.41951295174658 6.5586818382144 2767.99988746643 9 12 5
5.01659139990807 6.40229554846883 2701.99990272522 8 11 4
12.6518737524748 6.53497502207756 2757.99989700317 15 18 11
20.0514085590839 6.49230415001512 2740.00000953674 17 20 13
27.2922646254301 6.43540918827057 2716.00008010864 11 14 7
34.9131040275097 6.47328281775117 2732.00011253357 10 13 6
42.6056683063507 6.50877645239234 2746.99997901917 14 17 10
49.3949875235558 6.41631381586194 2707.99994468689 14 17 10
56.7260757088661 6.40914170071483 2704.99992370605 14 17 10
64.2301514744759 6.42091548070312 2710.00003814697 15 18 11
70.9683299064636 6.36160047724843 2684.99994277954 16 19 10
78.4445405006409 6.37335702776909 2690.00005722046 16 19 10
86.2347558140755 6.40642736107111 2703.9999961853 16 19 10
93.9279347658157 6.42764195799828 2713.00005912781 17 20 11
100.922845304012 6.40146341174841 2701.99990272522 17 20 11
107.73704200983 6.36817002668977 2687.99996376038 18 21 10
116.229578852654 6.43200147897005 2714.99991416931 18 21 10
124.641329050064 6.48397579789162 2736.99998855591 19 22 11
133.027851581573 6.52883155271411 2756.00004196167 18 21 12
140.905559062958 6.54525076970458 2763.00001144409 17 20 11
150.056585669518 6.61614304408431 2792.99998283386 15 18 9
152.822002768517 6.41224673017859 2707.00001716614 11 14 7
160.562336444855 6.4262724481523 2713.00005912781 3 8 1
-132.071405649185 -1.00878265220672 2792.99998283386 26 31 24
-126.097589731216 -1.02217006497085 2829.99992370605 32 35 26
-117.035165429115 -1.01063412148505 2798.00009727478 17 20 11
-109.632670879364 -1.01282214745879 2803.99990081787 19 22 13
-102.124251425266 -1.01428641937673 2808.00008773804 16 19 10
-94.3580865859985 -1.01322086993605 2805.0000667572 16 19 10
-86.1751735210419 -1.00709649268538 2788.00010681152 17 20 11
-77.7183994650841 -0.996274757198989 2757.99989700317 17 20 11
-69.5269033312798 -0.98689622245729 2732.00011253357 17 20 13
-62.5448673963547 -0.99449441768229 2753.00002098084 16 19 12
-55.3679466247559 -1.00064638536423 2769.99998092651 15 18 11
-47.7182939648628 -0.998849864117801 2765.00010490417 13 16 9
-40.0085709989071 -0.994884059764445 2753.99994850159 12 14 9
-32.4531272053719 -0.993806985206902 2750.99992752075 12 14 9
-25.1677911728621 -1.00284372456372 2776.00002288818 13 15 10
-17.7394784986973 -1.01151783019304 2799.99995231628 13 15 10
-10.0610610097647 -1.00826902780682 2790.99988937378 11 13 8
-2.43262574076653 -1.00538018159568 2782.99999237061 8 10 5
5.07043581455946 -0.986594473943114 2730.99994659424 9 11 6
12.601419351995 -0.992372981272638 2746.99997901917 14 16 11
20.0441032648087 -0.989480060525239 2739.00008201599 15 17 12
27.5032985955477 -0.988753046840429 2736.99998855591 13 15 10
35.1942665874958 -0.994888483546674 2753.99994850159 13 16 9
49.8510226607323 -0.987286563031375 2733.00004005432 16 17 9
57.3762059211731 -0.988360377959907 2736.00006103516 17 18 10
64.2775893211365 -0.979679403826594 2711.99989318848 15 16 8
71.6555789113045 -0.979305594228208 2710.99996566772 16 17 9
78.8820087909698 -0.977124436758459 2704.99992370605 16 19 8
86.3942578434944 -0.978554133325815 2709.00011062622 16 19 8
94.0318554639816 -0.981066026724875 2716.00008010864 17 20 9
101.072303950787 -0.977436080574989 2706.00008964539 17 20 9
108.057752251625 -0.973804853856564 2696.00009918213 16 19 8
116.101212799549 -0.979563454166055 2711.99989318848 16 19 8
125.23341178894 -0.993266701698303 2750 19 21 10
133.269250392914 -0.997216091491282 2760.99991798401 19 21 10
142.690539360046 -1.01055449340492 2798.00009727478 18 20 9
161.967694759369 -1.03614153340459 2868.99995803833 11 14 5
161.154240369797 -0.983385019935668 2723.00004959106 11 16 9
-126.364842057228 -8.76723323017359 2835.99996566772 28 31 22
-117.829792201519 -8.70868563652039 2816.99991226196 18 21 12
-109.319783747196 -8.64394288510084 2796.0000038147 20 23 14
-102.742433547974 -8.73376429080963 2825.00004768372 17 20 11
-94.4252759218216 -8.67826957255602 2806.99992179871 16 19 10
-86.0514640808105 -8.60730372369289 2783.99991989136 18 21 12
-78.0282989144325 -8.56105610728264 2769.00005340576 18 21 12
-70.1121762394905 -8.51788930594921 2755.00011444092 17 20 13
-63.544437289238 -8.64784978330135 2796.99993133545 15 18 11
-56.3673190772533 -8.71905777603388 2819.9999332428 13 16 9
-48.1324382126331 -8.62329173833132 2789.00003433228 10 13 6
-39.2966903746128 -8.36364086717367 2704.99992370605 13 15 10
-32.5710661709309 -8.53684544563293 2760.99991798401 12 14 9
-25.2674967050552 -8.61728191375732 2786.99994087219 13 15 10
-17.6000837236643 -8.58948845416307 2778.00011634827 13 15 10
-10.068261064589 -8.63588973879814 2792.99998283386 11 13 8
-2.4300015065819 -8.59570410102606 2779.99997138977 7 9 4
5.14840986579657 -8.57405830174685 2773.00000190735 7 9 4
12.6059958711267 -8.49674455821514 2747.99990653992 13 15 10
20.1758071780205 -8.52454546838999 2756.99996948242 14 16 11
27.7243480086327 -8.53069219738245 2759.0000629425 12 14 9
35.1942367851734 -8.51518288254738 2753.99994850159 13 16 9
42.1713776886463 -8.40690359473228 2719.00010108948 12 13 7
49.285527318716 -8.35426896810532 2701.99990272522 16 17 9
57.1035332977772 -8.41911509633064 2723.00004959106 17 18 10
65.2492791414261 -8.51177331060171 2753.00002098084 16 17 9
72.4220275878906 -8.4714712575078 2740.00000953674 17 18 10
79.056903719902 -8.38169082999229 2710.99996566772 18 21 10
86.1709266901016 -8.35373532027006 2701.99990272522 17 20 9
94.1010117530823 -8.40306002646685 2717.99993515015 16 19 8
101.371012628078 -8.39054025709629 2713.99998664856 16 19 8
108.739033341408 -8.38728528469801 2713.00005912781 16 19 8
116.27235263586 -8.39638244360685 2716.00008010864 18 21 10
123.867124319077 -8.40856041759253 2720.00002861023 20 22 11
132.593378424644 -8.4918262436986 2746.99997901917 19 21 10
139.12059366703 -8.43288004398346 2727.9999256134 21 23 12
151.883199810982 -8.7386816740036 2826.99990272522 17 20 11
154.515579342842 -8.46024509519339 2736.99998855591 7 10 3
-132.827594876289 -16.352528706193 2809.00001525879 32 37 30
-125.963538885117 -16.4576973766088 2826.99990272522 19 22 13
-116.407372057438 -16.2018984556198 2782.99999237061 19 22 13
-109.906025230885 -16.3652449846268 2811.00010871887 21 24 15
-102.996788918972 -16.4878200739622 2832.00001716614 20 23 14
-94.6268886327744 -16.3774937391281 2812.99996376038 17 20 11
-86.3294526934624 -16.2613186985254 2792.99998283386 19 22 13
-78.9016783237457 -16.3023192435503 2799.99995231628 19 22 13
-71.613498032093 -16.3840558379889 2813.99989128113 18 21 14
-63.97595256567 -16.3959003984928 2815.99998474121 14 17 10
-55.7275637984276 -16.2330511957407 2788.00010681152 13 16 9
-48.1150709092617 -16.2332057952881 2788.00010681152 12 15 8
-40.1537157595158 -16.0935930907726 2763.99993896484 14 16 11
-32.7597446739674 -16.1693971604109 2776.99995040894 13 15 10
-25.1133143901825 -16.1287244409323 2769.99998092651 13 15 10
-17.6507271826267 -16.2219535559416 2786.00001335144 12 14 9
-9.99614223837852 -16.1462984979153 2773.00000190735 10 12 7
-2.44660396128893 -16.2977073341608 2799.00002479553 9 11 6
5.17067778855562 -16.2161868065596 2785.00008583069 7 9 4
12.69312761724 -16.1113496869802 2766.99995994568 13 15 10
20.322123542428 -16.1695256829262 2776.99995040894 14 16 11
27.895113453269 -16.163632273674 2776.00002288818 12 14 9
35.0535847246647 -15.9713923931122 2743.00003051758 13 16 9
41.9851616024971 -15.7616641372442 2707.00001716614 14 15 7
49.5407842099667 -15.8139318227768 2716.00008010864 15 16 8
56.7469038069248 -15.7555509358644 2706.00008964539 17 18 10
64.5380988717079 -15.85434935987 2723.00004959106 17 18 10
72.4218636751175 -15.9531254321337 2740.00000953674 18 19 11
79.406663775444 -15.8539228141308 2723.00004959106 18 21 10
86.2983092665672 -15.7547015696764 2706.00008964539 18 21 10
94.1354259848595 -15.8301200717688 2719.00010108948 15 18 7
101.81899368763 -15.8705841749907 2726.0000705719 15 18 7
109.059423208237 -15.8411636948586 2720.99995613098 16 19 8
115.758374333382 -15.7418623566628 2703.9999961853 18 21 10
123.821303248405 -15.8288329839706 2719.00010108948 11 13 2
130.951955914497 -15.7935284078121 2713.00005912781 22 24 13
140.140220522881 -15.9968789666891 2747.99990653992 19 21 10
145.382046699524 -15.7519709318876 2706.00008964539 11 14 5
-138.191908597946 -23.6274749040604 2763.00001144409 8 13 6
-133.441835641861 -24.1325981914997 2822.00002670288 12 18 8
-125.116482377052 -24.0134336054325 2808.00008773804 18 21 12
-117.159865796566 -23.9540953189135 2801.00011825562 20 23 14
-108.693569898605 -23.7749889492989 2779.99997138977 21 24 15
-101.323440670967 -23.8267574459314 2786.00001335144 20 23 14
-94.7611108422279 -24.092311039567 2816.99991226196 18 21 12
-86.5454971790314 -23.9473097026348 2799.99995231628 15 18 9
-79.3804302811623 -24.0930635482073 2816.99991226196 14 17 8
-72.1222162246704 -24.238795042038 2834.00011062622 12 15 8
-63.9302805066109 -24.0680314600468 2813.99989128113 11 14 7
-55.4275363683701 -23.7176213413477 2773.00000190735 13 16 9
-47.5626364350319 -23.5724411904812 2756.00004196167 16 19 12
-40.6039208173752 -23.9062123000622 2795.00007629395 14 16 11
-32.8304059803486 -23.8037295639515 2782.99999237061 12 14 9
-25.2310819923878 -23.8038580864668 2782.99999237061 11 13 8
-17.5556298345327 -23.701312020421 2770.99990844727 11 13 8
-10.0645963102579 -23.8809939473867 2792.00005531311 9 11 6
-2.4334832560271 -23.8125920295715 2783.99991989136 6 8 3
5.20036416128278 -23.9579956978559 2801.00011825562 6 8 3
12.8261120989919 -23.9151883870363 2796.0000038147 9 11 6
20.2635042369366 -23.6841756850481 2769.00005340576 15 17 12
27.8548151254654 -23.7097311764956 2772.0000743866 13 15 10
34.682858735323 -23.2135020196438 2713.99998664856 14 17 10
42.8070276975632 -23.6067809164524 2759.99999046326 13 14 8
50.3978952765465 -23.6322376877069 2763.00001144409 14 15 7
57.0822171866894 -23.2813265174627 2721.99988365173 16 17 9
64.7037699818611 -23.3494844287634 2730.00001907349 20 21 13
72.3158717155457 -23.400504142046 2736.00006103516 19 20 12
79.6979814767838 -23.3745127916336 2733.00004005432 18 21 10
86.3936617970467 -23.1688898056746 2709.00011062622 18 21 10
93.7196165323257 -23.1513939797878 2707.00001716614 16 19 8
101.295709609985 -23.1937300413847 2711.99989318848 16 19 8
108.417727053165 -23.133410140872 2704.99992370605 18 21 10
115.929178893566 -23.1585800647736 2707.99994468689 18 21 10
123.183310031891 -23.1324080377817 2704.99992370605 16 17 9
131.241112947464 -23.2515819370747 2719.00010108948 15 16 8
-134.481459856033 -32.0850871503353 2844.00010108948 20 23 14
-126.497119665146 -32.0294164121151 2838.99998664856 19 22 13
-117.117449641228 -31.5901152789593 2799.99995231628 21 24 15
-108.927622437477 -31.4328074455261 2786.00001335144 21 24 15
-100.704669952393 -31.2416031956673 2769.00005340576 18 21 12
-92.8095802664757 -31.1293322592974 2759.0000629425 17 20 11
-85.8650729060173 -31.3442200422287 2778.00011634827 12 15 6
-79.2391374707222 -31.7283198237419 2812.00003623962 12 15 6
-72.1727535128593 -31.9995544850826 2835.99996566772 13 16 9
-63.8163685798645 -31.695295125246 2809.00001525879 14 17 10
-55.2473552525043 -31.1878733336926 2763.99993896484 15 18 11
-47.8730387985706 -31.3010104000568 2773.9999294281 15 18 11
-40.807094424963 -31.6961966454983 2809.00001525879 14 16 11
-33.1487506628037 -31.7076928913593 2809.99994277954 11 13 8
-25.3216158598661 -31.5160341560841 2792.99998283386 10 12 7
-17.7265964448452 -31.5725803375244 2798.00009727478 10 12 7
-10.0393127650023 -31.4259715378284 2785.00008583069 9 11 6
-2.43871542625129 -31.482420861721 2789.99996185303 7 9 4
5.22076012566686 -31.7306630313396 2812.00003623962 7 9 4
12.7388881519437 -31.3356705009937 2776.99995040894 9 11 6
20.204858854413 -31.1550330370665 2760.99991798401 15 17 12
27.3221004754305 -30.6809730827808 2719.00010108948 13 15 10
35.5133302509785 -31.3578248023987 2779.00004386902 15 18 11
43.0239476263523 -31.3011780381203 2773.9999294281 13 14 8
50.3976419568062 -31.1767887324095 2763.00001144409 14 15 7
57.8159056603909 -31.1087742447853 2756.99996948242 16 17 9
64.7982433438301 -30.8488998562098 2733.99996757507 20 21 13
72.6591199636459 -31.0177560895681 2749.00007247925 19 20 12
79.5809403061867 -30.7916533201933 2729.00009155273 18 21 10
86.4570140838623 -30.5880829691887 2710.99996566772 18 21 10
93.4075564146042 -30.4408874362707 2697.99995422363 18 21 10
100.9216979146 -30.4854642599821 2701.99990272522 18 21 10
109.01840031147 -30.6879468262196 2720.00002861023 18 21 10
116.570748388767 -30.7211503386498 2723.00004959106 18 21 10
123.865768313408 -30.686616897583 2720.00002861023 14 17 8
130.275085568428 -30.4489769041538 2698.99988174438 15 18 11
-142.141476273537 -39.8203022778034 2842.00000762939 52 53 45
-125.516071915627 -39.4719056785107 2816.99991226196 27 29 18
-116.572938859463 -39.0523932874203 2786.99994087219 33 34 26
-108.418643474579 -38.8570204377174 2773.00000190735 29 30 22
-100.885853171349 -38.8717725872993 2773.9999294281 15 16 8
-93.1789949536324 -38.8164110481739 2769.99998092651 12 13 5
-85.7099667191505 -38.8590879738331 2773.00000190735 16 17 9
-78.9850205183029 -39.280079305172 2802.99997329712 17 18 10
-71.8923509120941 -39.588924497366 2825.00004768372 17 18 12
-63.5206177830696 -39.1830019652843 2796.0000038147 18 19 13
-55.2070289850235 -38.7069508433342 2762.00008392334 17 18 12
-48.0453036725521 -39.0156321227551 2783.99991989136 17 18 12
-41.1409549415112 -39.6886393427849 2832.00001716614 10 12 7
-33.2782976329327 -39.5347438752651 2821.00009918213 10 12 7
-25.3486502915621 -39.1845926642418 2796.0000038147 10 12 7
-17.7138112485409 -39.184745401144 2796.0000038147 9 11 6
-10.0356405600905 -39.016667753458 2783.99991989136 9 11 6
-2.41684773936868 -38.7504398822784 2765.00010490417 7 9 4
5.12418383732438 -38.6803559958935 2759.99999046326 7 9 4
12.6011883839965 -38.4980998933315 2746.99997901917 12 14 9
19.7876077145338 -37.8953590989113 2703.9999961853 16 18 13
27.6334248483181 -38.539856672287 2750 17 19 14
35.2191776037216 -38.6237166821957 2756.00004196167 13 16 9
43.0546924471855 -38.9037281274796 2776.00002288818 14 15 9
49.7041828930378 -38.1886623799801 2724.99990463257 14 15 7
57.144470512867 -38.1882824003696 2724.99990463257 14 15 7
64.8926272988319 -38.370031863451 2737.99991607666 16 17 9
72.3414793610573 -38.3555293083191 2736.99998855591 18 19 11
79.8137113451958 -38.3549816906452 2736.99998855591 18 21 10
86.0418677330017 -37.8078706562519 2697.99995422363 17 20 9
93.0953621864319 -37.6811139285564 2688.99989128113 16 19 8
101.331911981106 -38.0167327821255 2713.00005912781 16 19 8
109.859369695187 -38.4083352982998 2740.9999370575 17 20 9
117.426186800003 -38.4355559945107 2743.00003051758 19 22 11
125.322222709656 -38.5608077049255 2752.00009346008 23 26 19
132.735893130302 -38.5318659245968 2750 13 16 9
-131.311431527138 -46.491663902998 2776.99995040894 32 33 25
-122.396148741245 -45.9904745221138 2746.99997901917 32 34 23
-115.066260099411 -46.0584573447704 2750.99992752075 26 27 19
-108.144104480743 -46.3105365633965 2766.00003242493 19 20 12
-100.521393120289 -46.2779365479946 2763.99993896484 13 14 6
-93.5482904314995 -46.5633980929852 2780.99989891052 14 15 7
-86.4201858639717 -46.815313398838 2796.0000038147 17 18 10
-78.9843946695328 -46.933226287365 2802.99997329712 18 19 11
-71.4082643389702 -46.9840988516808 2805.99999427795 18 19 13
-64.678743481636 -47.6711913943291 2846.99988365173 18 19 13
-55.9461489319801 -46.8679741024971 2799.00002479553 16 17 11
