ply
format ascii 1.0
comment KinectMotionCapture
element vertex 758
property float x
property float y
property float z
property uchar red
property uchar green
property uchar blue
end_header
17.2206024070798 801.931053629428 2697.32046905643 215 211 208
23.2192608924868 804.927476406404 2680.68710700082 220 212 209
26.2855881016879 807.102459075709 2666.86431566176 201 190 186
29.293924024461 809.272743804077 2652.99946140558 171 160 156
28.6953088684658 810.420882707249 2642.69044606618 167 158 153
29.4758253245839 811.972626014517 2630.91286926498 213 208 204
35.8543949429322 815.146059051539 2613.32047838298 209 205 202
44.2622264780699 818.922137723566 2593.49708540241 199 198 194
52.5767005366649 822.690713142656 2573.6059775893 197 197 195
56.6054400215759 825.235899765313 2558.01236686838 187 189 188
59.8706174461778 827.573055868026 2543.09951110536 195 197 196
58.2128594716069 828.488969579786 2533.25656089637 184 186 185
55.1392152095591 828.997693552318 2524.85521526316 190 190 190
94.4240701312911 779.902327906774 2923.62275343908 216 218 217
93.263114749532 780.693724006578 2915.37435195485 160 162 161
89.7343933953576 780.864691338766 2909.11206263421 132 134 133
79.1900394633687 779.181153599218 2908.87022224292 133 135 134
70.222774519868 777.911213738446 2907.30396348955 140 140 140
62.8201071097263 777.053978093685 2904.40334309404 161 161 161
56.9684642504256 776.608457434456 2900.15910565512 146 146 146
54.9625117029122 777.189527417279 2892.53241345528 162 162 162
49.0986781223182 776.743198405116 2888.27933460786 163 163 163
46.2940285154376 777.116925581484 2881.30734178464 170 170 172
40.4202156067139 776.670027107711 2877.04702582485 177 177 179
38.3480830471705 777.246243593928 2869.37233373802 191 191 193
34.7368577746927 777.411861066089 2863.04991399117 196 196 198
31.8678687916081 777.780774728627 2856.03155027669 207 207 209
29.7346135986545 778.3524175763 2848.31223144507 208 208 210
25.3234583937325 778.310433850846 2842.64420498407 209 209 211
23.9009473644023 779.082911291222 2834.2061004023 212 212 214
20.2093971983008 779.242350142174 2827.82542012991 213 213 215
20.229420693302 780.418082257004 2817.96500891607 215 215 217
14.2703239017461 779.964603428593 2813.64283551878 217 217 219
10.5325988748772 780.12036134468 2807.22866345973 223 223 223
5.30399461317854 779.869067613239 2802.20173268797 225 225 225
3.7516745444921 780.631278407394 2793.66976923775 228 228 230
0.704134338828322 780.986135277973 2786.52160425411 235 234 239
0.565797294689752 782.149217654491 2776.54633003245 236 237 241
-1.06794136270372 782.904822276578 2767.95501657113 239 240 244
0.908764928449823 784.668945815713 2755.81062242785 242 243 247
2.11092763154097 786.227185784884 2744.33873889633 233 234 238
5.43771462965736 788.387243081261 2730.70468481679 232 232 232
9.42754984281668 790.744320452023 2716.31695537778 228 226 227
14.7921285809183 793.499290516269 2700.45804348204 216 212 211
18.6527279973032 795.846137321475 2685.97657643609 216 211 208
19.5933991428738 797.383432533511 2674.31502600469 213 205 203
21.9134072074145 799.318982196797 2661.18533032128 171 161 160
23.4700435443527 801.049423489401 2648.7359534192 161 153 151
24.2695279340484 802.575280999652 2636.97199576119 218 214 211
29.2573195460784 805.300075209151 2620.83949551305 198 197 195
34.877058565848 808.21944008299 2603.93105633678 206 205 203
41.8233526008907 811.532952358308 2585.51589390004 202 202 200
47.2872138771718 814.439808884157 2568.49439226367 201 203 202
52.6752973961035 817.340466822748 2551.41792631676 195 195 195
55.9041564918314 819.636205718804 2536.47853283575 200 200 200
56.9935341311854 821.328565229003 2523.69053171729 196 196 196
116.037860673827 778.155669108452 2905.93385948878 201 203 202
114.036035622948 778.722495973626 2898.31008725514 205 207 206
101.866886599077 776.643352710099 2899.35876214235 147 149 148
88.9539095756238 774.363542883793 2901.1025349291 138 140 139
74.5279663863836 771.680776888026 2904.21755845994 129 129 129
66.3401888354183 770.625146285282 2901.98212116492 141 141 141
60.4798830824294 770.178864091238 2897.73159995216 152 152 152
58.4661602126513 770.745612899244 2890.09890786329 153 153 153
50.2919497969629 769.691260617208 2887.87331214912 155 155 155
46.7205331196299 769.851529792053 2881.57972341226 168 168 170
40.8467782595716 769.404456789424 2877.31944864917 178 178 180
38.775501231751 769.967001505757 2869.64530750534 191 191 193
35.1648294452511 770.12438929805 2863.32324730733 191 191 193
31.5402419511277 770.280679634741 2856.99109375706 200 200 202
27.9018765838663 770.43600316959 2850.64894743547 204 204 206
24.2495955089814 770.590229248837 2844.29670776163 209 209 211
21.3330136445133 770.944413982847 2837.24376834682 211 211 213
18.3981331790055 771.297176069916 2830.17755667962 211 211 213
16.9355099490254 772.049974425518 2821.71027422912 213 213 215
13.2165872131251 772.198951146552 2815.30969800397 215 215 217
9.48370392512121 772.346767035265 2808.89899559682 222 220 221
5.73690658001658 772.493455730179 2802.47820088328 223 222 220
3.44898651786263 773.039107126626 2794.64692501247 226 224 225
-0.330162970392678 773.183145065236 2788.20266411332 232 232 234
-0.462813849769539 774.324721874054 2778.23110850689 235 235 237
-2.09144495279112 775.064201586574 2769.64371042191 238 239 243
-3.74704535532033 775.801545870502 2761.03645642278 239 240 244
-5.42989612573552 776.536682570727 2752.40943686857 237 238 242
-1.35373817909135 778.862109155548 2738.08441878083 229 231 230
5.54451199924433 781.97834789272 2720.8684657269 230 230 230
10.924869585212 784.690733900885 2705.02048208105 216 214 215
14.0839251963953 786.801775001917 2691.26458766287 212 208 209
13.6124190529912 787.916120217057 2681.04754518764 216 210 212
15.9541288937683 789.82043902188 2667.93312891748 188 182 184
18.2419924671127 791.720406036907 2654.77995077327 181 177 178
19.7685263872138 793.418118583733 2642.30858620926 215 214 212
22.6570041405911 795.507239860712 2628.35643309931 198 196 197
27.5976607061272 798.18431425999 2612.18981641683 207 207 207
35.2723577005958 801.645296250499 2593.06810468723 201 201 201
41.4596833025733 804.704609708874 2575.33679337527 204 204 204
46.1733193047325 807.363461783782 2559.00521786485 198 198 198
51.5101268686835 810.213365622323 2541.89132380437 201 201 201
53.3089576580421 812.073525938176 2528.38313925277 201 201 201
50.9123860089904 812.749838001108 2519.23872472071 193 195 194
134.817445928548 776.609545937469 2881.25096439909 208 210 209
117.126281715053 773.142626525187 2886.93542862835 161 163 162
98.7217598590919 769.480227332459 2893.33710564137 141 143 142
83.4915799892477 766.62476009541 2897.10357717956 135 135 135
73.7314905284112 765.174987245956 2896.1964142765 133 133 133
67.0795857011495 764.52697645864 2892.60635531236 144 144 144
61.9708717406016 764.279151949959 2887.66635315079 150 150 150
54.5548395761415 763.431896575237 2884.75638938873 158 158 158
50.2078707146785 763.383541872812 2879.13456623062 173 173 175
45.8512307566865 763.334384190183 2873.50602269802 181 181 183
43.007008421486 763.683069169777 2866.50521591584 190 190 192
38.6271474651085 763.632299174479 2860.85983081927 192 192 194
34.2378936273686 763.580757892661 2855.2073382388 202 202 204
29.8390600325824 763.528510645878 2849.54819198918 205 205 207
25.4308302553876 763.475551588969 2843.88193616392 208 208 210
21.0131623045147 763.421857806642 2838.20883468362 210 210 212
17.3333753290779 763.56550182544 2831.83689627226 210 210 212
15.130755198566 764.104282159863 2824.06712686198 211 211 213
12.1620132298097 764.443248481724 2816.97629839016 212 212 214
9.91610862063075 764.978552162561 2809.17513352763 216 215 213
6.1696771309685 765.116906361719 2802.75456181464 219 215 212
4.61903975488109 765.846185271031 2794.2236513777 220 219 217
0.103735977718067 765.784522154094 2788.47973123702 225 225 225
-1.49225898787786 766.510116234437 2779.91562697407 229 229 229
-3.11550267083649 767.233472992879 2771.3317582019 232 233 235
-5.49384616756265 767.757968389478 2763.43482529433 229 230 234
-8.62059515154256 768.084014893331 2756.22938872372 236 237 239
-5.9781318268457 769.979361035572 2743.33294962414 230 231 233
-0.504275757213346 772.65532014375 2727.55256051503 232 232 234
7.77440002788232 776.10967976231 2708.8689468337 221 221 221
9.51262286795851 777.794261716551 2696.55126805344 225 223 226
11.2017710098615 779.475036946011 2684.19770021833 214 212 217
11.4165114565479 780.760630534574 2673.24396331906 213 210 217
14.4318735026072 782.824363796644 2659.38366274541 224 223 228
15.2650012400866 784.297803251844 2647.6438283604 204 204 206
19.582496622371 786.742593137405 2632.25903442258 213 213 215
20.3148109288249 788.207805836573 2620.44607655982 206 207 209
25.9122391603053 791.032043448413 2603.52098197865 206 208 207
30.7347577923043 793.655685038834 2587.26815946223 205 205 205
38.2739027536405 797.050851338969 2568.04814427856 206 206 206
45.7240955540907 800.438871265866 2548.76360957734 201 201 201
51.0073916971345 803.237780162871 2531.61066564642 200 200 200
51.3821041415579 804.673604916419 2519.53832570653 193 195 194
130.553976416704 768.013344029851 2885.52755163488 204 206 205
118.338654996083 765.974043400441 2886.54295697711 174 176 175
102.265168145391 762.948285480409 2890.93227136114 146 148 147
87.024370321334 760.124667809473 2894.69120704206 140 140 140
77.2548204837524 758.687630666231 2893.77725061886 128 128 128
70.5942391969909 758.041624974146 2890.18061758325 137 137 137
65.4768742580449 757.790302038799 2885.23462089962 149 149 149
58.8193693333969 757.144635182077 2881.64021970083 164 164 164
52.9309897870056 756.696168313403 2877.36933613031 174 174 174
47.805091536242 756.444363187985 2872.41715102444 179 179 179
41.1522484750293 755.79922335373 2868.82613197941 186 186 188
37.5382110781093 755.939699841514 2862.5015463195 191 191 193
33.1535104993015 755.88289199229 2856.85262229442 201 201 203
29.5139012258234 756.021416360517 2850.50948914758 202 202 204
25.8603280991951 756.158839372817 2844.15622772701 208 208 210
20.6928205600456 755.903872534354 2839.1738631453 209 209 211
17.7635941711687 756.234927709249 2832.11164028913 209 209 211
15.5617415339426 756.759879782156 2824.34235720824 209 209 211
13.3370662667271 757.283012839416 2816.55652030214 211 211 213
10.348423346827 757.609344228389 2809.45120120771 214 213 211
8.08027387205001 758.129025492191 2801.63412591377 215 214 212
7.26302806325219 759.036139772884 2792.40043634031 217 216 214
1.27209524479577 758.579424689281 2788.05516793544 223 223 223
-2.52244633231524 758.705397813059 2781.59965748075 226 226 226
-7.06111915744079 758.636076264452 2775.83875782701 230 231 233
-8.697503643182 759.341759690694 2767.24527348756 234 235 239
-11.8127544425426 759.657565582292 2760.04812032564 229 230 232
-10.6047762591308 761.133680845721 2748.58003658209 227 228 230
-7.27736649272615 763.186667932634 2734.94589162885 235 235 237
-1.85036440121 765.814979385702 2719.13129572632 220 220 220
3.50535328704904 768.437605622842 2703.26499544185 225 225 227
7.36010586511737 770.668564076363 2688.7789973777 216 215 220
8.30201701548727 772.12339379002 2677.11792814824 197 196 201
9.9093688521803 773.767083619168 2664.70517105802 205 204 209
10.7593494211269 775.214406186676 2652.97742136301 208 208 210
15.0944295017386 777.619457140244 2637.60517366277 205 206 208
16.5473097183448 779.250573301634 2625.08037311046 208 210 209
20.7573525661098 781.645554588702 2609.61743224685 209 211 210
24.2009423495766 783.843204270442 2594.83320478275 207 207 207
31.0679614920035 786.993944830999 2576.35974981372 211 211 211
37.1552601765912 789.946338723204 2558.55538528598 207 207 207
42.4696672632927 792.700988546309 2541.42477016112 201 201 201
47.0177819902586 795.258369168386 2524.97269077301 204 206 205
120.807411098648 758.080901009506 2894.46810826244 206 208 207
118.770577675622 758.604056908428 2886.81873651066 182 184 183
105.809769479607 756.393976604033 2888.52818865343 175 177 176
91.3350009421343 753.797109908594 2891.60825274424 149 149 147
80.0051023198423 751.983130469398 2892.03162463589 139 139 137
72.5656183957017 751.144520023983 2889.10470398101 139 139 137
67.4442170919369 750.890021908472 2884.15547069045 154 154 152
62.3176654195454 750.635176657856 2879.20279650646 160 160 158
57.1860070203201 750.37997744923 2874.24641855435 170 170 168
50.5227653664875 749.736594068966 2870.6478702444 177 177 175
43.1019984984151 748.899709017183 2867.73452672237 189 189 187
37.9662366236273 748.644286510527 2862.77487846518 191 191 191
34.33860408221 748.775367608054 2856.4406842824 199 199 199
31.4518770931556 749.098683256484 2849.40893646889 204 204 204
27.7944297146084 749.22748802086 2843.05282286729 207 207 207
23.3727665441896 749.162219230407 2837.3770610144 209 209 209
19.6896094545989 749.288941221465 2831.00229934494 210 210 210
18.2298207336533 749.992411709208 2822.53682183516 209 209 211
14.5121881461856 750.116400544272 2816.13705429757 208 208 210
10.7805950066138 750.239228547015 2809.72716057798 209 209 211
8.51320972407699 750.745141025693 2801.91056952169 210 210 212
7.69703015326328 751.633044431247 2792.67755558003 212 212 214
1.70596610241391 751.176079741095 2788.33219077769 218 218 220
-4.28586332528713 750.71896343116 2783.98627036935 221 221 223
-10.2785494693223 750.261598486202 2779.63972764967 226 226 228
-10.4466402576988 751.334167863735 2769.64213136063 228 228 230
-11.3769164732269 752.212678809087 2760.32635875161 230 230 232
-11.6150304258729 753.279585887771 2750.27826697278 230 230 232
-14.0537071400098 753.771342644648 2742.33713692365 230 230 232
-11.4797471817796 755.595211950169 2729.39067622752 227 227 229
-6.80811970437722 757.986045274886 2714.26262137941 226 226 228
2.08659936570355 761.513203384762 2694.79062825487 217 219 218
4.47295488130095 763.322064228028 2681.7083875508 211 213 212
3.96363102475039 764.367019793407 2671.46328425897 205 207 206
5.54307271657617 765.978128603348 2659.03012947982 210 212 211
8.48559565124152 767.964417866377 2645.11663401073 214 216 215
12.0739150564391 770.135376988378 2630.43718894516 212 214 213
14.8979568024497 772.111978338064 2616.43775486272 210 212 211
19.063046610925 774.462094695135 2600.94199933187 209 211 210
23.8584590547966 776.995537742242 2584.66907008779 210 212 211
29.2775401482954 779.711947663775 2567.61414169168 208 210 209
35.31364910984 782.61072673855 2549.77239707164 205 207 206
40.5789566933836 785.31461954703 2532.60593157482 204 206 205
125.450494026073 752.773879862277 2881.75073744581 185 187 186
115.586373608999 751.356424627143 2880.76832397752 177 179 178
94.0938260523447 747.057186675959 2889.86864053834 159 159 157
79.6584833782257 744.4932364632 2892.97745200735 146 146 144
71.448788529076 743.468271206524 2890.72628172117 142 142 140
65.5618781063216 743.019475274634 2886.45646148295 151 151 149
62.7456535321391 743.336952335071 2879.47608727799 158 158 156
54.551554532464 742.313310259948 2877.2362294581 171 171 169
49.4238132355629 742.05550093335 2872.28267787629 177 177 175
42.0073202451032 741.224298826401 2869.37216688757 188 188 186
38.3942552866991 741.348125824295 2863.04820183613 191 191 191
34.7670383967738 741.470846588194 2856.71426662125 199 199 199
31.1261852170786 741.592571789798 2850.37014664915 202 202 202
26.7189377815393 741.522784813819 2844.7045177076 207 207 207
23.8026370942874 741.832692287354 2837.65155785111 208 208 208
20.8679913109928 742.141143475427 2830.58529186661 209 209 209
17.9151885100257 742.448143256105 2823.50556164383 210 210 212
13.4563800690293 742.374219493944 2817.80282855244 209 209 211
8.24667737844642 742.109998997283 2812.78953445635 208 208 210
6.72810709847393 742.792168844762 2804.28163152505 209 209 211
5.91954320774546 743.661362081121 2795.05404358171 210 210 212
1.404934549603 743.582817904969 2789.31054184175 216 216 218
-6.05036941481307 742.747794980799 2786.37217107356 219 219 221
-11.305838694629 742.479508417116 2781.3256792048 224 224 226
-12.9251240162156 743.153329633195 2772.74442902598 225 225 227
-13.8456180029758 744.013305923957 2763.43565388168 226 226 228
-16.9694334761108 744.306103666489 2756.23217546415 226 226 228
-20.8333666163085 744.409278952912 2749.72624610895 227 227 229
-18.9552332896017 746.014145642542 2737.50958765275 227 227 229
-13.5397398862154 748.553551995651 2721.68619853473 226 226 228
-6.76520619475074 751.462524111802 2704.37951091293 218 220 219
-0.783819614357251 754.177618025764 2687.73220309861 214 216 215
1.56815594411741 755.950655379284 2674.62485817688 209 211 210
4.5751009531827 757.906377003494 2660.75790881325 203 205 204
5.40494796755908 759.296895115215 2649.0152761491 209 211 210
7.59816079984876 761.057030687058 2635.7924809119 213 215 214
9.73762410359491 762.812722331934 2622.53069898502 212 214 213
11.8232187176681 764.564030498656 2609.23013876923 211 213 212
15.2502377565993 766.683287757218 2594.43320726868 209 211 210
20.0050662466005 769.169481961851 2578.13091300266 208 210 209
27.4610816324317 772.393249526234 2558.84947277023 203 205 204
34.1369121595934 775.424079846179 2540.23710820184 202 204 203
38.6622330240813 777.891551527596 2523.76804964986 207 209 208
137.601500931326 748.228556744733 2872.00921688598 190 192 191
124.587529365708 746.063159542964 2873.68035609628 180 182 181
104.621452996064 742.195324127554 2881.41906160055 173 175 172
87.0574036872114 738.90154456686 2887.19684560145 156 156 154
74.9655998691168 736.937161895969 2888.30217096398 150 150 148
68.299726748168 736.298494202274 2884.70173893324 152 152 150
61.637417598853 735.66018533222 2881.10418679614 159 159 157
55.7448260039952 735.210929162032 2876.83024582382 171 171 169
49.8514657312401 734.761580848454 2872.55574715377 175 175 173
45.4804052637709 734.688960142291 2866.91633656424 186 186 184
41.0996720492491 734.61556619412 2861.27020455434 189 189 189
36.709590797845 734.541464336148 2855.61699789028 195 195 195
33.0647703762255 734.654504012785 2849.26995798596 198 198 198
28.6534968406329 734.578834702989 2843.60138064338 204 204 204
24.9827819306443 734.689727251846 2837.23585287321 208 208 208
21.2983809348364 734.799650076282 2830.8601043785 207 207 207
17.6000177364015 734.908441806595 2824.47422865591 211 211 213
13.1437828813383 734.829010640867 2818.77303883878 210 210 212
7.19462029307838 734.375171589316 2814.45806513287 207 207 209
4.20243200968828 734.667789099707 2807.35000516134 206 206 208
2.66657260689085 735.331998940238 2798.82918352793 206 206 208
0.368224080674384 735.807622176802 2790.98999313454 209 209 211
-5.61722372918405 735.35054489856 2786.64869909486 212 212 214
-10.8727670337885 735.079235275376 2781.60213825155 216 216 218
-14.6765939730216 735.179065059812 2775.13976421854 218 218 220
-15.5894241341707 736.020335081703 2765.83644999403 221 221 223
-19.4301945122231 736.117022676052 2759.34727895799 223 223 225
-20.3974723120477 736.95379221627 2750.00447168242 223 223 225
-17.7979809053277 738.713683066157 2737.07619521467 221 221 223
-12.3824191609441 741.209253353675 2721.25292807721 220 220 222
-7.0380276102584 743.699167191044 2705.37774501943 217 219 218
-2.47796368290354 745.998714904025 2690.16805851637 217 219 218
0.593374376228972 747.923956153844 2676.34763465985 217 219 218
5.02383009894869 750.213104130918 2661.04423420358 202 204 203
4.44221133976397 751.207843220147 2650.74646843762 201 203 202
5.23292949218268 752.56750019933 2638.97531410866 212 214 213
3.87251843191772 753.372003354399 2629.34735270711 215 217 216
5.27978200008139 754.908344612272 2616.78900361926 216 218 217
8.03308721770835 756.80752293605 2602.73789895491 211 213 212
13.5100056545836 759.43511925664 2585.72444822492 211 213 212
20.9908002119539 762.605940258663 2566.46099723499 205 207 206
30.4557055007506 766.318414597082 2544.93320967361 195 197 196
36.3742630211665 769.108754449726 2527.00540576218 199 201 200
132.03398266872 740.335567207131 2867.93322453262 182 184 183
114.376087798404 737.075318726122 2873.64314772478 180 182 179
96.0088400466796 733.633515768086 2880.07266841783 160 160 158
79.2560430804796 730.569981881704 2885.20467616544 151 151 149
68.7273517140596 729.001584696398 2884.97477311179 149 149 147
63.6013766349715 728.73809343116 2880.02247311883 159 159 157
57.7043688558794 728.288240525537 2875.74532773773 173 173 171
53.3342523833933 728.210030989429 2870.1068676388 177 177 175
46.6699141582541 727.574205983003 2866.50756268557 186 186 184
42.287466276778 727.495016978774 2860.85986384688 190 190 190
37.1381755587743 727.229875862021 2855.89065349286 195 195 195
34.2488175233946 727.519651675856 2848.85712296887 197 197 197
31.3410678969683 727.807937565707 2841.81025244127 202 202 202
26.9139277629002 727.725366965857 2836.13013810645 209 209 209
21.728627492271 727.457248929935 2831.13480858057 207 207 207
18.0306815958509 727.557650588422 2824.74919287176 210 210 212
14.3187237007547 727.656946990658 2818.35341396773 210 210 212
9.1092531732353 727.386800792182 2813.34025815675 207 207 209
4.63398357026357 727.300132423619 2807.6255274638 206 206 208
3.09890072283059 727.947736649357 2799.10518466124 205 205 207
1.53666214804149 728.593170830236 2790.56514510069 206 206 208
-3.71809561180658 728.319127244 2785.5194343445 208 208 210
-8.97809463192867 728.0445395696 2780.46992133097 212 212 214
-13.5145900418094 727.952542406599 2774.71048527555 213 213 215
-15.1550535431735 728.591430392684 2766.11370563855 215 215 217
-19.7197702468328 728.496948245178 2760.33409325509 217 217 219
-20.6836993999076 729.314681452444 2750.9933225852 217 217 219
-18.0804297675066 731.04188028123 2738.06791391938 216 216 218
-13.3777082825512 733.311552511503 2722.96149159908 216 216 218
-10.888405712995 735.029638224833 2709.95341961749 216 218 217
-5.59972526674168 737.471157009176 2694.03760526069 215 217 216
-1.09337851498581 739.725159671287 2678.78874733599 216 218 217
4.05485317843457 742.155449899859 2662.77106180609 207 209 208
2.06535771872129 742.765644198096 2653.92111611459 202 204 203
0.753001279586218 743.554772932997 2644.32791265896 208 210 209
-0.591078109810628 744.34124213942 2634.71169908866 214 216 215
1.53312606523581 746.02951183584 2621.4388084653 216 218 217
3.60369492129697 747.713366371072 2608.1267196139 212 214 213
9.79421549119497 750.476270384763 2590.39592855307 212 214 213
16.5976227784652 753.413033528003 2571.87557063192 205 207 206
27.4638394046991 757.424445596951 2548.89477000763 197 199 198
36.8408711612851 761.066771474239 2527.30292573165 192 194 193
39.2477120127679 762.901886671825 2513.000337162 197 199 196
127.014095026943 731.610346788572 2872.89585124826 185 187 186
118.69473086826 730.600782955633 2870.56525735038 178 180 177
98.7642208780306 726.833659310981 2878.33025580708 169 171 168
81.229955158717 723.623663629488 2884.13005494952 161 163 160
69.925289376692 721.887453617516 2884.57211258305 152 152 150
64.0290634796834 721.437454949708 2880.29553326665 157 157 155
61.1966678604587 721.720404413905 2873.30326143696 172 172 170
56.0541862774042 721.452827722261 2868.33897483352 175 175 173
47.8595787310265 720.453161462891 2866.0988697995 184 184 182
40.4370161980023 719.637210150608 2863.18403611812 188 188 188
34.5372192794318 719.187071549767 2858.90486738319 193 193 193
32.4123914628696 719.64879179346 2851.19139543393 194 194 194
30.2649689875998 720.108850490883 2843.46124124131 198 198 198
25.0915779766605 719.838769790869 2838.47453505065 212 212 212
19.9130353944077 719.568271756126 2833.48409226213 208 208 208
17.7149123788976 720.024282888176 2825.71716366417 207 207 209
16.2381848352378 720.660005763693 2817.2390636853 211 211 213
11.7662105532572 720.567988434252 2811.52669474732 208 208 210
4.32556345809942 719.750243479768 2808.59874209575 206 206 208
0.580765860007215 719.838246518526 2802.17909978708 204 204 206
-0.971742742048587 720.467830283178 2793.64603340592 202 202 204
-3.28492245958878 720.914411409962 2785.79594446141 203 203 205
-7.08277147609371 720.998027076461 2779.33782182445 206 206 208
-12.3523275391624 720.719618240423 2774.28136135159 203 203 205
-14.7207745720128 721.161562380394 2766.39088998647 200 200 202
-19.2852706662712 721.061362698451 2760.61140856703 200 200 202
-19.5261138681926 722.039677216459 2750.56059508136 202 202 204
-19.0830478420576 723.194756289849 2739.77142070856 210 210 212
-14.3739036160959 725.423735959666 2724.66974273147 213 213 215
-12.5938400754615 726.929896689263 2712.38119695226 214 216 215
-7.29632054980844 729.328140576101 2696.47186551389 215 217 216
-3.49230457936089 731.362603355275 2681.94779763375 214 216 215
1.66688624713984 733.749760562426 2665.93813261306 211 213 212
-0.312973880370215 734.344066905589 2657.09509130388 205 207 206
-0.206433529409189 735.471674542895 2646.0618231391 202 204 203
-2.2475215621871 736.060781767638 2637.17437008016 210 212 211
1.28535651205919 738.07305073652 2622.45393061369 215 217 216
1.26591487540173 739.19018358067 2611.32928236061 211 213 212
6.07625191878514 741.548830407223 2595.06628689991 212 214 213
9.42792013517746 743.546240125263 2580.21440927524 204 206 205
22.3961864607567 748.023784709467 2555.05438602644 200 202 201
31.1049452748242 751.427294659155 2534.21221788924 186 188 187
41.776872554502 755.354530583951 2511.09014640253 190 192 189
124.330366115979 723.466919692567 2875.84955181723 190 194 193
109.023771872907 720.833692516479 2879.56175463523 185 187 184
91.4440550986768 717.660999049876 2885.32879428106 170 172 169
79.3398059168382 715.760519820934 2886.42542141734 167 169 166
67.2700787278799 713.862807386508 2887.54708829736 150 152 149
65.2250964661132 714.316687366864 2879.89145838229 154 156 153
60.858732147917 714.227420113835 2874.25536781354 170 170 168
56.4826020926619 714.137312341756 2868.61248807322 176 176 174
47.5256572845213 712.965401355984 2867.05391266477 183 183 181
41.6243827093443 712.51487420131 2862.77367077693 187 187 187
36.4798016883503 712.244170112927 2857.80784640524 194 194 194
32.0855545083334 712.152763524762 2852.15153211875 192 192 192
29.1878916480042 712.419641855906 2845.11186526966 196 196 196
24.0192333601259 712.146976882011 2840.12828236407 212 212 212
20.3425435756674 712.2322033813 2833.7582932763 212 212 212
17.398751146886 712.495364216478 2826.6848728117 208 208 210
15.9250613478035 713.114694530652 2818.20889192715 210 210 212
12.1976245281017 713.195839826046 2811.80209455843 208 208 210
5.49652956083913 712.561786746893 2808.17615283356 208 208 210
0.274399301161576 712.284561330063 2803.15407833195 206 206 208
-2.74612884392633 712.541356356901 2796.02499826491 201 201 203
-3.58517564851923 713.330652152791 2786.77490791049 200 200 202
-6.64936398118066 713.583860832086 2779.61445395319 201 201 203
-9.73198874936876 713.835516210679 2772.44062716254 198 198 200
-11.3795719368306 714.440609861542 2763.83851513818 198 198 200
-16.6772609633816 714.156725647602 2758.76163274584 199 199 201
-19.8129574738637 714.403832289558 2751.54901559933 201 201 203
-22.9672735466737 714.649291538154 2744.32318686738 205 205 207
-19.678443811997 716.484643043789 2730.65997205868 207 207 209
-16.4477514508505 718.315314645709 2716.95458852256 209 211 210
-8.99402240010017 721.200269171614 2698.90540030544 211 213 212
-4.47004704340959 723.373223610451 2683.66891120745 214 216 215
-0.722321990469954 725.36460179511 2669.10411308496 213 215 214
-2.69257415958579 725.94307770943 2660.26795660561 211 213 212
-1.87128052214236 727.222376844123 2648.51856006994 201 203 202
-1.79744901693324 728.322391657301 2637.46144080174 203 205 204
0.336899607216168 729.94542602116 2624.19527919919 207 209 208
-0.375155864116294 730.862785183117 2613.80285960937 213 215 214
2.35625982176879 732.652711087173 2599.73533337127 212 214 213
7.80435763677811 735.137783753625 2582.70026804702 205 207 206
22.1662982717472 739.889013418524 2556.08186205807 197 199 198
32.9485918772412 743.75648485908 2533.03949475738 193 195 194
43.6195966508568 747.615040637226 2509.91670112488 189 191 188
121.644943537536 715.344515059562 2878.80242557044 202 206 205
106.345597079391 712.744425055786 2882.5197558317 187 192 188
88.7723017883486 709.612877595267 2888.29165896036 173 175 172
75.9026410083052 707.556334133564 2890.06766902751 170 172 169
66.9258067615943 706.393456638935 2888.49501557401 154 156 153
62.5781077409413 706.299876461188 2882.87243403198 153 155 152
58.9872541226057 706.383383435624 2876.56436622611 170 170 168
55.3825296411263 706.465856331176 2870.24623789771 175 175 173
49.4776059090896 706.014854322655 2865.96334825295 183 183 181
44.3317488756723 705.74099992846 2860.9965829157 187 187 187
37.6654989063261 705.112607513963 2857.39592974584 194 194 194
30.2472324941663 704.307350273787 2854.48455905876 193 193 193
25.8503155414491 704.210021869909 2848.82627940191 196 196 196
21.4435863566709 704.111819308459 2843.16117669787 210 210 210
20.0230106010872 704.718724184246 2834.72363637967 213 213 213
16.3352716786043 704.794681087627 2828.34529610659 208 208 210
17.1004301502382 705.926206130754 2817.78949411552 208 208 210
14.8558455353136 706.35068283941 2809.98901926155 209 209 211
9.62823289450476 706.070194970875 2804.96265946288 209 209 211
3.65736794719229 705.613522397535 2800.63193890139 207 207 209
-0.843045829672651 705.507610851695 2794.89888318969 200 200 202
-3.15243057411507 705.926678309274 2787.05111146299 198 198 200
-5.48482107534842 706.343832658546 2779.18694715896 199 199 201
-10.0272604972684 706.234326976951 2773.42311347827 198 198 200
-12.398834854817 706.648187509241 2765.53052727675 198 198 200
-17.6918874493597 706.361711220772 2760.45669832653 199 199 201
-21.5452795880471 706.42353144044 2753.95820089671 201 201 203
-23.9723010866615 706.832601416864 2746.02539561422 205 205 207
-21.395192783332 708.458585410362 2733.08021489253 207 207 209
-18.8720702324447 710.0801166985 2720.09617066996 208 210 209
-10.692650991861 713.087696364768 2701.33804629572 210 212 211
-9.00605138827038 714.525625987174 2688.98169538694 212 214 213
-4.53157101832469 716.653298162179 2673.70939143021 212 214 213
-7.19492855457027 717.042943078314 2665.6048682416 210 212 211
-4.94693811745739 718.642175238499 2652.42096745165 204 206 205
-3.45555706935086 720.064080877418 2639.92301728119 204 206 205
-2.01352188465509 721.481929207265 2627.38927469019 205 207 206
-2.01738131638574 722.550527913828 2616.27567647502 208 210 209
-4.15002900121397 723.09843265816 2607.32164117165 209 211 210
2.01634702955245 725.710897800628 2589.57287969362 207 209 208
17.7860954061266 730.725924419573 2561.50599202882 197 199 198
32.0347612265057 735.385859687231 2534.80500828524 187 189 188
43.4012166754072 739.348201548928 2510.95155627966 186 188 185
129.875565985495 709.708538996616 2872.3888879032 207 211 210
108.331327340634 705.731653671126 2881.45365974766 191 196 192
95.4040310113258 703.694936051392 2883.18798899694 175 177 174
80.1956347755159 701.134486048512 2886.97174627678 172 174 171
70.4365009797083 699.806040691517 2886.06589070336 157 159 156
63.7736413967067 699.180263303294 2882.46800301955 154 156 153
57.8812536572628 698.729948258995 2878.19420446297 168 168 166
52.752602339265 698.454460298588 2873.23960916466 173 173 171
49.1430966456474 698.528192086886 2866.91826503514 182 182 180
44.7598345546925 698.426204600927 2861.26986047982 185 185 185
39.6089412062315 698.148984890195 2856.29942716432 192 192 192
32.1861828848506 697.348760212175 2853.38453121029 194 194 194
27.0315839813877 697.071210438255 2848.41140998706 195 195 195
22.6231401296548 696.967212820746 2842.74474045423 199 199 199
20.4520791508713 697.383605967318 2834.99752350833 212 212 212
17.5115479292791 697.624697168144 2827.9266498524 209 209 211
16.0419131577698 698.211048807804 2819.45344150038 206 206 208
14.5450712123316 698.795285978675 2810.96049937716 210 210 212
10.8001724939784 698.858098807461 2804.54065617087 210 210 212
7.77923824346516 699.092676466265 2797.41146365101 208 208 210
3.26825432385247 698.980192728253 2791.67041765079 201 201 203
-2.7198734106002 698.521733341835 2787.32717387593 198 198 200
-7.24600381255436 698.407764081044 2781.57543481998 196 196 198
-10.3229724057525 698.637582871447 2774.40530322765 198 198 200
-12.6917040608143 699.037693641586 2766.51470811657 198 198 200
-16.5328657728732 699.092200271897 2760.02503973926 199 199 201
-21.1107389635785 698.973700318804 2754.23547380562 200 200 202
-23.5370411144329 699.368938133386 2746.30311993104 204 204 206
-23.8313091953883 700.276399902163 2736.21321872727 205 205 207
-22.0135884612036 701.694512324611 2723.9518199463 206 208 207
-16.6757984412422 703.963974380644 2708.07073466628 207 209 208
-13.544351362142 705.715032917302 2694.29300285133 208 210 209
-9.0522747402062 707.802757992937 2679.03325245326 210 212 211
-8.16339680946121 709.032418539593 2667.33259778488 211 213 212
-6.61433096524089 710.428726689544 2654.87604042084 209 211 210
-5.81757289697782 711.650805012359 2643.10856769276 206 208 207
-2.96384173267605 713.379156359389 2629.12939866803 202 204 203
-2.26367610927136 714.593200513587 2617.29186332064 201 203 202
-2.30485525145174 715.633723735306 2606.15136352008 204 206 205
1.77777479199515 717.688059610075 2590.59433295933 207 209 208
18.938075864618 722.954592444046 2561.06668728992 201 203 202
35.2579210674722 728.03998308911 2532.1638963326 180 182 181
47.9943204491042 732.268670432692 2506.83452727686 181 183 180
53.7539437924863 734.798865551805 2488.79048538133 191 193 190
113.428823329061 699.400171489864 2877.70606444091 196 201 197
99.7112562295688 697.213600900167 2880.10208161506 176 181 177
87.5836791445188 695.37617337802 2881.18211722579 171 176 172
76.2616921596044 693.714165953568 2881.61199420043 161 163 160
66.5074083141892 692.399506469624 2880.71001876473 156 158 155
58.3081060835036 691.431273470058 2878.46666966953 166 166 164
52.4149612198248 690.980658114991 2874.1923207363 171 171 169
48.0459765814274 690.874121727565 2868.55424316995 184 184 182
42.9069974442262 690.594850138149 2863.59243632729 186 186 186
37.7629115801907 690.315224590723 2858.62692571649 191 191 191
31.8579229170424 689.863649755813 2854.34398610031 194 194 194
28.9666829155268 690.097491899543 2847.30851350681 196 196 196
22.2997417069895 689.473803478647 2843.70767754658 195 195 195
17.8842036457065 689.363436000974 2838.03583300526 208 208 208
16.4470700303472 689.935811816122 2829.58611464464 210 210 212
17.9620583551214 691.188712132287 2818.33945847677 207 207 209
16.4617047121607 691.756056035872 2809.84388508134 209 209 211
12.7128437034525 691.810094125101 2803.42112508042 209 209 211
8.94973942373944 691.862928965095 2796.98832821072 209 209 211
5.17271988423884 691.914566411666 2790.54514333017 203 203 205
-2.28740621639845 691.115795312929 2787.60316603815 200 200 202
-8.27647210352911 690.656811847068 2783.25923952184 198 198 200
-11.3487631194462 690.875638734979 2776.09273760597 198 198 200
-14.4395387164165 691.092908421864 2768.91282793529 198 198 200
-17.5487764721991 691.308652596081 2761.71952692466 199 199 201
-22.1220685823271 691.184728611531 2755.9332544403 200 200 202
-23.8225832647485 691.735349416231 2747.29249532993 204 204 206
-24.8320061611915 692.452264037796 2737.9185290856 205 205 207
-25.1570087280948 693.334991757669 2727.80651699124 206 208 207
-21.9479635205357 695.056400703293 2714.08488753462 206 208 207
-18.0850881005568 696.94137322347 2699.60273092794 207 209 208
-12.1560701477126 699.32521692211 2682.91578213027 210 212 211
-11.2547829435439 700.528221371871 2671.22398819064 211 213 212
-8.2827838852455 702.230456807699 2657.33042180399 209 211 210
-6.77507540518985 703.593015306366 2644.84400713244 206 208 207
-3.21437262468249 705.45336947166 2630.14296891092 203 205 204
-3.90771635919229 706.305799012108 2619.7634905001 201 203 202
-4.63744370471186 707.155112201233 2609.35791552529 202 204 203
-1.93229549241547 708.835371279638 2595.27079195091 203 205 204
17.3223433951457 714.510057817638 2563.5580394733 205 207 206
39.8618564672049 721.004046283244 2528.05494022046 183 185 184
53.2766531227495 725.321467219379 2501.98276865023 181 183 180
58.3380870411463 727.635056807564 2484.66653381991 193 195 192
108.415166310151 690.818870849615 2882.67393685009 204 209 205
108.674521576832 691.726344550432 2872.98536908637 179 184 180
94.9744782367352 689.56822765705 2875.39423373125 173 178 174
83.6314240859544 687.923402961194 2875.80922017869 169 171 168
72.3185559774762 686.280953569217 2876.24580668676 161 163 160
61.0356376874024 684.640870702724 2876.70411644427 162 162 160
51.3122929612133 683.342030144891 2875.82435508533 167 167 165
45.4228701577684 682.891447471043 2871.55270451853 186 186 184
41.0531543240724 682.779007313132 2865.91436146637 187 187 187
38.190322692734 683.003869628972 2858.8997316991 188 188 188
33.0413869415027 682.720913381273 2853.9303939539 192 192 192
28.6408065244026 682.60603259171 2848.26966414426 198 198 198
21.2245129709285 681.816547824386 2845.35950903821 189 189 189
15.3148275030039 681.36420416111 2841.07316071375 196 196 196
13.8874321129938 681.920580869045 2832.63042076188 213 213 215
15.4127080069877 683.146712950429 2821.3910866861 211 211 213
13.1791484647978 683.530262142296 2813.59839683669 207 207 209
9.44168688967073 683.57671021911 2807.18386208355 208 208 210
5.69012362690691 683.621926286236 2800.75909847572 209 209 211
2.66070847457112 683.833293479082 2793.62364040356 205 205 207
-1.85517177756611 683.708822783383 2787.87898423109 201 201 203
-7.11259168140277 683.416520901607 2782.83125114805 197 197 199
-11.6456018377631 683.290483261182 2777.07416920556 198 198 200
-15.4609862621222 683.330170639574 2770.60311227178 198 198 200
-18.5653392410592 683.53501895412 2763.41329715045 198 198 200
-23.1341918539776 683.405699698566 2757.63051010128 199 199 201
-24.8294956410453 683.939984503741 2748.99344573509 203 203 205
-25.1148644955768 684.80386717014 2738.90977503373 204 204 206
-23.2873624704966 686.162072269999 2726.65516347687 205 207 206
-21.5092096098741 687.516279537178 2714.36475740772 206 208 207
-16.9323649987425 689.528295454323 2699.16577917522 207 209 208
-13.1323972050916 691.369587608965 2684.63809271505 208 210 209
-9.39506674115687 693.205805441348 2670.06497341539 208 210 209
-7.83626775156732 694.542202368385 2657.61516835398 209 211 210
-6.3270027037603 695.874537108281 2645.12972898231 206 208 207
-2.76426373833605 697.696461722647 2630.42997218145 202 204 203
-3.4566010900261 698.526837707798 2620.05111161341 197 199 198
-0.702347682785875 700.17540779696 2605.99942493183 196 198 197
0.604803130698883 701.49092095122 2593.36738343372 193 195 194
21.242730541958 707.391930286944 2560.18818496194 199 201 200
47.2272108995102 714.589153724307 2521.01050041435 188 190 189
59.2487632307508 718.498451443711 2496.39663681099 176 178 175
62.9240122941503 720.437398194702 2480.5437026152 191 193 190
118.18247505529 685.46257938657 2874.90571927343 207 211 210
112.985518489332 685.172696341138 2869.90182960625 180 185 181
102.367707789832 683.710483615578 2869.60815436839 173 178 174
87.146689661016 681.246652006158 2873.38295668282 171 173 170
74.2852828145999 679.288080366548 2875.16574092622 163 165 162
59.9285755108205 676.998630738338 2878.33294725293 158 158 156
51.7385572088904 676.046981951565 2876.09641227812 164 164 162
45.8491044156739 675.596068257229 2871.82473829441 184 184 182
43.7613398961712 675.977299059593 2864.13772662527 186 186 186
39.3759471928941 675.8579327515 2858.48768951645 184 184 184
34.2248268184973 675.571733076856 2853.51704613972 189 189 189
29.0684137372539 675.285044890117 2848.54256349244 199 199 199
23.1551770540457 674.832204435446 2844.25363829988 188 188 188
17.2410754018872 674.379264036735 2839.96408556664 192 192 192
13.5681642708527 674.42245779765 2833.59632832424 214 214 216
13.6069895130069 675.290707693128 2823.74769496308 212 212 214
12.1237947333892 675.825985119497 2815.26439797085 207 207 209
10.6132113035642 676.359024246221 2806.76152950117 208 208 210
6.85989714360868 676.395704465114 2800.33545339484 209 209 211
2.35622078535203 676.266576630385 2794.59962049617 204 204 206
-1.42308040514294 676.300942506635 2788.15469411422 200 200 202
-4.48455752049881 676.498331126117 2780.99592283659 196 196 198
-9.75384215149822 676.201961390731 2775.93956815514 198 198 200
-14.3007815316203 676.068970305857 2770.17235340051 198 198 200
-18.1321049287204 676.098703596497 2763.68969154582 198 198 200
-21.2543941102783 676.29080729753 2756.48680953446 199 199 201
-22.9533009343514 676.808101820179 2747.84704719072 202 202 204
-23.960772383268 677.48637092279 2738.47429984518 203 203 205
-22.1339044118829 678.81417479911 2726.21907466108 204 206 205
-21.0706627312955 679.97509608239 2714.64447181815 205 207 206
-16.4916284365899 681.945916796304 2699.44687227217 207 209 208
-14.8194503906836 683.261159191601 2687.07944543347 207 209 208
-14.6120030089012 684.247611757676 2676.11861195053 206 208 207
-11.6230674755946 685.879526658629 2662.23696698869 209 211 210
-7.28562908238528 687.830805282075 2646.86413043326 206 208 207
-3.01539238858717 689.776560561068 2631.44284443197 201 203 202
-2.30669863015676 690.908401045732 2619.61107493387 195 197 196
-1.64301598724714 692.036505512337 2607.74665699387 193 195 194
1.75357267010412 693.806196362728 2592.92618971454 190 192 191
20.3183399601263 699.117025520168 2561.94652821311 193 195 194
47.6946440188568 706.508344357647 2521.30842176554 187 189 188
59.0323065807365 710.183017213025 2497.43264008145 173 175 172
59.9691990292954 711.438294581623 2484.53159080976 188 190 187
107.985677431989 676.61258886976 2874.8798248484 180 184 183
105.120721758822 676.814725824287 2867.86354020944 183 187 186
92.206060606034 674.876334956181 2869.60782148923 172 176 175
79.3302549913286 672.940961973982 2871.37999078696 166 170 169
63.424054666851 670.351712467864 2875.89278574509 159 161 158
55.2248331894409 669.407293920569 2873.64961581455 159 161 158
50.0893840278787 669.119316854361 2868.69032383161 175 177 174
45.7096042329481 668.994669848182 2863.04432889206 189 191 190
40.5615874384986 668.705704535459 2858.07592135816 189 191 190
33.8959623343751 668.089580352221 2854.47578330744 182 184 183
30.2501909229758 668.126518983247 2848.12766854353 190 192 191
24.3346597597367 667.673193931029 2843.83707757885 192 194 193
19.1679674526521 667.382626077784 2838.85512365011 186 188 187
13.996032234771 667.091543874572 2833.86936641816 206 207 209
10.3094848636411 667.125119454299 2827.49167525632 213 214 216
8.09513841662746 667.482194913444 2819.71248481795 205 207 206
8.08054272680714 668.324052136328 2809.82528627607 207 209 208
5.81385714113569 668.676977157261 2802.00813305632 207 209 208
2.78770694487074 668.866115301541 2794.87492922598 206 208 207
-0.256975977973362 669.053692344469 2787.72828271934 206 208 207
-2.58788109363595 669.401295379647 2779.86454843488 194 196 195
-8.59133782191424 668.940190194119 2775.51017894377 197 199 198
-13.8681026361365 668.640048058265 2770.44838260991 197 199 198
-16.2481209029453 668.983413891683 2762.54931816882 196 198 197
-18.6509115558586 669.324834933762 2754.63344121128 197 199 198
-21.0768009555693 669.664275590492 2746.70110392521 201 203 202
-23.5254419696673 670.001832882439 2738.75196949169 201 203 202
-23.8470850683803 670.818367762299 2728.64205746774 202 204 203
-22.7757912844992 671.952279969311 2717.07315496003 203 205 204
-20.3248712055233 673.402461325538 2704.0356072265 205 207 206
-16.5075910223065 675.167966967578 2689.52008701337 206 208 207
-15.5844360712809 676.289788661315 2677.84373426345 204 206 205
-11.8834077650489 678.045866246465 2663.24359835177 202 204 203
-8.24522398809791 679.796773466535 2648.59817338774 202 204 203
-3.96839724663911 681.701779636584 2633.18145825037 201 203 202
-1.85569288782705 683.124442259958 2619.8985913356 192 194 193
1.59677777403777 684.860155287037 2605.11846200955 188 190 189
7.07072408732579 687.066754655596 2588.10042981416 186 188 187
24.9328629256187 692.119495413053 2557.84544179083 182 182 182
45.4008695897565 697.79309539012 2524.54191226994 181 181 181
58.8154005520831 701.87175851663 2498.46833873766 177 177 177
60.441748707353 703.254841632073 2484.83270135357 185 185 185
54.4940975653208 702.897781237676 2479.28427690106 189 189 189
111.262638079562 669.032489150656 2882.15740984999 207 211 212
109.969135642915 669.549169413378 2873.81153068711 179 183 182
105.552505604822 669.415871822471 2868.13907287996 181 185 184
93.4083579022222 667.663521324178 2869.2075270283 170 174 173
78.9895202226463 665.428792616201 2872.33026536894 170 174 173
63.8510162131807 663.036258506803 2876.16524506532 163 165 162
57.9470465783469 662.583750579692 2871.88303943821 156 158 155
52.8052179785741 662.292209773268 2866.91910481332 165 167 164
46.8974016532053 661.839300605602 2862.63410860579 189 191 190
40.230195189868 661.225527682962 2859.03283610363 186 188 187
33.5663700191984 660.611919553484 2855.43431008441 185 187 186
29.1689969889379 660.48011189278 2849.77552516298 186 188 187
23.2579150203969 660.026788812059 2845.48815952447 195 197 196
19.5955206957485 660.053897179971 2839.12794466378 189 191 190
14.4236575401804 659.759773880035 2834.14222426758 199 200 202
10.7375340731588 659.78484043515 2827.76479730299 210 211 213
7.03740025798361 659.808771995816 2821.37720818906 205 207 206
7.7695456779896 660.78835269133 2810.79670470426 206 208 207
6.24462613252641 661.286823281737 2802.28297410493 206 208 207
3.21900189245428 661.46474232517 2795.1500947245 207 209 208
-0.559506237444385 661.482205204657 2788.70565763209 207 209 208
-2.88770528241877 661.815998023546 2780.84410956157 197 199 198
-8.15887240462976 661.513371557852 2775.78606405347 195 197 196
-13.4355668070616 661.210218063472 2770.7243035095 199 201 200
-15.8149329928308 661.539656669971 2762.82564123172 199 201 200
-17.493631965257 662.025281076998 2754.20036757552 197 199 198
-20.642259087325 662.19263807707 2746.97826728208 199 201 200
-24.5284532197627 662.200660263621 2740.45571848932 202 204 203
-25.5612198401565 662.83791684936 2731.06413192065 202 204 203
-25.1967084701581 663.787277366614 2720.21726407316 203 205 204
-22.0227828517698 665.362456077388 2706.46943499189 205 207 206
-18.1968688960099 667.090036774768 2691.95998148741 206 208 207
-15.8495570894062 668.498696759936 2678.84711559219 204 206 205
-13.5560703306825 669.902966444044 2665.69520853334 200 202 201
-10.6127825549875 671.459401173597 2651.78009021588 200 202 201
-7.02638599047689 673.167458803482 2637.09690655475 198 200 199
-4.201797708828 674.714217806428 2623.09569143142 190 192 191
1.35259244459229 676.88050523044 2606.13606498158 186 188 187
11.0000138805284 679.976094054221 2584.7374626236 182 184 183
28.163884532618 684.776615586357 2555.21004417941 177 177 177
46.5576838027526 689.876290477822 2524.10537477374 175 175 175
57.2215499910271 693.253857574599 2500.97467544886 175 175 175
60.2280096184922 694.914933844943 2485.87084515574 184 184 184
57.0178183947339 695.175263684907 2477.36925555069 190 190 190
111.176651607638 662.314743442297 2873.41520435662 188 192 191
105.984043491267 662.01622122559 2868.41442321424 175 179 178
90.7508046910501 659.648841768077 2872.18085505233 169 173 172
80.1880133391886 658.239209866407 2871.92733084599 169 173 172
68.1155889451483 656.513919040667 2873.04821029095 161 163 160
60.6699250965024 655.742995159112 2870.11685804568 161 163 160
53.9952713245224 655.131048904309 2866.51049056 155 157 154
48.0853033051796 654.677696578266 2862.22393229891 173 175 174
42.1744686663628 654.224274046381 2857.93674545126 192 194 193
36.2628188546457 653.770725732585 2853.64896703026 188 190 189
31.859219884832 653.632588679362 2847.98563673276 184 186 185
