ply
format ascii 1.0
comment KinectMotionCapture
element vertex 790
property float x
property float y
property float z
property uchar red
property uchar green
property uchar blue
end_header
69.9421521931662 -128.7368932662 2879.93396115102 12 15 8
26.431084663022 -135.870266545208 2859.01284547261 9 12 5
-39.7234480912898 -147.564152099486 2822.99147505999 7 10 3
-43.608735821699 -146.508369643387 2829.52773550289 6 9 2
-1.50830274469316 -136.144424824757 2866.95917100447 12 15 8
-4.43187207033402 -134.935428742938 2873.93469526537 14 17 10
-9.86235697818172 -134.234244851002 2879.22361238318 13 16 9
9.11914620378163 -128.646297224114 2900.64221369821 12 15 8
-27.4698629486791 -134.177958732541 2885.36385680918 13 16 9
-43.9060995792699 -135.658967011663 2883.48300263413 13 16 9
-45.1357035040974 -134.113922277471 2891.560545002 13 16 9
-50.5924263426603 -133.408899958027 2896.87494945496 14 17 10
-26.2481485958781 -126.849878015325 2921.32684358126 14 17 10
-49.5558397421254 -129.660895687055 2915.13006990067 15 18 11
-50.7063196468533 -128.125781566205 2923.13050868722 16 19 12
-54.4081494917839 -127.092728852018 2929.48795218377 13 16 9
-55.5239776465788 -125.562012619254 2937.45463127633 13 16 9
-55.7583634463441 -123.867843047217 2945.93911390778 12 15 8
-64.5989430857963 -123.834312921638 2949.04500932675 14 17 10
98.2044937888587 -156.014781955619 2773.71387660426 9 12 5
93.5574041481941 -155.137225831528 2779.61571221987 13 16 9
95.3542766434623 -152.852370521587 2790.2468880379 13 16 9
134.301343940585 -142.489282935327 2827.97597043734 12 15 8
118.466102293323 -144.084946122579 2825.51526530486 11 14 7
96.095438053216 -147.075715052541 2818.41423937014 11 14 7
106.963226017879 -142.882582874704 2835.34283556748 12 15 8
104.876154191925 -141.494693357461 2842.87851223357 12 15 8
93.0067961603154 -142.202349476824 2843.43326341798 15 18 11
80.2890493179142 -143.080128626443 2843.43904986684 15 18 11
88.0474497914769 -139.604428321296 2857.89303697064 14 17 10
87.6454912918101 -137.873786910723 2866.53853124847 14 17 10
102.105064225182 -133.023800851923 2885.47166211365 15 18 11
103.43873333518 -130.957203200072 2895.17781696749 14 17 10
74.1620860505554 -135.294076093525 2883.79753763737 12 15 8
6.58892724446414 -147.561057985945 2846.43576861837 10 13 6
-24.6637937347867 -152.202307241368 2834.22892773668 6 9 2
-45.1940010013101 -154.589364065702 2829.46213822983 5 8 1
7.76809843946458 -141.835034079463 2874.17599092371 11 14 7
-5.18852536433112 -142.680710498903 2874.413903115 13 16 9
-3.06264921869692 -140.435650715189 2884.72425520604 13 16 9
-15.2105174969446 -141.105690017492 2885.55001143336 13 16 9
-28.2318599762195 -141.942660453608 2885.85124132757 13 16 9
-42.1327931478084 -142.945882804457 2885.63324258267 15 18 11
-42.5111642923612 -141.216875118279 2894.25521788995 16 19 12
-42.8652184795411 -139.490901782248 2902.8538324167 15 18 11
-52.5604636396788 -139.63746692304 2905.41813201599 14 17 10
-56.3009925737221 -138.593669879829 2911.81207843097 13 16 9
-71.1511665644844 -139.75387544311 2911.14298258439 14 17 10
-68.0418312335283 -137.355276425534 2921.87096145221 14 17 10
-58.8790546028215 -133.779068970208 2936.33277451828 15 18 11
-57.3991394342013 -131.729771103594 2945.89659961669 13 16 9
-56.7505559684656 -129.853030097233 2954.89420605427 14 17 10
-101.050420351595 -136.726687878011 2936.13490079194 17 20 13
102.935889114579 -164.479649532256 2768.84972551628 14 17 10
96.6820679078246 -163.956924860885 2773.5653567852 15 18 11
88.0166095632067 -163.970326917445 2776.50429072565 15 18 11
91.4093989449669 -161.301710570499 2788.32779640517 15 18 11
109.368369104838 -155.427055829133 2810.71941294064 14 17 10
108.839692313147 -153.664591692263 2819.48603697064 13 16 9
100.228309999722 -153.684176976903 2822.37218649114 13 16 9
92.4148592179503 -153.524062784178 2825.85632801856 11 14 7
93.5509020208007 -151.410880152426 2835.75184347716 12 15 8
75.1229520052221 -153.553455393 2831.69584149117 14 17 10
95.1006230389329 -147.37322309877 2854.87151262361 14 17 10
91.4083763196771 -146.331574922442 2861.21816952914 14 17 10
86.9023818496997 -145.467368682333 2866.98186866152 13 16 9
92.292369963042 -142.489681054589 2879.61060235365 16 19 12
101.038503664974 -138.814820773393 2894.47156716253 13 16 9
79.2102466193474 -141.647912197034 2888.22586535858 11 14 7
11.6510268516512 -154.118457393149 2850.88034123579 7 10 3
-32.0693770072982 -161.471856485349 2830.19961934554 6 9 2
-12.5865785957204 -155.509160504272 2852.48194876168 5 8 1
-26.4222545172155 -156.547823681811 2852.20438674147 10 13 6
2.43355903662312 -148.68662855576 2880.48593008109 13 16 9
-0.461977986895956 -147.464021204739 2887.43160611195 14 17 10
-39.5381220492466 -153.720990616743 2870.47880750931 14 17 10
-35.7426290582694 -151.101355947138 2881.90999986433 14 17 10
-36.1315291024575 -149.354360528086 2890.54010978752 16 19 12
-44.123854814909 -149.168792093439 2894.19811463952 16 19 12
-47.0302381554397 -147.944330898999 2901.15428722626 15 18 11
-54.1810082551266 -147.584724659842 2905.36780152053 13 16 9
-65.6050804414265 -148.086208497547 2906.86715226453 12 15 8
-63.3713966688485 -145.829722053567 2917.06876093292 13 16 9
-65.3880096744888 -144.437330770855 2924.53346774791 14 17 10
-57.0789476005595 -140.987175598889 2938.44475314379 14 17 10
-66.7889975132057 -141.144598593999 2941.02502102531 14 17 10
-68.7508474818381 -139.759214257697 2948.43638295862 14 17 10
-101.83254877028 -144.528478768745 2936.64775784241 15 18 11
98.2215206098487 -173.158476539424 2766.31175838379 21 24 17
117.586665119735 -166.816877028832 2790.0718274051 14 17 10
102.548925454823 -168.300097798334 2788.21981923437 13 16 9
87.4652885496103 -169.777254093791 2786.41215353314 13 16 9
101.379900418895 -164.728203404943 2805.85667928359 13 16 9
117.006059090381 -159.329367706864 2826.38407216397 12 15 8
99.4971434057028 -161.34861167422 2822.81413651097 12 15 8
76.2426039915507 -164.622836691893 2815.21579705841 11 14 7
94.4451592155811 -158.70021056154 2837.35843987398 12 15 8
104.59635752585 -154.590667276401 2853.59406527539 14 17 10
108.274690068283 -151.927561298662 2865.13483680541 14 17 10
83.2842087930343 -155.547521250837 2856.47759411975 14 17 10
66.4243174647385 -157.364359160477 2853.6498236353 13 16 9
77.5352221041485 -153.092857084501 2870.32541834397 16 19 12
66.4179096822322 -153.653799376052 2871.52894004071 13 16 9
-25.6195334123643 -169.726372796652 2826.43175253318 9 12 5
-26.1623677084661 -167.943578185469 2835.20943033912 5 8 1
-10.8363104285827 -162.789176819791 2854.65404630753 5 8 1
-18.8166984639304 -162.613368954732 2858.30163947762 8 11 4
2.97849828467234 -154.298702973912 2890.69330040821 15 18 11
-19.2551166307817 -157.131980734021 2884.85015250174 15 18 11
-27.2240285347936 -156.957236320293 2888.4865068814 16 19 12
-34.3581694210342 -156.604930456656 2892.6845871132 13 16 9
-30.4817001141653 -153.965503747858 2904.03244353475 14 17 10
-49.4959235066421 -156.072987848101 2900.55309538152 14 17 10
-60.9090283213662 -156.594252571119 2902.04447896962 13 16 9
-66.3753747111153 -155.886410149614 2907.36802294132 13 16 9
-64.1440398454005 -153.604921354604 2917.5679309304 13 16 9
-61.8769074482874 -151.328017413962 2927.73330692308 12 15 8
-96.514224087338 -156.55283380023 2914.72260473703 11 14 7
-83.0658910411834 -152.01102568648 2931.87096600536 13 16 9
-96.282517521975 -152.869638515644 2932.36931453615 14 17 10
-109.533240847996 -153.723880888954 2932.90053794483 11 14 7
97.5027412798881 -180.94481348084 2766.75942476573 23 24 18
128.879173348143 -171.75027901061 2799.42577411676 14 15 9
121.09476308168 -171.610263396656 2802.88404854435 12 15 8
122.152370114067 -169.443880086694 2812.84958884551 12 15 8
132.922922223775 -165.075632627794 2829.84885972216 14 17 10
119.511382262499 -166.22430124475 2829.16638317947 14 17 10
97.9555952359084 -169.201025821335 2822.67134353605 15 18 11
100.700224981956 -166.675692061983 2833.74274910154 15 18 11
69.2750628438286 -171.833528341661 2820.36624901663 15 18 11
104.67575169088 -162.00500841621 2854.61106207833 16 19 12
100.170000451703 -161.134876987734 2860.37364393866 15 18 11
88.2860186060905 -161.903771445106 2860.95196778617 14 17 10
91.1728647326626 -159.395983022872 2871.88474357662 14 17 10
90.8026147480006 -157.619436605035 2880.49196609028 15 17 12
60.7152703581111 -162.373031771023 2868.56140302216 14 16 11
13.9510072206996 -170.732769291447 2845.38403965927 13 15 10
11.814808682967 -169.303690277374 2852.96207424475 8 10 5
-8.60783011060295 -171.848927159563 2848.11218443957 5 7 2
-24.095972917185 -173.303276157875 2846.70282816953 4 6 1
-26.2564100023699 -171.870728707976 2854.30441935765 9 11 6
-19.184853323349 -168.462257159677 2868.03381740802 12 14 9
13.1366240263744 -159.674657576334 2898.40462046307 15 17 12
-7.38976523958579 -162.205871561727 2893.65568383266 15 17 12
-21.2364413862254 -163.295644983875 2893.39659927046 16 18 13
-10.6010230203006 -159.195075856909 2909.15271337517 13 16 9
-21.0773790662895 -159.567969410821 2911.10887171196 13 16 9
-35.8228374094054 -160.829387018874 2910.3507507753 12 15 8
-60.8257768715501 -164.22195744656 2903.0891804987 13 16 7
-62.0259600328898 -162.624630766339 2911.12978036471 14 17 8
-57.2195245131724 -159.78697474469 2922.94177770131 14 17 8
-69.508194607403 -160.501431626156 2923.91391711214 9 12 3
-114.470444266992 -167.939856862953 2904.47893328682 15 18 11
-126.031517833169 -168.460099452841 2906.11710096167 12 15 8
-112.594405898256 -163.857006934342 2923.26788499308 16 18 13
-131.070615962519 -165.788084175139 2920.64511811257 10 12 7
88.7946467891387 -190.610980920394 2761.24799278762 22 23 17
163.396864320327 -171.176481437477 2825.99588229325 9 10 4
154.090492957618 -171.428962179029 2828.18934090063 13 16 9
149.594185899275 -170.558281759228 2833.94246340911 14 17 10
137.842276689716 -171.366630560267 2834.39580635337 16 19 12
122.825421120444 -172.915951005656 2832.53249162819 16 19 12
120.73271351508 -171.482873771496 2840.06708598172 17 20 13
111.343252862895 -171.723700411346 2842.34133101069 18 21 14
115.781669683498 -168.808130947344 2854.50726078308 18 21 14
121.083868723317 -165.71326170872 2867.20585093208 17 20 13
130.529083749072 -161.699820714646 2882.7394848883 17 20 13
112.975333072504 -163.792489715185 2879.22492323286 15 18 11
110.164357725027 -162.556440903532 2886.08430378536 14 17 10
109.014485986528 -160.953263268404 2894.07441673816 12 14 9
89.7102493065076 -163.400833073639 2889.5164112676 11 13 8
9.89303718084811 -179.254344780008 2843.58792675975 10 12 7
28.497006240924 -173.225053381668 2865.31619462212 7 9 4
18.0967818242026 -173.624350652679 2867.20065558346 5 7 2
-21.5109622830356 -180.425880020658 2849.43965793183 5 7 2
-8.62104725495394 -175.693155199416 2867.11465698305 7 9 4
-17.4264498274859 -175.716676341788 2870.19371536505 9 11 6
6.50111703413714 -168.630201184481 2894.98145220566 11 13 8
3.63357715015677 -167.385471878236 2901.89605704777 13 15 10
0.778494253851569 -166.142254004394 2908.79851530601 16 18 13
2.16326339323558 -163.993025910794 2918.44171433207 16 19 12
0.19047648585202 -162.572855255084 2925.85913324641 15 18 11
-53.576459021496 -172.195866712302 2899.90285965154 14 17 10
-67.552578237613 -173.294973218296 2899.77369339656 13 16 7
-53.4103737623957 -168.432663241969 2917.60290720292 12 15 6
-83.6461322693758 -172.954894268727 2907.20243534602 12 15 6
-67.710502965256 -167.74271331155 2926.03319748485 10 13 4
-88.6152537248135 -170.27235888757 2921.65940975858 10 13 6
-116.475938827495 -174.22892126682 2913.06825295925 11 14 7
-122.001609571549 -173.512184815995 2918.4493923581 7 9 4
189.691776095028 -178.107023363547 2819.33014975904 20 21 16
145.370463405691 -186.760804368509 2795.18726930408 25 26 20
140.805701024057 -185.878869954718 2801.00670562515 17 18 12
119.427565242916 -188.986669840758 2794.35462854232 20 21 15
155.774781767343 -178.424436022736 2830.38490167067 17 20 13
149.672916515756 -177.930140661959 2834.95384026948 16 19 12
130.661126803874 -180.462667132315 2830.1179871944 18 21 14
121.287900212686 -180.718968779436 2832.37873660212 18 21 14
114.327627674068 -180.40659676016 2836.41006519925 19 22 15
121.173342217107 -176.889161773991 2850.34762308068 19 22 15
120.747887060988 -175.073151005816 2859.00349448994 19 22 15
123.61248616961 -172.508142804548 2869.95024268173 17 20 13
118.333249441137 -171.825303780733 2875.09167948505 16 19 12
117.156108824601 -170.20508311783 2883.1060140428 14 17 10
103.666298557235 -171.395511726623 2882.50743317966 13 16 9
89.3144920728606 -172.767824017053 2881.37480031365 13 15 10
38.5730004491411 -182.349864379815 2855.24231718561 11 13 8
73.7338780134644 -172.512458702286 2888.30670592613 9 11 6
39.3686670996871 -178.341128304737 2873.69780081434 6 8 3
4.03686507701195 -184.338200896627 2858.6567155331 5 7 2
12.7598956310098 -180.474735261953 2873.51274632053 5 7 2
7.34154706955303 -179.77250146316 2878.78945669118 8 10 5
5.27512145271647 -178.3294695053 2886.29648133778 10 12 7
7.42304453244724 -175.963724811793 2896.56676547839 11 13 8
16.3396543156158 -172.124793890366 2911.23453329152 13 15 10
10.1393728664916 -171.614641927771 2915.89885703051 17 19 14
7.31814030637157 -170.367111462412 2922.76706400538 17 20 13
-9.89613713630444 -172.248349253856 2920.3010602877 17 20 13
-69.1708528323249 -181.309798853998 2899.73143308489 16 19 10
-59.2991767539197 -177.300438815488 2914.84218807503 15 18 9
-68.1694637125765 -177.325021909271 2917.98617240957 14 17 8
-89.9102171109001 -180.088094054962 2913.06013868932 12 15 6
-100.033667524324 -178.480307455179 2924.29215376237 7 10 3
-102.071019754552 -177.040026642847 2931.77071472438 10 12 7
-90.2557081896691 -172.694808166612 2947.73592769124 16 18 15
160.354065470813 -192.590559125368 2798.17389150078 18 19 14
148.637545836368 -193.446947307436 2798.59919227334 25 26 20
104.934861321116 -202.016215028694 2775.2464231878 12 13 7
123.511818417165 -195.532807009017 2798.35130540917 14 15 9
128.559037670066 -192.335473191212 2811.28795003581 17 20 13
129.63402522536 -190.105396346646 2821.22715518619 17 20 13
155.747367469314 -181.929720020383 2849.35137641622 17 20 13
117.324712239899 -189.107075927475 2830.46877714643 18 21 14
114.407759808756 -187.84131620908 2837.42934109259 18 21 14
109.878246007781 -186.959373292558 2843.2137737953 16 19 12
109.425785881638 -185.12322401001 2851.89382291737 15 18 11
99.2009946877173 -185.578043266475 2853.6122822203 13 16 9
91.408765954494 -185.458506663394 2857.08134728981 13 16 9
95.9095069194613 -182.484955453313 2869.17681858878 12 15 8
87.3027978633263 -182.555946262509 2872.06592520979 12 15 8
31.7065218503894 -193.435630389841 2842.44397433854 14 16 11
13.0475352928148 -195.761102218887 2838.64442709 14 16 11
36.5549568727097 -188.431503054089 2863.81310294213 13 15 10
43.6004399249739 -184.897531617963 2877.5498436607 9 11 6
18.2618221867945 -188.72873376939 2869.26918929193 7 9 4
-13.8389623044493 -194.055035076863 2856.58882909073 6 8 3
-10.961783356068 -191.462822939049 2867.51872674374 7 9 4
-6.36967919187903 -188.499832972798 2879.52469614051 9 11 6
4.14723119457827 -184.229294987189 2895.37336909763 9 11 6
-14.7156382831937 -186.5273410007 2891.77188923724 10 12 7
0.943407054474488 -181.144192188296 2910.85203436907 12 14 9
-8.66263935676859 -181.380624140898 2913.34070272566 15 18 11
-22.5237703730925 -182.547829399834 2913.1074164544 17 20 13
-44.0662646882375 -185.387564983073 2907.99617719833 19 22 15
-67.3840141208979 -188.59012244767 2901.86692311324 20 23 14
-77.1313558333952 -188.807840903559 2904.49347178805 20 23 14
-79.2014177786524 -187.352307850211 2912.00192186407 20 23 14
-106.965883900262 -191.460684272904 2903.33731840148 11 14 5
-114.215075028952 -191.112626584953 2907.6502731033 17 20 13
-111.140406861068 -188.544986772687 2918.3876928209 12 15 8
-76.9647318270428 -179.335375879194 2948.27212423773 13 15 10
-57.3111956226189 -173.283517473583 2968.95482101649 25 27 26
126.915884490663 -210.328068544347 2764.5664714689 9 9 7
115.914223009327 -210.999503270847 2765.67148080563 13 14 9
135.966192365343 -204.028136085854 2790.07369037406 16 17 11
124.987571412033 -204.702062655226 2791.15618841915 17 18 12
117.185757264477 -204.590870608252 2794.63600526855 15 16 10
126.230823730603 -200.38050596516 2810.53788743044 15 18 11
125.69044261953 -198.517469199958 2819.30126943206 15 18 11
121.141216692358 -197.630400697435 2825.1048568501 15 18 11
131.959485877395 -193.050750670839 2842.02549875838 15 18 11
112.867039753498 -195.663465807554 2837.28125270063 15 18 11
98.5844660478215 -197.104329864267 2836.09000258304 14 17 10
85.8887658144387 -198.152376252967 2836.09872400483 13 16 9
74.7917768220829 -198.809021897167 2837.2962091493 12 15 8
64.486725701562 -199.269055009491 2839.09513835142 12 15 8
96.8104095871669 -189.697094834538 2870.76506929054 13 16 9
45.4539657927486 -199.794584332948 2843.90251659809 13 16 9
68.0494668986555 -192.551397791789 2868.57294323387 11 13 8
58.5623905603514 -192.817570019062 2870.94786814893 13 15 10
59.820624232966 -190.587006728653 2880.70503529945 14 16 11
48.6621005327943 -191.234538662177 2881.96227831598 11 13 8
49.123102167782 -189.199553639056 2891.1227678879 9 11 6
-12.0874777960598 -201.309820356021 2858.75565181359 7 9 4
-25.0850579420776 -202.316874581645 2859.05842366942 8 10 5
-18.0132055657563 -198.744995170188 2872.7630386352 10 12 7
-29.3530557864701 -199.368341216043 2874.19676690349 10 12 7
-33.98698125471 -198.467397636008 2880.0820736455 9 11 6
-32.7118346400983 -196.237993505036 2889.82261731786 10 12 7
-23.7964505174761 -192.306313974138 2904.47755618406 12 15 8
-24.1348576695177 -190.465997185275 2913.04373306122 15 18 11
-41.4345104771607 -192.410582832382 2910.67153328645 16 19 12
-51.126500972853 -192.648576659014 2913.24611407567 18 21 12
-45.4807038948277 -189.489464273154 2925.59401118431 18 21 12
-88.5221165144245 -197.072347529974 2907.10711509279 17 20 11
-106.023267001235 -198.990558207319 2904.93110728309 17 20 11
-114.988140796236 -199.023354981702 2908.17023172278 18 21 14
-102.446318845691 -194.364566767742 2924.78457298431 11 14 7
-155.806026567844 -202.103539762605 2909.48208202658 10 12 9
152.210570204573 -213.604164804424 2775.35811590624 23 23 23
156.337833149486 -210.519873907408 2787.80808912277 20 20 18
135.074079605763 -213.80393343621 2781.06847988553 21 22 17
109.748863139097 -218.070671280543 2771.42198052353 20 21 15
134.883710687973 -207.749077855848 2808.7028274309 16 17 11
138.35213413692 -204.88005262037 2820.42160701742 13 16 9
128.989457155586 -205.177563586644 2822.67763338399 13 16 9
125.254652033745 -204.091114844735 2829.05992990839 12 15 8
116.677142963442 -204.18804750811 2831.92387470653 12 15 8
100.790582845734 -206.054232506931 2829.55411257944 12 15 8
91.3537454465612 -206.341244482059 2831.8822295909 10 13 6
90.0422511782262 -204.662526421796 2840.02167126321 9 12 5
72.4247673683611 -206.90751353391 2836.59257225966 9 12 5
82.5703915793712 -202.487179970943 2852.7877981567 10 13 6
93.6107176114569 -197.880859636108 2869.48399247335 9 12 5
83.3543629778233 -198.362570000137 2871.23776923246 8 11 4
90.3809486031037 -194.744898231356 2884.98090450277 9 11 6
102.422417882571 -189.96598027331 2902.07434823953 9 11 6
54.9350046312109 -199.205546521595 2878.32821261393 9 11 6
69.4911186120226 -193.846639922694 2897.08992071631 10 12 7
54.1959800568739 -195.485685897224 2895.5162065039 8 10 5
29.6840992425924 -199.250515003841 2887.82202740096 9 11 6
-14.1364947851494 -207.455381527844 2867.36698018597 10 12 7
-42.2199129335397 -211.964458450586 2857.66107700015 11 13 8
-44.3804009406241 -210.4753959989 2865.25470370387 14 16 11
-45.6832173862485 -208.795636000412 2873.38503632994 15 17 12
-24.1931671032765 -201.919644186245 2896.37330671731 9 11 6
-59.2176588215483 -207.94347485991 2882.44792191144 10 13 6
-27.4403092005029 -198.77835424188 2911.88634508298 13 16 9
-34.5562418525245 -198.457752813393 2916.0713680127 14 17 10
-32.3163128858006 -196.029260271573 2926.24135268484 15 18 9
-50.5151765565097 -198.196267192776 2923.37804703933 15 18 9
-71.3360297436747 -200.928888225177 2918.95128530924 14 17 8
-85.3700287724073 -202.126252260518 2918.89411698374 10 13 4
-102.877557709723 -204.08080919351 2916.72981503041 18 21 14
-70.5100134975885 -194.99190356861 2945.59376863301 14 16 11
-127.698947691306 -205.688603818276 2918.9432152596 14 16 11
135.678738517086 -225.33632268744 2763.75135424468 23 23 23
134.214013736536 -223.626510167587 2772.03802249124 20 20 18
119.255927428471 -225.345020387605 2770.14135519571 20 21 16
121.783269664303 -222.629228833312 2781.40071873402 19 20 14
101.983410833703 -225.547100493975 2775.98713663476 14 15 9
105.522106381252 -220.526945473145 2797.23757769573 13 16 9
125.04695455119 -213.617530462066 2820.75513573875 14 17 10
124.528740307019 -211.724059248932 2829.49200751574 15 18 11
111.098502800997 -213.029763481258 2828.85130770676 16 19 12
104.1137948457 -212.734242452798 2832.90939160294 16 19 12
110.120572559436 -209.249327602602 2846.26758545982 16 19 12
103.967650946757 -208.756599090155 2850.88779320143 15 18 11
86.383928095815 -211.045954147497 2847.43206447152 14 17 10
81.0159618235868 -210.350012867976 2852.65967451578 14 17 10
69.9076390058977 -211.041865791154 2853.87328009482 13 16 9
74.3930886062842 -207.967908921375 2865.96909603221 12 15 8
81.028075606441 -202.430493132411 2888.31915094667 12 14 9
59.9849191905548 -205.488620018606 2882.74433991427 13 15 10
37.2090671466045 -208.931209482157 2876.11245033609 11 13 8
50.9511813747001 -203.706103899141 2894.28533864003 8 10 5
57.2800378000755 -200.260979662507 2907.32992245236 6 8 3
6.83923294094191 -210.167915054863 2882.36378158332 8 10 5
-37.9464262118554 -218.675606438388 2861.49456852607 11 13 8
-45.1346298957915 -218.351158770048 2865.75045134427 15 17 12
-38.0246670094371 -214.702218616274 2879.40617030814 16 18 13
-23.2653848873632 -209.303734552114 2897.96027991079 14 16 11
-11.7936039467397 -204.697259799542 2914.22801030231 15 18 11
-27.3560293913988 -206.332566178488 2912.91916321181 15 18 11
-38.7179127222352 -206.989370944592 2914.3797158684 15 18 11
-33.9344883779313 -203.952241415577 2926.18508154509 15 18 9
-39.3406154240616 -203.248983189031 2931.44950436038 14 17 8
-66.1209088021675 -207.389131417185 2923.22920799144 14 17 8
-64.7181447629905 -205.131824745782 2932.83890169138 10 13 4
-65.0013293070026 -203.265093288324 2941.34633762595 14 17 10
-119.490899506861 -213.559118273793 2916.20682646967 12 15 8
-118.985150125459 -211.490029426072 2925.31784033752 17 19 14
138.923425132992 -232.062719005805 2767.19146602098 23 23 23
127.158155493272 -232.99836478235 2767.67655266529 21 21 19
129.670839958993 -230.253675138381 2778.94586261898 19 20 15
112.302328409569 -232.61323772759 2775.2868025278 20 21 15
117.242090179155 -229.260861487443 2788.30723882158 16 17 11
99.8129247058759 -231.612145475212 2784.70684755774 14 15 9
96.7743875662435 -230.297711201035 2791.7809528387 13 16 9
111.449638859992 -224.519312400154 2811.77960222361 12 15 8
133.481605927697 -216.928830933735 2836.95795860961 14 17 10
125.732484109196 -216.846719230561 2840.38974925943 17 20 13
108.247584260936 -219.189545316441 2836.84379082165 20 23 16
120.762637378435 -214.052081131026 2854.83087514829 18 21 14
117.078061365333 -212.959787503713 2861.16242955368 16 19 12
104.423193321788 -214.084540109673 2861.14194115276 15 18 11
76.1889989493763 -219.027633449852 2850.23333694751 15 18 11
108.536083570166 -209.08561599749 2881.82533630667 14 17 10
85.1621754579868 -212.814833209962 2874.41277938354 13 16 9
76.535966856913 -212.924673454633 2877.32699127052 15 17 12
69.5468898788563 -212.632051317782 2881.38984212581 16 18 13
48.4770738939337 -215.737605947801 2875.8481763974 16 18 13
44.7607448240159 -214.639776153653 2882.21044381456 13 15 10
24.4180102149061 -217.531886680362 2877.33247574619 8 10 5
33.1854874487929 -213.443013878179 2892.11105524252 6 8 3
-11.4603614060735 -222.095277416755 2871.12403835203 7 9 4
-5.19597357179569 -218.603401308504 2884.22573052212 9 11 6
-32.4563833317626 -223.056367471715 2875.11152185427 13 15 10
-39.6222633307537 -222.73962847117 2879.34637626105 14 16 11
-23.1806951294113 -216.879610244194 2898.99589284795 16 18 13
-13.3999465541401 -212.614138725977 2914.15942486999 16 19 12
-28.1186195799328 -214.083453385617 2913.40509496871 15 18 11
-38.6330889756836 -214.561312616689 2915.41461430647 14 17 10
-43.2120029782883 -213.657646256361 2921.24522926615 14 17 8
-37.5499140573012 -210.394355375268 2933.56155079779 16 19 10
-38.6765374115892 -208.70909196709 2941.516107678 16 19 10
-92.399093929469 -217.101868849728 2925.25331570769 10 13 6
-99.6064792870901 -216.778953938011 2929.52847275218 14 17 10
-151.680988406881 -226.617138962536 2906.17480093222 12 14 9
108.947003418429 -247.478625727306 2745.39035202026 22 22 22
87.5933909994959 -250.912106138074 2738.76205831556 21 21 19
123.393120908488 -239.436566759838 2775.20100758344 20 21 16
150.63068784383 -230.260542370116 2804.89482470435 20 21 15
131.701014756309 -233.077537535646 2800.01947295629 18 19 13
96.0540573498263 -238.067665685703 2792.22773795386 14 17 10
120.381556879294 -229.753168535607 2819.27065326441 11 14 7
135.981981470219 -223.716672528085 2839.72935455195 10 13 6
129.047348014812 -223.437931152687 2843.74019375491 13 16 9
122.105991167041 -223.158001411802 2847.75787158796 16 19 12
126.530181034871 -220.011678907625 2859.90348589421 20 23 16
130.187739375986 -217.075698175664 2871.42489358573 19 22 15
106.137376819222 -221.086672126271 2863.30880013103 18 21 14
90.1802212855198 -223.046858053399 2861.02303359176 18 21 14
106.97722886637 -216.854147071916 2881.68733109435 17 20 13
92.6427156956309 -218.404337077809 2880.56381596092 16 19 12
66.7306607564315 -222.793136471834 2871.51809652095 17 19 14
62.1962530873188 -221.89379997434 2877.30481814339 14 16 11
69.2566044800897 -218.157788726814 2890.99693298415 13 15 10
40.6950795680299 -223.132489283023 2880.41770653434 11 13 8
4.5009659856996 -225.873057844851 2882.75586268628 9 11 6
-5.94893752374359 -226.375744809696 2884.70493667269 9 11 6
-7.18687089028069 -224.662751791583 2892.76626545828 10 12 7
-18.5014727919661 -225.363021306744 2894.1862910277 11 13 8
-33.2157532077053 -226.862285684678 2893.43202575499 14 16 11
-42.8998667159539 -227.153725301892 2896.00668384374 17 20 13
-37.3528573913395 -223.840250669116 2908.42986397919 19 22 15
-47.0393082383862 -224.13123516766 2911.00643797158 19 22 15
-43.9780474297251 -221.425303858187 2921.73673197219 19 22 13
-32.3471775651649 -216.730676995705 2937.83345586713 16 19 10
-29.187572155537 -214.037408945534 2948.46796384938 15 18 9
-24.2745553360724 -210.951456053892 2960.13742621082 20 23 14
-80.289566153894 -221.973792032369 2933.7865255496 14 17 10
-110.709740717733 -227.015405626184 2923.64594607991 15 18 11
-121.3995481177 -227.485709569456 2925.82879982159 13 15 10
44.9623509510637 -272.134262880966 2697.79438724797 14 14 14
103.534098079721 -254.403398524301 2751.78892543425 19 19 17
119.500440092903 -248.032936057685 2773.25181453315 19 20 15
153.10161366297 -237.069556203671 2807.69859390507 17 18 12
158.140009740166 -233.659176122003 2820.61251193086 20 21 15
104.965143521955 -243.338640624862 2799.74496146983 20 23 16
108.395133748789 -240.344251027642 2811.48371485813 18 21 14
123.159202681645 -234.441673122329 2831.37547555505 15 18 11
149.339319568947 -225.641384448597 2859.34107114495 14 17 10
112.462937295795 -233.054643816849 2841.79202287745 13 16 9
111.177704071322 -231.324100525676 2849.8977271985 14 17 10
127.826020430233 -225.039523308226 2870.69609949297 17 20 13
125.80768886982 -223.526235670986 2878.14464442985 17 20 13
100.08016194511 -228.006478754589 2868.92953912305 18 21 14
83.2770849551356 -230.204193952137 2866.1016446576 17 20 13
72.9966675646385 -230.745937983242 2867.88818903976 16 19 12
52.8067369007634 -233.754787345375 2862.8757383438 16 18 13
60.6277066092327 -229.764052371153 2877.19180921522 12 14 9
61.8890014966791 -227.424179940351 2886.92944284896 11 13 8
18.3755102129037 -236.163470046791 2866.24808779949 10 12 7
-17.8300957304582 -243.035973844965 2850.78718176094 9 11 6
-24.167395380688 -242.524394728811 2855.58769350845 8 10 5
-39.6990919767117 -244.260136420751 2854.26317651241 8 10 5
-23.451290004711 -238.23431312026 2874.08059991198 11 13 8
-14.6568947954915 -234.05622321459 2888.81926321196 14 16 11
-15.8920646218705 -232.329602972749 2896.8758336636 13 15 10
-25.5402965112266 -232.638938923862 2899.41716800271 9 11 6
-35.2067734032291 -232.945692996267 2901.9765761406 11 14 7
-64.3769807779746 -237.915070705356 2892.00099365974 13 16 9
-52.0480575004267 -232.944047148588 2908.78093604546 17 20 13
-54.9561031163344 -231.625529214878 2915.72451990924 18 21 12
-43.3509849454854 -226.87328668421 2931.83830004612 17 20 11
-43.6363233299066 -224.956661433462 2940.34050049519 16 19 10
-42.1838611256415 -222.639958217154 2949.89206439913 18 21 12
-63.0280008153123 -225.56166256143 2945.5160350992 13 16 9
-135.582983698863 -240.538191276351 2909.25103291791 13 16 9
93.3094224250621 -264.800733412199 2745.0577285652 17 17 15
141.837050741702 -249.648392948148 2790.98649526008 18 19 14
149.198666776292 -245.558028699769 2805.74398595695 15 16 10
146.240326814635 -244.229173522341 2812.73632285144 20 21 13
89.6519006727323 -257.07708150563 2780.13942855613 20 21 13
84.9833327634326 -256.156746682611 2786.05660757898 21 24 17
135.830824205112 -240.673064393513 2832.46656235522 23 26 19
152.653553245852 -232.130913632353 2862.67711280253 17 20 13
114.97598276836 -239.860358053306 2844.55347896067 14 17 10
107.198240837013 -239.797252875109 2848.01649896172 13 16 9
151.519757426052 -226.304682065976 2888.44826910199 12 15 8
144.660636101951 -226.044954175631 2892.38693382707 13 16 9
105.889108030338 -233.947000808685 2873.95821726168 14 17 10
80.8997953549957 -238.274440859377 2865.40404154664 15 18 11
70.6141185395057 -238.831161633321 2867.19836001361 14 17 10
72.2730051060845 -234.311443700658 2886.13803992731 12 14 9
56.1778422134678 -236.322104726627 2883.99677693313 13 15 10
32.5656080909891 -240.196296635651 2876.84230845816 13 15 10
-14.4173948481754 -249.870530050302 2854.07643887108 10 12 7
-42.4203828924226 -254.751828098153 2844.3460193646 8 10 5
-28.7505346343515 -249.267643385905 2862.55237706292 9 11 6
-25.0403495077078 -246.276455243991 2874.01302810537 9 11 6
-29.680570065544 -245.356096956629 2879.90205432114 10 12 7
-26.7440866337902 -242.579712405192 2890.74584114317 12 14 9
-33.0441635523808 -242.07475873917 2895.51003156456 16 18 13
-29.2045161421273 -239.099904413086 2906.84487661842 13 16 9
-54.1243684057897 -243.118465913145 2899.59332073258 13 16 9
-62.9998511626977 -243.225245195207 2902.75461313232 12 15 8
-71.8901696862177 -243.33017063966 2905.93002582924 12 15 6
-97.0008489003567 -247.323584447207 2898.8642471082 14 17 8
-96.5532870795323 -245.170028907876 2908.02055794374 15 18 9
-84.0823210205857 -240.160272542836 2924.65372505561 17 20 11
-105.879320558048 -243.321753104267 2919.84242917285 14 17 10
114.799239192974 -266.656128803132 2762.25184162163 0 1 0
146.889566382065 -253.642945729024 2804.98083819413 8 11 4
121.562877693093 -258.311635888527 2795.39520914728 13 15 4
92.1369820149667 -264.03889903241 2782.95172543229 16 18 7
161.224814518697 -239.280196749571 2860.89035968743 17 20 13
112.316096609362 -250.114126644856 2834.54018105353 16 19 12
102.903722843928 -250.483106493056 2836.8564579729 15 18 11
103.219564548898 -248.296434268761 2846.13867419909 11 14 7
129.617506990407 -239.312880865814 2873.86087934667 11 14 7
132.499825853731 -236.5043114145 2884.75369547171 12 15 8
127.241158260786 -235.820733718352 2889.87459764393 14 17 10
94.9231952252649 -242.124867875462 2876.13717505612 15 18 11
80.5607657365432 -243.759300646207 2875.05349444099 15 18 11
81.81052045218 -241.37437898411 2884.7962672212 13 16 9
69.0530679000121 -242.580342914233 2884.88964975206 12 15 8
60.4004916180725 -242.727989850236 2887.8356329484 13 16 9
30.1612693861752 -248.346322141115 2876.18369459197 15 18 11
-34.8311086317032 -260.58743576248 2850.42545548333 7 10 3
-26.1574575237131 -256.301513602317 2865.26808190063 10 13 6
-9.88007216940101 -250.138808590485 2885.03589750709 11 14 7
-27.9155927906065 -252.567648967624 2882.0490886692 11 14 7
-35.071046860033 -252.272139338008 2886.27706550755 11 14 7
-48.1362832580183 -253.436737079931 2886.66996804264 14 17 10
-49.402998511598 -251.678175774094 2894.75280485252 15 16 10
-31.1656696424065 -245.133077897621 2915.35200655445 15 16 10
-59.5167880402321 -250.040337157805 2905.97112269124 14 15 9
-87.1206364368398 -254.72633534474 2897.23239569785 14 15 7
-94.3542843717555 -254.420159018863 2901.53610582551 14 15 7
-114.417369389215 -257.221111547209 2897.78387778401 14 15 7
-114.839453347901 -255.25351717528 2906.41433539595 15 18 9
-60.2799055681666 -240.059771682597 2949.18101588612 13 16 9
-73.4399651824278 -241.211324528139 2949.66615124672 16 18 13
116.696727624876 -269.35463035945 2783.43834536173 15 18 11
133.62476642363 -262.568140519957 2805.30201383175 17 19 8
112.234792215633 -266.210150288349 2798.74064846911 14 16 5
125.276064858318 -260.523124971823 2817.54121129283 14 17 10
97.3801726580734 -265.887286082234 2806.35856382015 14 17 10
108.083505961317 -260.858841154452 2823.32700706772 13 16 9
100.27355306494 -260.807508402212 2826.82375299263 12 15 8
75.4370431355813 -265.28442787375 2818.14027272709 11 14 7
110.612163360734 -253.805314438222 2852.36478392291 10 13 6
138.65495570389 -244.288017625527 2881.20889823737 9 12 5
113.416152426916 -246.785465698964 2881.13412995315 11 14 7
111.405566582099 -245.239348948172 2888.57046899329 11 14 7
88.863272230093 -249.050128493589 2881.76107150769 10 13 6
78.5982312332321 -249.641074477857 2883.53961893086 12 15 8
72.4398559217647 -249.160366222129 2888.16701886469 12 15 8
52.2071696478674 -252.307650528046 2883.21748574576 14 17 10
25.2681771873715 -257.151293340606 2873.84184678626 16 19 12
-14.2447046328149 -265.175722905449 2856.16705575431 13 16 9
-31.4099039744589 -267.43706910006 2853.70849661278 11 14 7
-26.0707372882756 -263.95566102578 2866.31324707135 11 14 7
-4.76960150472916 -256.449418125707 2889.39596151407 13 16 9
-18.59615026226 -257.860160588058 2889.16432924092 14 17 10
-44.2385206490958 -262.229283779645 2881.26481023737 14 17 10
-45.5195231152916 -260.45507670733 2889.35985986512 16 19 12
-27.3421529597786 -253.826602617942 2910.00594064624 19 20 14
-25.1499724883333 -251.219636286558 2920.19696193189 19 20 14
-56.8826678049703 -257.04367588779 2908.64155855911 18 19 13
-65.7591062501206 -257.171108163588 2911.80651463287 17 18 10
-78.0614946025553 -258.137149272691 2912.82979835785 17 18 10
-91.2488024720641 -259.309119933013 2913.34500938283 17 18 10
-94.1891440703215 -257.96074475389 2920.31658858867 15 18 9
-97.9755881285445 -256.823353092789 2926.74263399906 13 16 9
100.84624953799 -281.307208474422 2772.60447683426 23 26 19
115.339028484995 -275.099658342483 2792.72089557762 18 20 9
137.935114786535 -266.707849725827 2818.63788458207 13 15 4
105.296267402911 -273.473208158867 2803.8700264823 14 17 10
113.552061048245 -269.043943855341 2819.1064056309 14 17 10
110.585594249295 -267.687793548745 2826.10277838679 14 17 10
110.864778697842 -265.458435717325 2835.41508689641 14 17 10
128.997450281749 -258.427496389587 2857.46331699315 13 16 9
109.070736020821 -261.6642729111 2852.22317605262 14 17 10
93.1455685808795 -263.80241999942 2849.93194744528 13 16 9
104.100999793158 -258.751386760729 2866.6467152 12 15 8
88.1406440230328 -260.884508112645 2864.38968632307 13 16 9
105.748354138227 -254.108061084251 2885.57957760958 13 16 9
88.9466150554767 -256.455060661928 2882.77275659066 12 15 8
74.5629030535535 -258.144996218952 2881.71875095531 11 14 7
54.3569162266726 -261.344105751859 2876.75002679473 11 14 7
17.5284492494492 -268.85669473263 2860.58532596312 12 15 8
26.1831487854747 -264.476480509623 2875.43283524583 14 17 10
11.6207665081323 -266.142447103227 2874.55270923288 12 15 8
-37.9906281671176 -276.848743470686 2850.29834415305 10 13 6
-19.3003217425174 -269.887942415094 2871.80286317362 11 14 7
-14.7321282639776 -266.594556240281 2883.78408166137 13 16 9
-34.4566502989014 -269.531183851481 2879.71570829133 14 17 10
-44.151259243614 -269.886890133714 2882.30994924667 14 17 10
-47.9619012418673 -268.741170227812 2888.75879265827 15 18 11
-34.0166275877918 -263.105395255795 2906.66924389262 20 21 15
-32.6872441060613 -260.685358390332 2916.32741627727 18 19 13
-38.966854659467 -260.189631865727 2921.07298490494 17 18 12
-56.3115354031196 -262.463791842487 2918.79454732024 15 16 8
-73.7094083377316 -264.730892285429 2916.56788697147 13 14 6
-72.3554512871383 -262.313805886713 2926.20209351667 12 13 5
-115.919501315946 -268.945028098241 2916.59532275991 10 12 7
-139.53142154833 -272.670068891735 2910.83574527741 12 14 9
96.1502012258566 -290.246508850998 2770.08715317194 10 12 7
114.001669373278 -280.818549137264 2801.97904693786 9 10 2
85.3183887495672 -286.557110671288 2790.2170525528 13 16 9
157.072547872839 -264.548457987233 2851.74433448573 13 16 9
126.795402470572 -270.732237567347 2838.79638010078 14 17 10
123.880304960117 -269.374189602431 2845.74146192074 15 18 11
116.926681537059 -269.122934988394 2849.77555881561 16 19 12
117.275353442991 -266.882965895589 2859.01729691305 16 19 12
107.882854532905 -267.293534579151 2861.31964677695 15 18 11
108.264261685784 -265.057367955819 2870.52944029358 15 18 11
109.491737332498 -262.60444762541 2880.2842863451 16 19 12
102.551777009346 -262.353958923081 2884.30459093921 15 18 11
103.823575173798 -259.906449243809 2894.01622376729 14 17 10
78.7657706203393 -264.481680746924 2885.56668496816 15 18 11
38.7530160182199 -272.988197383713 2867.04295578111 15 18 11
32.5122417067596 -272.501393111192 2871.7509403094 15 18 11
22.9503729802039 -272.888264323063 2874.21831227083 13 16 9
16.6958411383109 -272.399371882274 2878.93964959985 12 15 8
-5.39749085341334 -276.053195106455 2873.0784749376 9 12 5
-14.2008567530807 -276.21181826346 2876.17581673409 11 14 7
-24.6936488018612 -276.803448568819 2878.18062546095 12 15 8
-38.5658453610347 -278.261360922226 2878.00129381893 12 15 8
-41.5400099813148 -276.892357964402 2885.00341100895 11 14 7
-57.9922457384976 -278.993838973937 2883.2301498017 12 15 8
-66.888053893805 -279.139717392481 2886.41740445781 16 17 11
-42.7646208604688 -270.847667651442 2910.8324598975 15 16 10
-38.8800614168305 -267.758666991883 2922.10549801806 14 15 9
-59.6277017824258 -270.9333193657 2917.67136691309 13 14 6
-73.6216362627573 -272.374646374452 2917.61047151969 11 14 5
-67.993996713934 -268.859107656096 2929.92371966696 10 13 4
-53.7487260860732 -263.19989990517 2947.53246827509 9 12 5
-126.133975144366 -279.245967672003 2911.25699530098 13 15 10
73.1326358843862 -304.40515063653 2753.94316609892 25 27 22
93.2725354950015 -294.189638705193 2787.69761735597 15 16 8
126.326240764946 -282.68941214352 2821.19144797434 14 17 10
119.349051297973 -282.440906631368 2825.24935261525 14 17 10
132.522419432512 -276.583720808211 2843.89359301426 14 17 10
123.96312847493 -276.787370907956 2846.75488190565 14 17 10
114.57914864713 -277.212648394029 2849.05128399149 15 18 11
118.982478858464 -273.835015089613 2861.18342460975 15 18 11
105.523956882917 -275.375770971487 2860.60555222827 14 17 10
91.2114751581776 -277.134421657977 2859.49096994084 14 17 10
85.8544704908955 -276.436677946303 2864.70742855066 15 18 11
85.417647270035 -274.403598092407 2873.34284374219 15 18 11
87.4704752277293 -271.706620959113 2883.65894057679 14 17 10
80.4974990130209 -271.456481194278 2887.7120820121 18 21 14
47.9210820047729 -278.080401344095 2874.27857226991 17 20 13
21.0111468340997 -283.136869717266 2864.90553451699 16 19 12
26.3545372227965 -279.550498877226 2877.49057732559 12 15 8
-11.4892132699489 -287.463720839027 2860.97603425346 11 14 7
7.19107007728415 -280.344841659157 2882.46748030228 8 11 4
-14.9491402902697 -284.045945000684 2876.65984454091 10 13 6
-30.4674814379022 -285.974812654272 2875.35060931997 13 16 9
-25.8892561451192 -282.617265236063 2887.31238306412 16 19 12
-27.9933182669883 -281.023911012648 2894.83422590939 15 18 11
-40.1983923124312 -282.066584610511 2895.77220133733 16 19 12
-53.2787460089486 -283.324452262689 2896.19390082534 14 15 9
-48.6061326338247 -279.978803962025 2908.06370449279 15 16 8
-61.7138698009367 -281.232954132909 2908.51204672979 15 16 8
-69.7503340828036 -281.171552748511 2912.23223366951 14 17 8
-69.2697611651103 -278.926334439435 2921.34221628054 15 18 9
-48.247869998252 -271.452937899542 2943.2898322736 15 18 9
-47.6649163394023 -269.220845738453 2952.30042717612 16 19 12
-74.5292997749818 -273.951963562067 2944.25097852545 12 17 11
24.6267982088537 -326.023542759641 2718.86748149467 6 8 3
51.7077260894503 -315.940480634033 2748.58312157325 17 20 13
90.9553944457286 -302.461564185352 2786.97009384985 13 14 8
77.4632636172727 -304.026122814285 2786.42911359176 15 18 11
109.780178740632 -292.632015045759 2819.25336271101 15 18 11
110.02935357473 -290.341497357438 2828.58643181126 14 17 10
115.155851668704 -286.693847237733 2841.37779482401 14 17 10
117.092986824723 -283.958609204672 2851.80312137665 14 17 10
103.635985654066 -285.526417108629 2851.22773709049 15 18 11
99.0953717019321 -284.603152946153 2857.01708514528 15 18 11
98.639396300535 -282.551560165956 2865.66878253278 15 18 11
77.7596357992749 -286.140087654872 2860.00977207717 15 18 11
74.0240066286324 -284.988905194696 2866.38331927893 14 17 10
73.5839520443764 -282.938834697949 2875.01909421049 14 17 10
67.4020882091506 -282.464718290473 2879.67079286792 19 22 15
71.125053626429 -279.296318340962 2891.09256106507 18 21 14
18.6146719063007 -291.380513565264 2864.25261071213 15 18 11
38.0541040046656 -283.950557589511 2886.36114313194 10 13 6
-66.6534823312057 -305.500540855182 2843.31920371939 5 8 1
-17.8203797459826 -290.277908049127 2884.68317497724 9 12 5
-16.5703791023226 -287.782319864951 2894.40900924167 13 16 9
-15.2884507960591 -285.290740223452 2904.104069168 13 16 9
-20.7195669144107 -284.580882050943 2909.39233103229 14 17 10
-37.1351153782622 -286.756276447854 2907.59356316679 18 19 13
-42.5896619488819 -286.04308119717 2912.90459859785 17 18 10
-46.3457383552086 -284.88709666914 2919.29740262138 16 17 9
-59.4521137992619 -286.165107528595 2919.7482570886 14 17 8
-63.2123162543237 -285.008396455669 2926.1450509565 12 15 6
-49.8699314619579 -279.439040072352 2943.24708706355 12 15 6
-65.5671647199796 -281.375488603278 2942.1166148031 19 21 16
93.4412044604835 -309.365919998236 2789.7731743272 26 27 21
104.026354770383 -304.051820859508 2806.81675546659 15 18 11
96.9951145125521 -303.806601502168 2810.9284811921 15 18 11
106.888177328168 -298.736494229587 2827.27846801779 14 17 10
134.635840903993 -288.628114005739 2856.32794984899 14 17 10
119.606838365188 -290.687411771413 2854.55240951133 14 17 10
117.525005883802 -289.077488687896 2862.0497291247 15 18 11
108.947570943681 -289.298943373671 2864.932004611 15 18 11
93.0118478817281 -291.574189078279 2862.67152100797 15 18 11
111.377480874648 -284.259156402684 2884.44609026702 14 17 10
66.7304480409134 -294.509145119827 2862.27982069295 14 17 10
58.8772524365559 -294.489304906937 2865.82416184969 14 17 10
84.7848653880936 -285.143533587538 2892.56282646163 14 17 10
72.0356312549906 -286.493916281557 2892.6693930111 14 17 10
16.9548581080927 -295.045538087738 2882.02953539503 13 16 9
-19.303790730886 -302.704868999637 2866.73759443973 13 16 9
-27.3041344488796 -302.664561942076 2870.42503085785 9 12 5
-9.36028967033575 -295.627491751996 2891.24295330719 9 12 5
-13.9654538421432 -294.690429001327 2897.09436125903 11 14 7
-2.58449489120105 -289.475976045176 2913.36242031593 12 15 8
-10.5156222976674 -289.444217897005 2916.98238743858 13 16 9
-28.5974285843045 -292.106649703988 2914.076403504 14 17 10
-40.8080678166227 -293.190741910229 2915.02568905502 14 17 8
-43.7113322577223 -291.805379419989 2921.95498338727 13 16 7
-47.4527962783169 -290.645382655037 2928.33302193089 13 16 7
-64.8295346961838 -293.064515477103 2926.10784501381 14 17 10
-74.5676359918592 -293.466248127362 2928.75207719369 14 17 10
-68.9056307707276 -289.849251673342 2941.01620431131 10 15 9
-81.2215110267855 -290.919146113016 2942.06823517295 9 14 10
127.142190179869 -307.160131120217 2815.49582813098 14 15 10
107.319880512052 -310.652578798513 2810.18979997143 15 18 11
117.186518641821 -305.527896364199 2826.55796071573 15 18 11
127.933931344962 -300.180237533326 2843.43545279212 14 17 10
121.788357312222 -299.71755286245 2848.05246690291 14 17 10
122.930750286618 -297.167133881121 2857.87739104777 14 17 10
122.480877537687 -295.08387758267 2866.51834855698 16 19 12
109.845398726427 -296.474281866437 2866.51786956374 15 18 11
106.151019210594 -295.317537769847 2872.84963324105 15 18 11
87.7437183036101 -298.317544713826 2868.89951657429 14 17 10
79.9325191966203 -298.311166009193 2872.40414419336 13 16 9
68.0017608345653 -299.455102162484 2873.08434881204 13 16 9
80.7510228810155 -293.691325483783 2890.746629339 13 16 9
72.9461537141791 -293.685184564834 2894.24500637855 13 16 9
49.4072095820819 -298.040130578214 2887.08881510638 13 16 9
10.8533287988521 -306.512292627064 2869.9451436934 14 17 10
2.90765357495637 -306.48725097519 2873.58054970903 14 17 10
-18.3822056408225 -310.122186685701 2868.33597029619 9 12 5
-36.4039408598842 -312.833191186149 2865.37717608439 9 12 5
-28.5289355601748 -308.457774217789 2879.58273298418 10 13 6
-22.2695163736222 -304.546609511036 2892.62705058117 11 14 7
-12.5904848945 -299.731138411807 2907.81029948547 12 15 8
-7.89937139935581 -296.290333837145 2919.64733036253 13 16 9
-36.9593325104693 -301.948904393856 2909.66447195603 12 15 6
-47.4951340933902 -302.5975901357 2911.72042255469 12 15 6
-48.7163029594644 -300.748150253522 2919.74459931458 12 15 6
-59.2754529498056 -301.393463329331 2921.82357459038 13 16 7
-74.9735049930469 -303.393789816101 2920.70335652974 12 17 10
-106.100308853739 -309.457306843341 2909.99859796118 13 18 11
-78.2394823485944 -299.924483081817 2936.18695568905 8 13 7
-59.6707095004598 -292.892618355663 2956.38474685045 13 18 14
140.591030723097 -312.971036682649 2817.16988666872 15 15 13
130.427411750287 -313.688827272902 2818.86680594208 20 21 16
152.333194914111 -304.97978023406 2844.00514130686 15 18 11
126.117100589995 -310.408095436319 2833.9980681354 15 18 11
108.668872243738 -313.237188884495 2830.48722661582 14 17 10
108.942241691511 -310.892062837277 2839.78853685743 14 17 10
113.293552273688 -307.377521041113 2851.95209872114 14 17 10
118.504414328541 -303.634509873566 2864.64559275238 16 19 12
111.557481301685 -303.409042503878 2868.67685732837 15 18 11
88.2857007638149 -307.858966828491 2861.26940641065 14 17 10
73.9254360636248 -309.728397919034 2860.21830877755 13 16 9
82.4768472771256 -305.059201491769 2875.12601128981 12 15 8
82.8779097553749 -302.729098703215 2884.30240305359 12 15 8
75.8940853165497 -302.497847139255 2888.36910860365 13 16 9
82.1125411794128 -298.544485931641 2901.44786676222 13 16 9
17.2204464734715 -314.576449685554 2866.23162777039 14 17 10
19.2351274313269 -311.775612334816 2876.56991680298 15 18 11
-0.330303633335305 -315.006088152017 2872.38699438419 15 18 11
-14.9607721585143 -316.838608806883 2871.59909563936 9 12 5
-30.4683783847115 -318.896792121351 2870.29831328095 10 13 6
-19.2314388024784 -313.555592141438 2886.69065254521 10 13 6
-19.6640319283454 -311.455496767496 2895.31196232528 12 15 8
-46.1454629855913 -316.504969048542 2886.92928895163 13 16 9
-33.9449074262053 -310.948831463337 2903.75022278124 13 16 9
-31.801492092185 -308.163675960277 2913.96333228748 14 17 8
-60.9564770004787 -313.88470236301 2904.08372702107 13 16 7
