ply
format ascii 1.0
comment KinectMotionCapture
element vertex 786
property float x
property float y
property float z
property uchar red
property uchar green
property uchar blue
end_header
60.6436938148187 379.166880774881 2850.94185678212 223 225 224
46.9599421094804 379.961215302548 2850.2421776671 228 230 229
33.2386049429014 380.760039161597 2849.57949579147 230 232 231
23.7062059236308 381.486263429584 2851.85308887212 220 222 221
15.0025062620971 382.199018468574 2854.72267130399 215 217 216
5.43495069978794 382.929392971201 2857.03022410672 206 208 205
-5.85326425688537 383.694150226128 2858.20751673287 203 205 202
-17.167668434281 384.462061626391 2859.41034946103 204 206 203
-32.7833779432258 385.316119114053 2857.78648734173 131 133 130
-46.7306383430794 386.142008934593 2857.34415023922 129 131 128
-62.4332938445238 387.006572042017 2855.80541189174 130 132 129
-77.3209803088339 387.859380399018 2854.87570606564 132 134 131
-100.014726756753 388.875126930958 2848.92059146348 135 137 134
-122.784916355399 389.900215492546 2843.04000529213 148 150 147
-236.299800041647 393.402130396435 2788.03691955488 182 184 181
-242.911095965893 394.122238619081 2793.07869314203 139 139 137
-250.397983063985 394.861504691828 2797.56986302684 104 104 102
-253.520002762002 395.506729606131 2804.8257765735 97 97 95
-259.258384449929 396.208118940336 2810.42040938119 109 109 107
-264.996000559827 396.909382276852 2816.01430058099 113 113 111
-275.13334977944 397.708980657357 2818.8777734916 117 117 115
-290.58151969363 398.630235527938 2818.49451965188 118 120 117
-306.955242532002 399.57683219205 2817.61003656632 125 127 124
235.015481243321 344.582670322782 2593.62758152202 166 168 165
237.188961165134 345.234566038258 2605.54304063084 160 162 161
238.640219902428 345.883677213456 2616.7591782884 146 150 151
237.072115642787 346.538790264701 2625.30472584877 146 150 151
233.226773280896 347.199839778299 2631.85932346475 145 149 150
227.086988379706 347.869115993154 2636.44039258434 144 148 147
218.635131285236 348.548648054289 2639.06480196582 136 138 135
208.625185111723 349.237039499588 2640.40095094503 132 134 131
195.498608937259 349.943517965819 2639.16131122078 122 124 119
154.115702069526 356.522718665182 2701.95498479558 180 182 181
154.308332981524 357.139192854783 2711.59162574438 177 179 178
155.325771303647 357.745194632349 2721.82767787767 185 187 186
157.174008695926 358.340044069262 2732.65762972363 171 173 172
160.659379969665 358.915757978062 2744.69853028214 207 209 208
161.780539938825 359.508287658668 2754.83391429868 205 207 204
160.519572794068 360.119888274926 2763.08056344055 128 132 133
157.665862100128 360.744762952861 2770.07304993587 143 147 148
154.016217182577 361.376027852695 2776.43805709159 140 142 141
152.80635996524 361.980713499887 2784.63497534939 161 162 164
151.616951855885 362.582719720945 2792.81232120068 211 211 211
148.819093367581 363.199904683813 2799.75048216668 220 220 218
144.401220642146 363.833637743318 2805.46073893949 211 211 211
139.16993833496 364.476052524528 2810.56053097898 157 156 154
134.759615366189 365.108509488699 2816.26347933814 134 133 129
128.709972113563 365.760023798787 2820.75766166994 121 120 116
121.833506463301 366.421763307076 2824.65447026772 125 124 120
117.42775839667 367.053171781528 2830.35303064775 121 122 117
110.543113606968 367.715631109669 2834.25751702086 125 127 122
105.311329979308 368.357136104653 2839.357941345 125 125 123
97.5851741922087 369.031554424734 2842.67938372683 129 131 128
91.5157058417755 369.684565533359 2847.19303144765 133 135 132
82.9363680984474 370.372414155185 2849.94280181391 125 127 124
74.3424485867497 371.06192413413 2852.70680654387 129 131 128
61.536290255833 371.813142934255 2852.55928388024 125 130 126
46.1718790875487 372.605180811886 2850.69504526506 119 124 120
33.292042836452 373.365216133932 2850.61938278724 117 121 120
23.75963500667 374.078438886384 2852.89490623518 115 119 118
16.7503665268787 374.754928399295 2856.92107211963 109 113 112
6.33759001021295 375.484962841954 2858.6510827677 92 94 89
-5.79962370974796 376.244519610958 2859.25530302813 88 90 85
-17.9669376901104 377.007664605166 2859.88888295398 88 90 85
-34.4393458004504 377.84398843258 2857.70144691971 85 87 82
-45.8195650864695 378.60141530181 2858.97118463278 88 90 85
-65.8146064637442 379.505725036688 2854.60341426437 75 77 74
-83.2920422385035 380.374149979481 2851.99233170936 68 70 67
-124.115903362131 381.649985480694 2834.24512523239 67 69 66
-249.269966122823 385.624042821875 2780.8110930207 173 175 172
-247.206041308658 386.18755716777 2791.43115753905 140 140 138
-252.95764906259 386.890967670707 2797.03862529795 110 110 108
-257.834073876182 387.578072807121 2803.19668054527 93 93 91
-263.582067941261 388.281057231573 2808.80062283193 95 95 93
-269.329339753225 388.984009573369 2814.40385265238 97 97 95
-279.476345918641 389.771747323766 2817.27833020688 111 111 109
-294.933818889923 390.665060838735 2816.90878200253 117 119 116
233.561414473541 337.052742399836 2593.35059274258 159 161 158
235.730564496494 337.73236859687 2605.26625295191 157 159 158
237.177496309199 338.40655628148 2616.4829810124 155 159 160
234.841290115225 339.075944873745 2624.37190806976 152 156 157
230.989826732831 339.743427046578 2630.93163320536 139 143 144
224.076452282297 340.411411653913 2634.86416976452 135 139 138
215.616676558633 341.081445532968 2637.497846289 139 144 140
206.370347876845 341.753957963822 2639.49496803971 142 147 143
192.46449332602 342.435655286302 2637.61591658755 146 148 143
154.008942587257 348.41731677171 2693.33993249172 182 184 179
155.758951793515 349.049594737003 2704.26155661633 189 191 188
156.750143698087 349.681035048975 2714.52024986796 189 191 190
156.97633749545 350.312384003362 2724.1213638917 200 202 201
159.626809578046 350.927115635792 2735.56865556887 204 206 205
160.715521065554 351.545832826523 2745.73205306281 135 137 136
161.0337445618 352.165154155379 2755.24389575491 141 143 140
158.966045927907 352.795916628341 2762.8718997594 148 150 147
156.914717475399 353.424497442175 2770.48397038004 193 195 192
152.454357176247 354.067331255928 2776.23507285412 207 209 204
152.050911584229 354.680656649695 2785.04718265597 208 209 204
151.67159555424 355.290822191112 2793.83579847082 139 138 134
150.50202622744 355.904080192884 2801.99144326749 67 66 61
146.904226377175 356.533968970519 2808.30517089524 44 43 38
142.496721632051 357.169402391516 2814.00488079764 44 41 34
138.094211547862 357.804045696164 2819.70008554875 50 47 38
132.052075305637 358.45226791316 2824.18696203617 56 52 43
125.183222404965 359.108153300804 2828.07707629755 54 50 41
120.785141402336 359.741720567818 2833.76770410109 44 41 34
113.908173676463 360.398258698655 2837.6654421867 48 45 38
108.684060625583 361.039209477341 2842.75833142763 155 156 151
99.3022278983236 361.721744533524 2844.88886720095 150 151 146
95.7376452541565 362.346207409175 2851.17041159795 158 160 155
88.0035261541989 363.013698324212 2854.50078553461 166 168 165
76.9083678208915 363.718661013002 2855.49486984862 152 154 151
60.7503728666661 364.482607329662 2853.00625210893 145 150 146
47.0668932324987 365.223835614603 2852.31415190269 133 138 134
39.24950856642 365.901073329044 2855.72610704669 127 132 128
27.1945858613787 366.629688925535 2856.25284636261 124 128 127
18.4986427309934 367.320827041259 2859.11792141621 116 121 117
2.99481960427173 368.097653343893 2857.39436920079 90 92 87
-8.29905397307718 368.826297925731 2858.58261835823 74 76 71
-17.912970343656 369.536174325951 2860.93957558149 67 69 64
-30.9653262727894 370.29304416545 2861.0356955512 55 57 52
-60.3326073596651 371.271428114091 2850.37673360426 56 58 53
-275.503943878047 377.332335097437 2755.6576326621 181 183 180
-261.370898493137 377.751466692859 2774.1526414048 187 189 186
-254.111508785314 378.264477053733 2788.12346637989 141 141 139
-254.644426087539 378.890232471244 2797.06230635183 113 113 111
-259.524916120738 379.580988478897 2803.22352098315 91 91 89
-265.276783824164 380.284962472037 2808.83116359214 92 92 90
-274.540434551091 381.045045038029 2812.24979072172 96 96 94
-288.21913004018 381.878339271648 2812.9565796414 109 109 107
-310.751769358801 382.861021532398 2808.26327948081 115 117 114
233.623265050188 329.517810326954 2594.40283387537 156 158 155
232.752695745792 330.211960490407 2603.6668585633 144 146 145
231.905909303378 330.90283063999 2612.90741346034 139 143 144
229.555930423178 331.584999115248 2620.80846597958 141 145 146
226.45639121403 332.262358520831 2628.03730660469 146 150 151
221.066270166368 332.931195566794 2633.29092266235 148 152 151
214.137631443201 333.595633415281 2637.23880323729 152 157 153
204.115837416327 334.253675304451 2638.59120296118 154 159 155
190.977567965172 334.908202137217 2637.37085326228 128 130 125
157.230876668397 340.928550310638 2696.91531584553 187 189 184
156.609771136938 341.587212237082 2705.93686446512 183 185 182
157.60235983013 342.240396418601 2716.19061910859 169 171 170
157.033425539423 342.892186487049 2725.16137657249 198 200 199
161.281117349031 343.53107213522 2737.85319197393 157 159 158
163.173976529543 344.169459841496 2748.63206094535 150 152 151
162.694970058793 344.809470813146 2757.51525970002 137 139 136
159.826435048668 345.453285806951 2764.51966759004 111 113 108
156.970337652418 346.095385419835 2771.51197827818 98 100 95
153.31839728466 346.738527072044 2777.87750947107 47 50 43
153.726971546222 347.365164407222 2787.29821337304 17 18 12
155.788077568026 347.981634299904 2797.91325018719 54 53 48
156.256791239531 348.600529646906 2807.27571687053 49 49 41
153.488394656133 349.230849106401 2814.18234261458 47 44 35
151.550935937914 349.855469790876 2821.68226205315 54 51 42
147.169403237948 350.490606948639 2827.35622511835 61 59 47
140.326510612843 351.138456194021 2831.22141033866 55 51 40
131.828985128663 351.796354461421 2833.89436657148 49 45 34
125.794543399143 352.441116934207 2838.37445148472 59 55 46
120.584923312772 353.080830332697 2843.4531318819 64 59 53
114.546509191127 353.725769260085 2847.93713535933 74 71 64
106.009685510926 354.387927101507 2850.64814787656 58 55 50
99.1258553007439 355.039951156413 2854.55370553098 44 43 38
87.2214353562804 355.729514603126 2854.93676527149 24 25 19
71.0993439303302 356.454539437221 2852.4179095336 24 25 20
50.7305638729085 357.218595278279 2847.02542518798 34 39 33
42.0725937269646 357.895069017513 2849.85495989512 37 42 36
44.3632638655358 358.481065516163 2860.24654010207 42 49 42
34.8561361214839 359.165096059647 2862.5012746469 46 52 48
-18.1794084067533 360.85181814713 2844.0665240691 27 30 23
-14.4465855747882 362.030743489885 2864.27467877609 47 50 43
-271.978583661997 369.138985658091 2759.03618427696 101 103 100
-273.470841288627 369.802712472557 2767.5048040571 170 172 169
-262.757153909077 370.318311503678 2783.71305288879 136 136 134
-260.692535390671 370.931200204638 2794.32546888245 114 114 112
-263.837918671433 371.605021909297 2801.60035621903 89 89 87
-273.980478425935 372.366223350883 2804.47434047662 90 90 88
-285.019646268908 373.141110907052 2806.81973770088 97 97 95
-302.241483957353 373.999852334773 2805.37318300474 105 105 103
-322.158668267027 374.900095965132 2802.34594754546 110 112 109
231.411693946403 321.963553650781 2593.46440671695 140 145 141
226.735834311748 322.645318860801 2599.42374917349 133 135 134
225.11159023344 323.34896431323 2608.01787133599 130 134 135
221.979967614337 324.038977791089 2615.27670099511 126 132 132
221.157472509221 324.742707214782 2624.49123364002 121 127 127
217.288771023278 325.423435625939 2631.06645652103 122 128 128
212.658863020913 326.098110588384 2636.98121626291 126 132 130
205.719216390902 326.758556957318 2640.940955633 126 132 128
194.131654536021 327.394317732949 2641.01732261782 126 131 127
160.452898094831 333.460470896398 2700.48755492769 165 167 162
160.632095697445 334.136604924524 2710.12871765321 183 185 182
162.428995650019 334.812197498382 2720.99771453532 143 145 142
161.074573421686 335.477742323798 2729.32919302614 5 7 4
162.136710346057 336.143905304763 2739.51230482904 20 22 19
160.828570732618 336.803320627039 2747.79872993698 12 14 9
161.948724467936 337.461933791828 2757.92534604849 36 38 35
161.491698336179 338.115581868463 2766.78470244345 42 43 38
155.413196758623 338.765174712755 2771.30748766832 23 24 18
150.948823369868 339.414693129089 2777.06192506035 26 27 19
153.782434037676 340.060323193543 2788.32279064036 21 21 13
160.717101924386 340.698033413304 2802.5973007574 148 145 138
162.825578218521 341.333182204241 2813.16287529985 129 126 117
160.072704626893 341.970111670316 2820.05344736951 117 115 103
156.514023754825 342.606639807075 2826.32701013725 89 85 74
148.863936760938 343.249622201174 2829.57789914104 73 69 57
142.024852407881 343.892008487516 2833.44011011386 74 68 56
132.707114455511 344.541119821423 2835.51160099779 77 71 59
127.500358757344 345.181076548738 2840.58740105125 72 65 57
119.811183702255 345.828278988118 2843.87648135679 72 65 57
113.770561286648 346.471165333104 2848.36264323156 66 62 53
105.231979628883 347.123241697401 2851.07722932641 49 44 38
100.013345771193 347.764106167196 2856.16469040393 40 37 30
83.097661886129 348.452960100187 2853.02232043506 34 35 27
28.4405595086721 349.313801469051 2823.56666819665 30 31 25
29.798748533759 349.940031303777 2833.46136014667 27 32 25
-7.35231051361396 352.021495958589 2834.62017357039 21 31 23
-31.451794241165 354.680129667156 2853.90730647148 23 26 17
-34.2756262581498 355.323380457452 2860.86740701752 40 43 36
-260.896378296945 360.238117966117 2757.84872863036 56 58 53
-275.385426410535 361.024307330927 2757.9502624467 131 133 130
-280.359044411541 361.732864349882 2764.20166138703 169 171 168
-272.272354064605 362.325221838868 2778.75614644457 135 135 133
-271.101608094203 362.973430721843 2788.83372362507 118 118 116
-272.521677080599 363.64234391369 2797.23023031599 94 94 92
-284.43589641812 364.409814797306 2799.02841563123 90 90 88
-298.132145077174 365.197779974855 2799.75967256486 96 96 94
-310.982657676828 365.981109416095 2801.06835772474 103 103 101
-330.036630938207 366.832001194832 2798.60848227572 109 111 108
223.895644963426 314.330046992586 2587.88607671188 149 155 151
223.758783777218 315.068964126511 2597.83181117128 146 150 149
222.126243023924 315.787378796717 2606.43165132877 132 140 142
220.514003914841 316.502985208875 2615.01208455474 131 139 141
218.921678202827 317.215843641319 2623.57281179126 134 142 144
215.814431325867 317.910627023488 2630.80673098833 135 143 145
213.489183322155 318.611009751786 2638.68053332298 126 135 134
207.322550268168 319.273319869556 2643.2889547993 134 143 140
198.832647276626 319.914984274584 2645.95674114203 155 161 157
180.248175533594 320.471331191731 2640.24002086926 148 153 149
160.360509587997 325.295040339185 2691.86710424306 220 221 215
162.093278603662 326.003646708034 2702.79490466907 24 25 19
163.068818892585 326.703103536213 2713.05874955303 13 14 9
164.076522169356 327.398359990955 2723.29161476996 25 27 22
167.506265021564 328.101560058688 2735.36891277478 18 20 15
167.784780711809 328.784014003828 2744.91051709011 20 22 17
173.695808208264 329.487690606558 2758.77485812655 15 18 11
182.069858154217 330.194263921761 2774.44401912279 27 29 24
175.224956340326 330.833965103837 2778.31274161945 22 24 19
163.534118704978 331.457315126161 2778.49349728488 18 21 14
163.130939923175 332.120538738083 2787.29796720539 28 29 23
161.941660681343 332.778254254366 2795.46695127982 19 19 11
163.209347780116 333.439628247579 2805.44631868925 73 69 60
161.25204153139 334.08943758033 2812.96188630581 49 45 36
156.862878687293 334.732054398622 2818.64265856836 62 56 44
154.114520480224 335.376788202087 2825.52759331675 73 67 55
147.278371451286 336.013969000411 2829.38765883818 78 72 58
142.079367863908 336.653744530143 2834.45578771195 78 72 56
133.585688140451 337.290430435789 2837.12806022533 79 76 59
128.380777765058 337.930611539253 2842.2019946833 70 67 52
121.521101414851 338.570109673166 2846.08508068136 79 76 61
116.314110122186 339.210287749598 2851.16108196833 84 82 69
106.117879854529 339.851798712697 2852.68914272161 37 35 23
100.901069657153 340.492934516157 2857.77475277448 37 35 23
91.5075647022858 341.137505639386 2859.92249029508 28 28 18
-14.9433163128574 346.46744773008 2857.1491471505 25 28 21
-10.0722621139728 347.091197397258 2869.2238537338 28 31 24
-28.2360593070234 347.793233954815 2865.90202102639 47 50 43
-115.777143365938 350.08668456391 2834.88072117299 25 27 22
-267.753187235748 352.143879409326 2754.5180159669 60 62 57
-263.194453982321 352.805618031128 2766.89758495707 116 118 113
-282.904574185987 353.595344065705 2763.68106623194 181 183 178
-278.305575275081 354.252078568324 2776.02105259364 134 133 131
-280.63742321555 354.945052430018 2783.90250379031 122 118 117
-284.701712174348 355.647001111446 2790.66847373451 114 110 109
-297.518659819408 356.405122701111 2791.94789194975 96 96 94
-313.000193078872 357.184871581253 2791.61868292868 101 101 99
-326.762975305153 357.957312512987 2792.41830315486 104 109 105
219.411405611263 306.687834212465 2584.96637679891 158 163 159
221.54181559906 307.481348082233 2596.90367388754 155 161 159
221.426592986611 308.236451581206 2606.82552858564 139 145 145
220.575709535719 308.976960960562 2616.06315305817 141 147 147
218.983077249621 309.70364200473 2624.62214175132 163 167 168
215.87555208271 310.406819300923 2631.85509667758 149 151 150
212.010979679534 311.098128057174 2638.42465554798 155 155 153
205.840454540597 311.758512816505 2643.03756433132 155 156 151
197.346377284263 312.390175814112 2645.71063614235 146 145 141
179.533664332378 312.910793283107 2640.65007593783 152 148 145
168.309130755103 317.885524476357 2699.23923583373 11 12 6
163.733655859204 318.556772214969 2705.1004492384 18 19 13
167.091520041302 319.299389638902 2717.24363579916 22 23 17
169.698068759244 320.029414237646 2728.71750377666 19 22 15
173.140993247944 320.761070878776 2740.77750635247 17 20 13
172.63421217794 321.454662555871 2749.68036648991 20 23 16
183.36019987417 322.232623770615 2767.25453322687 19 22 15
185.336627709849 322.934557612619 2777.94136303921 26 29 22
175.281249175213 323.545176670631 2779.33412174951 19 21 16
161.977656257922 324.136249215731 2778.28731921242 18 20 15
172.079389900663 324.885439035574 2795.06872253455 26 27 21
174.152338973915 325.574687160394 2805.6612424326 19 19 11
166.513910802818 326.201514832539 2808.90260387188 57 53 44
161.307372524514 326.843242699833 2813.97792625048 40 36 27
152.021135450308 327.462968987603 2816.0228172357 74 68 56
148.442748622639 328.113539263171 2822.31387288668 78 72 60
144.053240916888 328.759044802631 2827.99456065022 79 73 59
142.95612738737 329.418319194846 2836.07145456669 97 92 73
137.759927912766 330.057962354706 2841.13681847923 92 89 70
133.390619355564 330.700538173169 2846.79788120115 67 64 47
124.059113656218 331.32492288946 2848.88669824463 74 71 54
116.368657951063 331.956835238294 2852.17897228134 81 79 64
109.499268986319 332.59234076475 2856.07263099685 42 40 27
107.624482425788 333.241727653502 2863.5063177802 35 35 23
106.601588916405 333.89095254916 2871.5109954307 24 24 12
95.5494466022282 334.516959962918 2872.47437159898 29 31 20
107.974546876154 335.187513139581 2889.79441644962 28 31 22
75.8905096229889 335.782060483911 2876.22198930646 28 31 22
30.1911365595902 336.375492840585 2853.49771839573 26 31 24
6.28256765404966 337.011534285615 2845.97124206295 24 29 23
40.7427767862618 337.694336918907 2878.25029476885 24 29 23
32.9317556252131 338.340003722915 2881.66025918307 16 19 12
13.195786709161 338.986202396019 2877.07371257508 24 27 20
-11.9377854284997 340.295105102822 2877.74911839062 34 37 30
-18.9832194572603 340.95106262216 2881.81423181951 31 34 27
-277.633826046517 345.42216596235 2768.15725915806 159 161 156
-278.245578821218 346.124271780338 2777.16276152174 122 118 117
-284.938937894044 346.841309958768 2782.28647877973 105 101 100
-292.509486243875 347.56153695723 2786.86387733311 96 92 91
-305.343840754064 348.300755156858 2788.16303689355 91 91 89
-321.720494071215 349.056763747736 2787.30929480873 102 104 101
-340.782412500369 349.828901803299 2784.86894879466 112 117 113
223.1239492737 299.946715847384 2599.28036359161 153 159 157
220.727213020769 300.679195396668 2607.22007307641 165 167 166
220.637625325322 301.450010942538 2617.11414968931 155 157 156
218.279158549985 302.177223749896 2625.0166354393 149 147 148
214.401989735546 302.876017366582 2631.59759647318 158 152 152
210.533073988635 303.573532973369 2638.17021313632 151 143 140
202.815574154835 304.206879208645 2641.48913046477 146 136 134
195.087295790896 304.841350077901 2644.81892265456 123 114 109
178.043981150717 305.331839460472 2640.41536294646 146 137 132
198.919253492707 310.101290988615 2715.33791435142 0 1 0
180.99122069851 310.591628343667 2710.39600600068 43 44 38
172.492387748464 311.211287989668 2713.07591221798 40 41 35
171.114091105685 311.921857853242 2721.4244436743 34 35 29
175.319553797043 312.697479182573 2734.13798374047 20 23 16
175.58893616463 313.419797562741 2743.68276563413 15 18 11
174.288896113724 314.120089157678 2751.95510626149 23 26 19
177.812986736946 314.87139767499 2763.93194296913 25 28 21
174.960211280518 315.547383619381 2770.91594653692 24 27 20
155.225698455976 316.043603612179 2764.93287363227 19 22 15
167.679310037206 316.877722217467 2783.61734075208 25 28 21
191.536259583825 317.813007655417 2810.8012541023 35 36 28
187.173100277823 318.459140767508 2816.45534691844 36 36 28
166.569677333758 318.95412989567 2809.91838721087 33 30 21
154.035483393256 319.530733902527 2809.52694571936 37 33 24
146.363880717753 320.153650276639 2812.80182802006 57 50 40
143.589985217908 320.818527514829 2819.70914448683 50 44 32
141.648549859349 321.488301957561 2827.2060012403 59 53 41
141.367524706302 322.168514791581 2835.88665980208 57 54 39
134.519479270966 322.796964229564 2839.75982912218 46 43 28
130.968039381064 323.449490540757 2846.02417480639 49 47 32
122.458418826537 324.067176692717 2848.71474711397 47 45 30
117.253205176733 324.708015201418 2853.7888855637 44 42 27
111.217276877623 325.343485841065 2858.2718199914 32 33 19
108.512692282126 325.998755548267 2865.11172969443 34 34 22
108.327144514675 326.666371736908 2873.69943957959 25 25 13
107.328231278534 327.326475438936 2881.67869658143 23 25 14
95.4377408355418 327.929634804542 2882.06103244851 26 29 20
65.0079656742073 328.449743387117 2869.69105708759 29 32 23
69.0364984211325 329.135702932597 2881.17629601687 33 38 31
38.4557082516368 329.674200699389 2868.95356287806 35 40 34
17.0780681359681 330.262251604197 2863.17165777698 35 40 34
24.4960406151349 330.960805931664 2876.9575843986 32 35 28
2.18800734391245 331.555730698413 2870.68164818321 28 31 24
7.09715185165205 332.240413976248 2882.70952456569 23 26 19
2.65034245284079 332.894219485689 2888.44588702558 32 35 28
-8.64613346106946 333.531038599817 2889.65029210571 26 29 22
4.0755137292674 334.221479094152 2906.67258430573 21 23 18
47.8630328445813 334.958116145834 2943.85163031507 35 37 32
-281.915313843768 337.273854011224 2766.52793450802 71 73 68
-282.536703061746 337.993879280401 2775.54069535725 127 126 124
-287.495356123729 338.710263140875 2781.77573924616 109 105 104
-296.820058786306 339.426533003501 2785.26146734878 97 93 92
-309.663705364089 340.145916675757 2786.57312344618 95 95 93
-326.049719550334 340.871291671037 2785.7332044748 107 109 106
220.147685326967 292.321655191681 2597.69450536802 155 160 156
216.219660849079 293.033243348275 2604.32407580008 175 171 168
215.354467239317 293.808490840125 2613.57077619406 158 154 153
214.513286807917 294.580534182809 2622.79410471879 149 139 138
212.16104577773 295.31776817352 2630.68892708528 165 151 150
207.516657929431 296.006209737984 2636.61603083046 170 151 147
200.562805835643 296.648014232966 2640.5926316969 193 174 170
193.601688586604 297.290438067778 2644.57601758976 65 46 42
181.981869153509 297.844762329594 2644.69679094977 98 80 76
173.44039117149 298.460803609142 2647.41924126522 164 151 145
154.754793517234 298.89242797749 2641.82137445546 162 155 147
135.201860966685 300.873140697158 2655.27700193579 97 98 92
196.617187305598 302.686183875966 2714.46878390379 22 23 17
191.306135926189 303.344065206037 2719.64550186203 28 29 23
178.878114191056 303.885862388884 2719.15343639248 28 29 23
173.551165434782 304.54530556971 2724.3457098401 12 13 7
176.172541178522 305.328257768268 2735.79703168566 16 19 12
174.053437193192 306.033241141995 2743.46511214732 14 17 10
179.138486873064 306.843111430608 2756.7170566677 19 22 15
170.66509780966 307.448211971314 2759.37384855884 21 24 17
162.177042482087 308.05492555235 2762.04496586046 22 25 18
140.802909388114 308.48436735545 2754.86611127323 15 18 9
120.158259336952 308.934076500066 2748.37678305425 21 24 15
135.008076133634 309.863486800769 2768.91876469687 30 32 21
166.971830463742 311.000337972596 2802.19281643222 33 33 23
160.128010125128 311.624185920975 2806.06247026697 20 17 8
149.206565595522 312.198792514803 2806.90365862184 28 25 16
142.33932180524 312.825210064076 2810.79619250446 25 21 10
136.283401705379 313.461829962649 2815.29880922587 25 21 10
135.144282020161 314.154247926545 2823.41251727049 35 31 20
132.38170545731 314.825983352998 2830.30758022826 34 30 18
131.279489288008 315.513618066777 2838.38568734032 32 30 17
130.197387260613 316.198612173626 2846.44387325067 38 36 23
124.169279033936 316.831106770994 2850.91948208859 36 34 21
113.989719644461 317.423503208097 2852.43824751889 28 29 15
107.114404971692 318.049849001357 2856.33914435463 26 26 14
104.39998487494 318.714879625198 2863.18737819658 27 29 18
107.546528077242 319.429783345209 2874.1272585278 21 23 12
96.4962556681432 320.018683064666 2875.09392451172 21 22 14
76.1869820765115 320.535057139937 2869.67895662272 21 24 17
83.5718828510816 321.278955664346 2883.49102208339 21 24 17
87.6427413974383 321.989845120469 2894.93054623825 18 23 16
42.7371487558981 322.337835498204 2872.87156301139 17 22 16
49.3239946924584 323.069475626261 2886.06067334954 17 22 16
-4.31591338459381 323.3904490042 2858.50888086466 26 29 22
15.0083462038642 324.20702030175 2880.2919894969 26 29 22
-0.523408486034604 324.795956715278 2878.62428162217 23 26 19
-1.56848734889481 325.474971407574 2886.6465867377 34 37 30
-5.1634821840576 326.137219524976 2892.9527462477 28 31 24
-12.1848899319725 326.780388809069 2896.99589132012 38 40 35
-3.72148723839105 327.501041792785 2911.15733343051 57 59 54
-291.406284071909 329.078041332606 2761.57692976062 67 69 64
-293.789670489405 329.811226160485 2769.50327842163 137 137 135
-297.901104772242 330.536781126944 2776.3129132129 118 118 118
-306.374806276565 331.248239701008 2780.37120500933 106 106 106
-317.487407551965 331.953926684512 2782.79975053196 89 91 90
-329.500405175757 332.660273491691 2784.70539609948 93 97 96
210.950983647605 285.334776589722 2600.77473926333 109 102 96
215.416931825415 286.260950485967 2614.62427110485 90 77 71
214.575452474949 287.049469072531 2623.84546142678 87 63 59
211.455484043445 287.779424213262 2631.08681494501 86 57 53
207.578343857344 288.489328140386 2637.66576760951 76 38 35
200.62434701728 289.126050079446 2641.64326341069 87 48 43
194.436397180072 289.781126011395 2646.27392197738 106 69 63
184.368966077054 290.348919929646 2647.6849786032 123 93 85
178.942255248642 291.022782480646 2652.97418608659 131 107 97
168.841429047356 291.594272108724 2654.41819615636 128 115 106
142.314361128324 291.816088580144 2642.46759020813 162 154 143
108.63563608807 291.901841301242 2624.88593612161 147 147 139
145.468054281372 293.470793803354 2664.59775634855 4 5 0
188.209629335211 295.897287266766 2718.15303409605 19 20 12
185.263792910701 296.602915101609 2725.22472968038 8 9 1
173.610087699733 297.138189033276 2725.38196774922 25 26 18
170.668036216668 297.842958123034 2732.45036959489 21 24 15
173.315162409643 298.649907666142 2743.87257406665 22 25 16
172.009019892694 299.378759337663 2752.14709120815 17 20 11
165.919585814564 300.018703226812 2756.68215867906 18 21 12
155.814745821159 300.588205719948 2758.13011035942 21 24 15
148.100821701568 301.202010022059 2761.44836523998 19 22 13
143.601781948306 301.871495939069 2767.23427565656 16 19 8
165.782034887354 302.982555790589 2793.22303766523 20 22 11
156.495024773502 303.563651755499 2795.2744058351 20 20 10
152.062487396793 304.224427958422 2800.99522785862 18 15 6
140.307422676608 304.770281573679 2801.25121590387 20 17 8
140.763813288621 305.506368306865 2810.60859873175 19 16 7
137.157779991727 306.177849147387 2816.92401716299 16 13 4
133.560652530075 306.848091032513 2823.23111292725 18 15 6
125.862578839985 307.458496626504 2826.53413042458 21 21 11
122.273106754748 308.127522812282 2832.83380396672 21 21 13
125.298478341113 308.885388003852 2843.88765981708 24 24 12
123.397190763892 309.572111295308 2851.34214419775 31 31 19
113.215712939371 310.149019647169 2852.86510379464 31 31 19
104.675180075081 310.749626331228 2855.58923466268 28 30 19
98.6205259839585 311.382753186291 2860.09077264701 26 27 19
103.424216263561 312.146910114996 2872.21195830803 28 29 21
81.4781994982581 312.59098182032 2865.59883036727 22 25 16
63.652244892566 313.092271854725 2861.97084738284 28 31 24
79.4205534861612 313.974089118018 2881.60778732347 33 36 29
69.146801198436 314.561642404303 2883.22080350973 43 45 40
63.92158268907 315.205061812241 2888.31442562496 21 26 20
69.7094486838195 315.960400176572 2900.87652294973 18 21 14
10.8095420040026 316.775652206112 2878.47493266562 32 35 28
-5.58466387485135 317.325981127464 2876.25211058166 22 25 18
-9.20602768977918 317.997404425482 2882.58276094869 38 41 34
-11.1048827968729 318.682554939956 2890.03540014831 70 73 66
-19.8573026861766 319.308132065587 2892.9659095021 54 56 51
-21.7390231108707 319.991092996672 2900.40185732827 58 60 55
-297.423027192022 320.846274949143 2758.84925519118 64 66 61
-303.301115292434 321.569389572132 2764.57940754352 133 133 131
-308.306169942082 322.297962238869 2770.85872739468 113 115 114
-315.054613451052 323.015340177165 2776.03709409571 101 103 102
-323.558262464123 323.72295238973 2780.12569270158 78 82 81
-337.340669318123 324.403028998127 2780.95811403785 86 90 89
217.006644990641 278.755818430477 2616.9887363071 103 86 79
217.699830918178 279.603266799904 2627.51142800271 135 107 103
215.354837867231 280.361833057456 2635.39590011895 130 95 91
209.179147482476 281.013492934685 2640.01522760151 135 90 85
199.143383669069 281.561874339783 2641.39770730159 131 84 78
189.8581629882 282.133308001698 2643.44838878023 132 89 82
183.655395907561 282.787644216343 2648.09420826056 117 80 71
182.112630678246 283.561908452936 2656.59698329608 126 96 86
173.577574514334 284.155999835979 2659.31630083634 78 64 53
161.903537734456 284.673802226166 2659.49631073986 115 105 93
125.119637622568 285.397142743485 2649.15497199971 4 5 0
141.650738869597 286.604801832457 2672.23701623296 24 25 17
178.802441269618 288.279982052074 2711.61608211248 17 18 10
176.62405129603 289.015260302484 2719.33855686735 33 34 26
166.5343764167 289.568035074374 2720.77392171515 27 28 20
163.574603308037 290.283470798811 2727.85834487306 28 31 22
164.610704495579 291.084947200583 2738.04731128301 28 31 22
167.275800363941 291.916889720623 2749.4479776504 21 24 15
165.177370899441 292.641321083599 2757.09265360293 22 25 16
157.478013654543 293.245785216528 2760.39782383451 24 27 18
152.985579275739 293.917709486705 2766.17647678708 19 22 11
160.593350679651 294.834121425775 2781.15864032855 13 16 5
174.730524728948 295.871401831541 2800.97509644 18 20 9
164.654636823202 296.420907051153 2802.39759169961 17 17 7
156.992744057133 297.019896338702 2805.66636832964 24 21 12
141.992878241441 297.481615058756 2803.48895181761 24 21 12
140.820676263297 298.20628917924 2811.63108146429 27 24 15
139.668567033857 298.928340131953 2819.75330857553 16 13 6
136.077125671879 299.603747334308 2826.05399452712 28 28 20
125.91912856538 300.162496353543 2827.55632136534 23 23 15
122.329517864318 300.837407412283 2833.85526277339 16 16 8
124.528698094204 301.608763025896 2844.31029781588 23 23 13
124.280744428382 302.334443683157 2852.95139577755 31 31 19
112.442101703182 302.86842718418 2853.29247025698 31 31 19
102.236406946382 303.432466881996 2854.84137960707 28 30 19
92.8418188542577 304.012159716394 2856.99944383974 33 34 26
97.6316892685332 304.810845526236 2869.12924947777 42 43 35
95.7696737599441 305.503438729093 2876.5438685434 44 47 38
88.888308789481 306.120316167117 2880.45217283296 45 48 41
78.6349794849759 306.689712299461 2882.0475923144 44 47 40
72.5751839270909 307.320818978706 2886.55453443233 43 45 40
9.88887870257349 307.177593277553 2852.46754044548 40 45 39
13.8583823563478 307.961128229433 2863.99697453442 40 45 39
67.1135048962825 309.38211097135 2908.67766757267 42 45 38
17.6732872378587 309.457646211877 2884.07668049937 37 40 33
1.10813196632087 310.688404718152 2890.42517808425 30 33 26
-6.76498048966989 311.311087904641 2893.90019704086 52 55 48
-9.49685221541818 311.994431815447 2900.76305391257 46 48 43
-45.1117699562178 313.02675638724 2894.88320580175 44 46 41
-89.3680332544817 313.273057622371 2875.02861502647 47 49 44
-297.360886416203 312.637027245652 2760.00087170762 56 58 53
-310.201191667145 313.293009279591 2761.31824271053 94 96 93
-317.838057792342 314.001989552579 2765.96315805632 81 83 80
-323.733668076111 314.727873329048 2771.71030091608 80 85 81
-334.884631227835 315.407054505333 2774.18085789573 84 89 85
221.650780863618 271.358233506987 2621.97253214361 152 132 123
220.058812845746 272.153811298663 2630.52101614139 143 110 101
218.486811371385 272.946634410671 2639.04974236475 144 104 96
210.010574616142 273.52405427119 2641.71345324843 136 83 75
198.434148987753 274.00950182375 2641.80131586644 119 64 57
186.053853267174 274.475389582542 2641.27307713864 101 53 43
180.616356127928 275.151511194013 2646.57266169999 108 64 55
175.956716014647 275.849939535848 2652.51343512842 108 71 62
168.185279441241 276.457903117119 2655.88966398181 72 52 41
157.278683635353 276.978302959884 2656.72411906866 56 42 31
145.56266666307 277.479844514282 2656.94821926824 182 179 170
109.482446697306 277.312272537702 2637.53766062791 171 172 164
155.87634978273 279.416277440534 2684.6796298397 31 32 24
153.61909432988 280.172716756964 2692.477291585 48 49 41
157.70467153247 281.094730907009 2705.28824291878 18 19 11
160.25218821517 281.969211500103 2716.79938004706 34 35 27
157.276670124697 282.695108898481 2723.89789197382 22 25 16
154.313696210239 283.419247997673 2730.98420722421 21 24 15
163.341676969889 284.44186263929 2747.37420380327 24 27 18
165.235982260904 285.27760057116 2758.12280633042 21 24 15
161.548920050934 285.972020622282 2764.51563510685 19 22 13
161.892475336306 286.761618317616 2773.97681834328 19 22 11
167.102130251873 287.661909281832 2787.09166388625 19 22 11
172.363125035027 288.555683813362 2800.15649130767 21 24 13
163.90161702604 289.127250039094 2802.80610365126 23 25 14
157.862102257671 289.755506862736 2807.2936656948 23 23 15
149.377295224392 290.329687676437 2809.96636572096 21 21 13
155.56659371442 291.226832228115 2823.52578506882 30 30 22
158.539228798993 292.046555257477 2834.62286648364 31 30 25
154.172199427181 292.704925791533 2840.27899364671 33 34 28
136.660243274783 293.088514083087 2836.3569396646 33 34 28
119.914854901519 293.495935489392 2833.08705933961 34 35 29
113.024836800408 294.10962684781 2837.00408937501 31 33 22
114.40480306171 294.888155102909 2846.85464656752 31 33 22
111.668718183604 295.581774747091 2853.7201684129 33 35 24
105.61896862824 296.210024514075 2858.2178947942 35 36 28
94.5653057416496 296.744335446283 2859.19633361329 36 39 30
92.6751680349565 297.451795913738 2866.63668106215 36 39 30
93.3134655613621 298.202777187873 2875.81088838632 29 32 25
92.3014132550528 298.920264523787 2883.79504924504 29 32 25
67.7547702606876 299.2224897849 2875.53428064142 30 33 26
46.4927550159131 299.593494871807 2869.66963761138 34 36 31
18.3972063921529 299.859298489646 2859.27039275031 36 38 33
30.0092614308549 300.796842923065 2875.94109518769 38 40 35
-4.99434799972631 300.966558632083 2861.07957051093 40 43 36
-18.0086555822365 301.504958330175 2861.17019770148 38 41 34
-4.61836250430414 302.459964518859 2878.90665911634 39 42 35
13.9865762755056 303.482770902591 2899.95701101368 32 35 28
5.28561826321816 304.081471969173 2902.84039023264 42 45 38
-47.2207347592604 304.039748568974 2877.05072372439 38 40 35
-12.1597111968108 305.284158815594 2908.6501534594 41 43 38
-88.1803304481088 304.94313631186 2867.99514504154 38 40 35
-296.43005004132 304.438560915986 2761.70517648789 61 63 58
-312.749131321405 305.028597040338 2760.81879517726 85 87 82
-322.136214502224 305.711688655243 2764.37137178717 83 85 80
-328.915528267358 306.428609328884 2769.58046069243 82 84 79
-340.077955897636 307.093609045836 2772.06449808225 87 89 84
214.0785061562 263.559198497433 2616.47450013212 156 133 125
214.763213713207 264.451529538255 2626.99897733577 143 109 100
214.712176993368 265.313088331031 2636.84136044774 142 102 94
206.995456399933 265.907564327268 2640.16524898334 124 71 63
194.639825196258 266.346563552522 2639.61649213916 104 50 40
179.156850305129 266.686207728182 2636.51994332732 98 50 40
176.027305965266 267.441694705239 2643.76703226985 95 51 42
172.910178519209 268.195409944643 2651.00205291532 88 51 42
167.46819689721 268.871978958769 2656.30602450842 72 52 41
158.90278289669 269.448729325074 2659.05838866589 64 47 37
149.539497235499 270.002451133987 2661.18920762813 182 179 170
150.36194571652 270.875530740277 2671.57975141167 115 116 108
159.871767356746 272.01026664866 2688.89161071685 29 30 22
156.835219476425 272.752776856776 2696.0482707611 33 34 26
166.463577568645 273.872438386356 2713.24498744576 21 22 14
162.690486437018 274.584190320909 2719.72068256834 35 36 28
157.336612878841 275.248280888394 2724.93900586055 22 25 16
144.017569055518 275.682557184819 2723.93072071864 21 24 15
156.213879911877 276.848259787256 2742.82134544989 23 26 17
171.698714805593 278.092955572808 2764.10305499562 20 23 14
173.644070688358 278.946906735896 2774.79827162287 18 21 12
178.038453172944 279.862232279309 2787.30356331979 17 23 13
183.286558743743 280.793263614258 2800.37568338034 19 25 15
170.804217425481 281.244565853349 2799.95093317299 24 27 18
165.579711463612 281.891345109703 2805.04335113389 24 25 17
164.416714731171 282.643044157461 2813.17200772106 22 22 14
162.460198232819 283.371272626385 2820.67553863174 21 21 13
161.33587260228 284.117904918604 2828.76654310732 25 24 19
165.957790080297 285.004059567894 2841.05020063759 25 24 19
162.427914734534 285.683497456661 2847.28881704928 24 25 19
143.291854349359 285.98496388765 2842.15750367668 22 25 18
120.795694154827 286.215975610355 2834.70525714842 22 25 18
114.733441202931 286.843840915662 2839.21545641058 29 32 23
111.978825123146 287.548420903137 2846.09776007922 28 31 22
107.577504038466 288.213620627597 2851.78693006874 28 31 22
103.181009997057 288.878064404489 2857.47141846165 30 33 26
96.2890182112366 289.486699087139 2861.3914936116 33 36 29
86.8838698593679 290.041541051116 2863.5637172861 33 36 29
99.231269573711 291.064423084447 2880.90850804789 31 34 27
96.553868146267 291.758885640731 2887.71563177722 31 33 28
87.1594118886252 292.312204494158 2889.87780100116 30 32 27
67.6286414954372 292.661322257794 2885.13139765525 29 31 26
70.005032288897 293.459326016708 2895.40652140423 29 31 26
87.6639950392413 294.553860984679 2915.96873071178 30 33 26
14.5893674659074 293.871666645772 2875.27255269162 31 34 27
-9.44169631088165 294.169632400935 2867.91768301612 29 32 25
-9.67810079276976 294.926096601634 2876.54242483114 35 38 31
3.78604950805439 295.931777952567 2894.198055165 34 37 30
5.34233092988279 296.709410853129 2903.8736611297 48 51 44
0.0614489841619381 297.360776280693 2909.02138344185 44 46 41
-54.2703796971278 297.154020838009 2882.23467643466 40 42 37
-88.9842577621782 297.314999919607 2868.50398265834 43 45 40
-105.675808143761 297.798144173135 2866.58635792572 49 51 46
-320.51766906674 296.664261582809 2757.01645358277 55 56 50
-329.049980979064 297.352902148717 2761.1363188724 61 61 53
-336.718898768117 298.056206224755 2765.81356309165 69 68 63
-347.898701165265 298.707813794747 2768.31683323529 93 92 87
213.378410818321 255.973285193997 2616.87399050756 145 122 114
212.529865731777 256.828739614522 2626.09230412284 136 103 94
211.705333688968 257.681004645059 2635.28724382116 138 100 91
205.51931654741 258.326726246321 2639.91736575848 116 68 58
193.931247770831 258.771021883374 2640.0228724299 95 45 34
179.992806660374 259.133219377659 2638.22306400625 91 45 32
174.539444968278 259.811960140773 2643.53801519363 93 50 41
170.641140241569 260.546544013313 2650.13467471666 81 44 35
165.193181862984 261.224205563324 2655.44441984107 62 37 30
158.183814108638 261.846397302182 2659.47870949392 38 18 11
151.167642504936 262.469286314383 2663.51999025506 179 176 167
160.627668447049 263.662120322301 2680.87304839284 30 31 23
167.939737503296 265.619993495248 2705.91396212931 23 24 16
183.129982495871 266.972737032523 2727.47223439119 28 29 21
186.531652509465 267.920511205861 2739.54126119375 36 37 29
175.67351475895 268.396487145773 2740.33416254872 28 31 22
163.992338570624 268.849909376624 2740.53043950781 22 25 16
154.676674054121 269.383167383183 2742.61733235245 17 20 11
156.548950889165 270.271068744123 2753.38009972998 22 25 16
201.787274019565 272.500944078487 2797.39990752976 27 30 21
194.18383317605 273.070289098232 2800.61502194645 24 30 20
194.632604890379 273.885350367667 2809.96796020841 30 33 24
176.519905337717 274.139858878302 2805.24428407891 29 32 23
175.359880933983 274.905293212831 2813.36829687235 28 29 21
171.783604808315 275.59683135279 2819.65120153257 27 27 19
170.658318535093 276.357709487522 2827.74139225323 28 28 20
159.761293474455 276.836848210388 2828.57244182406 27 28 22
164.378789694551 277.75637467713 2840.85521954677 27 28 22
156.745597478618 278.328305695775 2844.09949530657 24 27 20
140.883476615469 278.676090709781 2841.37824083741 22 25 18
131.562110235463 279.208239493213 2843.47095965949 20 23 16
123.873479958505 279.786687609713 2846.7693230092 18 21 12
116.17417922211 280.366333485106 2850.07810525463 18 21 12
118.419171797212 281.206112954892 2860.47787278703 21 24 15
106.564062251562 281.678661229864 2860.84404132018 26 29 22
100.513249119165 282.302460251373 2865.34348166743 33 36 29
102.81338792417 283.13512549837 2875.68953965735 34 37 30
102.637281120956 283.901415211103 2884.25329062169 38 41 34
101.645936969967 284.644256216662 2892.21280287276 38 40 35
97.310173420416 285.303948164791 2897.83768730771 39 41 36
79.4892061243711 285.644628747625 2894.22882769987 39 41 36
75.1320584656576 286.306795369395 2899.87458111565 39 41 36
74.1678392889966 287.046041638759 2907.80802700867 32 35 28
56.244965806465 287.399036691887 2904.29820383513 33 36 29
12.7387641145029 287.190759611389 2883.76563943138 30 33 26
14.2584036745768 287.995141557274 2893.47401565124 33 36 29
-14.9610448888602 288.130770032894 2882.79281271403 31 34 27
-8.30719700690619 289.045127398658 2895.88872144399 39 42 35
-4.17440468961994 289.898697564046 2907.24565630224 49 51 46
-22.372227453781 290.285351872838 2904.00388700657 47 49 44
-82.8881130890755 289.821004014769 2873.47707111035 44 46 41
-105.616634716188 290.146997711892 2867.65843394296 41 43 38
-324.804944047474 288.317010751652 2755.42227877106 53 53 45
-335.963218284647 288.950351327028 2757.90687098743 54 51 42
-341.899361821457 289.682922380198 2763.69327559008 61 58 51
-349.586393132557 290.38370569844 2768.38921721338 86 81 75
213.442004325424 248.413720302873 2617.92814160442 146 123 117
211.827637244091 249.253486779884 2626.49199929294 132 102 92
211.000871213193 250.122529969325 2635.6866775699 133 96 87
204.812938361221 250.766150769768 2640.31935017542 107 63 52
193.222981183878 251.189337754557 2640.4298519063 89 43 30
180.055850108444 251.5536449448 2639.28071872139 93 49 38
175.377627228658 252.263749460707 2645.23855722023 91 51 41
174.589496379226 253.127008054825 2654.39572515152 62 28 18
168.371877573759 253.773308098224 2659.05714251477 122 97 92
159.027407343787 254.29859540606 2661.17381792451 65 44 39
149.66404297838 254.826027040279 2663.30860071754 179 175 166
139.497219847993 255.325770001468 2664.82841299756 7 8 0
156.84724085706 256.863184148345 2688.46576730741 28 29 21
171.155871160889 258.268957595849 2709.47474887259 8 9 1
192.678911641194 259.924182650027 2736.03570518887 25 26 18
198.48162928331 260.985758697656 2749.95470213013 38 39 31
197.982710213819 261.81145188603 2758.83023063917 27 30 21
179.187105203468 261.981618978722 2753.38024603137 24 27 18
186.676867694535 263.087779871268 2768.45154935534 18 21 12
170.216241240562 263.349532042472 2764.92042608428 22 25 16
180.181010112105 264.529890641072 2781.77411089172 29 32 23
203.893924054757 266.166648370287 2808.99703858562 26 31 24
194.690542840066 266.672276905693 2810.97651607548 25 28 21
183.043730317777 267.099342193734 2811.14256495084 23 26 19
186.760032736961 268.036834875135 2822.90101456554 23 24 18
186.459315594052 268.83664228676 2831.58355153801 25 26 20
174.786082968485 269.266566498006 2831.77541341889 27 28 22
153.291043580008 269.388632010976 2824.76205065088 29 30 24
145.623949625358 269.957229903847 2828.04048397292 31 34 27
136.306505252201 270.476102762857 2830.13127036006 33 38 31
129.43581625374 271.072836307239 2834.03161266829 34 39 32
136.562071887322 272.095226425589 2848.05935564148 33 38 31
128.059275722851 272.639844926723 2850.75395059574 33 38 31
126.163146921391 273.38227903273 2858.19541604375 32 37 30
133.408347417955 274.389613588022 2872.10693237333 30 35 28
106.621393316189 274.404086078343 2861.86228975594 31 36 29
103.070858312979 275.097083609015 2868.11975524572 31 33 28
109.553225050781 276.071622805944 2881.37671459643 30 32 27
113.579102274232 276.969277842961 2892.83363984057 28 30 25
114.291273044134 277.769177937105 2901.92725976168 28 30 25
107.460940633378 278.359968844383 2905.78840570091 29 31 26
88.8202355886478 278.635163089954 2901.5859894878 31 33 28
75.1888484075236 279.051969280834 2900.89044799143 32 34 29
75.9182832960645 279.849457083202 2909.96728092319 39 42 35
56.3018227577357 280.118241129868 2905.31784244642 43 46 39
34.9187108651754 280.351724143965 2899.59377588008 42 45 38
32.2243628987633 281.064996516443 2906.41494769051 43 46 39
39.7992826868978 282.030618998239 2920.00555075764 39 42 35
8.88363366148592 282.047294219222 2908.19246255726 36 39 32
1.03469223524399 282.636664513158 2911.64840295499 56 58 53
-10.2670294182547 283.145548667765 2912.87692586323 32 34 29
-40.56877500624 283.212998201363 2901.86362737082 29 31 26
-64.0668282794001 283.453937782698 2895.40447030518 28 30 25
-70.3186716465671 284.099423792298 2900.10033131996 32 34 29
-102.620739799557 284.160412793945 2888.24051893316 38 39 33
-321.259886489234 280.115500695499 2758.78213892756 55 51 42
-345.49181344525 280.447041932767 2753.03867623445 45 38 28
-350.5752469405 281.201623472423 2759.39198333789 43 34 25
-356.529720217344 281.93703600001 2765.19616967468 49 40 33
211.21545110726 240.747881595919 2617.02108368247 141 121 114
209.595162198028 241.602224507537 2625.58900528497 125 97 86
207.994786147355 242.453878476155 2634.13721270715 124 90 80
201.02954761406 243.06158799051 2638.1298218576 102 60 48
190.972419731116 243.533144917822 2639.54520886081 88 44 31
182.438729371841 244.075274747633 2642.27085003174 70 26 15
179.316372986325 244.855182679806 2649.50719182285 75 35 25
176.983590782256 245.666875372531 2657.3720241657 135 105 97
