ply
format ascii 1.0
comment KinectMotionCapture
element vertex 803
property float x
property float y
property float z
property uchar red
property uchar green
property uchar blue
end_header
-109.62175577879 198.019832372665 2805.0000667572 20 20 12
-91.2887826561928 191.673114895821 2714.99991416931 14 15 9
-83.1697881221771 190.052375197411 2691.99991226196 11 14 7
-75.6266415119171 189.56096470356 2684.99994277954 22 25 16
-67.4854591488838 187.304243445396 2653.00011634827 14 10 0
-59.9728226661682 186.459258198738 2641.00003242493 106 97 82
-52.5853782892227 185.825809836388 2631.99996948242 99 77 64
-45.1433472335339 184.768468141556 2617.00010299683 96 70 55
-37.8846600651741 184.205085039139 2608.99996757507 115 86 68
-30.6812785565853 183.712065219879 2601.99999809265 111 84 67
-23.4978534281254 183.077573776245 2592.99993515015 110 84 71
-16.3887981325388 182.725250720978 2588.00005912781 110 87 73
-9.33579448610544 182.937502861023 2591.00008010864 110 92 80
-2.27948161773384 184.208601713181 2608.99996757507 22 8 0
4.87510114908218 185.479447245598 2627.00009346008 21 11 1
12.0866568759084 186.114609241486 2635.99991798401 22 19 10
19.15711350739 184.913754463196 2618.99995803833 13 14 6
26.2451767921448 184.489339590073 2612.99991607666 23 28 21
33.6324870586395 185.900375247002 2632.99989700317 9 14 7
41.0203225910664 186.816930770874 2645.99990844727 17 20 11
48.4242476522923 187.521383166313 2655.99989891052 16 19 10
55.0441220402718 185.401514172554 2625.99992752075 15 18 9
61.9975179433823 184.764057397842 2617.00010299683 16 19 10
69.4563388824463 185.608953237534 2628.99994850159 17 20 11
76.5723139047623 185.465216636658 2627.00009346008 18 21 12
83.2945331931114 184.474050998688 2612.99991607666 18 21 12
90.4591009020805 184.541612863541 2614.00008201599 16 19 10
97.8900864720345 185.103103518486 2621.99997901917 16 19 10
105.404421687126 185.73497235775 2631.00004196167 16 19 10
112.453937530518 185.519397258759 2628.00002098084 16 19 10
119.122497737408 184.738859534264 2617.00010299683 17 20 11
125.778809189796 184.028714895248 2607.00011253357 17 20 11
133.297622203827 184.588968753815 2615.00000953674 17 20 11
142.255753278732 186.984166502953 2648.9999294281 16 19 10
151.624530553818 189.661413431168 2687.00003623962 15 18 9
159.07034277916 189.797222614288 2688.99989128113 15 18 9
164.979383349419 188.168317079544 2665.99988937378 16 19 10
170.568525791168 186.327517032623 2640.00010490417 19 22 13
178.910672664642 187.521353363991 2657.00006484985 17 20 11
186.504065990448 187.868028879166 2661.99994087219 17 20 11
194.124013185501 188.2144510746 2667.00005531311 19 22 13
203.280687332153 189.97198343277 2691.99991226196 22 25 16
214.607074856758 193.563878536224 2743.00003051758 20 23 14
-141.234561800957 191.711813211441 2825.00004768372 53 54 46
-133.292123675346 191.37704372406 2819.9999332428 21 24 15
-123.995758593082 188.938185572624 2783.99991989136 17 20 11
-115.89877307415 188.127815723419 2772.0000743866 15 18 11
-107.397794723511 186.502695083618 2747.99990653992 15 16 10
-98.8092720508575 184.47008728981 2717.99993515015 12 13 8
-91.2582874298096 184.201806783676 2713.99998664856 11 13 10
-84.7483351826668 186.173006892204 2743.00003051758 9 14 8
-76.3052478432655 183.868050575256 2709.00011062622 9 14 7
-67.6658451557159 180.544689297676 2660.00008583069 12 8 0
-59.9975883960724 179.325088858604 2641.99995994568 93 83 71
-52.5871850550175 178.648233413696 2631.99996948242 100 81 67
-45.144896954298 177.631735801697 2617.00010299683 97 74 60
-37.9004776477814 177.157983183861 2609.99989509583 113 84 68
-30.705913901329 176.751896739006 2604.00009155273 110 82 68
-23.5077273100615 176.074057817459 2594.00010108948 104 78 65
-16.389362514019 175.667464733124 2588.00005912781 111 88 74
-9.32890921831131 175.735756754875 2588.99998664856 119 101 89
-2.27257050573826 176.55049264431 2601.0000705719 26 9 1
4.86784568056464 178.043752908707 2622.99990653992 25 12 3
11.9174150750041 176.414415240288 2598.99997711182 27 23 14
18.9822167158127 176.142394542694 2595.00002861023 15 15 7
25.9547922760248 175.394982099533 2584.00011062622 23 24 18
33.4548130631447 177.769675850868 2618.99995803833 10 13 6
41.0217307507992 179.601088166237 2645.99990844727 16 19 10
48.3165234327316 179.871097207069 2650.00009536743 15 18 9
56.0521855950356 181.498348712921 2674.00002479553 14 17 8
61.9285702705383 177.423864603043 2614.00008201599 15 18 9
69.3266242742538 178.100407123566 2624.00007247925 16 19 10
76.4291808009148 177.962183952332 2621.99997901917 17 20 11
83.6799219250679 178.163126111031 2625 17 20 11
90.946689248085 178.363800048828 2628.00002098084 16 19 10
98.1174483895302 178.360655903816 2628.00002098084 16 19 10
105.327874422073 178.425088524818 2628.99994850159 16 19 10
112.457759678364 178.35359275341 2628.00002098084 16 19 10
119.399659335613 178.010389208794 2622.99990653992 16 19 10
126.603305339813 178.074166178703 2624.00007247925 16 19 10
134.933352470398 179.630666971207 2647.0000743866 16 19 10
143.334627151489 181.118994951248 2668.99991035461 16 19 10
151.403918862343 182.06413090229 2683.00008773804 17 20 11
158.188343048096 181.448295712471 2674.00002479553 16 19 10
164.675503969193 180.56084215641 2661.00001335144 18 21 12
170.832693576813 179.401829838753 2644.00005340576 20 23 14
178.041249513626 179.396092891693 2644.00005340576 18 21 12
185.459315776825 179.593667387962 2647.0000743866 17 20 11
194.27601993084 181.080088019371 2668.99991035461 18 21 12
203.665003180504 182.973265647888 2697.00002670288 19 24 17
-124.712452292442 182.388618588448 2799.99995231628 22 25 18
-117.533229291439 183.109030127525 2811.00010871887 16 18 13
-107.714004814625 179.529905319214 2756.00004196167 14 16 11
-99.7213795781136 178.686410188675 2743.00003051758 12 12 10
-91.8665677309036 177.972927689552 2732.00011253357 10 12 9
-84.6893414855003 178.562074899673 2740.9999370575 13 18 12
-77.7725130319595 179.86761033535 2760.99991798401 6 11 4
-68.1005418300629 174.397677183151 2677.00004577637 14 11 2
-60.1812489330769 172.640800476074 2650.00009536743 40 31 22
-52.6088997721672 171.535074710846 2632.99989700317 86 68 56
-45.1808944344521 170.624613761902 2618.99995803833 100 78 65
-37.8726944327354 169.909298419952 2608.00004005432 112 84 70
-30.7069309055805 169.649824500084 2604.00009155273 118 90 76
-23.5175658017397 169.064342975616 2595.00002861023 83 60 46
-16.4025705307722 168.73924434185 2589.99991416931 102 80 67
-9.33642592281103 168.804839253426 2591.00008010864 117 99 87
-2.27876217104495 169.912561774254 2608.00004005432 28 11 3
4.86058322712779 170.629173517227 2618.99995803833 15 2 0
11.9086382910609 169.195592403412 2596.99988365173 19 12 4
18.9462676644325 168.739035725594 2589.99991416931 25 20 14
26.2369066476822 170.171618461609 2611.99998855591 8 7 2
33.417597413063 170.431241393089 2615.9999370575 17 18 12
40.8835560083389 171.798184514046 2637.00008392334 14 17 6
48.2634156942368 172.448202967644 2647.0000743866 14 17 6
55.5299632251263 172.576814889908 2648.9999294281 13 16 5
62.3096860945225 171.337127685547 2630.00011444092 14 17 6
69.6459636092186 171.725869178772 2635.99991798401 14 17 6
76.9564136862755 171.9840914011 2640.00010490417 15 18 7
84.1289758682251 171.916335821152 2638.99993896484 15 18 7
91.2611484527588 171.783223748207 2637.00008392334 16 19 8
97.224585711956 169.630467891693 2604.00009155273 16 19 8
105.772063136101 171.972304582596 2640.00010490417 16 19 8
113.103345036507 172.164186835289 2642.99988746643 16 19 8
120.541624724865 172.486141324043 2648.00000190735 18 21 12
127.765417098999 172.482162714005 2648.00000190735 16 19 10
135.855332016945 173.585250973701 2664.99996185303 16 19 10
143.66152882576 174.232140183449 2674.99995231628 16 19 10
150.449469685555 173.641249537468 2665.99988937378 17 20 11
156.951114535332 172.789663076401 2653.00011634827 18 21 12
163.814425468445 172.393798828125 2647.0000743866 18 21 12
171.742796897888 173.104897141457 2657.99999237061 18 21 12
178.653046488762 172.773718833923 2653.00011634827 18 21 12
185.745552182198 172.637730836868 2651.00002288818 18 21 12
195.010155439377 174.455106258392 2678.99990081787 16 19 10
205.634966492653 177.314043045044 2723.00004959106 16 21 14
-134.718745946884 177.869006991386 2849.99990463257 26 29 22
-126.943454146385 177.87304520607 2849.99990463257 25 30 23
-117.244243621826 175.005853176117 2803.99990081787 17 22 15
-108.420923352242 173.136934638023 2773.9999294281 15 17 12
-100.960627198219 173.327386379242 2776.99995040894 11 13 8
-92.5756320357323 171.832412481308 2753.00002098084 10 12 7
-85.248202085495 172.209694981575 2759.0000629425 12 17 11
-78.5073786973953 173.95992577076 2786.99994087219 2 7 0
-69.1966116428375 169.780164957047 2720.00002861023 9 9 0
-60.3421330451965 165.849730372429 2657.00006484985 15 8 0
-52.7904070913792 164.915189146996 2641.99995994568 69 55 46
-45.2168397605419 163.605883717537 2621.00005149841 92 74 62
-37.844855338335 162.670850753784 2605.99994659424 101 75 60
-30.7196993380785 162.609502673149 2605.00001907349 112 86 71
-23.5726945102215 162.360668182373 2601.0000705719 76 53 39
-16.4600927382708 162.2364372015 2598.99997711182 100 76 64
-9.35834273695946 162.111982703209 2596.99988365173 117 97 86
-2.27533979341388 162.549138069153 2604.00009155273 111 94 86
4.84403455629945 162.923634052277 2609.99989509583 28 14 5
11.918188072741 162.236720323563 2598.99997711182 29 20 13
19.1809646785259 163.67195546627 2621.99997901917 15 10 4
26.6395434737206 165.543913841248 2651.99995040894 12 11 6
33.9040979743004 165.667816996574 2654.00004386902 16 17 11
40.8848598599434 164.605498313904 2637.00008392334 14 17 6
48.1190755963326 164.728924632072 2638.99993896484 13 16 5
55.5736608803272 165.476381778717 2651.00002288818 13 16 5
62.6670569181442 165.100023150444 2644.99998092651 13 16 5
70.20303606987 165.846988558769 2657.00006484985 14 17 6
77.3961171507835 165.719851851463 2654.99997138977 14 17 6
84.6098437905312 165.654927492142 2654.00004386902 15 18 7
91.2294238805771 164.528697729111 2635.99991798401 16 19 8
98.646491765976 164.900243282318 2641.99995994568 16 19 8
106.015779078007 165.146738290787 2645.99990844727 16 19 8
114.818707108498 167.452618479729 2683.00008773804 16 19 8
122.093185782433 167.386546730995 2681.99992179871 19 22 13
129.361718893051 167.320266366005 2680.99999427795 17 20 11
136.573299765587 167.191371321678 2678.99990081787 16 19 10
143.934577703476 167.249500751495 2680.0000667572 15 18 9
150.454178452492 166.371300816536 2665.99988937378 15 18 9
156.837671995163 165.430545806885 2651.00002288818 18 21 12
164.252728223801 165.612861514091 2654.00004386902 16 19 10
172.329649329185 166.418939828873 2667.00005531311 15 18 9
181.01555109024 167.723938822746 2687.99996376038 18 21 12
187.993481755257 167.406380176544 2683.00008773804 19 22 13
195.67134976387 167.712554335594 2687.99996376038 16 19 12
207.831382751465 171.699568629265 2752.00009346008 14 19 12
-133.021041750908 167.947381734848 2813.99989128113 22 27 20
-117.12234467268 167.178884148598 2801.00011825562 22 30 19
-108.463302254677 165.630400180817 2775.00009536743 22 30 19
-99.9093428254128 164.021924138069 2747.99990653992 17 23 13
-93.3855175971985 165.755748748779 2776.99995040894 15 18 9
-86.0850512981415 166.295602917671 2786.00001335144 12 15 6
-77.8336822986603 164.925172924995 2763.00001144409 14 15 7
-68.2319700717926 160.092368721962 2681.99992179871 12 12 4
-60.979887843132 160.273373126984 2684.99994277954 13 13 5
-53.2316155731678 159.021526575089 2664.00003433228 52 49 42
-45.5632619559765 157.650083303452 2641.00003242493 75 68 58
-38.0638465285301 156.457453966141 2621.00005149841 85 67 47
-30.8385696262121 156.100332736969 2615.00000953674 92 74 54
-23.6821696162224 155.981734395027 2612.99991607666 85 63 49
-16.5619309991598 156.101733446121 2615.00000953674 57 35 22
-9.40547697246075 155.803650617599 2609.99989509583 83 63 54
-2.28065182454884 155.803814530373 2609.99989509583 105 86 79
4.82747843489051 155.266523361206 2601.0000705719 25 12 6
11.9598247110844 155.684143304825 2608.00004005432 27 18 11
19.3424932658672 157.832682132721 2644.00005340576 20 17 10
26.7508570104837 158.966198563576 2663.00010681152 16 17 11
33.9690074324608 158.726498484612 2658.99991989136 9 12 5
41.3047336041927 159.023866057396 2664.00003433228 16 19 10
48.4122969210148 158.485278487206 2654.99997138977 15 18 9
55.5963218212128 158.304646611214 2651.99995040894 14 17 8
63.1191357970238 159.019187092781 2664.00003433228 14 17 8
70.522241294384 159.315645694733 2668.99991035461 15 18 9
77.3110091686249 158.298701047897 2651.99995040894 18 21 12
84.357351064682 157.938152551651 2645.99990844727 16 19 10
91.6821211576462 158.114612102509 2648.9999294281 15 18 9
98.9481881260872 158.171474933624 2650.00009536743 17 20 11
106.499806046486 158.645927906036 2657.99999237061 17 20 11
113.709479570389 158.582985401154 2657.00006484985 15 18 9
121.73268198967 159.594148397446 2674.00002479553 16 19 12
127.918034791946 158.217757940292 2651.00002288818 14 17 10
136.628419160843 159.944623708725 2680.0000667572 14 17 10
143.186941742897 159.104973077774 2665.99988937378 16 19 12
150.00718832016 158.623263239861 2657.99999237061 17 20 13
158.26228260994 159.633249044418 2674.99995231628 19 22 15
164.505183696747 158.614069223404 2657.99999237061 19 22 15
172.593235969543 159.384906291962 2671.0000038147 18 21 14
180.8862388134 160.274833440781 2686.00010871887 16 19 12
188.699752092361 160.687178373337 2693.00007820129 15 18 11
196.113899350166 160.74126958847 2694.00000572205 14 17 10
207.384377717972 163.838058710098 2746.00005149841 18 21 14
-123.966492712498 158.509850502014 2782.99999237061 19 25 15
-116.163976490498 158.22845697403 2778.00011634827 23 29 19
-107.684701681137 156.921595335007 2755.00011444092 24 30 20
-99.4395837187767 155.78530728817 2734.99989509583 20 26 16
-92.6483795046806 156.92725777626 2755.00011444092 19 22 13
-85.4077488183975 157.442420721054 2763.99993896484 14 15 7
-77.075332403183 155.849799513817 2736.00006103516 15 16 8
-69.3279430270195 155.225291848183 2724.99990463257 12 12 4
-61.0270947217941 153.062537312508 2687.00003623962 9 9 1
-53.6727830767632 153.007209300995 2686.00010871887 34 34 26
-45.9614060819149 151.755392551422 2664.00003433228 55 51 40
-38.4135134518147 150.674253702164 2644.99998092651 66 49 31
-31.0399569571018 149.934694170952 2631.99996948242 70 53 35
-23.7825643271208 149.479746818542 2624.00007247925 84 65 51
-16.6194178164005 149.480327963829 2624.00007247925 63 43 32
-9.43818595260382 149.195864796638 2618.99995803833 45 27 17
-2.28770915418863 149.139061570168 2618.00003051758 73 56 48
4.85174870118499 148.911148309708 2614.00008201599 121 106 99
12.0518943294883 149.708464741707 2628.00002098084 18 11 3
19.4015856832266 151.075199246407 2651.99995040894 17 14 7
26.701407507062 151.416331529617 2657.99999237061 8 9 3
34.0594276785851 151.87118947506 2665.99988937378 16 19 12
41.3834638893604 152.041018009186 2668.99991035461 17 20 11
48.7054698169231 152.153670787811 2671.0000038147 15 18 9
55.8285489678383 151.6964584589 2663.00010681152 15 18 9
63.1683617830276 151.865661144257 2665.99988937378 15 18 9
70.6299841403961 152.262479066849 2673.00009727478 16 19 10
77.3132592439651 151.064172387123 2651.99995040894 17 20 11
84.1047540307045 150.264412164688 2638.00001144409 15 18 9
91.6155576705933 150.774568319321 2647.0000743866 14 17 8
99.3244647979736 151.512339711189 2660.00008583069 16 19 10
106.0621291399 150.768950581551 2647.0000743866 15 18 9
112.814016640186 150.139331817627 2635.99991798401 13 16 7
120.051749050617 150.193005800247 2637.00008392334 15 18 11
127.728715538979 150.759056210518 2647.0000743866 15 18 11
134.949922561646 150.755360722542 2647.0000743866 15 18 11
142.009451985359 150.580614805222 2644.00005340576 17 20 13
149.729311466217 151.089087128639 2653.00011634827 18 21 14
159.509286284447 153.533577919006 2696.00009918213 19 22 15
166.304767131805 153.01650762558 2687.00003623962 17 20 13
172.792017459869 152.271464467049 2674.00002479553 16 19 12
181.093409657478 153.120711445808 2688.99989128113 14 17 10
188.144505023956 152.887836098671 2684.99994277954 13 16 9
195.537060499191 152.939453721046 2686.00010871887 13 16 9
203.613981604576 153.503328561783 2696.00009918213 19 22 15
-124.593548476696 151.677280664444 2796.99993133545 21 27 17
-115.958102047443 150.37901699543 2773.00000190735 20 26 16
-108.234912157059 150.165125727654 2769.00005340576 21 27 17
-100.242249667645 149.5171636343 2756.99996948242 21 27 17
-92.0792371034622 148.489341139793 2737.99991607666 24 27 18
-84.7921147942543 148.817151784897 2743.99995803833 19 20 12
-76.3168409466743 146.921142935753 2709.00011062622 18 19 11
-69.1008940339088 147.302761673927 2716.00008010864 18 19 11
-61.5965984761715 147.087574005127 2711.99989318848 17 17 9
-53.7941716611385 146.004423499107 2691.99991226196 16 16 8
-46.3422611355782 145.680382847786 2686.00010871887 22 19 10
-38.7486256659031 144.705280661583 2667.99998283386 48 38 26
-31.2295202165842 143.621474504471 2648.00000190735 65 53 41
-23.8829255104065 142.91712641716 2634.99999046326 64 50 41
-16.6705511510372 142.754957079887 2631.99996948242 73 59 50
-9.47448704391718 142.592594027519 2628.99994850159 71 58 50
-2.29563820175827 142.484307289124 2627.00009346008 52 39 31
4.87044546753168 142.321556806564 2624.00007247925 25 14 8
12.1072642505169 143.189132213593 2640.00010490417 21 16 10
19.3874966353178 143.731087446213 2650.00009536743 17 14 7
26.7423372715712 144.381299614906 2661.99994087219 18 19 11
33.98372605443 144.271999597549 2660.00008583069 10 11 3
41.3691140711308 144.704878330231 2667.99998283386 15 18 9
48.542708158493 144.378244876862 2661.99994087219 15 18 9
55.830106139183 144.431054592133 2663.00010681152 15 18 9
62.6251399517059 143.344700336456 2642.99988746643 16 19 10
70.3941360116005 144.481852650642 2664.00003433228 16 19 10
77.0530179142952 143.340915441513 2642.99988746643 17 20 11
83.9476734399796 142.796397209167 2632.99989700317 17 20 11
91.375820338726 143.173664808273 2640.00010490417 17 20 11
98.9911481738091 143.767639994621 2651.00002288818 19 22 13
106.024995446205 143.493697047234 2645.99990844727 19 22 13
112.132348120213 142.080783843994 2619.99988555908 19 22 13
119.963988661766 142.891094088554 2634.99999046326 18 21 14
127.297922968864 143.050462007523 2638.00001144409 18 21 14
135.208547115326 143.806099891663 2651.99995040894 18 21 14
142.281904816628 143.639698624611 2648.9999294281 18 21 14
149.620532989502 143.744260072708 2651.00002288818 18 21 14
157.679468393326 144.499257206917 2664.99996185303 15 18 11
167.361497879028 146.609514951706 2703.9999961853 14 17 10
173.119813203812 145.249500870705 2678.99990081787 12 15 8
182.916715741158 147.250816226006 2716.00008010864 11 14 7
187.869310379028 145.348384976387 2680.99999427795 11 14 7
194.59593296051 144.909635186195 2673.00009727478 13 16 9
204.827874898911 147.018611431122 2711.99989318848 15 18 11
-126.378685235977 146.106705069542 2836.99989318848 19 25 15
-116.922959685326 143.998295068741 2796.0000038147 23 29 19
-108.276844024658 142.66212284565 2769.99998092651 24 30 20
-100.281246006489 142.046764492989 2757.99989700317 21 27 17
-91.8462574481964 140.658631920815 2730.99994659424 20 23 14
-84.0836092829704 140.145838260651 2720.99995613098 19 20 12
-77.8120085597038 142.259687185287 2762.00008392334 15 16 8
-70.3239813446999 142.364606261253 2763.99993896484 12 13 5
-61.6209506988525 139.739453792572 2713.00005912781 14 14 6
-53.6357350647449 138.247221708298 2684.00001525879 17 17 9
-38.8948954641819 137.94057071209 2677.99997329712 22 15 5
-31.4898192882538 137.529402971268 2670.00007629395 37 28 19
-24.0467134863138 136.65446639061 2653.00011634827 47 37 28
-16.74067042768 136.139899492264 2642.99988746643 50 40 31
-9.52159147709608 136.088728904724 2641.99995994568 60 49 43
-2.31317686848342 136.346444487572 2647.0000743866 82 71 65
4.9299718812108 136.809974908829 2655.99989891052 40 31 24
12.1901370584965 136.912778019905 2657.99999237061 14 9 3
19.4904375821352 137.221425771713 2664.00003433228 20 17 10
26.6425888985395 136.602729558945 2651.99995040894 13 14 6
33.9718498289585 136.962488293648 2658.99991989136 16 17 9
41.0755947232246 136.446446180344 2648.9999294281 15 18 9
48.3069308102131 136.445283889771 2648.9999294281 16 19 10
55.5590353906155 136.49545609951 2650.00009536743 16 19 10
62.6978874206543 136.28788292408 2645.99990844727 17 20 11
69.6032494306564 135.668098926544 2634.0000629425 17 20 11
76.9384428858757 135.923728346825 2638.99993896484 18 21 12
83.7585926055908 135.303601622581 2627.00009346008 18 21 12
91.2051647901535 135.713368654251 2634.99999046326 19 22 13
98.6203402280808 136.019960045815 2641.00003242493 19 22 13
105.587005615234 135.708317160606 2634.99999046326 20 23 14
112.606100738049 135.499507188797 2631.00004196167 20 23 14
120.194792747498 135.960042476654 2640.00010490417 18 21 14
127.976849675179 136.574849486351 2651.99995040894 17 20 13
135.670945048332 137.034952640533 2661.00001335144 16 19 12
142.446756362915 136.567935347557 2651.99995040894 13 16 9
150.922551751137 137.697100639343 2674.00002479553 11 14 7
158.630266785622 138.053625822067 2680.99999427795 14 17 10
165.013805031776 137.277141213417 2665.99988937378 13 16 9
174.804493784904 139.280989766121 2704.99992370605 13 16 9
178.341656923294 136.341631412506 2648.00000190735 14 17 10
186.893090605736 137.315317988396 2667.00005531311 16 19 12
194.964945316315 137.876868247986 2677.99997329712 18 21 14
204.908683896065 139.673799276352 2713.00005912781 19 22 15
-125.401794910431 137.293443083763 2815.00005722046 20 26 16
-116.88407510519 136.320933699608 2795.00007629395 17 23 13
-108.709543943405 135.640844702721 2780.99989891052 15 21 11
-100.029237568378 134.180158376694 2750.99992752075 13 16 7
-91.8822064995766 133.255779743195 2732.00011253357 11 14 5
-85.5381414294243 135.01387834549 2767.99988746643 10 11 3
-78.0393406748772 135.113447904587 2769.99998092651 11 12 4
-70.1985359191895 134.578704833984 2759.0000629425 13 14 6
-62.7127587795258 134.677872061729 2760.99991798401 11 12 4
-54.8761002719402 133.947655558586 2746.00005149841 8 9 1
-45.965064316988 129.948973655701 2664.00003433228 14 14 6
-39.3461287021637 132.14510679245 2709.00011062622 19 18 13
-31.9387912750244 132.097214460373 2707.99994468689 6 5 1
-24.3555046617985 131.073504686356 2687.00003623962 6 3 0
-16.9057790189981 130.195960402489 2668.99991035461 26 23 16
-9.6011208370328 129.952400922775 2664.00003433228 39 34 30
-2.32896558009088 130.001306533813 2664.99996185303 18 13 7
4.98207053169608 130.928114056587 2684.00001525879 13 8 2
12.1308248490095 129.025459289551 2644.99998092651 20 17 10
19.4323975592852 129.561647772789 2655.99989891052 15 12 5
26.5528410673141 128.926932811737 2642.99988746643 10 11 3
33.6277447640896 128.389611840248 2631.99996948242 20 21 13
41.030116379261 129.071623086929 2645.99990844727 15 18 9
48.2534356415272 129.07050549984 2645.99990844727 15 18 9
55.4346330463886 128.971680998802 2644.00005340576 16 19 10
62.296636402607 128.238558769226 2628.99994850159 17 20 11
69.631427526474 128.529608249664 2634.99999046326 17 20 11
76.7071396112442 128.332704305649 2631.00004196167 19 22 13
84.1114297509193 128.672197461128 2638.00001144409 19 22 13
91.1382213234901 128.426149487495 2632.99989700317 18 21 12
98.6228138208389 128.814056515694 2641.00003242493 17 20 11
106.471233069897 129.591926932335 2657.00006484985 17 20 11
113.036930561066 128.808885812759 2641.00003242493 17 20 11
120.744131505489 129.342541098595 2651.99995040894 15 18 11
128.173068165779 129.534602165222 2655.99989891052 14 17 10
134.705573320389 128.848627209663 2641.99995994568 14 17 10
141.752004623413 128.698974847794 2638.99993896484 13 16 9
150.19254386425 129.768341779709 2661.00001335144 12 15 8
157.687470316887 129.95970249176 2664.99996185303 16 19 12
165.513068437576 130.394697189331 2674.00002479553 16 19 12
170.995980501175 129.025295376778 2645.99990844727 16 19 12
180.299237370491 130.532696843147 2677.00004577637 17 20 13
188.439354300499 131.113395094872 2688.99989128113 17 20 13
197.081029415131 131.98646903038 2707.00001716614 18 21 14
-123.979188501835 128.139212727547 2782.99999237061 22 25 16
-114.377625286579 125.931829214096 2734.99989509583 18 21 12
-107.343934476376 126.4408826828 2746.00005149841 17 20 11
-100.177057087421 126.857712864876 2755.00011444092 15 18 9
-92.7588269114494 126.998052000999 2757.99989700317 13 16 7
-85.6637954711914 127.644792199135 2772.0000743866 11 14 5
-78.4356370568275 128.199279308319 2783.99991989136 11 14 5
-70.0729861855507 126.819521188736 2753.99994850159 12 13 5
-62.350831925869 126.406610012054 2744.99988555908 12 13 5
-54.8973903059959 126.500084996223 2746.99997901917 11 12 4
-47.2430028021336 126.086801290512 2737.99991607666 10 11 5
-39.9280525743961 126.594379544258 2749.00007247925 11 12 7
-32.3523692786694 126.31893157959 2743.00003051758 10 10 8
-24.7095990926027 125.53671002388 2726.0000705719 11 10 6
-17.2292329370975 125.260889530182 2720.00002861023 10 9 4
-9.81399323791265 125.399366021156 2723.00004959106 12 8 5
-2.381457015872 125.491589307785 2724.99990463257 12 9 4
4.90979617461562 121.807403862476 2644.99998092651 13 10 5
12.3054003342986 123.557195067406 2683.00008773804 11 11 3
19.5206645876169 122.866034507751 2667.99998283386 10 10 2
26.4630559831858 121.299736201763 2634.0000629425 11 12 4
33.7563194334507 121.667459607124 2641.99995994568 13 14 6
41.387751698494 122.90995568037 2668.99991035461 14 17 8
48.9658303558826 123.645730316639 2684.99994277954 14 17 8
55.3520992398262 121.572256088257 2640.00010490417 13 16 7
62.3692087829113 121.202476322651 2631.99996948242 14 17 8
70.2408999204636 122.398234903812 2657.99999237061 14 17 8
77.3795545101166 122.212328016758 2654.00004386902 15 18 9
84.3685120344162 121.842071413994 2645.99990844727 16 19 10
91.6596129536629 121.932126581669 2648.00000190735 16 19 10
99.1479530930519 122.252248227596 2654.99997138977 15 18 9
105.87266087532 121.651284396648 2641.99995994568 16 19 10
113.724440336227 122.339442372322 2657.00006484985 17 20 11
120.5193400383 121.876299381256 2647.0000743866 17 20 13
127.162650227547 121.320948004723 2634.99999046326 15 18 11
135.26962697506 122.14670330286 2653.00011634827 14 17 10
142.077639698982 121.775202453136 2644.99998092651 14 17 10
149.631649255753 122.04809486866 2651.00002288818 15 18 11
157.276958227158 122.366867959499 2657.99999237061 17 20 13
165.640726685524 123.191855847836 2676.00011825562 20 23 16
172.357112169266 122.773699462414 2667.00005531311 16 19 12
181.448429822922 124.012604355812 2694.00000572205 15 18 11
190.055564045906 124.836981296539 2711.99989318848 17 20 13
197.740837931633 125.016748905182 2716.00008010864 13 16 9
-125.318467617035 121.8446418643 2812.99996376038 24 27 18
-114.79838937521 118.901789188385 2744.99988555908 19 22 13
-107.111796736717 118.687622249126 2740.00000953674 17 20 11
-99.7065901756287 118.776507675648 2742.00010299683 17 20 11
-93.0636152625084 119.861550629139 2766.99995994568 16 19 10
-86.0674753785133 120.643250644207 2785.00008583069 13 16 7
-78.3810466527939 120.515070855618 2782.00006484985 13 16 7
-70.9905698895454 120.863266289234 2789.99996185303 14 15 7
-62.7383962273598 119.651757180691 2762.00008392334 14 15 7
-55.258359760046 119.783006608486 2765.00010490417 13 14 6
-47.9515232145786 120.390631258488 2779.00004386902 12 13 7
-40.1758812367916 119.828425347805 2766.00003242493 9 11 6
-32.6243750751019 119.829215109348 2766.00003242493 10 10 8
-24.9730329960585 119.35330927372 2755.00011444092 9 9 7
-17.5716802477837 120.176889002323 2773.9999294281 8 9 4
-9.95477847754955 119.657322764397 2762.00008392334 9 8 4
-2.37451959401369 117.707930505276 2717.00000762939 11 10 5
4.92104515433311 114.848606288433 2651.00002288818 12 11 6
12.1359741315246 114.631794393063 2645.99990844727 11 11 3
19.7552423924208 116.970881819725 2700.00004768372 11 11 3
26.6947355121374 115.107499063015 2657.00006484985 12 13 5
34.0509526431561 115.453414618969 2664.99996185303 13 14 6
41.4817295968533 115.885809063911 2674.99995231628 15 18 9
48.4198145568371 115.018390119076 2654.99997138977 14 17 8
55.4372109472752 114.540725946426 2644.00005340576 14 17 8
62.7734661102295 114.756017923355 2648.9999294281 15 18 9
70.1631903648376 115.014493465424 2654.99997138977 15 18 9
77.3521363735199 114.926256239414 2653.00011634827 17 20 11
84.338515996933 114.577934145927 2644.99998092651 18 21 12
91.7309075593948 114.792615175247 2650.00009536743 18 21 12
98.9261120557785 114.74721878767 2648.9999294281 16 19 10
105.915099382401 114.485085010529 2642.99988746643 16 19 10
112.357281148434 113.703042268753 2625 17 20 11
121.387131512165 115.476414561272 2665.99988937378 16 19 12
128.082439303398 114.953950047493 2654.00004386902 16 19 12
136.598333716393 116.033926606178 2678.99990081787 15 18 11
143.208831548691 115.467846393585 2665.99988937378 16 19 12
150.199398398399 115.248143672943 2661.00001335144 17 20 13
157.753825187683 115.461379289627 2665.99988937378 17 20 13
165.830060839653 116.020910441875 2678.99990081787 19 22 15
174.428969621658 116.883412003517 2698.99988174438 19 22 15
182.125940918922 117.096140980721 2703.9999961853 15 18 11
189.218774437904 116.918981075287 2700.00004768372 17 20 13
197.817966341972 117.651015520096 2717.00000762939 13 16 9
-117.68651008606 114.211291074753 2813.99989128113 19 22 13
-106.449477374554 110.520146787167 2723.00004959106 17 20 11
-100.363232195377 112.024016678333 2759.99999046326 15 18 9
-93.5028269886971 112.83777654171 2779.99997138977 16 19 10
-87.027333676815 114.300839602947 2815.99998474121 16 19 10
-78.382708132267 112.922467291355 2782.00006484985 15 18 9
-70.3050494194031 112.152762711048 2763.00001144409 16 19 10
-63.171312212944 112.884782254696 2780.99989891052 15 18 9
-55.6792207062244 113.088950514793 2786.00001335144 14 17 8
-47.8317514061928 112.521730363369 2772.0000743866 13 16 9
-40.3510369360447 112.766191363335 2778.00011634827 10 12 7
-32.8845642507076 113.172881305218 2788.00010681152 9 11 8
-25.3452192991972 113.498210906982 2796.0000038147 9 11 8
-17.4326952546835 111.71256005764 2752.00009346008 7 9 4
-9.92976035922766 111.834615468979 2755.00011444092 8 9 4
-2.35097273252904 109.196171164513 2690.00005722046 11 12 6
4.90258587524295 107.20706731081 2641.00003242493 12 13 7
12.3151103034616 108.992986381054 2684.99994277954 13 14 8
19.8946837335825 110.372841358185 2719.00010108948 12 13 5
27.1976571530104 109.885238111019 2707.00001716614 12 13 5
34.051675349474 108.179703354836 2664.99996185303 15 16 8
41.5136255323887 108.6660400033 2677.00004577637 13 16 7
48.5485047101974 108.056224882603 2661.99994087219 13 16 7
56.2351532280445 108.866989612579 2681.99992179871 14 17 8
63.130259513855 108.135126531124 2664.00003433228 16 19 10
70.3232437372208 108.011983335018 2661.00001335144 17 20 11
77.3246064782143 107.645153999329 2651.99995040894 18 21 12
84.6591666340828 107.765257358551 2654.99997138977 19 22 13
91.5251448750496 107.316993176937 2644.00005340576 19 22 13
99.0402325987816 107.639744877815 2651.99995040894 18 21 12
105.716966092587 107.069440186024 2638.00001144409 19 22 13
114.371404051781 108.447141945362 2671.99993133545 19 22 13
122.892245650291 109.540559351444 2698.99988174438 18 21 14
128.905564546585 108.401618897915 2671.0000038147 18 21 14
135.734349489212 108.033679425716 2661.99994087219 18 21 14
143.749013543129 108.59902203083 2676.00011825562 19 22 15
151.387885212898 108.83953422308 2681.99992179871 19 22 15
158.822223544121 108.917571604252 2684.00001525879 14 17 10
167.133435606956 109.563566744328 2700.00004768372 14 17 10
175.33740401268 110.087662935257 2713.00005912781 14 17 10
182.062387466431 109.678313136101 2703.00006866455 12 15 8
189.432919025421 109.674602746964 2703.00006866455 12 15 8
198.986992239952 110.887959599495 2733.00004005432 11 14 7
-118.065245449543 106.872297823429 2822.99995422363 20 21 13
-109.305389225483 105.852283537388 2796.0000038147 17 18 10
-101.419769227505 105.589270591736 2789.00003433228 14 15 7
-94.177357852459 106.007590889931 2799.99995231628 14 17 8
-85.9473720192909 105.289965867996 2780.99989891052 15 18 9
-78.0179798603058 104.837216436863 2769.00005340576 15 18 9
-70.4336762428284 104.800775647163 2767.99988746643 15 18 9
-63.0135536193848 105.029210448265 2773.9999294281 15 18 9
-55.5004589259624 105.143949389458 2776.99995040894 14 17 8
-47.9362420737743 105.182804167271 2778.00011634827 13 16 9
-40.1339493691921 104.615688323975 2763.00001144409 13 14 9
-32.6139219105244 104.692116379738 2765.00010490417 12 13 8
-25.0647105276585 104.692682623863 2765.00010490417 11 12 7
-17.4267068505287 104.162998497486 2750.99992752075 8 10 5
-9.87949687987566 103.784620761871 2740.9999370575 7 9 4
-2.41656857542694 104.693464934826 2765.00010490417 7 9 4
4.96394420042634 101.24783962965 2674.00002479553 12 15 8
12.6410126686096 104.352496564388 2756.00004196167 13 16 9
19.9097134172916 103.026948869228 2720.99995613098 12 15 8
26.7862565815449 100.944004952908 2665.99988937378 14 15 9
34.43568572402 102.041460573673 2694.9999332428 15 16 10
41.0957410931587 100.336894392967 2650.00009536743 12 15 6
49.461368471384 102.683529257774 2711.99989318848 12 15 6
56.1314299702644 101.357318460941 2677.00004577637 13 16 7
63.107818365097 100.826121866703 2663.00010681152 15 18 9
70.4832002520561 100.976273417473 2667.00005531311 17 20 11
77.9092907905579 101.164154708385 2671.99993133545 16 19 10
85.3942483663559 101.389765739441 2677.99997329712 17 20 11
92.219278216362 100.858025252819 2664.00003433228 18 21 12
98.9674925804138 100.326173007488 2650.00009536743 18 21 12
106.400333344936 100.513517856598 2654.99997138977 19 22 13
114.373654127121 101.154997944832 2671.99993133545 20 23 14
121.710799634457 101.190626621246 2673.00009727478 19 22 15
129.487231373787 101.566798985004 2683.00008773804 19 22 15
135.991975665092 100.958600640297 2667.00005531311 19 22 15
143.160909414291 100.88025778532 2664.99996185303 17 20 13
152.802035212517 102.467313408852 2707.00001716614 17 20 13
160.659745335579 102.767176926136 2714.99991416931 17 20 13
168.993756175041 103.331834077835 2730.00001907349 13 16 9
175.211533904076 102.609470486641 2710.99996566772 13 16 9
182.739451527596 102.681830525398 2713.00005912781 13 16 9
190.137431025505 102.678351104259 2713.00005912781 12 15 8
-127.464354038239 100.500240921974 2861.00006103516 19 20 12
-117.649167776108 98.8162532448769 2812.99996376038 20 21 13
-109.698340296745 98.5723584890366 2805.99999427795 18 19 11
-102.439850568771 98.960667848587 2816.99991226196 14 15 7
-94.0781906247139 98.2598066329956 2796.99993133545 14 17 8
-86.227111518383 98.0155020952225 2789.99996185303 14 17 8
-78.3575251698494 97.7007672190666 2780.99989891052 14 17 8
-70.4858750104904 97.3156467080116 2769.99998092651 14 17 8
-63.0147159099579 97.4573567509651 2773.9999294281 13 16 7
-55.4615147411823 97.493551671505 2775.00009536743 13 16 7
-47.7300547063351 97.1782729029655 2766.00003242493 12 15 6
-40.1492193341255 97.108781337738 2763.99993896484 13 14 8
-32.4611887335777 96.687838435173 2752.00009346008 12 13 7
-25.0379797071218 97.0396846532822 2762.00008392334 11 12 6
-17.5347197800875 97.2508639097214 2767.99988746643 8 11 4
-10.0202513858676 97.6727157831192 2779.99997138977 7 10 3
-2.40175519138575 96.5485423803329 2747.99990653992 10 13 6
5.09027205407619 96.3377133011818 2742.00010299683 11 14 7
12.6091418787837 96.5835005044937 2749.00007247925 13 16 9
19.9393518269062 95.7399904727936 2724.99990463257 13 16 9
27.1283742040396 94.8612242937088 2700.00004768372 13 16 9
34.1296531260014 93.8417986035347 2671.0000038147 13 16 9
41.9959686696529 95.1410531997681 2707.99994468689 13 16 7
48.4774187207222 93.3835953474045 2657.99999237061 13 16 7
56.0905300080776 93.9799100160599 2674.99995231628 13 16 7
62.9430934786797 93.3113396167755 2655.99989891052 15 18 9
70.6695094704628 93.9425230026245 2674.00002479553 16 19 10
78.3189535140991 94.3627879023552 2686.00010871887 17 20 11
85.8422517776489 94.5721194148064 2691.99991226196 18 21 12
92.3248305916786 93.692272901535 2667.00005531311 18 21 12
99.0813672542572 93.198761343956 2653.00011634827 17 20 11
105.881288647652 92.8105190396309 2641.99995994568 18 21 12
113.51965367794 93.1598618626595 2651.99995040894 18 21 12
121.439814567566 93.6847105622292 2667.00005531311 16 19 12
129.151776432991 93.9986556768417 2676.00011825562 16 19 12
137.014284729958 94.3826958537102 2687.00003623962 16 19 12
144.506528973579 94.4856032729149 2690.00005722046 14 17 10
150.885567069054 93.8858985900879 2673.00009727478 13 16 9
160.721838474274 95.3934863209724 2716.00008010864 13 16 9
166.8301820755 94.6530401706696 2694.9999332428 12 15 8
175.020784139633 95.1066538691521 2707.99994468689 12 15 8
182.069167494774 94.9279516935349 2703.00006866455 14 17 10
189.860507845879 95.1354503631592 2709.00011062622 12 15 8
199.358433485031 96.1504876613617 2737.99991607666 14 17 10
-127.956613898277 93.0479317903519 2871.99997901917 17 18 10
-117.232926189899 90.8144265413284 2802.99997329712 19 20 12
-109.07469689846 90.3950780630112 2789.99996185303 18 19 11
-101.49610042572 90.4292017221451 2790.99988937378 15 16 8
-94.2816138267517 90.8196046948433 2802.99997329712 15 18 9
-86.4140167832375 90.5942767858505 2796.0000038147 17 20 11
-78.3588662743568 90.1096016168594 2780.99989891052 14 17 8
-70.3852921724319 89.6247923374176 2766.00003242493 14 17 8
-62.7886354923248 89.5610824227333 2763.99993896484 14 17 8
-55.2625991404057 89.5944610238075 2765.00010490417 13 16 7
-47.8516668081284 89.8545309901237 2773.00000190735 12 15 6
-40.0191769003868 89.2719998955727 2755.00011444092 13 14 8
-32.4145592749119 89.0457630157471 2747.99990653992 12 13 7
-25.0746700912714 89.6295011043549 2766.00003242493 11 12 6
-17.5603609532118 89.8242741823196 2772.0000743866 7 10 3
-9.91589389741421 89.1440138220787 2750.99992752075 6 9 2
-2.40179640240967 89.046910405159 2747.99990653992 9 12 5
5.07179507985711 88.5284170508385 2732.00011253357 11 14 7
12.5497281551361 88.6578932404518 2736.00006103516 13 16 9
19.8738388717175 88.0095437169075 2716.00008010864 13 16 9
27.1790754050016 87.652713060379 2704.99992370605 12 15 8
34.5391370356083 87.5873938202858 2703.00006866455 13 16 9
41.3608513772488 86.4202454686165 2667.00005531311 14 17 8
48.6788712441921 86.4842981100082 2668.99991035461 14 17 8
55.3366132080555 85.5113491415977 2638.99993896484 15 18 9
63.1811544299126 86.3852426409721 2665.99988937378 16 19 10
70.6971436738968 86.6757780313492 2674.99995231628 17 20 11
78.2619640231133 86.9661644101143 2684.00001525879 19 22 13
85.6842771172524 87.0620235800743 2687.00003623962 20 23 14
92.4994945526123 86.5745544433594 2671.99993133545 19 22 13
99.7179448604584 86.508184671402 2670.00007629395 17 20 11
106.123551726341 85.79371124506 2648.00000190735 16 19 10
113.393165171146 85.8243107795715 2648.9999294281 17 20 11
121.259734034538 86.2759873270988 2663.00010681152 13 16 9
129.733115434647 87.0838835835457 2687.99996376038 14 17 10
136.863619089127 86.9521349668503 2684.00001525879 15 18 11
144.562661647797 87.1766209602356 2690.99998474121 14 17 10
151.791289448738 87.1094316244125 2688.99989128113 13 16 9
158.06157886982 86.5238457918167 2671.0000038147 13 16 9
165.409177541733 86.5536257624626 2671.99993133545 10 13 6
173.21403324604 86.8100523948669 2680.0000667572 13 16 9
181.937485933304 87.4874070286751 2700.99997520447 13 16 9
189.583301544189 87.6139923930168 2704.99992370605 10 13 6
198.051124811172 88.0967453122139 2720.00002861023 13 16 9
-128.359600901604 85.475854575634 2881.00004196167 15 18 9
-116.189144551754 82.4217572808266 2778.00011634827 21 24 15
-107.786245644093 81.8003565073013 2756.99996948242 17 20 11
-100.879460573196 82.3063179850578 2773.9999294281 16 19 10
-93.6103686690331 82.5748220086098 2782.99999237061 14 17 8
-86.2608477473259 82.8135386109352 2790.99988937378 15 18 9
-78.5573422908783 82.7257633209229 2788.00010681152 15 18 9
-70.4118460416794 82.1037665009499 2766.99995994568 15 18 9
-62.3807162046433 81.4816430211067 2746.00005149841 14 17 8
-55.3234256803989 82.135334610939 2767.99988746643 13 16 7
-47.8524193167686 82.2844728827477 2773.00000190735 12 15 6
-39.9762280285358 81.6619992256165 2752.00009346008 12 14 9
-32.3678888380528 81.4251527190208 2743.99995803833 8 10 5
-24.9572154134512 81.6926509141922 2753.00002098084 7 9 4
-17.4085982143879 81.5446004271507 2747.99990653992 9 12 5
-9.90884192287922 81.574484705925 2749.00007247925 9 12 5
-2.41057458333671 81.8416401743889 2757.99989700317 8 11 4
5.10714761912823 81.6338956356049 2750.99992752075 10 13 6
12.5407529994845 81.1293050646782 2733.99996757507 14 17 8
19.7351202368736 80.031119287014 2697.00002670288 14 17 8
27.4708941578865 81.1287015676498 2733.99996757507 14 17 8
34.4757884740829 80.0599679350853 2697.99995422363 15 18 9
41.2684492766857 78.9614766836166 2661.00001335144 15 16 8
48.4242960810661 78.7827521562576 2654.99997138977 16 17 9
55.8407455682755 79.0193527936935 2663.00010681152 16 17 9
63.182145357132 79.1074708104134 2665.99988937378 18 19 11
70.8832591772079 79.58123087883 2681.99992179871 18 19 11
77.9716074466705 79.3427303433418 2674.00002479553 17 20 11
84.9840715527534 79.074464738369 2664.99996185303 18 21 12
92.3624634742737 79.162135720253 2667.99998283386 19 22 13
99.943608045578 79.3980732560158 2676.00011825562 17 20 11
106.646217405796 78.951470553875 2661.00001335144 16 19 10
113.951422274113 78.9794921875 2661.99994087219 17 20 11
121.899127960205 79.422764480114 2677.00004577637 14 17 10
129.155963659286 79.3912187218666 2676.00011825562 15 18 11
135.794907808304 79.0035873651505 2663.00010681152 16 19 12
143.597945570946 79.2981758713722 2673.00009727478 15 18 11
151.398479938507 79.5629695057869 2681.99992179871 14 17 10
157.472223043442 78.937716782093 2661.00001335144 12 15 8
166.402220726013 79.7362551093102 2687.99996376038 8 11 4
173.733755946159 79.7337591648102 2687.99996376038 16 19 12
191.96917116642 81.2411457300186 2739.00008201599 14 17 10
-117.152787744999 75.4583403468132 2801.00011825562 21 24 15
-108.608812093735 74.8402550816536 2778.00011634827 17 20 11
-100.844539701939 74.7069716453552 2773.00000190735 16 19 10
-93.4771597385406 74.8699530959129 2779.00004386902 14 17 8
-86.2620770931244 75.1944705843925 2790.99988937378 15 18 9
-78.783892095089 75.3303095698357 2796.0000038147 15 18 9
-70.4891979694366 74.6308267116547 2769.99998092651 15 18 9
-62.7905204892159 74.4700729846954 2763.99993896484 14 17 8
-55.2842542529106 74.5247825980186 2766.00003242493 13 16 7
-47.9393936693668 74.8488083481789 2778.00011634827 11 14 5
-40.1801727712154 74.5260939002037 2766.00003242493 11 13 8
-32.3683544993401 73.9338174462318 2743.99995803833 9 11 6
-24.8941145837307 73.9881098270416 2746.00005149841 9 11 6
-17.3138231039047 73.6381262540817 2733.00004005432 9 12 5
-9.84410289674997 73.5844224691391 2730.99994659424 8 11 4
-2.39312858320773 73.7731009721756 2737.99991607666 7 10 3
5.06637850776315 73.5305994749069 2729.00009155273 9 12 5
12.4629540368915 73.2071474194527 2717.00000762939 14 17 8
19.6402762085199 72.3177716135979 2684.00001525879 15 18 9
27.0894654095173 72.6407840847969 2696.00009918213 16 19 10
34.1184884309769 71.9398185610771 2670.00007629395 17 20 11
40.9898832440376 71.2118223309517 2642.99988746643 15 16 8
48.2061207294464 71.2112113833427 2642.99988746643 16 17 9
55.7367019355297 71.614645421505 2657.99999237061 16 17 9
63.0882680416107 71.7216059565544 2661.99994087219 17 18 10
70.8314180374146 72.205662727356 2680.0000667572 18 19 11
77.9727324843407 72.0429867506027 2674.00002479553 16 19 10
84.7301706671715 71.5838670730591 2657.00006484985 17 20 11
91.8791368603706 71.501836180687 2654.00004386902 18 21 12
99.6088907122612 71.8507617712021 2667.00005531311 17 20 11
106.888212263584 71.8493610620499 2667.00005531311 17 20 11
114.081464707851 71.7939734458923 2664.99996185303 17 20 11
121.991939842701 72.1695274114609 2678.99990081787 18 21 14
128.337278962135 71.6290548443794 2658.99991989136 16 19 12
135.184898972511 71.4117735624313 2651.00002288818 15 18 11
143.546223640442 71.9755664467812 2671.99993133545 12 15 8
152.473196387291 72.7547332644463 2700.99997520447 11 14 7
158.776387572289 72.2678005695343 2683.00008773804 12 15 8
166.218847036362 72.3194852471352 2684.99994277954 11 14 7
177.80813574791 74.0948393940926 2750.99992752075 14 17 10
192.322283983231 73.9013701677322 2743.99995803833 8 11 4
-126.224413514137 68.5854330658913 2832.99994468689 15 18 9
-118.618190288544 68.6595588922501 2835.99996566772 21 24 15
-110.447756946087 68.394660949707 2825.00004768372 17 20 11
-101.936861872673 67.8633227944374 2802.99997329712 16 19 10
-93.8483700156212 67.5497651100159 2789.99996185303 14 17 8
-86.2631946802139 67.5750896334648 2790.99988937378 15 18 9
-78.5313099622726 67.4792528152466 2786.99994087219 15 18 9
-70.693701505661 67.2622695565224 2778.00011634827 15 18 9
-62.7913475036621 66.9241026043892 2763.99993896484 13 16 7
-55.7047016918659 67.4817338585854 2786.99994087219 12 15 6
-48.7856082618237 68.4508979320526 2826.99990272522 10 13 4
-40.2097478508949 67.0228600502014 2767.99988746643 11 13 8
-32.4985347688198 66.7085349559784 2755.00011444092 10 12 7
-24.8037837445736 66.2488266825676 2736.00006103516 11 13 8
-17.3140484839678 66.1764517426491 2733.00004005432 10 13 6
-9.81178879737854 65.9102573990822 2721.99988365173 8 11 4
-2.36693839542568 65.5713453888893 2707.99994468689 7 10 3
5.02188829705119 65.4986798763275 2704.99992370605 9 12 5
12.4310068786144 65.6196475028992 2710.00003814697 14 17 8
19.8088400065899 65.5468106269836 2707.00001716614 14 17 8
27.0395744591951 65.1590898633003 2690.99998474121 15 18 9
34.1444909572601 64.6986588835716 2671.99993133545 16 19 10
41.254073381424 64.4076317548752 2660.00008583069 15 16 8
48.3891442418098 64.2375871539116 2653.00011634827 15 16 8
56.3245825469494 65.0359764695168 2686.00010871887 16 17 9
63.0416870117188 64.4057020545006 2660.00008583069 17 18 10
70.673756301403 64.7438541054726 2674.00002479553 18 19 11
78.032061457634 64.7913739085197 2676.00011825562 17 20 11
84.7631543874741 64.3545538187027 2657.99999237061 17 20 11
91.5341153740883 64.0145093202591 2644.00005340576 18 21 12
99.2366820573807 64.3280819058418 2657.00006484985 18 21 12
107.250303030014 64.786821603775 2676.00011825562 18 21 12
114.468216896057 64.7370517253876 2674.00002479553 18 21 12
123.26854467392 65.5345097184181 2707.00001716614 19 22 15
130.317836999893 65.3635039925575 2700.00004768372 16 19 12
135.849565267563 64.4903779029846 2664.00003433228 14 17 10
143.870413303375 64.8275911808014 2677.99997329712 11 14 7
152.531579136848 65.4067546129227 2701.99990272522 11 14 7
161.086410284042 65.8889934420586 2721.99988365173 11 14 7
170.183047652245 66.5405616164207 2749.00007247925 10 13 6
172.833517193794 64.7231116890907 2674.00002479553 7 10 3
183.359727263451 65.8827722072601 2721.99988365173 17 20 13
192.324712872505 66.4129927754402 2743.99995803833 9 12 5
-126.270443201065 60.8733296394348 2834.00011062622 15 18 9
-119.121484458447 61.1753724515438 2848.00004959106 21 24 15
-110.879093408585 60.9188638627529 2835.99996566772 17 20 11
-102.556280791759 60.5763271450996 2819.9999332428 16 19 10
-94.0849334001541 60.0833334028721 2796.99993133545 14 17 8
-85.6151282787323 59.5043078064919 2769.99998092651 14 17 8
-78.3349722623825 59.7200207412243 2779.99997138977 14 17 8
-70.7963034510612 59.7638003528118 2782.00006484985 14 17 8
-63.0874037742615 59.6571154892445 2776.99995040894 13 16 7
-55.605411529541 59.7651861608028 2782.00006484985 12 15 6
-48.0786338448524 59.8516874015331 2786.00001335144 10 13 4
-40.3409600257874 59.6588179469109 2776.99995040894 12 14 9
