ply
format ascii 1.0
comment KinectMotionCapture
element vertex 758
property float x
property float y
property float z
property uchar red
property uchar green
property uchar blue
end_header
-99.9762266874313 479.369789361954 2756.00004196167 173 175 172
-91.9685959815979 476.767629384995 2740.9999370575 173 175 172
-83.9190483093262 473.469138145447 2721.99988365173 186 188 185
-75.8040472865105 469.126403331757 2697.00002670288 193 193 191
-67.9772347211838 465.826600790024 2677.99997329712 194 194 192
-60.4349672794342 463.917911052704 2667.00005531311 183 183 181
-53.0321523547173 462.704390287399 2660.00008583069 179 179 177
-45.7017011940479 461.838185787201 2654.99997138977 165 165 163
-38.4273193776608 461.319416761398 2651.99995040894 161 163 158
-31.1456155031919 460.452228784561 2647.0000743866 160 162 157
-23.8729529082775 459.236562252045 2640.00010490417 161 163 158
-16.6446566581726 458.194315433502 2634.0000629425 164 166 161
-9.45258419960737 457.325518131256 2628.99994850159 164 166 161
-2.28858646005392 456.630051136017 2625 161 164 157
4.85177710652351 455.76024055481 2619.99988555908 160 163 156
11.9923399761319 455.933541059494 2621.00005149841 159 162 155
19.1237106919289 455.758422613144 2619.99988555908 158 161 154
26.2796375900507 456.104755401611 2621.99997901917 157 160 153
33.3826392889023 455.580711364746 2618.99995803833 157 160 153
40.5310615897179 455.751955509186 2619.99988555908 159 160 155
47.6484037935734 455.574810504913 2618.99995803833 159 160 155
54.7810569405556 455.571055412292 2618.99995803833 158 159 154
61.9135275483131 455.566853284836 2618.99995803833 157 158 153
69.0721422433853 455.736011266708 2619.99988555908 158 159 154
76.2941390275955 456.252545118332 2622.99990653992 159 160 155
83.5640430450439 456.942588090897 2627.00009346008 157 158 153
90.8554270863533 457.631945610046 2631.00004196167 157 158 153
98.1310456991196 458.146989345551 2634.0000629425 156 157 152
105.302736163139 458.139598369598 2634.0000629425 157 158 153
112.559467554092 458.479642868042 2635.99991798401 160 161 156
119.826719164848 458.819150924683 2638.00001144409 158 159 154
127.200737595558 459.505945444107 2641.99995994568 153 154 149
134.596109390259 460.192203521729 2645.99990844727 150 151 146
141.905635595322 460.530161857605 2648.00000190735 151 152 147
149.169266223907 460.693687200546 2648.9999294281 161 162 157
156.496912240982 461.030662059784 2651.00002288818 165 166 161
164.081916213036 462.062656879425 2657.00006484985 167 168 163
171.763509511948 463.268041610718 2664.00003433228 171 172 167
179.68425154686 464.994609355927 2674.00002479553 178 179 174
187.449052929878 466.198921203613 2680.99999427795 190 191 186
195.832476019859 468.793749809265 2696.00009918213 191 192 187
204.899713397026 472.779005765915 2719.00010108948 185 187 184
222.074329853058 462.301999330521 2658.99991989136 212 214 211
226.976603269577 457.592219114304 2631.99996948242 172 174 171
232.709839940071 454.794615507126 2615.9999370575 142 144 141
238.080352544785 451.475352048874 2596.99988365173 156 156 154
244.19629573822 449.720412492752 2586.99989318848 158 158 156
250.548511743546 448.486655950546 2579.99992370605 154 154 152
257.161408662796 447.774112224579 2575.99997520447 152 152 150
263.751775026321 447.061151266098 2572.00002670288 156 156 154
270.740628242493 447.043180465698 2572.00002670288 157 159 156
277.944654226303 447.372317314148 2573.99988174438 160 162 159
285.712271928787 448.570102453232 2581.00008964539 162 164 161
293.176740407944 449.245989322662 2585.00003814697 168 170 167
301.010549068451 450.44282078743 2592.00000762939 158 163 159
309.475749731064 452.50803232193 2604.00009155273 157 162 158
-285.825371742249 508.752405643463 2973.00004959106 217 219 216
-277.649939060211 508.600354194641 2971.99988365173 185 187 184
-269.569784402847 508.619010448456 2971.99988365173 173 175 170
-261.31284236908 508.294820785522 2970.00002861023 161 162 157
-252.724885940552 507.285594940186 2963.99998664856 147 148 143
-244.333863258362 506.618022918701 2960.00003814697 143 144 139
-236.52258515358 507.148087024689 2963.00005912781 138 139 133
-228.617087006569 507.506489753723 2964.99991416931 144 145 139
-220.700085163116 507.864475250244 2967.00000762939 139 140 134
-212.556421756744 507.708370685577 2966.00008010864 141 141 139
-204.486444592476 507.722914218903 2966.00008010864 143 143 141
-196.48203253746 507.90810585022 2967.00000762939 136 138 135
-188.408061861992 507.921636104584 2967.00000762939 131 133 130
-180.880472064018 509.475350379944 2976.0000705719 119 121 118
-173.477455973625 511.542201042175 2987.99991607666 123 125 122
-116.285555064678 477.190524339676 2786.99994087219 208 210 207
-107.955947518349 473.945289850235 2767.99988746643 167 169 166
-99.8746007680893 471.384435892105 2753.00002098084 180 182 179
-91.8745696544647 468.822866678238 2737.99991607666 166 168 165
-83.8017761707306 465.404570102692 2717.99993515015 186 188 185
-75.7251903414726 461.300730705261 2694.00000572205 194 194 192
-67.9313912987709 458.223760128021 2676.00011825562 193 193 191
-60.5073310434818 457.200944423676 2670.00007629395 179 179 177
-53.0958063900471 456.00637793541 2663.00010681152 174 174 172
-45.7910932600498 455.496251583099 2660.00008583069 162 162 160
-38.4590923786163 454.471796751022 2654.00004386902 159 161 158
-31.1714112758636 453.618109226227 2648.9999294281 157 159 156
-23.8927733153105 452.421426773071 2641.99995994568 158 160 157
-16.6585054248571 451.39542222023 2635.99991798401 161 163 158
-9.46046225726604 450.540214776993 2631.00004196167 162 164 159
-2.28962488472462 449.684381484985 2625.99992752075 161 163 158
4.85583394765854 448.999315500259 2621.99997901917 160 162 157
11.9932116940618 448.82744550705 2621.00005149841 156 159 152
19.1396996378899 448.997557163239 2621.99997901917 155 158 151
26.2815486639738 448.995977640152 2621.99997901917 156 159 152
33.3978086709976 448.651283979416 2619.99988555908 159 162 155
40.5185334384441 448.477357625961 2618.99995803833 157 158 153
47.6700514554977 448.645383119583 2619.99988555908 160 161 156
54.8059456050396 448.641717433929 2619.99988555908 160 161 156
62.012568116188 449.151217937469 2622.99990653992 158 159 154
69.2616999149323 449.831485748291 2627.00009346008 157 158 153
76.5323713421822 450.511157512665 2631.00004196167 158 159 154
83.7927460670471 451.019048690796 2634.0000629425 158 159 154
91.0346582531929 451.355278491974 2635.99991798401 159 160 155
98.2498750090599 451.519697904587 2637.00008392334 155 156 151
105.390258133411 451.341181993485 2635.99991798401 154 155 150
112.567529082298 451.333373785019 2635.99991798401 156 157 152
119.789876043797 451.496362686157 2637.00008392334 158 159 154
127.113536000252 452.001214027405 2640.00010490417 161 162 157
134.503975510597 452.676743268967 2644.00005340576 158 159 154
141.915753483772 453.351736068726 2648.00000190735 153 154 149
149.236187338829 453.683853149414 2650.00009536743 149 150 145
156.744137406349 454.529047012329 2654.99997138977 150 151 146
164.21702504158 455.202549695969 2658.99991989136 157 158 153
171.840101480484 456.217885017395 2664.99996185303 159 160 155
179.629683494568 457.575052976608 2673.00009727478 165 166 161
187.252432107925 458.418101072311 2677.99997329712 181 182 177
195.482939481735 460.630089044571 2690.99998474121 176 177 172
221.588537096977 454.068094491959 2653.00011634827 209 211 208
226.647287607193 449.773967266083 2628.00002098084 145 147 144
232.281029224396 446.848809719086 2611.00006103516 154 156 153
237.913265824318 444.094568490982 2595.00002861023 156 156 154
244.118541479111 442.53796339035 2585.99996566772 157 157 155
250.662624835968 441.66561961174 2581.00008964539 155 155 153
257.278621196747 440.964013338089 2576.99990272522 154 154 152
263.974606990814 440.433174371719 2573.99988174438 157 157 155
270.969331264496 440.415292978287 2573.99988174438 157 159 156
278.179228305817 440.739244222641 2575.99997520447 160 162 159
285.841941833496 441.747099161148 2582.00001716614 162 164 161
293.422967195511 442.583352327347 2586.99989318848 167 169 166
301.611036062241 444.274574518204 2596.99988365173 153 158 154
310.565680265427 446.991682052612 2612.99991607666 150 155 151
-294.914871454239 502.358376979828 2983.00004005432 207 209 206
-286.42150759697 501.704216003418 2979.00009155273 195 197 194
-278.042435646057 501.217901706696 2976.0000705719 173 175 172
-269.769489765167 500.899493694305 2973.99997711182 169 171 166
-261.506617069244 500.580608844757 2971.99988365173 154 155 150
-252.827376127243 499.418973922729 2964.99991416931 144 145 140
-244.51570212841 498.930603265762 2961.99989318848 154 155 150
-236.538857221603 499.115496873856 2963.00005912781 134 135 129
-228.710010647774 499.636858701706 2966.00008010864 137 138 132
-220.864117145538 500.157654285431 2969.00010108948 141 142 136
-212.71450817585 500.004172325134 2967.99993515015 141 141 139
-204.707533121109 500.187039375305 2969.00010108948 146 146 144
-196.694418787956 500.369369983673 2970.00002861023 134 136 133
-188.865795731544 501.056730747223 2973.99997711182 130 132 129
-181.379422545433 502.75444984436 2983.99996757507 124 126 123
-116.085186600685 468.790978193283 2782.00006484985 207 209 206
-107.807621359825 465.765684843063 2763.99993896484 164 166 163
-99.7365936636925 463.245391845703 2749.00007247925 181 183 180
-91.7133465409279 460.55594086647 2733.00004005432 163 165 162
-83.7152674794197 457.528829574585 2714.99991416931 185 187 184
-75.7306143641472 453.995585441589 2694.00000572205 194 194 192
-67.9870173335075 451.304346323013 2677.99997329712 192 192 190
-60.5569891631603 450.297832489014 2671.99993133545 177 177 175
-53.1793795526028 449.459284543991 2667.00005531311 173 173 171
-45.8115935325623 448.451638221741 2661.00001335144 161 161 159
-38.4618602693081 447.274953126907 2654.00004386902 159 161 158
-31.1736539006233 446.434766054153 2648.9999294281 156 158 155
-23.9216238260269 445.762634277344 2644.99998092651 157 159 156
-16.6913047432899 445.089995861053 2641.00003242493 160 162 157
-9.47193149477243 443.911224603653 2634.0000629425 160 162 157
-2.29240558110178 443.06892156601 2628.99994850159 162 164 159
4.85803512856364 442.05766916275 2622.99990653992 160 162 157
11.9986515492201 441.8885409832 2621.99997901917 155 158 151
19.1264785826206 441.550374031067 2619.99988555908 154 157 150
26.2533649802208 441.380232572556 2618.99995803833 156 159 152
33.3874635398388 441.378086805344 2618.99995803833 159 162 155
40.505975484848 441.206961870193 2618.00003051758 157 158 153
47.655276954174 441.372275352478 2618.99995803833 161 162 157
54.8098795115948 441.537141799927 2619.99988555908 161 162 157
62.040664255619 442.20706820488 2624.00007247925 158 159 154
69.3193897604942 443.044990301132 2628.99994850159 157 158 153
76.5960291028023 443.713903427124 2632.99989700317 157 158 153
83.8305503129959 444.04524564743 2634.99999046326 159 160 155
91.0756960511208 444.376051425934 2637.00008392334 159 160 155
98.2196256518364 444.200813770294 2635.99991798401 155 156 151
105.357781052589 444.025069475174 2634.99999046326 153 154 149
112.490132451057 443.848878145218 2634.0000629425 154 155 150
119.752936065197 444.177657365799 2635.99991798401 153 154 149
127.074375748634 444.674462080002 2638.99993896484 163 164 159
134.462609887123 445.339232683182 2642.99988746643 165 166 161
141.872152686119 446.003526449203 2647.0000743866 163 164 159
149.359330534935 446.83575630188 2651.99995040894 149 150 145
156.755164265633 447.330564260483 2654.99997138977 144 145 140
164.352059364319 448.330223560333 2661.00001335144 150 151 146
171.852126717567 448.99246096611 2664.99996185303 145 146 141
179.574996232986 450.159549713135 2671.99993133545 151 152 147
187.055677175522 450.652241706848 2674.99995231628 159 160 155
195.423856377602 453.16606760025 2690.00005722046 166 167 162
221.854284405708 447.381377220154 2655.99989891052 206 208 205
226.49022936821 442.312985658646 2625.99992752075 155 157 154
232.118874788284 439.434051513672 2608.99996757507 153 155 152
237.929373979568 437.060207128525 2595.00002861023 153 153 151
244.229421019554 435.696601867676 2586.99989318848 153 153 151
250.776618719101 434.837937355042 2582.00001716614 155 155 153
257.395684719086 434.147328138351 2578.00006866455 157 157 155
264.50502872467 434.298396110535 2578.9999961853 157 157 155
271.618992090225 434.449017047882 2579.99992370605 158 160 157
279.061555862427 435.10439991951 2584.00011062622 161 163 160
286.192893981934 435.25418639183 2585.00003814697 164 166 163
293.782502412796 436.077117919922 2589.99991416931 170 172 169
302.095323801041 437.909752130508 2601.0000705719 153 158 154
-303.245931863785 494.582951068878 2984.99989509583 212 214 211
-294.440060853958 493.442833423615 2977.9999256134 222 224 221
-286.440581083298 493.627786636353 2979.00009155273 184 186 183
-277.967602014542 492.98369884491 2974.99990463257 151 153 150
-269.878327846527 493.001997470856 2974.99990463257 153 155 150
-261.788219213486 493.019789457321 2974.99990463257 146 147 142
-253.526747226715 492.705732584 2973.00004959106 133 134 129
-245.357871055603 492.556750774384 2971.99988365173 131 132 127
-237.193644046783 492.407381534576 2970.99995613098 141 142 136
-229.03411090374 492.257505655289 2970.00002861023 142 143 137
-221.102446317673 492.604315280914 2971.99988365173 141 142 136
-213.015824556351 492.619127035141 2971.99988365173 130 132 129
-205.135345458984 493.130683898926 2974.99990463257 120 122 119
-197.171658277512 493.476063013077 2976.99999809265 116 118 115
-189.513966441154 494.649708271027 2983.99996757507 118 120 117
-115.5925989151 459.256559610367 2769.99998092651 209 211 208
-107.659198343754 457.60640501976 2759.99999046326 164 166 163
-99.6710732579231 455.4583132267 2746.99997901917 193 195 192
-91.6527062654495 452.812135219574 2730.99994659424 175 177 174
-83.5978537797928 449.502199888229 2710.99996566772 184 186 183
-75.651653110981 446.191698312759 2690.99998474121 190 190 188
-67.9410770535469 443.709582090378 2676.00011825562 186 186 184
-60.5159625411034 442.719250917435 2670.00007629395 177 177 175
-53.1632155179977 442.060023546219 2665.99988937378 172 172 170
-45.814860612154 441.23449921608 2661.00001335144 162 162 160
-38.4935773909092 440.408319234848 2655.99989891052 158 160 157
-31.199412420392 439.581751823425 2651.00002288818 155 157 154
-23.959506303072 439.25204873085 2648.9999294281 155 157 154
-16.705134883523 438.258588314056 2642.99988746643 160 162 159
-9.48699191212654 437.43047118187 2638.00001144409 162 164 159
-2.2960570640862 436.601787805557 2632.99989700317 161 163 158
4.86579118296504 435.606777667999 2627.00009346008 159 161 156
11.9995065033436 434.777021408081 2621.99997901917 156 158 153
19.1278401762247 434.444278478622 2619.99988555908 156 158 153
26.2652598321438 434.442698955536 2619.99988555908 157 159 154
33.3898402750492 434.274762868881 2618.99995803833 157 160 153
40.5088551342487 434.106349945068 2618.00003051758 160 161 156
47.6586744189262 434.269040822983 2618.99995803833 159 160 155
54.8556186258793 434.762805700302 2621.99997901917 159 160 155
62.0687194168568 435.25618314743 2625 159 160 155
69.3506821990013 436.080604791641 2630.00011444092 159 160 155
76.6014531254768 436.572849750519 2632.99989700317 159 160 155
83.8683024048805 437.064588069916 2635.99991798401 159 160 155
91.0475850105286 437.058418989182 2635.99991798401 160 161 156
98.1892868876457 436.885982751846 2634.99999046326 159 160 155
105.405189096928 437.044650316238 2635.99991798401 158 159 154
112.583465874195 437.037020921707 2635.99991798401 155 156 151
119.89764124155 437.526226043701 2638.99993896484 148 149 144
127.179622650146 437.849253416061 2641.00003242493 153 154 149
134.57378745079 438.503265380859 2644.99998092651 159 160 155
142.042890191078 439.32256102562 2650.00009536743 165 166 161
149.538710713387 440.141290426254 2654.99997138977 157 158 153
156.884163618088 440.462291240692 2657.00006484985 150 151 146
164.363473653793 441.114246845245 2661.00001335144 148 149 144
171.799525618553 441.59996509552 2664.00003433228 139 140 135
179.452985525131 442.582458257675 2670.00007629395 145 146 141
187.138497829437 443.56444478035 2676.00011825562 143 144 139
195.509925484657 446.037650108337 2690.99998474121 152 153 148
204.94219660759 450.664937496185 2719.00010108948 190 192 189
221.70227766037 439.84854221344 2654.00004386902 210 212 209
226.160511374474 434.530138969421 2621.99997901917 141 143 140
231.956571340561 432.028979063034 2607.00011253357 154 156 153
238.128736615181 430.356055498123 2596.99988365173 157 157 155
244.528993964195 429.180026054382 2589.99991416931 159 159 157
250.79333782196 427.837938070297 2582.00001716614 155 155 153
257.213085889816 426.826924085617 2575.99997520447 155 155 153
264.419972896576 427.141129970551 2578.00006866455 156 156 154
271.531611680985 427.289247512817 2578.9999961853 163 165 162
279.187858104706 428.265333175659 2585.00003814697 155 157 154
286.433011293411 428.578197956085 2586.99989318848 157 159 156
294.255316257477 429.719060659409 2594.00010108948 175 177 174
303.276360034943 432.515919208527 2611.00006103516 155 160 156
-302.757829427719 485.674381256104 2980.00001907349 220 222 219
-294.26172375679 485.042035579681 2976.0000705719 228 230 227
-286.363333463669 485.387027263641 2977.9999256134 171 173 170
-277.9860496521 484.916627407074 2974.99990463257 149 151 148
-269.896298646927 484.934687614441 2974.99990463257 148 150 145
-261.893719434738 485.115379095078 2976.0000705719 149 150 145
-253.970146179199 485.458552837372 2977.9999256134 130 131 126
-246.200010180473 486.127346754074 2982.00011253357 127 128 123
-238.008067011833 485.98051071167 2980.99994659424 137 138 132
-229.743704199791 485.670208930969 2979.00009155273 139 140 134
-221.63824737072 485.685378313065 2979.00009155273 139 140 134
-213.7471139431 486.189246177673 2982.00011253357 127 129 126
-205.976828932762 487.018674612045 2986.99998855591 129 131 128
-198.046207427979 487.521529197693 2990.00000953674 98 100 97
-115.475445985794 451.253622770309 2766.99995994568 206 208 205
-107.549697160721 449.630558490753 2756.99996948242 167 169 166
-99.6054634451866 447.680652141571 2744.99988555908 192 194 191
-91.6591212153435 445.404052734375 2730.99994659424 173 175 172
-83.6653932929039 442.474514245987 2713.00005912781 185 187 184
-75.6288468837738 438.728868961334 2690.00005722046 189 189 187
-67.9458454251289 436.45054101944 2676.00011825562 184 184 182
-60.4748912155628 435.15020608902 2667.99998283386 175 175 173
-53.1669594347477 434.828013181686 2665.99988937378 170 170 168
-45.8008721470833 433.852881193161 2660.00008583069 161 161 159
-38.5107882320881 433.366507291794 2657.00006484985 156 158 155
-31.2133822590113 432.55341053009 2651.99995040894 153 155 152
-23.9611957222223 432.066023349762 2648.9999294281 154 156 153
-16.7126357555389 431.25194311142 2644.00005340576 159 161 158
-9.49125830084085 430.437326431274 2638.99993896484 161 163 160
-2.29709129780531 429.622232913971 2634.0000629425 159 161 156
4.86798631027341 428.643465042114 2628.00002098084 157 159 154
12.0095070451498 427.9904961586 2624.00007247925 155 157 152
19.1364921629429 427.500039339066 2621.00005149841 156 158 153
26.257086545229 427.172243595123 2618.99995803833 157 159 154
33.4049426019192 427.333265542984 2619.99988555908 157 159 154
40.5581369996071 427.493780851364 2621.00005149841 159 160 155
47.7712228894234 428.143113851547 2625 158 159 154
54.9431666731834 428.302556276321 2625.99992752075 158 159 154
62.073078006506 428.135395050049 2625 158 159 154
69.1973343491554 427.967727184296 2624.00007247925 158 159 154
76.4613598585129 428.615033626556 2628.00002098084 160 161 156
83.7150886654854 429.098725318909 2631.00004196167 158 159 154
90.9848809242249 429.58191037178 2634.0000629425 156 157 152
98.1961563229561 429.738402366638 2634.99999046326 153 154 149
105.492532253265 430.220574140549 2638.00001144409 155 156 151
112.676732242107 430.213034152985 2638.00001144409 158 159 154
120.042286813259 430.857241153717 2641.99995994568 159 160 155
127.284750342369 431.011825799942 2642.99988746643 152 153 148
134.684875607491 431.655079126358 2647.0000743866 148 149 144
142.052710056305 432.13477730751 2650.00009536743 147 148 143
149.605363607407 433.103114366531 2655.99989891052 159 160 155
157.013043761253 433.581829071045 2658.99991989136 164 165 160
164.436534047127 434.060037136078 2661.99994087219 166 167 162
171.68228328228 434.048533439636 2661.99994087219 171 172 167
179.263606667519 434.851855039597 2667.00005531311 174 175 170
187.081307172775 436.143785715103 2674.99995231628 174 175 170
195.523217320442 438.739508390427 2690.99998474121 173 174 169
204.353049397469 441.986709833145 2710.99996566772 178 180 177
214.384466409683 447.515696287155 2744.99988555908 192 194 191
219.912603497505 443.588495254517 2720.99995613098 210 212 209
220.296964049339 429.879993200302 2637.00008392334 213 215 212
225.658103823662 426.441758871078 2615.9999370575 145 147 144
231.794074177742 424.63344335556 2605.00001907349 150 152 149
237.961158156395 422.987848520279 2595.00002861023 155 155 153
244.545191526413 422.156900167465 2589.99991416931 154 154 152
250.809878110886 420.836687088013 2582.00001716614 156 156 154
257.529556751251 420.331120491028 2578.9999961853 159 159 157
264.437258243561 420.151084661484 2578.00006866455 158 158 156
271.654576063156 420.459598302841 2579.99992370605 160 162 159
279.098004102707 421.093672513962 2584.00011062622 159 161 158
286.89444065094 422.216147184372 2591.00008010864 157 159 156
294.954925775528 423.664033412933 2599.99990463257 169 171 168
304.573535919189 427.229672670364 2621.99997901917 152 157 153
-310.981929302216 477.733433246613 2980.99994659424 216 218 215
-302.269458770752 476.791560649872 2974.99990463257 232 234 231
-293.687582015991 476.009547710419 2970.00002861023 199 201 198
-285.997420549393 476.669460535049 2973.99997711182 154 156 153
-278.097718954086 477.008372545242 2976.0000705719 148 150 147
-270.276993513107 477.507174015045 2979.00009155273 135 137 132
-262.3510658741 477.845221757889 2980.99994659424 140 141 136
-254.32813167572 478.022575378418 2982.00011253357 139 140 135
-246.711790561676 479.000955820084 2987.99991607666 137 138 133
-238.662734627724 479.177325963974 2989.00008201599 125 126 120
-230.376079678535 478.872328996658 2986.99998855591 120 121 115
-222.099557518959 478.566735982895 2984.99989509583 116 117 111
-214.33499455452 479.383051395416 2990.00000953674 97 99 96
-206.818297505379 480.840086936951 2999.00007247925 89 91 88
-115.984253585339 445.671200752258 2779.00004386902 204 206 203
-107.635155320168 442.471474409103 2759.0000629425 174 176 173
-99.5760783553123 440.072953701019 2743.99995803833 186 188 185
-91.5983617305756 437.67386674881 2729.00009155273 171 173 170
-83.6403518915176 434.953391551971 2711.99989318848 184 186 183
-75.6340995430946 431.430518627167 2690.00005722046 186 186 184
-67.9251775145531 429.029732942581 2674.99995231628 181 181 179
-60.5017654597759 428.071826696396 2668.99991035461 170 170 168
-53.1706586480141 427.594572305679 2665.99988937378 165 165 163
-45.8212792873383 426.796138286591 2661.00001335144 161 161 159
-38.5424606502056 426.478207111359 2658.99991989136 156 158 157
-31.2390998005867 425.678730010986 2654.00004386902 153 155 154
-23.980962112546 425.19947886467 2651.00002288818 153 155 152
-16.7201235890388 424.238502979279 2644.99998092651 158 160 157
-9.49551817029715 423.43744635582 2640.00010490417 160 162 159
-2.29812390170991 422.635912895203 2634.99999046326 159 161 156
4.87017864361405 421.67341709137 2628.99994850159 157 159 154
12.0195001363754 421.191692352295 2625.99992752075 154 156 151
19.1524308174849 420.709401369095 2622.99990653992 155 157 152
26.2789744883776 420.387089252472 2621.00005149841 156 158 153
33.4200263023376 420.384973287582 2621.00005149841 156 158 153
40.6073890626431 420.863628387451 2624.00007247925 156 157 152
47.8291511535645 421.502113342285 2628.00002098084 156 157 152
55.0097674131393 421.658933162689 2628.99994850159 156 157 152
62.1010474860668 421.173691749573 2625.99992752075 156 157 152
69.2021325230598 420.848399400711 2624.00007247925 157 158 153
76.4375701546669 421.324551105499 2627.00009346008 159 160 155
83.6890712380409 421.800136566162 2630.00011444092 157 158 153
90.9566283226013 422.275215387344 2632.99989700317 155 156 151
98.1284081935883 422.268718481064 2632.99989700317 154 155 150
105.459831655025 422.903269529343 2637.00008392334 155 156 151
112.727217376232 423.21652173996 2638.99993896484 157 158 153
120.141439139843 424.010336399078 2644.00005340576 159 160 155
127.389818429947 424.162238836288 2644.99998092651 155 156 151
134.846776723862 424.955099821091 2650.00009536743 152 153 148
142.169624567032 425.266355276108 2651.99995040894 148 149 144
149.671912193298 426.058232784271 2657.00006484985 146 147 142
157.141864299774 426.689237356186 2661.00001335144 147 148 143
164.63303565979 427.319705486298 2664.99996185303 173 174 169
172.016441822052 427.629083395004 2667.00005531311 181 182 177
179.41015958786 427.937895059586 2668.99991035461 164 165 160
187.16387450695 429.047912359238 2676.00011825562 170 171 166
195.463716983795 431.279718875885 2690.00005722046 184 185 180
203.914448618889 433.671236038208 2704.99992370605 182 184 181
212.680518627167 436.543136835098 2723.00004959106 192 194 191
217.179208993912 430.757492780685 2687.00003623962 208 210 207
219.726800918579 421.605437994003 2630.00011444092 206 208 205
225.414246320724 418.865561485291 2612.99991607666 145 147 144
231.364414095879 416.766613721848 2599.99990463257 149 151 148
237.885147333145 415.789574384689 2594.00010108948 157 157 155
244.27792429924 414.65175151825 2586.99989318848 159 159 157
250.729113817215 413.674026727676 2581.00008964539 157 157 155
257.346570491791 413.01640868187 2576.99990272522 157 157 155
264.351814985275 412.99957036972 2576.99990272522 154 154 152
271.98800444603 413.943886756897 2582.99994468689 159 161 158
279.655963182449 414.887726306915 2588.99998664856 157 159 156
287.798643112183 416.472136974335 2598.99997711182 156 158 155
295.76787352562 417.735546827316 2607.00011253357 168 170 167
305.986881256104 422.042787075043 2634.0000629425 151 156 152
-310.375839471817 468.702793121338 2974.99990463257 208 210 207
-302.187234163284 468.564718961716 2973.99997711182 219 221 218
-294.200956821442 468.741357326508 2974.99990463257 194 196 193
-286.208242177963 468.917578458786 2976.0000705719 152 154 151
-278.302699327469 469.250917434692 2977.9999256134 144 146 143
-270.657569169998 470.056563615799 2983.00004005432 138 140 135
-262.544244527817 470.073819160461 2983.00004005432 137 138 133
-254.515409469604 470.248281955719 2983.99996757507 137 138 133
-246.645480394363 470.737487077713 2986.99998855591 135 136 131
-238.838195800781 471.383780241013 2990.9999370575 126 127 121
-230.545595288277 471.083968877792 2989.00008201599 121 122 116
-222.411960363388 471.098929643631 2989.00008201599 118 119 113
-214.994445443153 472.689568996429 2999.00007247925 108 110 107
-207.797661423683 474.910229444504 3013.00001144409 101 103 100
-116.200856864452 438.918650150299 2783.99991989136 205 207 204
-107.720538973808 435.300141572952 2760.99991798401 175 177 174
-99.5103120803833 432.311594486237 2742.00010299683 180 182 179
-91.5710553526878 430.110812187195 2727.9999256134 170 172 169
-83.7386250495911 428.067088127136 2714.99991416931 180 182 179
-75.7798925042152 424.919217824936 2694.9999332428 183 183 181
-68.1330114603043 423.032075166702 2683.00008773804 179 179 177
-60.6419518589973 421.775102615356 2674.99995231628 166 166 164
-53.2740540802479 421.148329973221 2671.0000038147 162 162 160
-45.9105372428894 420.363277196884 2665.99988937378 160 160 158
-38.5741144418716 419.577807188034 2661.00001335144 155 157 156
-31.2883406877518 419.107168912888 2657.99999237061 152 154 153
-24.0097586065531 418.478429317474 2654.00004386902 153 155 154
-16.7465656995773 417.69140958786 2648.9999294281 158 160 157
-9.50336735695601 416.588515043259 2641.99995994568 160 162 159
-2.30002729222178 415.80057144165 2637.00008392334 158 160 157
4.87792585045099 415.169715881348 2632.99989700317 156 158 155
12.0432171970606 414.853781461716 2631.00004196167 152 154 149
19.1829651594162 414.222031831741 2627.00009346008 152 154 149
26.3008419424295 413.589715957642 2622.99990653992 152 154 149
33.4605872631073 413.74534368515 2624.00007247925 151 153 148
40.6566187739372 414.215862751007 2627.00009346008 155 156 151
47.8870496153831 414.843499660492 2631.00004196167 154 155 150
55.0135597586632 414.524674415588 2628.99994850159 154 155 150
62.1762685477734 414.520621299744 2628.99994850159 156 157 152
69.2860186100006 414.200812578201 2627.00009346008 156 157 152
76.5010192990303 414.511144161224 2628.99994850159 154 155 150
83.6311653256416 414.348006248474 2628.00002098084 155 156 151
90.9628570079803 415.130347013474 2632.99989700317 157 158 153
98.1351211667061 415.123909711838 2632.99989700317 158 159 154
105.62701523304 416.378319263458 2641.00003242493 157 158 153
112.777628004551 416.213244199753 2640.00010490417 154 155 150
120.19506841898 416.993618011475 2644.99998092651 153 154 149
127.350330352783 416.827619075775 2644.00005340576 156 157 152
134.805023670197 417.607009410858 2648.9999294281 158 159 154
142.12566614151 417.91296005249 2651.00002288818 159 160 155
149.569362401962 418.533712625504 2654.99997138977 154 155 150
157.093405723572 419.311612844467 2660.00008583069 150 151 146
164.767682552338 420.404255390167 2667.00005531311 136 137 132
172.221496701241 420.865893363953 2670.00007629395 143 144 139
179.62384223938 421.169430017471 2671.99993133545 154 155 150
187.106445431709 421.630084514618 2674.99995231628 165 166 161
195.18606364727 423.35119843483 2686.00010871887 171 172 167
203.777208924294 426.017433404922 2703.00006866455 167 169 166
212.616443634033 428.998172283173 2721.99988365173 174 176 173
216.870203614235 422.83770442009 2683.00008773804 217 219 216
219.407021999359 413.840383291245 2625.99992752075 205 207 204
225.17018020153 411.304354667664 2609.99989509583 155 157 154
231.11255466938 409.240931272507 2596.99988365173 154 156 153
237.62546479702 408.280313014984 2591.00008010864 159 159 157
244.104936718941 407.319277524948 2585.00003814697 157 157 155
251.036792993546 407.145828008652 2584.00011062622 149 149 147
257.862478494644 406.814306974411 2582.00001716614 153 153 151
265.086889266968 407.112747430801 2584.00011062622 162 162 160
272.637188434601 407.883375883102 2588.99998664856 157 159 156
280.321896076202 408.811092376709 2595.00002861023 159 161 158
288.59207034111 410.526067018509 2605.99994659424 151 153 150
297.034561634064 412.398010492325 2618.00003051758 163 165 162
-319.017142057419 461.386799812317 2980.00001907349 206 210 209
-310.291141271591 460.477560758591 2973.99997711182 203 208 204
-302.511274814606 460.961371660233 2976.99999809265 170 175 171
-294.516384601593 461.13508939743 2977.9999256134 148 150 147
-286.611258983612 461.463242769241 2980.00001907349 144 146 143
-278.600960969925 461.636126041412 2980.99994659424 148 150 147
-270.947217941284 462.428033351898 2986.00006103516 138 140 135
-263.08935880661 462.909758090973 2989.00008201599 138 138 136
-255.129039287567 463.236182928085 2990.9999370575 130 130 128
-247.07442522049 463.407307863235 2992.00010299683 134 135 130
-239.173218607903 463.887691497803 2994.99988555908 138 139 133
-231.023505330086 463.902980089188 2994.99988555908 129 130 124
-223.096311092377 464.382499456406 2997.99990653992 120 121 116
-215.725556015968 466.100752353668 3009.0000629425 97 99 96
-115.833044052124 429.968476295471 2775.00009536743 207 209 206
-107.493728399277 426.877081394196 2755.00011444092 175 177 174
-99.4807407259941 424.714744091034 2740.9999370575 174 176 173
-91.5772691369057 422.706812620163 2727.9999256134 168 170 167
-83.7443098425865 420.698374509811 2714.99991416931 174 176 173
-75.8412778377533 417.914569377899 2697.00002670288 180 180 178
-68.1884288787842 416.059970855713 2684.99994277954 176 176 174
-60.7367604970932 415.134578943253 2678.99990081787 163 163 161
-53.2976239919662 414.053678512573 2671.99993133545 159 159 157
-45.9308922290802 413.282245397568 2667.00005531311 158 158 156
-38.5622531175613 412.200421094894 2660.00008583069 154 156 155
-31.2904752790928 411.892801523209 2657.99999237061 151 153 152
-24.0023490041494 411.119908094406 2653.00011634827 152 154 153
-16.7540330439806 410.65639257431 2650.00009536743 157 159 156
-9.51121188700199 409.727513790131 2644.00005340576 158 160 157
-2.30454560369253 409.41795706749 2641.99995994568 155 157 154
4.88381693139672 408.488035202026 2635.99991798401 153 155 152
12.053195387125 408.022582530975 2632.99989700317 149 151 148
19.2061830312014 407.556682825089 2630.00011444092 149 151 146
26.3527762144804 407.245188951492 2628.00002098084 150 152 147
33.5138812661171 407.24316239357 2628.00002098084 149 151 146
40.6903438270092 407.395571470261 2628.99994850159 154 155 150
47.8903129696846 407.702535390854 2631.00004196167 153 154 149
55.0591573119164 407.699048519135 2631.00004196167 154 155 150
62.2751079499722 408.004939556122 2632.99989700317 155 156 151
69.4489851593971 408.000528812408 2632.99989700317 156 157 152
76.6517221927643 408.150523900986 2634.0000629425 153 154 149
83.795964717865 407.990127801895 2632.99989700317 154 155 150
91.072678565979 408.449113368988 2635.99991798401 156 157 152
98.2908681035042 408.597707748413 2637.00008392334 157 158 153
105.674140155315 409.365594387054 2641.99995994568 156 157 152
112.913392484188 409.513175487518 2642.99988746643 154 155 150
120.203167200089 409.81525182724 2644.99998092651 151 152 147
127.407044172287 409.806966781616 2644.99998092651 155 156 151
134.864971041679 410.572946071625 2650.00009536743 156 157 152
142.188802361488 410.873562097549 2651.99995040894 157 158 153
149.635672569275 411.483526229858 2655.99989891052 157 158 153
157.103881239891 412.093102931976 2660.00008583069 158 159 154
164.902180433273 413.476645946503 2668.99991035461 148 149 144
172.490939497948 414.240151643753 2674.00002479553 133 134 129
179.904639720917 414.538323879242 2676.00011825562 133 134 129
187.188744544983 414.526283740997 2676.00011825562 146 147 142
195.271566510201 416.217714548111 2687.00003623962 159 160 155
203.715175390244 418.528079986572 2701.99990272522 161 163 160
212.317928671837 420.992821455002 2717.99993515015 166 168 165
215.833455324173 413.544297218323 2670.00007629395 219 221 218
219.170615077019 406.250685453415 2622.99990653992 200 202 199
225.09853541851 404.068112373352 2608.99996757507 153 155 152
231.127485632896 402.194947004318 2596.99988365173 150 152 149
237.640768289566 401.250779628754 2591.00008010864 156 156 154
244.120597839355 400.306224822998 2585.00003814697 153 153 151
251.149952411652 400.290429592133 2585.00003814697 153 153 151
257.87889957428 399.809747934341 2582.00001716614 158 158 156
265.308886766434 400.4125893116 2585.99996566772 160 160 158
272.759705781937 401.014983654022 2589.99991416931 155 157 154
280.555546283722 402.081429958344 2596.99988365173 161 163 160
288.83159160614 403.766751289368 2608.00004005432 148 150 147
297.960788011551 406.535178422928 2625.99992752075 159 161 158
-318.822890520096 452.997386455536 2977.9999256134 210 216 216
-310.414850711823 452.560603618622 2974.99990463257 191 197 193
-302.733510732651 453.18815112114 2979.00009155273 176 183 176
-294.831663370132 453.511148691177 2980.99994659424 153 160 153
-287.110328674316 454.137951135635 2984.99989509583 138 143 139
-278.899013996124 454.003661870956 2983.99996757507 145 150 146
-271.145969629288 454.629600048065 2987.99991607666 133 135 132
-263.282209634781 455.102980136871 2990.9999370575 118 118 118
-255.486577749252 455.72817325592 2994.99988555908 112 110 111
-247.255489230156 455.592066049576 2993.99995803833 103 102 100
-239.348396658897 456.064164638519 2996.99997901917 119 118 114
-231.501325964928 456.688016653061 3000.99992752075 114 113 109
-224.227115511894 458.528846502304 3013.00001144409 117 118 113
-115.506790578365 421.217918395996 2766.99995994568 215 217 212
-107.461869716644 419.246315956116 2753.99994850159 177 179 174
-99.5237156748772 417.426437139511 2742.00010299683 158 160 157
-91.7512699961662 416.062653064728 2733.00004005432 156 158 155
-83.8424637913704 413.784891366959 2717.99993515015 165 167 164
-75.9026110172272 410.897701978683 2698.99988174438 173 175 172
-68.269208073616 409.227877855301 2687.99996376038 167 169 166
-60.7635192573071 408.014208078384 2680.0000667572 160 162 161
-53.3610582351685 407.256811857224 2674.99995231628 152 154 153
-45.9856614470482 406.498938798904 2670.00007629395 150 152 151
-38.6228412389755 405.588269233704 2664.00003433228 152 152 150
-31.3279069960117 405.133873224258 2661.00001335144 153 153 151
-24.0130182355642 404.070019721985 2654.00004386902 151 151 149
-16.7678073048592 403.766840696335 2651.99995040894 154 154 152
-9.52264573425055 403.006464242935 2647.0000743866 156 156 154
-2.30644596740603 402.550131082535 2644.00005340576 150 150 148
4.8915590159595 401.941061019897 2640.00010490417 147 147 145
12.0631651952863 401.179194450378 2634.99999046326 147 147 145
19.2366912961006 401.025950908661 2634.0000629425 147 147 145
26.3946671038866 400.719881057739 2631.99996948242 147 147 145
33.579908311367 400.870144367218 2632.99989700317 149 149 147
40.7550036907196 400.867611169815 2632.99989700317 151 152 147
47.9663498699665 401.169151067734 2634.99999046326 146 147 142
55.1465786993504 401.165693998337 2634.99999046326 149 150 145
62.3739175498486 401.466310024261 2637.00008392334 149 150 145
69.5591643452644 401.461869478226 2637.00008392334 152 153 148
76.7732709646225 401.60921216011 2638.00001144409 157 158 153
83.9607268571854 401.603877544403 2638.00001144409 154 155 150
91.2169888615608 401.902496814728 2640.00010490417 148 149 144
98.4838083386421 402.200669050217 2641.99995994568 152 153 148
105.721198022366 402.346074581146 2642.99988746643 160 161 156
113.04909735918 402.795553207397 2645.99990844727 149 150 145
120.302066206932 402.940064668655 2647.0000743866 150 152 149
127.511858940125 402.931869029999 2647.0000743866 153 155 152
134.823009371758 403.227597475052 2648.9999294281 153 155 152
142.19819009304 403.67516875267 2651.99995040894 153 155 152
149.701923131943 404.426693916321 2657.00006484985 151 153 150
157.114237546921 404.873251914978 2660.00008583069 151 153 150
164.851248264313 406.080335378647 2667.99998283386 156 158 155
172.437772154808 406.830370426178 2673.00009727478 153 155 152
179.983675479889 407.427668571472 2677.00004577637 146 148 145
187.480762600899 407.872289419174 2680.0000667572 148 150 147
195.720359683037 409.838378429413 2693.00007820129 132 134 131
203.954607248306 411.651641130447 2704.99992370605 150 150 148
211.47233247757 411.942631006241 2707.00001716614 183 183 181
214.55392241478 403.863728046417 2654.00004386902 201 201 199
218.934029340744 398.676097393036 2619.99988555908 178 178 176
224.94038939476 396.683782339096 2607.00011253357 159 159 157
231.142237782478 395.147681236267 2596.99988365173 164 164 162
237.747609615326 394.37210559845 2592.00000762939 147 147 145
244.230508804321 393.444001674652 2585.99996566772 152 152 150
251.360148191452 393.580555915833 2586.99989318848 168 168 166
258.394509553909 393.56455206871 2586.99989318848 158 158 156
265.735894441605 394.004583358765 2589.99991416931 150 150 148
273.198008537292 394.596338272095 2594.00010108948 158 160 157
280.789107084274 395.339757204056 2598.99997711182 154 159 155
289.181768894196 397.147536277771 2611.00006103516 144 149 145
299.113839864731 400.93195438385 2635.99991798401 156 161 157
-326.497763395309 444.299101829529 2973.99997711182 213 218 214
-318.307161331177 444.16943192482 2973.00004959106 212 214 211
-310.120970010757 444.039225578308 2971.99988365173 179 184 178
-302.549034357071 444.805145263672 2976.99999809265 160 165 158
-294.948935508728 445.570707321167 2982.00011253357 148 153 147
-287.513047456741 446.634709835052 2989.00008201599 146 148 145
-279.570788145065 446.951150894165 2990.9999370575 133 135 132
-271.526038646698 447.117865085602 2992.00010299683 138 138 138
-263.650983572006 447.582930326462 2994.99988555908 144 144 144
-255.84402680397 448.197036981583 2999.00007247925 127 127 127
-247.931912541389 448.661327362061 3002.00009346008 129 129 129
-240.162342786789 449.424058198929 3006.99996948242 102 101 99
-115.514412522316 413.705617189407 2766.99995994568 77 79 74
-107.3909252882 411.470174789429 2752.00009346008 167 169 164
-99.5665788650513 410.131305456162 2743.00003051758 156 158 155
-91.8244794011116 408.94141793251 2734.99989509583 151 153 150
-83.8171690702438 406.255781650543 2717.00000762939 170 172 169
-75.9076476097107 403.569638729095 2698.99988174438 170 172 169
-68.1975409388542 401.481032371521 2684.99994277954 164 166 163
-60.7675574719906 400.737643241882 2680.0000667572 156 158 157
-53.3446595072746 399.844199419022 2674.00002479553 151 153 152
-46.0231676697731 399.548441171646 2671.99993133545 149 151 150
-38.6399105191231 398.504495620728 2664.99996185303 150 150 148
-31.3535444438457 398.207783699036 2663.00010681152 150 150 148
-24.0327138453722 397.162854671478 2655.99989891052 148 148 146
-16.7815741151571 396.86518907547 2654.00004386902 152 152 150
-9.53047629445791 396.118313074112 2648.9999294281 153 153 151
-2.30747205205262 395.520597696304 2644.99998092651 145 145 143
4.89559071138501 395.071923732758 2641.99995994568 145 145 143
12.0777050033212 394.473224878311 2638.00001144409 145 145 143
19.274489954114 394.621670246124 2638.99993896484 144 144 142
26.4465697109699 394.321143627167 2637.00008392334 143 143 141
33.6459204554558 394.468694925308 2638.00001144409 145 145 143
40.7886728644371 394.017577171326 2634.99999046326 149 150 145
48.0241626501083 394.463270902634 2638.00001144409 156 157 152
55.2339628338814 394.609361886978 2638.99993896484 150 151 146
62.4726749956608 394.904553890228 2641.00003242493 142 143 138
69.6692988276482 394.900172948837 2641.00003242493 148 149 144
76.8656730651855 394.89534497261 2641.00003242493 153 154 149
84.0617790818214 394.890069961548 2641.00003242493 153 154 149
91.2575796246529 394.884318113327 2641.00003242493 151 152 147
98.5275954008102 395.177066326141 2642.99988746643 147 148 143
105.728171765804 395.170390605927 2642.99988746643 150 151 146
113.09926956892 395.761281251907 2647.0000743866 153 154 149
120.446316897869 396.202176809311 2650.00009536743 151 153 150
127.809301018715 396.642655134201 2653.00011634827 149 151 148
135.086342692375 396.78356051445 2654.00004386902 150 152 149
142.421990633011 397.07350730896 2655.99989891052 151 153 150
149.824365973473 397.512525320053 2658.99991989136 152 154 151
157.242581248283 397.95109629631 2661.99994087219 151 153 150
164.738357067108 398.538619279861 2665.99988937378 152 154 151
172.319889068604 399.275213479996 2671.0000038147 149 151 148
180.062517523766 400.310277938843 2677.99997329712 140 142 139
187.772676348686 401.19531750679 2684.00001525879 150 152 149
195.950984954834 402.976810932159 2696.00009918213 135 137 134
203.816890716553 404.01029586792 2703.00006866455 124 124 122
210.782691836357 403.249740600586 2697.99995422363 132 132 130
214.810132980347 397.108465433121 2657.00006484985 213 213 211
218.864366412163 391.415417194366 2618.99995803833 166 166 164
224.695757031441 389.159709215164 2604.00009155273 159 159 157
230.978831648827 387.800425291061 2595.00002861023 160 160 158
237.762570381165 387.337446212769 2592.00000762939 159 159 157
244.52917277813 386.874079704285 2588.99998664856 166 166 164
251.570194959641 386.85867190361 2588.99998664856 153 153 151
258.510500192642 386.693447828293 2588.00005912781 145 145 143
265.547156333923 386.677324771881 2588.00005912781 156 158 155
273.320198059082 387.706607580185 2595.00002861023 164 166 163
281.130492687225 388.735443353653 2601.99999809265 163 168 164
289.864003658295 390.958994626999 2617.00010299683 137 142 138
-335.163027048111 436.94144487381 2979.00009155273 207 209 204
-326.2979388237 435.934484004974 2971.99988365173 221 222 217
-318.326503038406 436.100631952286 2973.00004959106 218 219 213
-310.452997684479 436.413019895554 2974.99990463257 168 171 164
-302.669197320938 436.8716776371 2977.9999256134 159 162 155
-295.263797044754 437.916874885559 2984.99989509583 150 152 147
-287.819355726242 438.961654901505 2992.00010299683 146 148 145
-280.149012804031 439.712762832642 2996.99997901917 140 142 139
-272.087424993515 439.876437187195 2997.99990653992 126 126 126
-264.195621013641 440.333217382431 3000.99992752075 131 131 131
-256.371945142746 440.936356782913 3005.00011444092 140 140 140
-248.856037855148 442.125976085663 3013.00001144409 126 128 127
-115.229681134224 405.164361000061 2759.99999046326 14 16 11
-107.280850410461 403.556793928146 2749.00007247925 77 79 74
-99.5367765426636 402.535915374756 2742.00010299683 167 169 164
-91.7633399367332 401.220887899399 2733.00004005432 159 161 158
-83.853505551815 399.024426937103 2717.99993515015 152 154 151
-75.996994972229 396.680682897568 2701.99990272522 163 165 162
-68.354420363903 395.070463418961 2690.99998474121 157 159 156
-60.8622543513775 394.047021865845 2684.00001525879 145 147 146
-53.4479171037674 393.316626548767 2678.99990081787 148 150 149
-46.0950955748558 392.879486083984 2676.00011825562 144 146 145
-38.7004539370537 391.854524612427 2668.99991035461 142 142 140
-31.4027033746243 391.563177108765 2667.00005531311 143 143 141
-24.0885894745588 390.830874443054 2661.99994087219 141 141 139
-16.8269425630569 390.685439109802 2661.00001335144 145 145 143
-9.54549573361874 389.511734247208 2653.00011634827 146 146 144
-2.31111375615001 388.924807310104 2648.9999294281 142 142 140
4.90517867729068 388.631105422974 2647.0000743866 142 142 140
12.1059715747833 388.190090656281 2644.00005340576 140 140 138
19.3122830241919 388.189077377319 2644.00005340576 142 142 140
26.4884289354086 387.747079133987 2641.00003242493 142 142 140
33.7119065225124 388.038754463196 2642.99988746643 134 134 132
40.8842414617538 387.742727994919 2641.00003242493 129 130 125
48.0819344520569 387.739807367325 2641.00003242493 140 141 136
55.2794560790062 387.736469507217 2641.00003242493 159 160 155
62.5240877270699 388.026207685471 2642.99988746643 148 149 144
69.7793886065483 388.315498828888 2644.99998092651 138 139 134
76.9871398806572 388.310730457306 2644.99998092651 145 146 141
84.1309279203415 388.011872768402 2642.99988746643 147 148 143
91.2980958819389 387.859404087067 2641.99995994568 154 155 150
98.571315407753 388.146877288818 2644.00005340576 151 152 147
105.815075337887 388.287007808685 2644.99998092651 142 143 138
113.10663074255 388.573557138443 2647.0000743866 148 149 144
120.54505199194 389.299988746643 2651.99995040894 151 153 150
127.962082624435 389.879137277603 2655.99989891052 150 152 149
135.247796773911 390.017509460449 2657.00006484985 149 151 148
142.431184649467 389.861792325974 2655.99989891052 147 149 146
149.890393018723 390.439569950104 2660.00008583069 149 151 148
157.252684235573 390.723258256912 2661.99994087219 148 150 147
164.748951792717 391.300141811371 2665.99988937378 159 161 158
172.201871871948 391.729682683945 2668.99991035461 170 172 169
180.006787180901 392.892688512802 2677.00004577637 136 138 135
187.714695930481 393.761605024338 2683.00008773804 162 164 161
195.818051695824 395.363867282867 2694.00000572205 165 167 164
203.301921486855 395.644783973694 2696.00009918213 162 162 160
209.936574101448 394.3110704422 2687.00003623962 184 184 182
