ply
format ascii 1.0
comment KinectMotionCapture
element vertex 765
property float x
property float y
property float z
property uchar red
property uchar green
property uchar blue
end_header
50.663888071222 942.085395884444 2784.73772514914 105 67 46
47.1020562597388 942.282577670207 2791.07968988709 162 121 101
44.3968288121113 942.256410949292 2798.02095395827 213 166 148
42.553772244494 942.006547786849 2805.55604115446 193 148 129
35.611396888283 943.092133134539 2809.45531699262 166 131 111
26.9527924708886 944.624973163092 2812.15891097711 117 85 64
13.9970107697391 947.276602197379 2811.8790867293 112 83 65
9.58957522867809 947.696984030433 2817.61085028382 136 109 92
7.76649095338433 947.445782419725 2825.12630252055 158 135 119
8.54548353068685 946.520926641956 2834.40848556373 177 161 146
103.481444682384 930.589441302915 2707.06490362532 19 19 7
76.8269479576116 936.861439604905 2695.76386929232 21 17 5
102.772599734487 929.280101906432 2724.96658010882 25 19 5
123.913373245153 922.982115729855 2750.24879568805 29 20 5
113.740253646825 924.919398433659 2751.56239270766 35 21 10
103.54415298814 926.859637234102 2752.89837335013 43 25 11
97.4811442748189 927.714686765922 2757.37574536509 45 26 11
95.5800560498599 927.480984739943 2764.96607024597 52 33 16
92.0246687933299 927.681658811488 2771.30111928728 79 57 36
87.6402337140938 928.099566890562 2777.01007082096 59 38 19
83.2598356104763 928.51720192002 2782.71505393479 93 66 45
73.8385962769832 930.246860875454 2784.72995659563 137 106 85
61.0268800513118 932.855148478544 2784.3134790456 116 80 58
49.0252732456078 935.248543629772 2784.54122119417 103 62 42
43.7663114882252 935.889877761435 2789.66865905641 125 82 63
41.9021170860425 935.652455146191 2797.22323556935 181 136 117
41.7542714908565 934.973554737127 2805.9721833632 195 152 133
37.3678259612813 935.392764666378 2811.6832767329 164 129 107
28.7132779556938 936.913889242737 2814.38457417922 120 88 67
11.4799696347823 940.643736142421 2811.10781469609 130 101 83
7.06690298159574 941.06689177556 2816.84476006175 137 110 91
1.79742548592365 941.711084772611 2821.98221766851 149 126 110
10.3219465828093 938.813738415926 2836.61736918139 172 156 141
127.299209999924 917.077214878243 2726.50402253003 18 19 5
111.380642515196 920.493865809907 2723.38524334813 26 20 6
88.8247216451417 925.628298133864 2715.26761663065 28 21 5
121.487009185489 916.420610621135 2749.37693286193 34 20 7
113.790040860641 917.698993670299 2752.58012593908 42 26 13
107.740325501834 918.549300984582 2757.04499835418 70 49 32
99.1933306514556 920.044850174085 2759.64293611647 76 53 35
96.4630153154413 920.03611663614 2766.60653621485 87 61 44
91.2394135723833 920.672226481406 2771.6996332074 111 83 62
88.5271031741603 920.661341072618 2778.64567218197 124 93 72
84.9877198316804 920.865068915582 2784.96437775396 155 121 96
76.4112576039757 922.364378867132 2787.59135906055 152 116 92
62.7626842684239 925.163759302302 2786.56040239481 136 95 73
49.0759296929637 927.967763145049 2785.56701476909 129 88 66
42.9704918340139 928.825507947655 2790.08612119303 127 84 65
40.2556462800385 928.815531823797 2797.03454322282 153 110 91
39.2537367717707 928.369848226297 2805.18054828913 188 150 129
34.8614064010819 928.791994917766 2810.89671349887 155 125 101
25.3467938451513 930.520347009959 2813.00419246173 130 99 78
12.3880159960068 933.123042779461 2812.73491359033 144 117 98
7.11867359090546 933.766393182628 2817.87236158516 141 119 98
2.70949834953438 934.191547970098 2823.60480940523 152 135 119
13.8224708270087 930.68004156564 2840.01176665683 155 139 124
130.13575396492 909.828177307644 2720.50763123295 20 22 8
136.36382535644 907.515212840078 2734.50300122758 22 23 9
120.466773085175 910.894064985467 2731.36844376477 27 21 7
112.753957180234 912.165941324986 2734.58867325406 30 21 6
115.759110791923 910.689358138769 2745.99285634656 49 33 18
111.357712958726 911.11388627332 2751.71767370437 71 53 39
107.789864895057 911.325802115142 2758.06343498264 117 91 74
100.905331534427 912.385756255183 2761.90906114542 123 96 75
96.5126077391965 912.809131920596 2767.62543538974 129 101 79
91.2890304857616 913.444884865596 2772.71856081344 134 102 79
87.7397613414654 913.654576477077 2779.04620169039 141 107 82
84.1982949303963 913.863474374444 2785.36587380652 153 116 90
74.7792639461142 915.565198552751 2787.38271229181 158 121 95
63.6556319188286 917.6967440014 2788.19456093796 141 101 76
51.6602920531284 920.045594236014 2788.42266364169 132 92 67
43.0209211808461 921.541689713585 2791.11258926015 134 93 71
39.4575947320073 921.753743159929 2797.45384017016 158 117 97
35.0516836183714 922.17954789111 2803.18295060174 189 151 130
33.2071145677793 921.960480222121 2810.7149881554 156 126 102
27.1064181917624 922.815209563579 2815.22983190054 139 108 87
16.7205614945041 924.746996242045 2816.75549231436 146 121 101
10.6028996969427 925.60398228211 2821.28684943482 146 124 103
2.76112094408854 926.893308852183 2824.63222396006 151 134 118
142.77206507255 900.069800848411 2722.15506866852 36 24 8
125.279938582923 903.824803740885 2717.71469209049 39 26 9
107.730202667947 907.586643397105 2713.33084989476 51 34 14
111.480400816287 905.937454203113 2725.43761315886 51 26 4
110.333346491677 905.534717385438 2733.72140165813 72 46 23
110.031026414296 904.920578998091 2742.61417309783 152 120 97
107.270639528222 904.930909382907 2749.6048170505 162 130 107
103.693073577322 905.149003700249 2755.95931515846 172 139 108
98.4612103253859 905.785270507581 2761.06059275253 173 138 106
94.0626613982971 906.211739276482 2766.78229427956 166 131 99
92.173469709024 906.007424130318 2774.35680019862 163 128 96
90.2998821122667 905.80139075357 2781.91572713489 164 128 96
86.7641963936916 906.014395346567 2788.22905197009 161 125 93
76.5104246807313 907.912357647603 2789.62888711214 159 120 89
66.2334819541575 909.813430967467 2791.05093376402 153 114 85
55.0890220062077 911.928378269025 2791.88591804217 140 101 72
45.6108075150561 913.6238367701 2793.96211484704 146 106 80
37.8106122044506 914.89842710548 2797.26837440847 160 120 94
30.8497013508897 915.962571672148 2801.18956304957 181 144 118
28.1429213540849 915.967218533579 2808.12747674902 162 130 105
22.030861614188 916.819960215674 2812.65389825766 153 123 99
17.6275181985885 917.248271751389 2818.38008842252 155 130 108
10.6538462751811 918.314673710767 2822.31361535296 155 134 113
4.53259582937493 919.16934062212 2826.84887882039 151 135 119
114.274381085372 900.01837610419 2700.86574831362 26 14 0
106.525515595243 901.278239864395 2704.1232131859 66 48 28
102.043524558846 901.717514583338 2709.92621908914 89 67 46
109.065606254688 899.276189541588 2724.56900606847 142 112 88
111.206035860218 898.063428616894 2735.3759707493 158 126 101
108.429784922369 898.083306927294 2742.38095676067 180 144 118
106.49262712956 897.895371253175 2750.00033500881 187 150 123
102.083704812129 898.325388568161 2755.73181299223 188 152 120
100.17258632532 898.134157187863 2763.32615877051 188 152 118
95.7779077930554 898.562319878578 2769.04376657735 180 144 110
93.8923434898626 898.367997962958 2776.61285561131 176 140 108
89.5118215544262 898.794552896184 2782.31664333409 174 138 106
82.6190345155236 899.844212490922 2786.1723248927 167 131 99
76.5596034983824 900.686486512557 2790.64803241729 167 130 101
67.9681418029738 902.15438303629 2793.29421346597 151 112 83
58.5170907047354 903.832723354427 2795.34630452208 147 108 79
44.81398952796 906.557175090158 2794.38090707979 151 111 85
36.1635110330507 908.032557550123 2797.08492410668 165 125 99
28.3482996778122 909.300549385511 2800.40707007782 185 148 122
27.3406380653287 908.894464426705 2808.55259656515 161 129 106
21.226778090202 909.744366678079 2813.0812254006 156 126 102
16.8216295678483 910.175028653936 2818.80886066913 156 131 109
9.84622469771956 911.235870133788 2822.74493027773 155 134 113
8.02378167478635 911.035418811457 2830.25224487093 154 141 124
89.0403379654554 898.970099359526 2682.15123157724 77 64 47
94.3122349607157 896.987916625132 2695.63029816879 140 119 100
105.371114212781 893.579862546709 2713.49258990197 159 134 112
108.293551353737 892.19278428225 2724.96568288434 174 146 122
109.60832422734 891.207267346497 2735.14170318338 181 151 127
108.478783871219 890.828268898461 2743.40459153237 203 171 146
109.023172141219 890.03948642196 2752.89962854629 207 173 148
104.620053133606 890.471130890592 2758.62510326467 212 180 155
102.714708313735 890.289432223644 2766.21230677546 214 182 157
98.325746979965 890.719350861359 2771.92397779148 213 179 154
98.115949682116 890.125260698262 2780.72224746657 209 175 150
93.7450793974612 890.552898671781 2786.41629088456 205 171 146
86.0231001336942 891.800704578455 2789.64883948209 195 160 138
78.2898118454161 893.049877198536 2792.8924161085 182 147 125
68.8599332878233 894.711690707284 2794.92592517398 155 118 99
59.4107969103268 896.375945008134 2796.9778589493 145 109 87
47.4030415495412 898.660950946701 2797.22806442425 158 121 102
36.2130556222153 900.743307784126 2798.11307352929 160 123 104
30.9493502528242 901.383234983354 2803.24542981238 178 141 122
27.3903962923248 901.609728327904 2809.57986672419 156 123 104
21.276692948077 902.456426516836 2814.1088135819 149 121 100
13.4468008388695 903.718308302955 2817.44644082137 152 127 107
6.46362857558325 904.774304110222 2821.3906019125 153 132 113
15.8148710348072 901.884511355715 2836.62093763199 157 144 128
93.9841026426023 890.368485498645 2687.015446533 143 127 111
104.172223467026 887.220309948247 2704.28675716435 164 143 124
111.156671913665 884.863206115713 2718.95480450052 166 144 123
112.449567714354 883.901616941319 2729.14901254369 190 163 142
112.950759235952 883.136547399622 2738.68377764793 194 166 144
112.653790146864 882.568968465188 2747.56435401034 204 176 154
115.689356951044 881.19416438104 2758.92329344627 207 176 155
112.960031413881 881.223576831608 2765.88027269932 217 189 168
109.411685161479 881.453142530078 2772.2040597496 220 192 171
105.871375728238 881.68157712214 2778.52003329669 216 188 167
99.8340450802626 882.515299133996 2782.97472096931 214 183 163
92.9565852685856 883.551409629386 2786.81718491568 210 179 159
83.5550649476211 885.196039370806 2788.82473574428 200 169 151
76.6569853931691 886.234631374755 2792.68730863416 205 174 156
68.9085518932719 887.477398684874 2795.94687138161 179 147 132
58.6150551900024 889.330966113461 2797.39237772704 166 135 117
46.6054192644831 891.594285761554 2797.64731801284 158 125 110
36.262344569947 893.454149214619 2799.14146332882 166 133 118
33.5497465988404 893.48205561587 2806.08171661294 149 116 99
27.4398138435794 894.325094145519 2810.60746011609 152 121 103
17.0547330361162 896.190443080958 2812.14216952928 142 113 95
8.35921715250709 897.649507847106 2814.89332109694 146 123 107
8.22998196617641 897.062421478279 2823.61055624664 149 130 115
144.59951416804 870.768392234972 2727.50527657603 174 160 147
138.557061023221 871.600342297062 2731.96531285715 173 159 146
136.608413474175 871.445226504969 2739.59124983885 196 178 164
128.104683650208 872.869440233352 2742.15710598234 199 181 167
127.818983107497 872.31629029601 2751.02469775415 206 188 174
125.081123958105 872.354739335568 2757.98881540638 231 213 199
126.491045690167 871.399625960593 2768.06585784941 234 216 202
121.299393716197 872.02958515205 2773.1281373129 242 224 214
116.93931869728 872.460684616654 2778.81128710755 245 227 217
112.583222560249 872.891177580232 2784.49023761226 247 229 219
107.396503114674 873.520455979284 2789.54771962296 250 232 222
102.210143987894 874.14980689208 2794.60483311427 255 238 228
95.3463857919035 875.178601080498 2798.43443465869 255 237 227
87.6345079399044 876.408445365821 2801.65960712481 255 239 230
79.0687722316021 877.839886232892 2804.28596786011 255 246 239
67.1095873022423 880.07513216523 2804.49529668584 181 155 142
53.4265309771063 882.715797886022 2803.52237794597 140 112 100
39.7050827387368 885.361185579846 2802.58688503793 168 140 129
35.2995795144855 885.79814296712 2808.31394207162 166 138 126
24.9319114537903 887.644785477736 2809.83412517128 148 119 103
17.104046266605 888.889310778449 2813.17230492818 140 112 98
9.26487097789286 890.135320865995 2816.52149633225 145 123 109
16.0027857857417 887.946474897417 2829.99257745964 148 130 116
155.91070227206 862.082945034407 2718.97371419951 201 197 188
164.518414528179 859.418504496915 2734.90907944283 190 183 175
159.327948726464 860.048785903124 2739.97013339654 221 211 202
152.502838648603 861.068049344866 2743.76276542853 252 242 232
144.031603827531 862.477552173043 2746.2985278184 255 248 239
138.009372959424 863.303755541295 2750.73967028063 255 249 240
136.100044573479 863.154002488571 2758.3257701416 255 247 239
135.031984079477 862.806821609608 2766.52290545585 255 247 239
133.156285685495 862.652946899691 2774.07621941678 255 248 239
126.321807575732 863.672624735962 2777.87809279561 255 250 244
119.480163413039 864.693133960333 2781.68729713413 255 252 246
115.962764510835 864.928953929642 2787.97909078769 255 250 244
109.94891383017 865.753629091499 2792.41213746815 255 250 244
105.605125589043 866.18498817112 2798.07873803871 255 252 246
97.9104155626231 867.404353574708 2801.28841137438 255 252 246
91.8859999076447 868.230301650622 2805.73176109437 255 252 246
83.3300157557826 869.649544977333 2808.35024118111 255 250 244
71.3804697179401 871.861947252831 2808.55303688559 255 247 241
60.2469156623719 873.880049163295 2809.3915051579 255 252 246
46.5411913816816 876.496328942229 2808.44470026455 214 201 195
40.4505759790945 877.330681517026 2812.95254513126 145 122 114
24.9807661003039 880.352025591558 2810.86347851138 145 121 111
10.3192106202292 883.179985777581 2809.41763253935 146 124 113
3.32089319523465 884.22025919401 2813.37915676244 150 133 123
168.023761806824 853.2127745117 2711.09009298249 243 245 242
170.90020127505 851.937933716559 2722.59227368489 248 250 249
170.569180502314 851.422753062405 2731.4992572716 254 254 252
172.70256615112 850.330409951656 2742.29541900527 252 252 250
169.162491821154 850.574972363671 2748.60877540658 255 251 245
162.360562771922 851.585652461081 2752.37965694901 255 252 246
153.912491515411 852.981502827471 2754.89443540474 255 250 244
146.270656723504 854.186654457808 2758.05370364038 255 250 244
144.380555991265 854.045032873759 2765.61950832946 254 249 245
139.205531455636 854.672542099456 2770.66563860474 254 249 245
135.68516975023 854.913970764833 2776.95988324484 252 248 245
128.027480906373 856.120590330889 2780.13467782818 252 248 245
123.68256514042 856.554509274815 2785.80201970073 252 248 245
118.509009062135 857.181656471651 2790.84674528388 252 248 245
113.33579365959 857.808701752071 2795.89114763418 253 249 246
108.999699664628 858.241567540417 2801.54988501367 255 251 248
102.990447580441 859.062596597143 2805.97890411259 255 252 249
98.6589247180643 859.494827152769 2811.63319617696 255 254 251
89.2759746280243 861.096001511545 2813.62906702031 255 250 247
78.1848124290527 863.089889230432 2814.4290183993 255 253 250
67.0669085556073 865.086971255815 2815.25505253924 255 253 251
56.7705866083896 866.891773818835 2816.71057181951 254 246 244
47.3016703605098 868.50368067801 2818.78988422755 203 186 179
33.5523144747025 871.098512160345 2817.88957621194 160 140 133
16.3476760877033 874.483125309601 2814.63571030015 131 112 105
5.93838552324755 876.302228330648 2816.20129548587 148 134 125
14.3843896327738 873.794939274214 2830.85710307125 145 135 126
193.361508610772 841.84698379617 2704.61345793013 238 237 235
190.574187346552 841.916553165997 2711.62209262235 246 245 243
185.381462750588 842.547709017377 2716.68526034952 254 254 252
181.804707657023 842.802615598645 2723.03351242763 254 255 255
181.474754600036 842.303352900669 2731.93674524785 252 255 255
177.922110502462 842.554807125999 2738.26156500721 252 253 255
176.81836640091 842.239014517632 2746.48949549857 251 252 254
171.65670866371 842.865369365435 2751.52252296197 255 255 255
165.677874950965 843.680807676228 2755.9218246362 255 255 253
155.598694647244 845.443552847053 2757.16793511874 255 255 255
151.24616180845 845.881190540976 2762.84262906959 254 255 255
146.897713067413 846.318326407392 2768.5130037789 251 255 255
143.378835129387 846.564698308218 2774.80504440802 251 255 255
139.867932147235 846.810018908223 2781.08898332787 249 254 255
134.70711103365 847.435442722756 2786.12131761796 249 253 255
127.884807661194 848.442368625 2789.91332387494 249 253 254
121.054939763258 849.450143256132 2793.71237853379 249 253 254
114.217673880489 850.458850520803 2797.51864165812 250 254 255
109.04680069098 851.085187746267 2802.56082280646 251 255 255
102.198840369991 852.09511223924 2806.37786360221 252 255 255
97.8653826953666 852.529945461752 2812.03369229072 254 255 255
91.8510124223984 853.348730275 2816.46812552497 252 253 255
84.9884722454841 854.360387890734 2820.29905033641 252 254 253
77.2720607994848 855.565800925188 2823.53233565659 254 255 255
66.9991007695776 857.35150088887 2824.96747956346 254 255 255
56.7034777225408 859.139926910399 2826.4250631132 255 252 250
43.8278832061041 861.511428819477 2826.10701447235 255 251 248
28.3550947833526 864.468223708847 2824.03044593203 255 252 248
16.2609182387561 866.655267957127 2824.38094761509 197 190 184
23.8717565453421 864.381787822338 2838.41428317259 145 140 134
189.903142932568 837.181184682464 2674.72908072478 216 215 213
187.848483199747 837.083188279848 2682.4518471513 237 236 234
193.009844702731 835.323454071028 2696.00779932577 247 246 244
198.221992946416 833.557317386574 2709.51426579905 255 254 255
197.857789514166 833.078693819642 2718.44879713566 255 255 253
195.905516473754 832.967200259325 2726.07188693708 252 252 252
191.545871976736 833.409580502397 2731.75260408099 250 251 253
188.000342476935 833.665562951668 2738.06968967007 249 253 255
182.028118012449 834.477796270732 2742.46323980145 250 254 255
178.492947121697 834.732132077692 2748.76994466964 253 254 255
174.15042224134 835.171646495146 2754.43408534891 253 255 254
167.360155569535 836.169875124939 2758.19556414162 253 255 254
160.562282393603 837.16889880687 2761.96414095503 253 254 255
153.757352150166 838.168445293423 2765.73998611249 253 254 255
151.061128967227 838.232957904702 2772.65890645002 250 253 255
145.901435096736 838.858180643505 2777.69015108996 249 254 255
143.223243253657 838.92025624932 2784.59118838682 245 253 255
137.241125216426 839.732321558595 2788.99458781396 246 251 254
132.086471244231 840.356732031658 2794.02094781291 246 251 254
125.266494774774 841.357644614637 2797.81153218677 246 251 254
118.438910724174 842.359470323182 2801.60919819962 247 252 255
111.604014800066 843.362099871911 2805.41400620372 248 253 255
105.60057656403 844.176617055704 2809.83821451746 250 254 255
102.115625136076 844.423606393463 2816.09647436364 251 255 255
96.9535126343644 845.048603319724 2821.13015411514 250 254 255
90.1026297217662 846.053307251201 2824.95053084227 250 254 255
82.3979444441147 847.248868442454 2828.17362800207 250 254 255
74.681949064936 848.445914420541 2831.40773680903 254 255 255
63.5534220261658 850.406418709281 2832.24972608268 255 250 250
55.8071124545449 851.607227304171 2835.51338121774 255 245 244
46.3412486784538 853.191492715031 2837.59408571214 255 248 246
41.1368698173984 853.822289738084 2842.6688793315 255 254 251
43.6551875185072 852.730259052059 2853.08241382866 242 239 234
202.825142807324 828.114595356128 2667.48844756492 247 245 246
203.936267663622 827.305063027488 2677.84068290754 246 244 245
203.486771770895 826.853821139508 2686.85586391806 255 253 254
200.666754458493 826.943846730662 2693.89394284889 249 247 248
201.058690849753 826.305370937104 2703.51815156995 253 251 254
202.280069687512 825.481172747494 2713.76307068698 255 254 255
203.533035781387 824.653038413266 2723.97754279418 255 253 255
201.594123027401 824.5504159965 2731.58605448254 251 249 252
196.440178384135 825.176211268042 2736.61150543477 255 255 255
192.096286749528 825.618905396738 2742.27653336128 254 254 255
183.698740843386 826.976484104773 2744.74679593158 253 253 253
180.167474746851 827.235444900371 2751.04927755208 254 254 254
175.013303259838 827.860502174428 2756.07506283921 255 253 254
168.224642073347 828.852939406681 2759.83546548531 254 254 252
161.428836092504 829.846205347052 2763.60317837711 253 253 253
156.268228641705 830.471484288342 2768.6353219091 253 253 253
154.400863385351 830.358485889647 2776.17431944024 251 252 254
148.423490897529 831.167371356561 2780.57313860398 248 252 253
145.751241697799 831.236468644942 2787.46757480852 247 251 254
138.945897616437 832.230170419693 2791.244694759 249 250 255
132.964000282738 833.039272502367 2795.64797514588 249 250 255
126.14588141206 834.034407835815 2799.43756877165 248 249 254
120.990019470525 834.658557810821 2804.46516680351 249 250 255
115.834563057478 835.282479756039 2809.49239584229 250 251 255
109.001992420845 836.279273095645 2813.29575739072 251 250 255
104.684176967537 836.716956773476 2818.93596966817 253 252 255
100.37036003917 837.154208380441 2824.57193736913 254 254 255
94.3719025154928 837.965090256151 2828.99173705882 255 255 255
86.6770295957426 839.151099839244 2832.20650212568 254 254 255
79.8190969381172 840.151149433409 2836.03456726287 255 253 255
72.953809889829 841.15200822772 2839.86981581927 251 249 250
69.4902381033931 841.401668485167 2846.10645060461 248 248 248
61.7636872112195 842.591966424159 2849.35203854925 249 249 249
55.7381430292661 843.406616816493 2853.79817870591 253 253 253
51.4250429689356 843.844426707942 2859.43335203211 254 255 253
56.5758976571566 842.203028092942 2871.56533836215 254 255 253
213.8864129918 820.022889448132 2649.19826176521 169 168 166
214.149489738751 819.420530954758 2658.94509189677 248 246 247
210.488814837591 819.703648640322 2665.37250799549 253 251 252
210.00494430452 819.273264531272 2674.41840291942 250 248 251
211.133389914622 818.482764386023 2684.75096339106 248 246 249
211.49700708882 817.86678767305 2694.39996815902 246 244 247
209.494087120071 817.783615366248 2702.06916524008 251 249 252
209.10711934661 817.340058585493 2711.02111904835 249 247 250
209.545634796006 816.714168004234 2720.59721398723 249 247 252
210.815732767444 815.905102702159 2730.79185549214 251 249 254
207.282351573588 816.170416966419 2737.09516055366 255 254 255
202.949467292127 816.614553947021 2742.7490447629 251 249 252
196.192096305135 817.598374977245 2746.47998709123 251 249 250
187.804151529871 818.943952014932 2748.94248943828 252 250 251
183.46870196118 819.387645796006 2754.59898652035 254 253 251
178.322142660293 820.01156652657 2759.61738077476 255 253 252
171.54118410427 820.997607587826 2763.37107994622 255 255 251
163.933576873201 822.165716591569 2766.501834592 253 252 250
159.600065307659 822.608504361551 2772.15687895834 253 252 250
156.917113582329 822.686970633742 2779.06055819729 251 251 251
149.295331726902 823.856335854672 2782.20520278625 250 252 251
144.143657725057 824.479957873337 2787.22872016381 249 250 252
137.334178774683 825.468650882248 2791.01034855176 250 249 254
133.84145983856 825.726821044814 2797.27466912736 250 249 255
126.192258188223 826.899230184789 2800.4460920881 249 248 254
121.871106230516 827.339824210637 2806.08884957358 249 248 254
116.717586502016 827.963266130689 2811.11422640348 250 249 254
113.241874966084 828.219233271398 2817.36198398494 251 249 254
108.933520671793 828.658213948425 2822.99227165372 251 249 254
105.47207310259 828.912441858309 2829.22612196291 252 250 253
98.6406383501293 829.903430994325 2833.02921342032 253 251 254
90.1090921682597 831.264752517988 2835.63198705879 255 254 255
82.4106806814817 832.442952557973 2838.85142022208 255 254 255
79.8029009003134 832.51176530569 2845.68187939593 255 255 255
78.0591620157915 832.393973133729 2853.0988226299 252 253 255
72.9145671201215 833.016702718578 2858.11544225171 254 255 255
65.2019947284539 834.196982809765 2861.34862997223 254 255 255
55.7622716128239 835.750827114835 2863.40787263052 252 255 255
51.4630095274411 836.189369200378 2869.02919642507 239 243 242
48.029954262617 836.44102027921 2875.2352336108 254 255 253
49.787655667437 835.571264449311 2884.95430988977 254 254 252
226.797061838443 810.962271698888 2641.96801774757 221 220 218
226.253190331142 810.556480618959 2651.07019752891 245 243 244
221.014654835311 811.195593508752 2656.17768011006 243 243 245
218.141546421668 811.309530974133 2663.26494512468 245 244 249
218.441509392612 810.720861691163 2672.97312343122 245 244 249
217.184544234909 810.479357015695 2681.34188713033 244 243 248
215.947604359917 810.235078921937 2689.69151317969 244 243 248
213.138218133501 810.339862785412 2696.71685401877 246 245 250
211.936871875595 810.090638837959 2705.03152823321 245 244 249
213.955253358511 809.133326110987 2715.92193337193 245 244 249
211.999435346113 809.054299523496 2723.54374477853 244 243 248
211.667255954329 808.61958047335 2732.43998670114 244 243 248
208.941510124871 808.712817665747 2739.38397798256 245 244 249
205.41996670246 808.981651941072 2745.67500770594 244 243 248
200.287413034331 809.604219820872 2750.67969411073 246 245 250
193.532325356168 810.582150965222 2754.4092396022 247 247 249
189.210244458206 811.026813010123 2760.05231828764 250 250 252
182.446128643788 812.005423581796 2763.79039059082 252 250 253
174.857618086817 813.163151316851 2766.9040541459 251 251 253
167.257718076009 814.322033067309 2770.02851919203 250 250 252
162.931626307575 814.766434151419 2775.67561930104 249 249 251
159.433179634624 815.030987393564 2781.9446841876 248 248 250
150.991864355446 816.370863246815 2784.46068902458 248 248 250
145.843932940186 816.99389551532 2789.48057712314 248 247 252
139.038541826742 817.976458111008 2793.25939014298 247 246 251
135.549328135269 818.239388676429 2799.51918853137 247 246 251
126.238468665323 819.763660716617 2801.45483845237 246 245 250
121.082527074557 820.38723104441 2806.4826012487 247 246 251
117.600372307697 820.64915378257 2812.73553897702 248 247 252
112.449108142401 821.272075477734 2817.75875288834 248 247 252
109.820084812435 821.351232259765 2824.60877837643 247 246 251
107.203052935478 821.428700422128 2831.44714575168 249 247 252
103.753590870745 821.686547656636 2837.66855934315 253 251 255
96.9264584534297 822.671451345256 2841.46827794463 252 251 255
87.5470651004551 824.203950388573 2843.47076707712 254 252 255
84.1004530589906 824.461569307925 2849.68904645625 253 253 255
82.3665229045814 824.352965034057 2857.09522935089 251 252 254
77.2317101854254 824.974107607165 2862.10236968645 251 255 255
71.2409572046595 825.77866507752 2866.51511555349 247 248 250
60.0988766477899 827.68397308502 2867.37872165723 251 253 252
53.2296885444579 828.674578304975 2871.21969733477 254 255 255
44.629066873541 830.033947571913 2873.89101465569 252 254 253
41.1963888530726 830.290799318657 2880.09590857575 255 255 253
27.382747753804 832.758637392133 2879.27820629779 255 255 253
17.8688691694378 834.308752130749 2881.41129981905 233 229 226
232.099475903395 803.073380195703 2637.86861691593 249 247 248
227.630628713468 803.543207941119 2643.65371721935 255 254 255
229.441632908737 802.637630887038 2654.74240456045 248 246 249
225.783194970022 802.931860589362 2661.16561912917 243 242 247
224.498104343024 802.707628274855 2669.56009682965 244 243 248
225.603367944762 801.963346746654 2679.90850844489 244 243 248
226.740286347901 801.214707776894 2690.22646824434 243 242 247
221.555589416466 801.845736146003 2695.28168322379 243 242 247
217.167289102886 802.303286800065 2700.98861383704 242 241 246
215.975490805358 802.066232066197 2709.29234602322 242 241 246
216.403291732252 801.478960519082 2718.87337276497 242 241 246
213.651152393259 801.583780668439 2725.84186123553 241 240 245
211.714881451733 801.512786313187 2733.44307495138 241 240 245
208.988915190709 801.613894148407 2740.38612184703 242 241 246
205.467132513918 801.888006811106 2746.67660901019 242 241 246
200.334430574256 802.510534414061 2751.68144860371 243 242 247
192.767504538747 803.658065074168 2754.77484769113 244 243 248
187.629938154482 804.280793135873 2759.78448812233 247 246 251
181.677400541051 805.078750849254 2764.16059884786 248 247 252
178.173609862677 805.349520857885 2770.43405157544 249 248 253
172.219887450927 806.147287158871 2774.8110292719 248 247 252
167.905461754607 806.59279913968 2780.44671845079 247 246 251
160.302472299429 807.743519883851 2783.57545755402 246 245 250
151.86331519819 809.072319331324 2786.09129421832 246 245 250
145.063099933998 810.04875836602 2789.86553476099 246 245 250
139.91353430084 810.671701809526 2794.88705879039 246 245 250
136.42641842453 810.939485162007 2801.14439461949 246 245 250
129.615852925828 811.916934164089 2804.92876382529 246 245 250
123.632907751254 812.717251013047 2809.33472102934 246 245 250
120.156467208619 812.983583670351 2815.58133266441 247 246 251
115.849787173473 813.427293623925 2821.20959662609 247 246 251
111.547214110184 813.87032195987 2826.8335452048 246 245 250
108.091497690765 814.134087943067 2833.06029467447 248 247 252
104.643820002951 814.396794585499 2839.27888029292 251 250 255
101.204344597931 814.658572099599 2845.48979609007 252 251 255
93.5312524330807 815.817245871813 2848.68697276624 252 251 255
86.6971988992167 816.797361069804 2852.49427187558 252 252 254
82.4124773586963 817.238479712703 2858.10111372208 252 252 254
78.1317973987781 817.67910188806 2863.70367775499 253 253 255
73.8553239445876 818.119488610664 2869.30209946533 253 253 255
64.43523744184 819.643613810833 2871.34623514747 254 254 255
58.4355397284151 820.446409434368 2875.76812366646 254 254 255
49.8469630893128 821.793278994023 2878.429665386 252 252 252
42.9708511768925 822.779390906919 2882.27818061713 255 255 255
30.8926721848151 824.856400557311 2882.62872171757 253 253 253
19.6515698141244 826.75549871984 2883.59157575863 255 255 255
17.0796033781788 826.83689758602 2890.38461152845 253 253 253
13.6477253779907 827.099440460401 2896.58753202838 255 254 255
241.878410210963 794.709460919294 2627.97692704595 229 228 226
238.181326268004 795.015036097516 2634.43717865379 241 239 240
235.272899462087 795.150585935935 2641.55632105475 237 235 238
235.506354634054 794.608748692656 2651.32362083382 247 245 248
233.41418075229 794.570558428523 2659.07480004366 235 233 236
228.192589419426 795.20741729969 2664.16578996347 240 239 244
226.912903242716 794.995948560788 2672.55301451401 239 238 243
229.604143169369 793.932447729381 2684.20786514461 239 238 243
231.542487193729 793.033992215303 2695.16904959249 239 238 243
226.369163601044 793.663586794347 2700.21318259197 238 237 242
221.992255987537 794.122236877081 2705.90863759056 235 234 239
218.417862575376 794.409219616621 2712.24980364194 235 234 239
218.051059007309 794.011075511219 2721.17468428059 235 234 239
213.698943444353 794.465820529398 2726.84643541531 235 234 239
210.154746124724 794.748301983669 2733.15794374643 235 234 239
209.036176293077 794.514458060512 2741.38848442705 236 235 240
205.514197956076 794.793725677193 2747.67840398376 237 236 241
202.00063664167 795.071801218872 2753.96047934275 238 237 242
196.060684387616 795.865813594671 2758.32467573956 239 238 243
190.930644616662 796.487474869523 2763.32699980311 241 240 245
183.35482608374 797.627517121558 2766.43033605535 242 241 246
179.854604425747 797.9030394931 2772.69920445377 242 241 246
176.362672238887 798.177385869529 2778.96035293837 243 242 247
170.415266840394 798.971394331387 2783.33195099626 244 243 248
161.994811453476 800.287116842102 2785.83081150533 243 242 247
153.559474765664 801.604466464034 2788.34454672184 243 242 247
146.763239429994 802.574965595555 2792.11605089374 243 242 247
140.788398121503 803.371738201799 2796.51414683451 243 242 247
136.472234325208 803.819238362522 2802.15126812024 244 243 248
132.160175885245 804.266234015757 2807.78404945045 245 244 249
125.348089487085 805.238154775213 2811.57074600374 245 244 249
122.712334370687 805.333669007252 2818.42503863131 245 244 249
116.734050491308 806.130449784561 2822.82688973017 245 244 249
112.433367005619 806.57583453759 2828.44861365297 246 245 250
108.137146447185 807.020525692163 2834.06634617858 247 246 251
104.689336336384 807.288438285347 2840.28429385777 250 249 254
103.789043394078 807.02542596487 2848.30239343694 250 249 254
96.121895064603 808.174976848831 2851.49501615562 251 250 255
89.2936314277746 809.14887803744 2855.29748423949 251 251 253
81.6059467743102 810.301076820175 2858.51010847319 251 251 253
78.1776043766449 810.566817005011 2864.70938334845 252 252 254
74.7571290264455 810.831696399075 2870.90063551179 252 252 254
68.7710618153079 811.629753233157 2875.31002697351 253 253 255
63.6412246802092 812.250150617183 2880.31233661917 253 253 255
57.6499262435806 813.049043836838 2884.72679914772 251 251 251
50.7911293664463 814.027442882632 2888.55892240925 255 255 255
39.5964601360328 815.901581510258 2889.47935666396 253 253 253
27.5074207882242 817.958423621478 2889.84400085366 255 255 255
16.2572650560464 819.839734110775 2890.81847402685 255 255 255
4.10861857048372 821.904162655564 2891.24084987193 253 251 252
-1.95654077912666 822.713310718126 2895.72714171763 255 253 254
240.987866879619 788.137065153779 2618.49669673674 253 252 250
245.813565892589 786.630342152297 2632.34857177984 246 244 245
243.68287167598 786.60862484725 2640.13556755545 242 240 243
241.568146420329 786.584481619153 2647.90706446713 234 232 237
239.469513072117 786.558119806044 2655.66324762473 235 233 238
236.602346703641 786.69572127638 2662.74111457107 244 242 247
232.174486563922 787.164981521326 2668.48559800406 237 236 241
232.480611530225 786.631732712566 2678.17946623623 235 234 239
233.604469700239 785.927741505124 2688.50345827848 236 235 240
233.967930367593 785.386838800525 2698.14186039639 237 236 241
228.800198857702 786.015610471025 2703.18056200052 235 234 239
226.81695818317 785.972532769215 2710.8242912864 234 233 238
223.253720949385 786.263547265152 2717.1534453539 234 233 238
221.298691725271 786.216487242059 2724.77008667981 234 233 238
217.755761817697 786.504351988592 2731.07954080378 234 233 238
212.613574244585 787.128547156976 2736.09355330609 235 234 239
209.8890367982 787.245278512905 2743.03287221813 236 235 240
204.753613760669 787.868149153483 2748.04036320125 236 235 240
202.856952013304 787.812623612733 2755.59995811773 237 236 241
197.730206783293 788.433928527177 2760.59906332334 238 237 242
192.603952654586 789.054935655192 2765.59772487079 240 239 244
185.031950483807 790.186300127259 2768.6985539911 241 240 245
180.718284147723 790.637023573028 2774.3327188618 242 241 246
177.227943395067 790.916430587355 2780.59120122665 241 240 245
171.282392082574 791.707374808542 2784.96141104317 240 239 244
163.687034274666 792.840858066204 2788.08511950082 238 237 242
156.080602902117 793.975501447334 2791.21965270612 237 236 241
149.290136204905 794.939789249455 2794.98634656653 236 235 240
144.150141239505 795.561054407607 2799.9986148312 237 236 241
137.348773497222 796.526493622273 2803.77562557025 238 237 242
133.038543013159 796.975617585681 2809.4062771499 239 238 243
125.393703853876 798.114395252687 2812.57833880955 240 239 244
121.92124880675 798.390473012853 2818.81989030871 240 239 244
119.295477375797 798.49257149663 2825.66329583952 240 239 244
116.681717040908 798.593155790898 2832.49499797093 243 242 247
112.394913508813 799.039326414772 2838.10282274326 243 242 247
107.268060113617 799.658522087403 2843.10234710351 245 244 249
105.52700281626 799.581964881441 2850.51053297181 247 246 251
98.7121807902875 800.548556464998 2854.30107153583 248 247 252
91.8898356789724 801.516109490909 2858.09860069205 251 250 255
85.0600915058095 802.484713223785 2861.90332193203 251 250 255
81.6395690085172 802.754479936177 2868.0942364116 252 252 254
76.514922735786 803.373810147737 2873.09154918182 253 253 255
72.2486097794808 803.817692453083 2878.67936472197 254 254 255
67.1265548991258 804.436931853764 2883.67411762306 254 254 255
62.8668694753856 804.880260459546 2889.25577160394 255 255 255
55.1561265730505 806.027582215836 2892.49201384201 255 255 255
43.1055532858204 808.057887578686 2892.82204494275 254 254 254
31.0244932865782 810.091964269261 2893.1821302406 254 254 254
20.6518483612257 811.776539200488 2894.7312089579 254 254 254
7.64175200757045 813.994931107724 2894.56935222112 255 255 255
0.711144462028468 814.977357641135 2898.47252711902 255 255 255
-3.60105742785199 815.428440227539 2904.10484685017 255 255 255
2.61821719395039 813.747037347609 2916.59869832262 250 251 246
237.038567561223 782.166134758516 2606.29664706548 233 233 231
245.688239308582 779.887691763924 2623.55054280516 234 234 234
249.748463910752 778.577143182698 2636.71664144262 240 240 242
253.855462526043 777.260416187688 2649.83686811847 249 248 253
247.863198298813 778.060433630645 2654.25212353164 229 228 234
244.997166662629 778.206324592132 2661.32763848886 224 223 229
241.358734842402 778.514130694965 2667.72898010012 237 236 242
237.728702017241 778.820393182495 2674.12254737277 232 231 236
237.259805135684 778.468482879333 2683.14231268715 229 228 233
236.024332381703 778.277812439321 2691.48222083385 233 232 237
236.393024471647 777.754956386684 2701.11242294252 235 234 239
232.819060207448 778.053089102335 2707.45151488202 234 233 238
230.845181591323 778.019563490725 2715.08453571075 233 232 237
225.695610829864 778.645397053232 2720.10563767429 233 232 237
222.94614294621 778.7739397044 2727.06796717481 233 232 237
220.208773346959 778.900721299278 2734.01854318342 233 232 237
215.072220912303 779.524029162442 2739.02709105327 234 233 238
211.547633065339 779.814404006653 2745.31829809055 235 234 239
206.415868118593 780.436636580284 2750.32225084145 235 234 239
206.142019502201 780.057719622223 2759.15232191698 236 235 240
202.645799510139 780.343823659569 2765.41565263639 237 236 241
196.717613505825 781.130573767635 2769.76923833326 239 238 243
189.155188233076 782.252593221481 2772.86193864187 239 238 243
181.58162454294 783.375898912167 2775.96550945836 241 240 245
178.093253515477 783.660233830156 2782.22164535695 240 239 244
172.970663939648 784.279894450657 2787.21686696245 238 237 242
168.671628366371 784.730850403137 2792.83613106302 234 233 238
161.901706392642 785.687195091121 2796.58325985611 233 232 237
152.643739895784 787.151078530693 2798.47531168173 232 231 236
145.024609663507 788.278831293855 2801.62347347279 232 231 236
138.225142575664 789.238428862314 2805.39946022664 232 231 236
133.084066115371 789.859535515948 2810.41282585863 233 232 237
124.604482375766 791.160055027752 2812.97298653458 233 232 237
121.129981633713 791.441579936999 2819.21576435279 236 235 240
116.824939037747 791.892290700087 2824.84102975458 236 235 240
115.886229044491 791.660316656172 2832.89235274754 238 237 242
113.282558687931 791.767471802271 2839.71306421227 238 237 242
110.690834574688 791.873238872235 2846.52211803784 241 240 245
107.264908604302 792.148758097345 2852.71754802721 243 242 247
99.6056066618989 793.280808548127 2855.90496572392 244 243 248
93.6356233456843 794.07082293139 2860.29957431094 248 247 252
86.809799930295 795.033271383109 2864.10131192836 249 248 253
82.5389166366888 795.480029636324 2869.69324081717 250 250 252
77.4163138798984 796.098807386098 2874.68860599946 251 251 253
73.152144230181 796.544883146395 2880.27430685479 252 252 254
67.1721696796492 797.336405996714 2884.67827609242 252 252 254
62.0505841035133 797.955409327662 2889.67259785849 253 253 255
54.338089431643 799.094578348976 2892.91178460027 253 253 253
42.2860542337924 801.103295474007 2893.24679597399 254 254 254
31.9384320873031 802.768263583774 2894.77392458161 255 255 255
22.4376353262805 804.26205201064 2896.90269050518 255 255 255
12.9174940955235 805.758469059676 2899.04993942196 245 245 247
1.63162953852991 807.60642322713 2900.06480203586 248 248 250
-5.30445162787396 808.583950796817 2903.97379854289 255 255 255
-7.86171533085556 808.687673368746 2910.74893484757 250 250 248
-9.52780987205459 808.614802926656 2918.08247453076 252 253 248
243.273184090136 773.581891455647 2612.71061616668 232 232 232
249.613566724087 771.829461663164 2627.92852197486 230 230 232
253.682937186295 770.549839142564 2641.08096777984 237 237 239
257.020640256939 769.42452005689 2653.51991698067 230 229 234
251.816280475475 770.060209087255 2658.59396861717 233 232 238
248.177263043128 770.373736985234 2664.99538391309 233 232 238
242.977672722043 771.007999185764 2670.06491028975 222 221 227
240.13742474066 771.157951842361 2677.11422137983 230 229 234
239.67397292929 770.821335653559 2686.1263191956 227 226 231
238.443970016852 770.643243639066 2694.45893662299 229 228 233
237.233991848616 770.462437242997 2702.77240820977 234 233 238
236.043704804777 770.278807692769 2711.06640563789 232 231 236
233.281361712596 770.417464979563 2718.04002547208 229 228 233
230.531180680549 770.554353170124 2725.00182967241 229 228 233
224.59365005694 771.341278845882 2729.36466876556 229 228 233
222.661603424076 771.312327442122 2736.95547375059 230 229 234
216.726989533592 772.098413666713 2741.31554055514 231 230 235
212.400235443356 772.557227671845 2746.96116813605 232 231 236
207.270257294102 773.179117053608 2751.96339729424 231 230 235
206.188572766388 772.980014327896 2760.15217558899 232 231 236
204.315166982315 772.942608874503 2767.68599884914 233 232 237
197.577170031273 773.890860057082 2771.40262183933 234 233 238
190.016584072996 775.004450969232 2774.49474141625 235 234 239
182.444880417401 776.119384474955 2777.59770259623 238 237 242
178.139099372945 776.573949298194 2783.22346950187 237 236 241
172.195089231526 777.359169198498 2787.59265712285 235 234 239
167.894157835188 777.812827802402 2793.21374219504 229 228 233
161.947217779684 778.598004283146 2797.58584568142 227 226 231
153.516134058995 779.882090052298 2800.10027402162 225 224 229
145.898906378413 781.001465270535 2803.2477847482 224 223 228
138.270562616037 782.122005972204 2806.40616165039 221 220 225
132.29669249299 782.909797783209 2810.80495838926 221 220 225
125.484500697049 783.865338495968 2814.59418056786 222 221 226
122.011887635342 784.151755721018 2820.83436080944 227 226 231
118.547416070157 784.437205549894 2827.06659940535 229 228 233
115.931389623966 784.553715300426 2833.89786020131 228 227 232
111.64283825861 785.004987641143 2839.50700440838 229 228 233
109.047174001316 785.119035313966 2846.31874698575 232 231 236
104.770870565832 785.568717677594 2851.91562597333 235 234 239
100.498860285908 786.017976758401 2857.50830435498 238 237 242
95.3809376471266 786.635810691977 2862.49916160653 241 240 245
89.4113633721778 787.422884036592 2866.89379869375 241 240 245
84.2922922317251 788.040921725878 2871.88576630943 243 242 247
79.1736032071526 788.658970212212 2876.8773528826 244 243 248
74.9131549006341 789.107066566692 2882.45872190419 245 245 247
68.0775560373648 790.065427136648 2886.27110871499 246 246 248
61.2343485159368 791.024818905598 2890.09056078307 252 252 254
52.6564175452147 792.326650509179 2892.74818778677 252 252 254
43.1975010913819 793.801373590386 2894.83784595396 251 251 253
34.587385173432 795.107203649137 2897.52684211612 249 249 249
28.5706093182045 795.901053066519 2901.96734956973 250 250 250
21.6786286973161 796.86724211672 2905.83422941137 248 248 250
8.66553164601847 799.037480965379 2905.68246941274 251 251 253
-0.880679822924613 800.52372665183 2907.85744762636 255 255 255
-6.93704561081177 801.3232746352 2912.33642622279 255 255 255
-10.3597206441886 801.605827138091 2918.52725062627 249 249 249
-11.1309387315175 801.369236311601 2926.4132718811 255 255 253
247.835176465494 765.805759506299 2607.91288988772 237 237 237
248.734615283535 765.196753666799 2618.44569486811 229 229 229
252.764277780074 763.954392914291 2631.63206399694 227 227 229
253.734406213555 763.335944806115 2642.0960687074 224 224 226
257.850234031157 762.082249795164 2655.19854959711 239 238 243
253.42796861686 762.559709028872 2660.93626557809 225 224 230
250.574844349935 762.719894394524 2667.99685062014 226 225 231
245.380781258897 763.353459799882 2673.06099136168 228 227 233
242.546009067597 763.510682937708 2680.10379033731 226 225 230
240.511530200989 763.507205104632 2687.79254706206 230 229 234
238.492998498255 763.501363065201 2695.465817446 223 222 227
237.282708915605 763.333745976172 2703.77764889807 240 239 244
235.298046434259 763.323162432613 2711.41798743674 233 232 237
232.533483527249 763.470060353913 2718.39259361768 228 227 232
230.578928576159 763.455091589512 2726.00368306745 228 227 232
225.44099002593 764.07904594518 2731.01351181925 228 227 232
223.510653440731 764.060493351506 2738.60108176208 229 228 233
219.988965044735 764.361235000272 2744.8878773925 230 229 234
214.864108058532 764.982714653366 2749.8850817178 231 230 235
209.739741635126 765.603955556746 2754.88183419408 231 230 235
206.235024584259 765.90179110305 2761.15220654859 232 231 236
205.172823905382 765.713277277168 2769.31973421665 232 231 236
199.250129639517 766.493909932307 2773.66877069293 234 233 238
192.508593301208 767.436769397068 2777.38970524053 234 233 238
183.308175256093 768.867628562718 2779.22949157612 236 235 240
179.004009340179 769.324656408442 2784.8529527596 233 232 237
169.777217775415 770.75820475612 2786.71819308814 232 231 236
165.470352800303 771.215206010274 2792.34467624952 226 225 230
157.042472752719 772.488227585844 2794.85722073596 219 218 223
151.080612930452 773.272264492193 2799.24464604188 220 219 224
144.28657837993 774.220313901021 2803.0172828608 222 221 226
139.146843364025 774.84101556897 2808.02937627539 219 218 223
132.341930642531 775.79003660022 2811.81233383153 217 216 221
128.033884638654 776.24643318498 2817.43974129981 217 216 221
123.730386057832 776.702184488073 2823.06306632412 221 220 225
120.269462254452 776.992389359842 2829.29074130486 223 222 227
115.135937974107 777.61195425293 2834.29683538205 224 223 228
110.845155550361 778.065997582629 2839.90744767013 225 224 229
108.247549455263 778.188073940057 2846.71993188507 227 226 231
103.123081867273 778.806438124343 2851.71720999711 229 228 233
97.9989969336699 779.424754068963 2856.71411525749 235 234 239
93.7256010365344 779.876651481638 2862.30811747521 237 236 241
89.4563317543096 780.328041706845 2867.89775902342 237 236 241
84.3373047465343 780.945896926027 2872.8897097837 239 238 243
79.2187029103011 781.56369854558 2877.88124626436 240 239 244
75.8163620634202 781.846858879886 2884.05212652483 241 240 245
69.8423496325713 782.631910134116 2888.45113178855 242 241 246
63.0033144438746 783.585219806631 2892.26767744174 246 246 248
52.7019527513723 785.211569383602 2893.75457653699 251 251 253
45.840172797619 786.167818401887 2897.59293580209 255 255 255
39.8387305818 786.95672736023 2902.01894692279 247 247 249
32.0945811682032 788.08367053743 2905.29137426547 246 246 248
23.4678098843766 789.381044849752 2907.99815920778 251 252 254
8.71205958589361 791.864780084124 2906.69638853842 251 252 254
0.916798870940649 792.998507428034 2910.01890530403 247 248 250
-7.76737242817571 794.303602712854 2912.7812103117 250 251 253
-14.7082033771846 795.270806797301 2916.69678707168 254 255 255
-21.6568157455077 796.239358704162 2920.61955384651 248 248 248
-11.8354400092664 793.972390595877 2935.29098706137 253 253 253
250.971013451209 757.899497396577 2611.63547460458 241 241 241
252.650370597669 757.156654334711 2622.83049955627 230 230 230
253.590729344131 756.563469752361 2633.32066990992 229 229 231
255.339052787348 755.811270697959 2644.44893096303 220 220 222
255.565654120769 755.364352768168 2654.20900767202 242 241 246
254.258925622786 755.224238269563 2662.61220167981 224 223 228
251.40740808491 755.392181873063 2669.67004455199 225 224 230
