ply
format ascii 1.0
comment KinectMotionCapture
element vertex 761
property float x
property float y
property float z
property uchar red
property uchar green
property uchar blue
end_header
13.3469435539304 848.530976750038 2771.85565590637 255 255 255
3.77368375007281 850.100594037593 2774.04517123018 233 233 233
54.7276154104419 844.787239467901 2576.86309535234 124 119 115
183.131321139666 815.411736974426 2700.25813075604 255 253 253
204.432743643549 810.211058747969 2726.63554719208 255 251 251
208.941510124871 808.712817665747 2739.38397798256 252 248 247
209.458559504837 808.095130064416 2748.88087517059 250 250 250
205.145298223834 808.538975100594 2754.51531659955 242 243 245
202.459607861701 808.626690914268 2761.42034826715 249 251 250
198.158826980982 809.068785691205 2767.04265516168 251 251 251
192.231602666073 809.86650070242 2771.39366527887 250 250 250
186.300956797266 810.664529117217 2775.74802672873 253 253 253
182.005411450098 811.10531521487 2781.36532808329 254 254 254
178.535555409322 811.366500028849 2787.60649990166 254 254 254
172.604087215022 812.164173398138 2791.96139256648 252 252 252
162.543805838796 813.859067623558 2793.19910231673 251 251 251
149.979332994632 816.095641296948 2792.5920475904 254 254 254
140.696428311991 817.616697074055 2794.50007551465 255 255 255
131.394772728916 819.139926755712 2796.42673990007 254 254 254
119.575405761371 821.206481316814 2796.52182209183 254 254 254
107.725660528731 823.276557658881 2796.64688767422 255 255 255
95.8453677978084 825.350367060832 2796.80173562935 254 254 254
83.0957031541004 827.608871851296 2796.37533768808 254 254 254
66.9492340644817 830.596714276802 2793.54624587879 255 255 255
44.8551497815184 834.861084035382 2786.51551278803 252 252 252
18.4616412637761 840.043619271757 2776.53324479036 251 251 251
-7.18166446233237 845.055774654943 2767.24844355817 254 254 254
-15.1023555813978 846.252679499872 2770.68583912021 248 248 248
202.804416147243 804.431599776966 2707.85171084518 109 105 104
208.83988331188 802.627286073264 2721.96316132356 238 234 235
214.930090235543 800.816189490811 2736.02125691854 255 254 255
213.017546020096 800.74196812943 2743.59938659474 250 248 249
212.736351340209 800.316389416426 2752.44364900691 245 245 245
209.240396999171 800.587056062619 2758.7093354126 252 252 252
206.564180116631 800.681420447584 2765.60397711897 242 242 242
202.272942439777 801.124847811578 2771.21661051521 251 251 251
196.355267277273 801.918587465557 2775.55872573896 255 255 255
190.434004020222 802.712556618471 2779.90403223179 251 251 251
186.14821147323 803.154694811152 2785.51178691454 252 252 252
182.687684988722 803.419964749789 2791.74275272399 253 253 253
176.765977158662 804.213505159673 2796.08890189442 254 254 254
167.540270227242 805.714377109578 2797.94311476701 254 254 254
155.814714752548 807.748158270093 2797.95022249588 254 254 254
145.716385484887 809.431291834453 2799.22711474335 255 255 255
137.257271426316 810.762076454062 2801.76247555372 254 254 254
127.950067187896 812.272337902056 2803.6962286932 254 254 254
116.954500844247 814.140541315796 2804.4198280601 254 254 254
103.422055428453 816.546394233438 2803.33205569057 254 254 254
87.3353844801068 819.492024483113 2800.44982238417 254 254 254
72.0395804686156 822.264861083984 2798.22503250385 254 254 254
55.0123918937415 825.40108939087 2794.83132963466 253 253 253
28.6427506301767 830.513496218176 2784.836063891 253 253 253
-3.748182811663 836.892802577796 2770.71340434381 255 255 255
-27.7792780759096 841.491809379579 2762.72253610548 254 254 254
-26.3870336483758 840.707503346719 2772.79222496465 248 248 248
208.044121832071 796.629278076015 2703.80178538303 188 187 185
214.851423399019 794.695094698606 2718.58289688888 221 219 220
219.311920995504 793.26709675949 2731.36887748967 240 238 239
219.800332179932 792.690582600217 2740.88812741247 253 251 254
218.704829816887 792.453902662851 2749.09584307544 251 249 252
217.629309680891 792.214513703873 2757.28445432577 250 250 252
213.335047619279 792.661270780945 2762.89959885064 234 234 236
210.668324936403 792.762340093934 2769.78382169097 244 244 246
205.573147616375 793.379783309384 2774.75215025273 246 246 248
199.663108334337 794.169788804458 2779.08723484134 243 243 245
195.384288077319 794.613714664303 2784.68746387865 247 247 249
190.29049794988 795.230393313821 2789.65452794017 247 247 249
186.018334320033 795.67318515591 2795.24831445563 250 250 252
180.104347404746 796.462980686962 2799.58735013501 254 254 255
173.361850520948 797.427059045714 2803.30644021721 255 255 255
163.30380338245 799.089133855661 2804.54644418965 254 254 255
151.564949333086 801.102904022583 2804.56937737387 254 254 254
141.457480310883 802.77073749564 2805.85760687952 254 254 254
132.992960443277 804.091235401648 2808.39985610996 254 254 254
120.339650932296 806.28952046512 2807.88701438885 254 254 254
106.814937084621 808.667462979959 2806.79535176124 254 254 254
91.5749523477056 811.401301570385 2804.52089640502 254 254 254
78.8105113701629 813.612960901842 2804.11609532006 254 254 254
66.0116761688978 815.828720296395 2803.74484222017 254 254 254
44.7342430765154 819.812553130772 2797.36187281944 254 254 254
14.0733077667745 825.748235162569 2784.42068567035 255 255 255
-15.0064135932007 831.344115417604 2772.79404656815 255 255 255
-25.488884710799 833.056983047917 2774.4480026693 254 254 254
-30.0289295430307 833.53142269427 2780.30312164709 222 224 221
205.698694264338 789.96156838695 2702.86524841456 197 197 197
215.699237718439 787.394826074241 2720.23689056893 246 246 248
222.566801188104 785.493013552916 2734.95371455815 233 233 235
223.866375499082 784.765337344403 2745.10671850768 255 254 255
222.780464690586 784.540703187232 2753.30346709613 251 250 255
220.906588368322 784.482717963387 2760.84079928875 254 254 255
216.619892462905 784.931056865788 2766.44819671558 239 239 241
212.337745057559 785.378632413093 2772.05152808015 225 225 227
207.246332659709 785.995365124974 2777.01622303064 240 240 242
202.15538956608 786.611861767122 2781.98048684611 247 247 249
198.6994626802 786.887343148514 2788.20537593935 247 247 249
193.613305997465 787.502882574557 2793.16502825417 246 246 248
187.706464938355 788.289123659703 2797.49749333828 246 246 248
180.972905056433 789.246781210893 2801.20831999607 248 248 250
174.232329008637 790.205133316884 2804.92634899738 250 250 252
165.003193133942 791.679193941738 2806.78792956347 253 253 255
153.268488361299 793.670786429173 2806.8103581479 253 253 253
144.826748865359 794.977739149774 2809.33198810501 255 255 255
137.202720237537 796.114070225102 2812.48374620446 254 254 254
125.393703853876 798.114395252687 2812.57833880955 253 253 253
110.20766817526 800.809412634321 2810.25604899863 253 253 253
95.8139837947218 803.337077354169 2808.58824876167 254 254 254
81.3783357630751 805.869665408146 2806.96172922595 255 255 255
68.5854611657901 808.060496155 2806.58824160144 255 255 255
51.5361713121973 811.123899605785 2803.22758695266 253 253 253
32.7403723884832 814.541738144997 2798.71469979994 252 252 252
2.8552581888599 820.23145597741 2786.45671138073 253 253 253
-18.6391315893211 824.190511206722 2780.29284529541 253 253 253
-39.3547325031083 827.983864565686 2774.79669249494 247 249 246
-54.1607302328107 830.56125408127 2773.5313140477 254 255 253
211.332717290555 781.622899587442 2708.42207277828 194 194 194
220.546489191062 779.27087915256 2725.12634559851 237 237 239
228.226972046786 777.241860396434 2740.47163896388 246 245 250
228.736046907025 776.699950582003 2749.96525504409 255 254 255
226.855672667634 776.653634787932 2757.50731502785 246 245 250
224.183635522393 776.771649469454 2764.3943106898 252 252 254
219.094961172928 777.388508757443 2769.35626800988 248 248 250
214.818488448921 777.83784561171 2774.95370401158 237 237 239
209.732710112513 778.453809091799 2779.9129179479 228 228 230
207.093588245228 778.566907684788 2786.767954848 234 234 236
204.466541249738 778.678484048326 2793.61122620676 243 243 245
199.393821064748 779.292211652678 2798.55780366714 245 245 247
191.857972244425 780.410526909454 2801.62466064433 246 246 248
184.311007880815 781.529948612947 2804.70239198797 247 247 249
176.752884918257 782.650541159835 2807.79103093519 248 248 250
168.356670855961 783.941258225042 2810.26985308647 253 253 255
154.971828473299 786.248836550466 2809.05003366488 252 252 252
146.533783751769 787.544427291056 2811.56933611007 255 255 255
138.080899707991 788.841698819614 2814.10346364389 254 254 254
129.612922612977 790.140814098272 2816.65230629523 252 252 252
113.59991131101 792.97254768094 2813.71376174873 253 253 253
100.052900706316 795.299095666836 2812.65217406137 255 255 255
86.4675407055415 797.630360265803 2811.62797077788 255 255 255
75.3714366698692 799.453684478456 2812.45803868549 255 255 255
60.8708853151856 801.964570470457 2810.89883882229 253 253 253
44.6356922895141 804.822898337885 2808.1769933882 255 255 255
21.5644775490849 809.059330705458 2800.70378510282 255 255 255
-15.1908525031956 816.053447994987 2783.73928268991 255 255 255
-35.8984012700536 819.797431815173 2778.24243078477 243 245 242
-54.9668829174434 823.205301786941 2774.00179495757 254 255 253
-67.2486641228929 825.241154013122 2774.560936957 212 214 211
221.754045329395 772.344465190377 2717.86606103031 198 199 201
226.993251833616 770.852365710836 2731.30515567168 229 230 234
232.283288134199 769.353799358984 2744.69473137476 230 231 236
231.997895512257 768.992979953226 2753.53325316612 234 235 240
230.930810780445 768.792567410697 2761.70772723807 247 248 252
227.460682536496 769.081266013351 2767.94510283227 248 247 252
223.189075349298 769.532891999801 2773.53703110927 251 251 253
218.921870841591 769.98372708324 2779.12470435557 249 249 251
212.218925756225 770.927664320942 2782.80749576614 248 248 250
208.769917807909 771.212828880256 2789.02408308263 233 233 235
207.781221527494 771.001649695491 2797.12230756856 226 226 228
203.535282597491 771.449037320219 2802.68937331473 233 233 235
196.009053192352 772.55800219881 2805.74806005225 245 245 247
186.825587312954 773.999697416438 2807.56941107293 244 244 246
178.448030832303 775.277520014993 2810.03127392438 243 243 245
171.709682420175 776.224446183907 2813.74877959905 248 248 250
159.990381226042 778.171121568923 2813.76221308845 251 251 251
151.564146076456 779.454419192167 2816.27194321349 255 255 255
140.624497728981 781.240211093748 2816.95219556907 254 254 254
130.492857697386 782.862206549447 2818.27120208331 252 252 252
115.318763764889 785.49114761924 2815.946819992 252 252 252
102.614211547646 787.622725364297 2815.49438450624 255 255 255
87.3537295168134 790.262098313834 2813.25390740436 255 255 255
77.9446450248211 791.730054495932 2815.29541968352 254 254 254
65.9832465897923 793.705422051309 2815.54501862173 253 253 253
53.9915761825536 795.684297987742 2815.82449738066 255 255 255
32.6384216974778 799.524134920585 2809.5376651316 254 254 254
-3.24100903100044 806.246770426628 2793.16041594874 251 253 252
-33.2943799935936 811.801196432025 2781.0895050554 253 255 254
-53.2107613113375 815.334785576594 2776.25535557857 254 255 255
-65.4884758234231 817.348483572141 2776.81373367698 254 255 255
236.164266885254 762.334683626038 2730.54199627577 204 208 209
237.438760814033 761.674550118819 2740.71026047581 225 226 230
239.546307293234 760.849893701814 2751.49217906845 230 231 236
235.259723257454 761.306638005546 2757.09856093442 240 241 246
233.394270003607 761.279669961696 2764.62294456993 238 239 243
231.544825535335 761.250565818402 2772.13174695928 245 244 249
228.901875690559 761.380599291366 2778.98808212975 252 252 254
224.648061650665 761.832340921936 2784.56232445629 252 252 254
215.518257598088 763.25506466656 2786.33319246509 251 251 253
212.076790496104 763.544585776759 2792.54164771339 248 248 250
209.461015036452 763.670544829604 2799.37160051524 218 218 220
206.857316602625 763.794745506141 2806.18982053916 229 229 231
197.696548496348 765.220311322857 2807.991016254 244 244 246
190.162997035964 766.32188465832 2811.05806636747 245 245 247
182.618351829378 767.424502723806 2814.13597832426 246 246 248
174.23559967451 768.691999080016 2816.60486461312 238 238 240
164.179995467721 770.288782272822 2817.85209279076 245 246 248
154.101710513192 771.888188858957 2819.12145554979 252 253 255
144.833493762347 773.325826063947 2821.02756521116 254 255 255
133.876758762192 775.094856054203 2821.72692442662 251 252 254
120.383680108325 777.361179303963 2820.62068270453 247 248 250
105.175337167277 779.962005150914 2818.33446580266 251 252 254
91.6019484556818 782.237922040086 2817.30655521938 251 252 254
83.8873140247212 783.360259852354 2820.55035441892 251 252 254
72.7841152090143 785.146620488161 2821.3929307485 253 254 255
57.4226578041639 787.765818382849 2819.25570555001 254 255 255
34.3812137482198 791.885808255202 2811.77014468478 251 252 254
0.20651406516059 798.178619139943 2796.59741890002 251 252 254
-25.5779379255139 802.820966156043 2787.50743551022 251 252 254
-47.1847397849468 806.640474021626 2781.47548348076 247 248 250
-63.728719987592 809.466259201444 2779.06507807314 252 254 253
-76.0328515288653 811.461527986298 2779.65241250134 252 254 253
223.826145898552 758.087781252531 2712.24759108083 197 198 200
236.21187394862 755.253189416339 2731.54136350965 205 206 208
239.085534360447 754.299312474988 2742.99886553872 222 223 227
241.196770255735 753.498237191758 2753.77397304736 228 229 234
237.717464436929 753.799060975273 2760.01867001263 238 239 244
236.6632127755 753.623697567793 2768.17636056276 239 240 245
233.206167917968 753.921361190469 2774.3994191348 245 244 249
230.566886345713 754.058951979797 2781.25099468837 245 244 249
226.316725806811 754.512886625707 2786.82128490772 245 244 249
220.444311050066 755.284527152621 2791.1217221208 252 251 255
216.198979977721 755.737440185749 2796.68736760238 255 254 255
211.958072304936 756.189618672598 2802.24872914843 255 254 255
207.721692412152 756.640977447618 2807.80605353705 233 232 237
200.205007926222 757.732463641372 2810.85784537068 224 223 228
192.677207358498 758.825115318557 2813.92050337991 238 237 242
184.313302200024 760.079621322638 2816.37259429111 242 241 246
173.453414914881 761.81851559632 2816.98023633964 241 240 245
163.396043074821 763.399292162194 2818.23192341771 237 238 240
154.146592634269 764.821426565192 2820.12135132091 243 244 246
143.212815084762 766.568856248111 2820.80144380648 249 250 252
131.41763876572 768.481224091326 2820.89529305625 249 250 252
118.755659096653 770.559185352264 2820.40884473575 245 246 248
106.059096327623 772.64128352506 2819.95578866899 246 247 249
92.4876969173751 774.890000877488 2818.92992275972 252 253 255
83.932758697224 776.16664366311 2821.5684405185 252 253 255
72.8296046525232 777.934128630347 2822.41376220539 252 253 255
59.1610169513412 780.194449454014 2821.48269071773 251 252 254
36.1235765663692 784.257573439819 2814.00122105926 249 250 252
6.20427486168307 789.640068840166 2801.82258867925 243 244 248
-22.1225338530116 794.708243384298 2790.94320018151 251 252 255
-43.7212157384992 798.475601625585 2784.91089258959 245 246 248
-61.1130778656994 801.429816307083 2781.90655532507 251 252 254
-70.8375899744267 802.908819333713 2784.25965917172 252 254 253
223.874338833355 750.946713638509 2713.25518145886 197 198 200
237.057430186242 748.016289065488 2733.18857153714 204 205 207
240.732428110891 746.933894433642 2745.28623774628 224 225 229
242.847143825956 746.156380776214 2756.05440734444 228 229 234
240.175109198567 746.306710057233 2762.93662442244 235 236 241
239.126326840173 746.143984111985 2771.0870160624 239 240 245
236.482442338424 746.290351840594 2777.94186516522 244 243 248
232.231554418107 746.74720868816 2783.51244578493 244 243 248
227.985300032169 747.203291460704 2789.07887748645 243 242 247
223.74319567375 747.658628218943 2794.64096056789 247 246 251
221.9514089316 747.642717585916 2802.0905579878 249 248 253
216.089524452854 748.409905256165 2806.38119660944 255 254 255
209.404933712155 749.334617621794 2810.04826547013 251 250 255
201.070969834785 750.575029507011 2812.47270735119 217 216 221
194.367972935869 751.501649479559 2816.15777185561 221 220 225
186.007971609609 752.744872048315 2818.60765389053 238 237 242
174.325246247476 754.622588440941 2818.59529698901 234 233 238
163.440849241355 756.345512585532 2819.22997577289 233 234 236
155.022120456617 757.595326157909 2821.73686305277 238 239 241
145.75589300712 759.005763826153 2823.64501738815 244 245 247
135.63598608734 760.577571886004 2824.9597904241 246 247 249
124.656827499121 762.311439763668 2825.68695138086 243 244 246
111.973920938983 764.367639135488 2825.22416232827 242 243 245
98.4162444876282 766.58779567485 2824.18889059365 252 253 255
87.3475299761641 768.332245873706 2825.00341784363 253 254 255
76.2523294316595 770.079799182567 2825.84378747764 251 252 254
60.8989447118957 772.633408522034 2823.70823994334 251 252 254
39.5622392654342 776.318088718651 2817.42800565364 248 249 251
10.5014318436107 781.460649955155 2805.84958508421 241 242 246
-18.6674474251949 786.616376652459 2794.37619776508 251 252 255
-41.1119267178446 790.493149522068 2787.75069874966 244 245 247
-58.4977049227975 793.408916148376 2784.74600266617 249 250 252
-69.932092245355 795.197578212925 2785.91711392876 247 248 250
-74.5147883202146 795.692077963905 2791.81162134627 247 249 248
227.901981523328 743.045769104902 2717.50831331037 197 199 198
237.104963780738 740.935865556584 2734.18785347759 200 202 201
239.179835170871 740.18756516618 2744.99093352931 228 228 230
241.290336177817 739.434465214404 2755.7596800599 235 234 239
240.221550203597 739.287869803783 2763.92788934211 233 232 237
241.589322151418 738.679617521819 2773.99552122592 239 238 243
240.565971976976 738.526894462816 2782.11917990904 243 242 247
235.51516238438 739.138626483596 2787.04429477366 245 244 249
230.464907668819 739.750052678003 2791.96890383818 245 244 249
226.228623273812 740.207237327834 2797.52527233434 247 246 251
223.627212025414 740.35538585599 2804.33768166732 245 244 249
217.768840637111 741.119490086086 2808.62494962732 237 236 241
211.907323759491 741.883624004222 2812.91567455883 246 245 250
204.4001405986 742.957754946529 2815.96059653483 239 238 243
196.881841355915 744.033051372268 2819.01638468643 222 221 226
186.877547269414 745.575365484372 2820.22071166246 216 215 220
174.369951406381 747.586866058798 2819.5907808008 238 237 242
164.314386478475 749.135112955683 2820.84514361726 231 232 234
155.897751557436 750.373917198941 2823.35191667557 231 232 234
144.96795386955 752.083105108117 2824.03370921718 238 239 241
135.680744037731 753.482520209217 2825.96399065699 244 245 247
126.374658204967 754.884138023683 2827.91269068471 241 242 244
118.72707907763 755.973832192697 2831.0950655347 239 240 242
104.344370456252 758.322499138346 2829.4428219995 252 253 255
90.7621967346977 760.518618287681 2828.43542913207 253 254 255
77.9860434612889 762.561688044563 2828.06717599555 251 252 254
66.021945620971 764.450934565338 2828.33252197641 251 252 254
44.6971425596558 768.083165211108 2822.04822046302 249 250 252
15.6484152554794 773.149136240727 2810.46912415732 240 241 245
-17.7685735998416 779.02112366019 2796.02342500368 247 248 252
-41.0648787975512 783.002718020768 2788.81106197398 243 244 248
-60.1623037858792 786.198882606245 2784.63045727583 249 250 252
-74.1739647974384 788.446845668524 2784.04188912868 245 246 248
-81.3454420535722 789.423489765585 2788.18510585147 251 253 252
230.337718577528 735.468965107119 2720.46050452582 204 204 204
238.748022486191 733.555848001926 2736.48085390122 199 199 199
240.026858357359 732.980730891101 2746.63224110203 225 225 227
244.543880896242 731.802134517951 2759.32489231489 238 238 240
243.482541272728 731.66792733129 2767.48387628668 236 234 239
244.857728312852 731.080145943133 2777.54111928505 238 236 241
244.649497142545 730.789252957017 2786.293021362 242 241 246
238.798750029125 731.550613923416 2790.57346159951 245 244 249
232.944565246721 732.312008518737 2794.8569726808 246 245 250
226.27386095643 733.224873569407 2798.51234096093 248 247 252
223.67222819945 733.381010813814 2805.32378952642 248 247 252
218.631099337052 733.990637892335 2810.23960239239 239 238 243
213.590440317381 734.599969864409 2815.15499231419 234 233 238
206.908076673843 735.513315329675 2818.82152965739 244 243 248
200.218508526698 736.427333161789 2822.49512180365 233 232 237
190.22213964107 737.952536648858 2823.69444572295 216 215 220
180.20283735573 739.480408417962 2824.91581063428 232 231 236
168.503055878902 741.317063892956 2824.92612165049 231 232 236
158.434670473154 742.850520643111 2826.19573921019 219 220 224
146.677878877611 744.693773461157 2826.26168703263 224 225 229
136.559967746225 746.233015003258 2827.5792915383 235 236 240
129.765797691401 747.158673340493 2831.3553723056 234 235 239
122.964168326965 748.085285080138 2835.13838152317 232 233 237
111.953236443234 749.785005655826 2835.90214078839 246 247 251
95.8613634052865 752.41633920932 2833.0715261483 250 251 255
81.4085191030296 754.743701763712 2831.49241500272 247 248 252
66.9133333971805 757.076061349756 2829.95427309573 250 251 255
45.590949483179 760.656965950752 2823.67549314229 250 251 255
11.4437727310741 766.581584940944 2808.52985528144 238 239 244
-26.2423376513339 773.145474249014 2791.13630968586 237 238 243
-45.2877144177148 776.29238389873 2786.9113001919 241 242 246
-63.5386165790797 779.29029432134 2783.33629700908 242 243 245
-77.5577690761717 781.512194081878 2782.75902016242 245 246 248
-89.895549521537 783.425197577305 2783.39192722366 247 249 248
238.344471804754 726.882297194712 2727.94889268028 211 212 214
241.188901637602 726.039192621186 2739.4190489988 198 198 200
244.872298918597 725.043956481427 2751.49549253585 221 221 223
246.193925769892 724.484673665169 2761.60204735901 240 240 242
245.939753919359 724.215965565525 2770.39629029401 237 236 241
246.514939024599 723.796514361396 2779.80615859452 236 235 240
244.695173666264 723.816976513851 2787.27816331209 242 241 246
241.272631097818 724.131283476996 2793.46450072257 244 243 248
235.424082812616 724.889313905093 2797.74291190127 245 244 249
230.385586782733 725.4989628862 2802.65610708844 248 247 252
226.163031095518 725.959547102177 2808.19834032043 248 247 252
221.12753629456 726.568404948905 2813.10867217222 245 244 249
214.454211879308 727.475480587914 2816.76716010569 231 230 235
208.594915073293 728.233673623407 2821.05655853314 240 239 244
201.909116181344 729.141850117804 2824.72727110043 237 236 241
191.091513923945 730.80045127549 2825.30512862079 214 213 218
179.420474127992 732.61224158948 2825.29091162494 220 219 224
167.7188271245 734.427608622086 2825.3062215592 231 232 236
157.648295255983 735.94525051626 2826.57997017498 215 216 220
145.057198925909 737.918038681213 2826.03867818866 219 220 224
135.76995936912 739.290449807088 2827.97298032156 232 233 237
125.627495476285 740.816393281136 2829.31693153096 231 232 236
118.81636971801 741.73858711569 2833.11036161442 229 230 234
109.476520567966 743.117040828463 2835.09601275942 244 245 249
98.4332364607496 744.801851953849 2835.89410187106 248 249 253
83.1418724073565 747.25116960273 2833.71238116454 246 247 251
67.804759599114 749.706005695862 2831.57561186622 248 252 255
45.6363994015341 753.388281784076 2824.70466904695 249 250 254
12.3399842202576 759.068693216086 2810.16755329986 239 240 245
-29.6039885159205 766.296555118968 2789.81843299023 235 236 241
-45.2407891274489 768.787461525579 2787.97392693419 241 242 246
-60.0679173901728 771.130296329579 2786.76386066055 235 236 240
-74.0790862056819 773.324299835323 2786.18277895434 241 242 244
-87.2686418694815 775.368877241177 2786.22515551482 245 247 246
238.392257627726 719.785861336424 2728.95029077237 212 213 217
246.820841002788 717.961546650956 2744.93936340856 209 210 214
250.517571529812 716.994159987836 2756.99878853671 201 202 206
253.455636910679 716.16578713759 2768.37378602959 225 226 230
253.218412394484 715.911054084709 2777.14879666327 245 246 248
250.588497295744 716.087975665015 2783.98525809645 236 237 239
247.163310561167 716.408159037004 2790.17335267233 239 240 244
242.936836310355 716.872611511205 2795.71856752703 241 242 246
239.526279246379 717.190537798973 2801.8924682198 247 248 252
236.123782711094 717.507343029281 2808.05819253823 246 247 251
230.284040308192 718.261124950281 2812.32882511512 246 247 251
224.440963001224 719.015032444795 2816.60275074133 247 248 252
214.498836782833 720.502098372827 2817.75350976279 248 249 253
208.639416476641 721.257535442635 2822.04343815826 233 234 238
201.130564783089 722.307404667007 2825.09360288317 233 234 238
191.135895978222 723.800150921708 2826.29569791993 213 214 218
180.291682390172 725.44300096068 2826.90230889348 215 216 220
166.934548082015 727.532026932875 2825.68727688667 207 208 210
156.031453620464 729.181710153265 2826.3513474968 200 201 203
144.268911406769 730.982640684773 2826.42926098354 210 211 213
135.814544840088 732.193355965145 2828.97765366019 211 215 218
123.999134940752 734.000407551112 2829.10749869312 212 216 219
115.506870013094 735.215559747017 2831.69253138629 215 219 222
106.159531159761 736.581440756722 2833.68781599939 229 233 236
95.950894519568 738.098861272643 2835.09873741462 236 241 245
80.6538720897971 740.516695270516 2832.92728882936 237 242 246
66.1573107842934 742.790069501883 2831.39956876482 241 246 250
46.5297636547275 745.968991751131 2826.33102228161 241 246 250
17.4861576745804 750.809010308409 2814.77989826019 237 238 242
-26.1491817956636 758.221103944564 2793.24961995731 232 233 237
-45.1939424093992 761.281841431787 2789.03673482265 236 237 241
-58.3089995197144 763.2930988056 2789.00972006242 235 236 241
-70.6005113835664 765.157281136646 2789.60389748502 235 236 241
-85.501856138543 767.479515944894 2788.47057395569 241 242 246
-94.4134268717103 768.745097540283 2791.46486791099 245 246 248
241.62335023237 712.124105137577 2732.54214738465 213 214 218
249.261432541169 710.485733956332 2747.87180757895 211 212 216
253.763177958258 709.405700375819 2760.56539950388 199 200 204
255.105249709467 708.886664561006 2770.64536590796 212 213 217
254.871766049323 708.647545365499 2779.41469193697 251 252 254
253.050953254081 708.689722154511 2786.88452736108 238 239 241
251.246149244412 708.72976284408 2794.33878153902 240 241 245
247.838687291615 709.052900982421 2800.5088384314 241 242 246
246.062118441895 709.088969399654 2807.93564177824 246 247 251
241.048473150138 709.695544519185 2812.82461413048 246 247 251
236.85074153244 710.158306461144 2818.34187482752 250 251 255
229.388639372149 711.195087967198 2821.34755093387 248 249 253
217.819853853583 712.952309582357 2821.23952131684 248 249 253
207.862741771947 714.424812413979 2822.40731394133 238 239 243
200.351881051904 715.466797210007 2825.46063897431 235 236 240
191.180306830184 716.799021373949 2827.28636117704 214 215 219
178.682332768929 718.712731067511 2826.66099133147 217 218 222
163.663919461637 721.065531725643 2824.22282951019 195 196 198
154.414421824823 722.406707879722 2826.12426987382 196 197 199
145.146215804728 723.750052578388 2828.04430527065 202 203 205
137.528268374436 724.804004166293 2831.20220030332 206 210 213
127.38969174485 726.297201640956 2832.54713124726 208 212 215
116.390009717423 727.939188764215 2833.30825221792 208 212 215
103.682890825305 729.877259546781 2832.88696572281 222 226 229
92.6263049720482 731.525830613185 2833.7036199298 229 233 236
82.3872896432625 733.030805449391 2835.1465472979 235 240 244
72.9716713045985 734.391272630346 2837.21009676883 240 245 249
55.0562508186903 737.227878127434 2833.32613396249 240 245 249
26.882598214883 741.842734347341 2822.36165943293 233 234 238
-16.730932240542 749.13155936723 2800.8276056616 230 231 235
-42.5854554657761 753.331451546776 2791.87259867517 234 235 239
-61.6855188253695 756.355936674029 2787.71998806765 232 233 238
-73.9846962794668 758.199456853118 2788.32449354972 231 232 237
-86.3141903769584 760.046726920082 2788.95888751705 237 238 242
-94.3659575389226 761.152596843431 2792.539898449 243 244 246
242.467003098057 704.898000156942 2734.18964993761 220 221 225
252.499599337778 702.88647743165 2751.44740198949 211 212 216
255.409197850649 702.115413883359 2762.8421972133 206 207 211
259.961480654412 701.060970366202 2775.481822566 198 199 203
259.739307816214 700.836582720323 2784.23773946501 239 240 242
258.735327882471 700.748524259234 2792.33260581345 251 252 254
256.944029441301 700.797522676982 2799.77246265591 243 244 248
252.740358618165 701.264525548828 2805.29465642216 241 242 246
250.163917638875 701.450037761594 2812.07674757251 246 247 251
243.533143019936 702.336535365458 2815.69602435385 247 248 252
241.786475783659 702.379153753833 2823.09216687364 250 251 255
235.153153069592 703.265369859401 2826.71435339842 249 250 254
226.055164027915 704.575947026526 2828.46986600427 250 251 255
213.654507252434 706.454318480845 2827.75341947363 249 250 254
203.68825433924 707.911639294591 2828.93253297459 241 242 246
191.224660907015 709.797132388853 2828.27719305721 220 221 225
177.899985771287 711.828817516297 2827.03840356415 209 210 214
162.879509238101 714.149694335488 2824.60667104415 201 202 204
152.797366409707 715.620327600278 2825.89889736962 180 181 183
143.525329612538 716.950651367999 2827.82466127262 188 189 191
135.903481142392 717.996957045907 2830.9875601577 190 191 193
128.270579289167 719.044538240731 2834.16124669473 192 196 199
117.272897283331 720.667462173842 2834.92319914557 200 204 207
105.408373038105 722.437245378387 2835.1073237005 204 208 211
92.6709497714606 724.354723414716 2834.71917349618 205 209 212
81.5878360063369 725.987709752622 2835.56447372787 221 225 228
73.862744320337 727.04596943948 2838.8281278552 230 234 237
57.6455809781957 729.552575113096 2836.14036306548 232 237 241
34.5782423848511 733.224671949842 2828.74637641176 226 227 231
-6.46097850806004 739.955194136714 2808.9899157416 227 228 232
-33.1459354614259 744.233269639869 2799.43073910248 232 233 237
-59.9270613710408 748.522938048583 2789.96534623217 227 228 233
-78.2263211154617 751.365416059268 2786.46167352878 227 228 233
-87.986444032635 752.754040590238 2788.86315949485 230 231 235
-96.9035553337663 753.998502196457 2791.86607684121 239 240 242
240.495420388274 698.408490754342 2724.35340998393 191 192 194
249.676799988508 696.590683633662 2741.01089234263 221 222 226
254.939974346148 695.443714576904 2754.37517642549 212 213 217
258.654774189563 694.562562197891 2766.40391306582 213 214 218
260.809300694493 693.94863467065 2777.10803416054 204 205 209
261.392238319001 693.603450360875 2786.49922748026 227 228 230
262.808557142392 693.117675946511 2796.50088726562 251 252 254
261.833856656548 693.039194331741 2804.56526323576 244 245 249
256.832302110086 693.644834908978 2809.44236742413 242 243 247
252.642808025195 694.112396292859 2814.9507387739 246 247 251
245.20448756868 695.130611967086 2817.93554331868 247 248 252
244.27658475015 695.045405199195 2825.95444248807 249 250 254
238.466019653368 695.787371159097 2830.19784796255 250 251 255
231.013888660843 696.806502307256 2833.19623126709 252 253 255
218.624700373257 698.659322764328 2832.47183494268 252 253 255
207.024250272636 700.377181077813 2832.40140444451 246 247 251
192.093814476593 702.655276446884 2829.88658322112 226 227 231
176.290672586658 705.078257753405 2826.80004865393 202 203 207
160.437725081615 707.50716403613 2823.76209608992 207 208 210
147.857925914433 709.3821139829 2823.22404629977 179 180 182
138.574089363235 710.700375504926 2825.16297248561 185 186 188
131.775065798883 711.599709988364 2828.94742567172 180 181 183
125.805489519634 712.359068237207 2833.34616102829 184 188 191
116.478989399805 713.682164422607 2835.32707604932 196 200 203
104.612410751675 715.430696033525 2835.51604379098 197 201 204
91.8731249326363 717.324231655322 2835.13328180712 196 200 203
82.4766687591438 718.65549825575 2837.18245663981 211 215 218
76.4459598127449 719.421796653901 2841.64087188753 222 226 229
59.3865110768705 722.034851589112 2838.35652863097 231 234 239
38.0236861056291 725.365578378122 2832.15488341655 222 223 227
-0.451398691323046 731.554909980401 2814.18291338342 225 226 230
-23.706861929881 735.193346249689 2806.98071230055 231 232 236
-53.889262661317 739.985165209582 2795.15098070535 225 226 231
-70.4594489662487 742.499360551585 2792.81265118665 226 227 232
-81.9211988666164 744.159087088392 2794.02999050819 228 229 233
-91.6864280754908 745.534851487302 2796.4384478193 234 235 237
242.925086551457 690.898968925104 2727.30168540878 192 193 195
250.520262172555 689.394794730636 2742.65411832221 213 214 218
254.189386353863 688.548956914564 2754.72265425125 215 216 220
261.100252124046 687.163572602476 2769.31981271015 215 216 220
262.458824192855 686.706955518709 2779.37450643573 218 219 223
262.241885636509 686.51398705004 2788.12058187482 209 210 212
263.659562770172 686.049519089832 2798.11740591139 229 230 232
263.494072662955 685.849769882535 2806.81339447015 247 248 252
259.305488404008 686.320295985286 2812.32008632316 243 244 248
255.121538217948 686.789988976301 2817.82263744883 247 248 252
247.688989374161 687.799339348982 2820.80302098454 247 248 252
244.321056211156 688.133075063383 2826.9319210452 245 246 250
238.51034635562 688.872287737581 2831.17587720169 246 247 251
231.877147513517 689.747533063303 2834.79922435426 250 251 255
220.310967697754 691.439960222969 2834.69852167005 249 250 254
208.714412606357 693.135862855813 2834.62746841015 246 247 251
192.963137254404 695.517867766431 2831.49548589744 228 229 233
175.508313559936 698.179367636722 2827.17968636151 183 184 188
158.824943470501 700.710561050331 2823.5343283887 184 185 187
144.57972001185 702.836389446384 2821.77849549481 179 180 182
134.455738565958 704.279615365918 2823.1166568216 172 173 175
127.647007395932 705.174689546436 2826.91137947456 169 170 172
122.504094363616 705.794612477321 2831.92674380342 183 184 186
114.008182043002 706.967046266169 2834.52205001562 196 197 199
102.135846471582 708.69489794473 2834.71979095217 190 194 197
91.0755242547863 710.287506872184 2835.54842660309 185 189 192
80.8328268768754 711.744532482648 2837.00209717503 198 202 205
73.9521208684555 712.647664727219 2840.86743877014 211 215 218
57.7352969608604 715.08446748799 2838.18965375693 227 231 234
34.6686892971695 718.643841720863 2830.81160163088 218 219 223
-1.2577155814042 724.310075655867 2814.63713416432 222 223 227
-22.8067578744602 727.612208623381 2808.62463165758 230 231 235
-44.4288809350928 730.923154838978 2802.68305899718 223 224 229
-64.4084432798762 733.961940741338 2797.98478091729 224 225 230
-76.7163417862902 735.74193051382 2798.60733629959 227 228 232
-92.5008138325971 738.089524853672 2796.93065162215 229 230 232
242.179172936248 683.925029575471 2727.65588668582 209 210 212
251.363495630789 682.203311393202 2744.29658244723 218 219 223
254.236453343903 681.517359448065 2755.71518306908 208 209 213
258.748057477185 680.564694030281 2768.38016018426 217 218 222
263.306604076679 679.606005869003 2780.99907505343 221 222 226
261.484078523502 679.691622728177 2788.46419084808 213 214 216
265.316094887335 678.854249388966 2800.3700592279 216 217 219
264.346612834796 678.801940723809 2808.42538486611 245 246 250
263.397304336501 678.746898917206 2816.46141966583 250 251 255
259.222707401049 679.218079417467 2821.95412518017 245 246 250
251.799668448514 680.218447032153 2824.926392901 244 245 249
246.811046117532 680.821690703401 2829.79100946989 246 247 251
239.371750815605 681.823400063313 2832.77922167662 244 245 249
231.102377199897 682.959491163761 2835.15494303946 248 249 253
218.713182981501 684.764075868444 2834.43768182756 246 247 251
204.644019680187 686.839862760176 2832.51475254927 240 241 245
189.707899577307 689.054398705581 2830.01496998166 223 224 228
170.592094421695 691.944726207141 2824.48091033106 180 181 185
154.725838883204 694.305491088385 2821.46624411036 154 154 156
141.301778451455 696.268387299843 2820.33631265718 166 166 166
132.835104801885 697.426933482642 2822.90463701891 168 168 168
126.022426562074 698.317080121986 2826.70400745895 164 165 167
119.202838449274 699.207907916226 2830.51047667261 178 179 181
109.860664204172 700.506044358376 2832.5103075289 194 195 197
99.6593953030649 701.94204360557 2833.92594669826 176 177 179
88.5933339087792 703.516682929544 2834.76293733681 168 172 175
80.0333458758775 704.685813496537 2837.42235989327 170 174 177
72.3044363868976 705.720318290439 2840.6933161182 179 183 186
56.932187148135 707.985930262771 2838.61940505721 218 222 225
33.0139703010719 711.626085315113 2830.65816475179 210 211 215
-2.91567720433283 717.196196065804 2814.50112422626 219 220 224
-23.6146362911227 720.310430361225 2809.08881934657 225 226 230
-42.6708735314469 723.157837155634 2804.919198697 224 225 230
-61.788584894757 726.01265296498 2800.80918986913 225 226 231
-74.9500684731088 727.908464256705 2800.84534015849 222 223 227
-89.8689427181605 730.085002080986 2799.75129546453 222 223 225
221.235902294879 680.389554515682 2702.2140197963 194 196 193
246.196450808574 676.180053885768 2731.89659666945 209 210 212
253.002434130973 674.888561027361 2746.5840278336 214 215 219
255.081230169187 674.356876053899 2757.35153282973 205 206 210
258.794776359419 673.564275988683 2769.3684263729 211 212 216
263.352858326578 672.637902349779 2781.98302655655 222 223 227
263.940575061919 672.348430786434 2791.36123982897 226 227 229
269.388790244525 671.28221437225 2804.52984043192 217 218 220
269.236227870039 671.11315033574 2813.20845630613 242 243 247
269.107519234587 670.940902249925 2821.86385566595 247 248 252
264.135069295703 671.542696822444 2826.71262698658 245 246 250
258.349997309109 672.274018898601 2830.93229058715 245 246 250
250.931286001583 673.265526340337 2833.9015704222 246 247 251
242.684542331977 674.38826812539 2836.25679293702 244 245 249
233.603665924092 675.643203247499 2838.0035363145 246 247 251
221.220324939777 677.422990777819 2837.28412776618 249 250 254
203.042486139853 680.123349732437 2832.26364024468 243 244 248
186.453033612299 682.568520561369 2828.53773484501 217 218 222
166.502933398304 685.545701797541 2822.40239625876 172 173 175
152.284351287513 687.609497646035 2820.62927649606 147 147 149
141.346467904321 689.150582291235 2821.34394384164 162 162 162
132.879764711693 690.298399871986 2823.91388322276 164 164 164
125.232573499787 691.315585488262 2827.10625175743 167 168 170
116.738068396368 692.46643619101 2829.70335055285 180 181 183
105.713437376139 694.017513252998 2830.50268270953 192 193 195
94.6623426584638 695.571572671581 2831.32785291799 175 176 178
85.2690623303625 696.862235204486 2833.37953751071 166 170 173
78.3896042059542 697.754549813767 2837.24490093833 169 173 176
70.6570250705165 698.781366488949 2840.52097531903 178 182 185
58.6729724131905 700.479429074398 2840.83405578832 211 215 218
33.9090196985752 704.194317327044 2832.28468884956 208 209 213
1.3894974469828 709.129766205668 2818.50312139648 218 219 223
-24.4224202523045 713.00267130207 2809.55413504105 224 225 229
-40.0574551639394 715.267694453123 2807.74092322345 223 224 229
-65.1729633789273 719.024837953651 2799.53441078632 224 225 230
-79.2015454586998 721.032749215088 2798.99812506137 221 222 226
-95.8530853534319 723.452118020952 2796.75459618059 219 220 222
-102.192251357127 724.247454538334 2801.5150220247 225 227 226
240.289605991443 670.203727316152 2718.80739753305 192 194 191
251.801044889274 668.211350453719 2737.42796369138 209 210 212
254.641559303458 667.583327040491 2748.87021917695 212 213 217
255.926134762565 667.200727207785 2758.98745291245 205 206 210
259.641029801753 666.437454549876 2770.99833460869 207 208 212
269.009976292435 664.788947642584 2787.44453777483 229 230 234
269.610913608882 664.516679439399 2796.80708016566 230 231 233
274.266872824466 663.609973852994 2809.32191770715 225 226 228
272.510842103393 663.708377790728 2816.71911322593 236 237 241
270.771094616953 663.804539023619 2824.10080856479 242 243 247
266.613496440614 664.279119629883 2829.57613152586 244 245 249
263.273453097156 664.625791691968 2835.67542459689 245 246 250
259.126868720865 665.098499045213 2841.14042539967 244 245 249
250.0822078486 666.335895481791 2842.85379842497 245 246 250
238.561935061584 667.958613123146 2842.71781241895 241 242 246
222.90650307886 670.225045163711 2839.50773764349 246 247 251
202.264071829244 673.266891627286 2832.63308935806 242 243 247
180.723907010034 676.445810937568 2825.21273515358 225 226 230
160.760430297247 679.376324056243 2819.09757715576 189 190 192
147.356991538449 681.283266828105 2817.95510012844 134 134 136
137.238252876261 682.677831186693 2819.29524745096 155 155 155
130.426754678255 683.557332611905 2823.09501945005 155 155 155
123.608180066612 684.437431287363 2826.90173015916 176 176 176
113.437024215378 685.837896039587 2828.29305644967 184 185 187
100.727911560178 687.631390729834 2827.89511807408 183 184 186
90.5054665984224 689.037744639035 2829.33616695271 167 168 170
81.9449081965371 690.185600394914 2831.99930030179 162 163 165
77.5901744130993 690.680905258956 2837.66731879866 179 180 182
70.7017072266027 691.568917433715 2841.54260209805 191 192 194
58.7177230346216 693.245506735181 2841.85878832224 209 213 216
34.8040701481387 696.767089805985 2833.91054082358 205 206 210
0.58335035355217 701.88000302506 2818.95823989156 215 216 220
-25.2301051530224 705.688708027989 2810.02026934728 221 222 226
-44.2898070520759 708.45064705541 2805.86638341168 220 221 226
-65.9839146008152 711.61734911067 2800.01761163599 222 223 228
-83.4527734121409 714.129451299135 2797.15507725042 219 220 224
-96.6674693702387 715.98332157499 2797.25026708331 214 215 217
-103.008480818857 716.776119205183 2802.01290072793 221 223 222
253.436691550819 660.889395059919 2739.72008066416 207 208 210
254.689099467091 660.53244608551 2749.86512821757 209 210 214
256.77091853854 660.048793417214 2760.62253214329 207 208 212
262.086541447392 659.069406300627 2773.90996550188 204 205 209
270.659265978629 657.591524586242 2789.70470119736 222 223 227
273.674221407926 656.967869176743 2800.97308858717 229 230 232
275.923200979204 656.462671520761 2811.56768400523 230 231 235
275.785543923628 656.323984380051 2820.22700898549 236 237 241
273.243671848886 656.554036828184 2826.96785183328 241 242 246
269.903021096223 656.906492402109 2833.06723111209 243 244 248
268.196918645242 657.008803695052 2840.4142696152 244 245 249
262.431497147955 657.732164413935 2844.61559667453 243 244 248
250.943537241182 659.329874569904 2844.45121959617 244 245 249
237.787131053799 661.181248828881 2843.07198641755 241 242 246
225.413456252749 662.911640251976 2842.35027992943 243 244 248
207.245583609842 665.52506110927 2837.3327452795 237 238 242
180.768476846548 669.403972857009 2826.20925724006 218 219 223
156.671486789029 672.916488403208 2817.02749712092 181 182 184
140.77257729133 675.176700167857 2814.06011847115 135 135 137
131.468876947175 676.430582149469 2816.02862280698 153 153 153
123.811330472278 677.433033690381 2819.23345196079 155 155 155
119.480608906097 677.928731624835 2824.87756787532 180 180 180
112.645120031143 678.805478511077 2828.70157009092 185 185 185
99.934397475522 680.574985898085 2828.30911352518 172 173 175
89.7100151088006 681.96560349599 2829.75441209552 165 166 168
81.9897012103468 682.974965397924 2833.02054888044 162 163 165
79.3231817484625 683.21670871166 2839.88377836345 185 186 188
70.7463974603044 684.355582827772 2842.5643517399 198 199 201
57.9145981935909 686.139305457076 2842.28968728952 209 210 212
32.2995517473061 689.859842232204 2833.16772484091 204 205 209
-1.07483048396073 694.753190966563 2818.82402120802 213 214 218
-28.5992378074629 698.756511574312 2808.72246837363 220 221 225
-45.0991692335787 701.087774196765 2806.34141209776 219 220 225
-66.7948953907169 704.20379020608 2800.5017389996 221 222 227
-85.9846844788335 706.938550827913 2796.48104852225 218 219 223
-101.789617050802 709.1597137877 2794.84303011002 214 215 217
-108.142210911164 709.951258998911 2799.6173503677 215 217 216
251.897050123242 654.054748873596 2739.42496860591 202 203 205
257.123788849281 653.121712441146 2752.79381466111 204 205 209
261.603941975382 652.302094683719 2765.47035870526 208 209 213
264.531999730856 651.716519766933 2776.81940848957 207 208 212
271.506908981673 650.524204423627 2791.32443531619 213 214 218
275.326959630539 649.806748956488 2803.22446201873 222 223 225
278.384804230278 649.204458532795 2814.4471020927 231 232 236
278.252443731772 649.0813331421 2823.09852965164 235 236 240
275.716320280647 649.318726576201 2829.83291687867 238 239 243
271.570148665265 649.797396714676 2835.29662650671 241 242 246
267.428213188726 650.275192045491 2840.75592104046 244 245 249
261.660690066576 650.99616411039 2844.95968808636 243 244 248
251.804722403752 652.328307540398 2846.04778786604 243 244 248
238.650260846533 654.152723769448 2844.67060802597 243 244 248
223.815795368314 656.226835993685 2842.090635478 241 242 246
205.644147539403 658.797862436308 2837.08311551956 236 237 241
176.689193969056 662.976826403197 2824.12475260672 189 190 194
151.756110076493 666.552245229529 2814.34703963046 125 126 128
136.674487519107 668.655438583923 2812.00853737942 137 137 139
126.530322993295 670.020965366446 2813.37788685945 147 147 147
121.358646029141 670.644632385632 2818.42126082322 155 155 155
117.022032862833 671.143726647087 2824.07072520813 181 181 181
109.344345949205 672.140343636959 2827.29641645942 180 180 180
97.4641858829357 673.76196335297 2827.51796611469 168 169 171
88.0742474023668 675.012164759714 2829.57231234018 166 167 169
81.1923397546979 675.88873561161 2833.44277294307 168 169 171
78.5235800548367 676.138912078903 2840.3066427571 192 193 195
69.0988649377426 677.392953875911 2842.39529293075 202 203 205
54.5674436807722 679.404891288289 2840.94082956101 199 200 202
28.9448674979176 683.061937416921 2831.83539029996 199 200 204
-1.02915602233811 687.362118177693 2819.87106312281 209 210 214
-27.6993707623356 691.169048231567 2810.36722018152 216 217 221
-46.7643690857176 693.845855314902 2806.23117613773 215 216 221
-69.3211781875536 697.03836236097 2799.81835647325 217 218 223
-87.6569341403592 699.60352437713 2796.39157438519 214 215 219
-100.880842905597 701.410247566914 2796.50321883249 214 215 217
-107.231581306022 702.19885933981 2801.27579230993 203 205 204
256.707615547672 646.274615501123 2744.30003793124 200 201 203
264.332538341487 645.024384974591 2759.58539869919 202 203 207
268.829534306475 644.234853926869 2772.2404329108 207 208 212
269.376122794799 644.026329136679 2781.64786108477 210 211 215
274.759073693963 643.108345354404 2794.8590235257 213 214 218
279.38991444049 642.301574194395 2807.38403381371 219 220 222
284.067842935301 641.48886687552 2819.86316263328 230 231 235
283.94891612699 641.380251344096 2828.4994436304 234 235 239
280.616733792403 641.742738516653 2834.58859313699 237 238 242
274.048374822023 642.579132918602 2838.15363332999 239 240 244
267.472664988948 643.416231176198 2841.72553116676 243 244 248
259.259747171158 644.492428026573 2844.0540434317 244 245 249
251.03197230051 645.570203000396 2846.3970757238 245 246 250
240.332254017656 647.008803500576 2846.8900508739 241 242 246
227.143516244768 648.810415131057 2845.5502783324 239 240 244
204.865821775881 651.938680602373 2837.4528792703 240 241 245
170.9607298311 656.762867459504 2820.81258168808 191 192 196
146.840949893969 660.154952215973 2811.67125187441 118 119 121
134.233695236694 661.864594582132 2811.18489818001 136 136 136
126.575421480203 662.851334162948 2814.39277175603 143 143 143
120.571026740939 663.596401751834 2818.82785666942 154 154 154
