ply
format ascii 1.0
comment KinectMotionCapture
element vertex 793
property float x
property float y
property float z
property uchar red
property uchar green
property uchar blue
end_header
47.0898728683808 -255.341783035091 2805.14374965352 12 15 8
83.939648272958 -243.718916394203 2840.51787547469 13 16 9
95.6913510956663 -238.618426500786 2857.85187123693 15 18 11
99.3442362918775 -235.621459528431 2869.36856784874 16 19 12
96.4804773428001 -234.302375428303 2876.26842856053 14 17 10
66.5041646255311 -239.87521671085 2864.34869361839 13 16 9
50.4188264265824 -241.887470108523 2862.19790991001 13 15 10
64.8403352738947 -236.186145440411 2881.04267365869 13 15 10
63.627966145221 -234.449691806698 2889.07514930943 14 16 11
-13.0690085242899 -251.624939929763 2845.91188790206 13 15 10
-44.3571420912496 -257.342050213449 2833.89888619159 9 11 6
-0.740615216952456 -244.387337085428 2872.27606019321 8 10 5
-27.9150555143977 -249.06062782146 2863.10904645385 10 12 7
-30.9026002086359 -247.72393362118 2870.12922547536 12 14 9
-37.2352474490483 -247.214916470894 2874.92549596859 14 16 11
-42.7295685356981 -246.499065763533 2880.2756356067 14 16 11
-50.7528591614945 -246.40134920355 2883.97737354411 12 14 9
-58.786908242829 -246.302099462822 2887.68956818345 12 15 8
-38.8758888664227 -239.419030876368 2909.41063718213 13 16 9
-45.1692965430555 -238.914547714803 2914.16861233 12 15 8
-45.5086982689341 -236.974507196178 2922.72103770998 11 14 7
-38.1476662399081 -233.194569235819 2936.1077420431 12 15 8
-35.8568631976945 -230.64936326988 2946.20995781311 13 16 9
-84.939059256151 -240.364549089138 2924.11776145506 18 20 15
-117.042971639878 -245.97392307818 2912.89891679177 9 11 6
-123.445358591107 -245.454846299458 2917.76295304009 11 16 10
77.5414794146583 -274.54955178 2743.7352276665 27 28 22
68.8111064461352 -274.690781915042 2746.75751572228 15 16 8
91.2138911322766 -266.463452225133 2772.89076600188 16 18 5
138.83713657675 -249.419110398713 2826.52284571357 17 18 10
125.454059652838 -250.864442301395 2825.85595165809 19 19 11
93.4851250645083 -257.215466512605 2811.77886899214 18 19 11
89.6819309129611 -256.085457217155 2818.22263860323 17 18 10
50.2337302394911 -264.328867016228 2799.09907410169 16 17 9
84.5378931312046 -253.189900309202 2832.82182302493 11 14 5
121.475441220941 -241.437988878211 2868.08971650859 11 14 5
42.7258809046855 -259.852439431722 2821.4798814564 12 15 6
73.2486845913449 -249.813016451555 2852.03486577908 11 17 7
80.9829567833988 -245.724667702895 2866.42260129269 13 19 9
65.7659151708856 -247.566282200802 2864.80161304304 13 19 9
78.5148417645431 -242.219389282667 2882.52550407534 15 18 11
74.0080053153407 -241.314371960924 2888.28434528748 13 16 9
33.0845973414924 -249.682498295295 2869.22720717452 13 16 9
-8.0046138142964 -258.028896940509 2850.33150272928 16 19 12
-33.4586526494336 -262.359107938517 2842.23921650562 12 15 8
-45.667470538417 -263.317249503266 2843.16841582797 7 10 3
-11.9539399111406 -252.736041151892 2874.7259512849 11 14 7
-6.53039155242929 -249.300887899398 2887.25374593772 12 15 8
-27.0761023018182 -252.358380603024 2882.6017795907 12 15 8
-30.8646099924426 -251.227261290098 2889.0304634269 12 15 8
-24.5255474837598 -247.592469594379 2902.03654183801 14 17 10
-27.4283060218177 -246.257913556442 2908.97284297252 15 18 11
-37.9424575759542 -246.798834085504 2910.99170496316 15 18 11
-62.91294179153 -250.87219278099 2903.7985263556 14 17 10
-46.2737246570888 -244.756003393215 2923.21357480246 14 15 7
-63.9813892988381 -244.995659809552 2929.49701844704 13 14 6
-88.279353516862 -248.837803286659 2923.01875334966 15 18 11
-125.542049248687 -255.76948888575 2908.61630014205 15 18 11
-143.152093952233 -257.934125732747 2906.58518542157 14 16 11
41.0670716853727 -292.266487848325 2717.3908507431 20 21 16
84.8291856639713 -278.053487421685 2759.68854607991 9 10 2
107.269946542616 -269.736418205409 2785.77082197616 19 21 8
113.035314401511 -265.993214261645 2799.33056437235 16 18 5
120.460948961498 -261.823440311521 2814.0127470079 15 15 7
126.340580595311 -258.094523194509 2827.46113537323 14 15 7
127.437149123086 -255.669680374549 2837.3501239728 14 15 7
116.440481770172 -256.488223255268 2838.47191658714 13 14 6
144.310614401042 -246.94914690448 2867.48392770006 11 12 4
136.603169555698 -246.910648467618 2870.88077852116 9 12 3
117.486867303542 -249.883351809618 2866.21376589295 9 12 3
101.569757484921 -251.987664112686 2863.90953518204 10 13 4
83.148910260741 -254.729389964123 2859.93469637582 8 14 4
81.0664072157579 -253.17398747873 2867.44073998934 9 15 5
95.4386826261162 -247.336531382363 2886.31461094507 9 15 5
79.4222201680266 -249.427080361222 2884.10700466055 13 16 9
61.704604572236 -251.938366819944 2880.81669692778 12 15 8
52.2071696478674 -252.307650528046 2883.21748574576 12 15 8
33.5647682131728 -255.019411526382 2879.45822475355 16 19 12
-43.3505287648703 -272.628420298602 2836.57587026046 13 16 9
-38.9117556858616 -269.351226895918 2848.68766056078 8 11 4
-17.7160228893882 -261.831371945994 2871.87302987278 11 14 7
6.95404134639865 -253.478961492713 2897.15326047855 13 16 9
-17.7568936026291 -257.648255079302 2889.71652474748 15 18 11
-27.4129729258643 -257.995845490707 2892.27130569696 15 18 11
-21.0663105747875 -254.323872083055 2905.26467975343 17 20 13
-24.8066985649431 -253.193099046795 2911.64563119526 17 22 15
-57.3389788052894 -259.234399222412 2899.49942917205 18 21 14
-65.3728472422404 -259.150297758772 2903.2136833376 18 21 14
-56.3985497780384 -254.856546523948 2917.756606345 18 19 11
-44.7989984582677 -249.940966179815 2933.85177318979 18 19 11
-60.4753726225948 -251.752494759261 2932.68212442667 18 19 11
-73.6270105121686 -252.929034194063 2933.16292773914 16 17 9
-94.5408832154602 -255.985743067333 2928.876097963 15 18 11
-115.523342847503 -259.03334675573 2924.65636812066 13 15 10
29.2319618240562 -303.397517426512 2709.53345996722 17 17 15
131.915987695364 -272.720577169805 2795.74618468694 20 21 13
132.109593997868 -270.481403838933 2805.14202283414 12 14 3
121.123586177281 -271.320897657879 2806.25632691481 18 20 9
155.382219984767 -257.647486960922 2849.56873808489 15 16 8
143.646708152544 -258.712412367008 2850.04372010124 15 16 8
159.363330511056 -252.338874853267 2870.33722070042 15 16 8
151.684467462419 -252.312087819667 2873.70742031515 14 15 7
146.431326561013 -251.629147881977 2878.8229286614 13 16 7
114.312868693277 -258.136960957662 2864.91749814796 13 16 7
97.5723653796621 -260.49261074035 2862.05080975958 13 16 7
100.410790877722 -257.623532440124 2872.97860730574 11 17 7
126.247007377869 -248.679406333285 2899.84719479436 11 17 7
125.931342886194 -246.694858880471 2908.36947064444 11 17 7
100.101239404472 -251.429168367582 2899.29343843659 11 14 7
70.0463414749342 -257.232725031908 2887.48583940461 12 15 8
36.56540250102 -263.885568844357 2873.53789893261 11 14 7
9.59054342572419 -268.79415537782 2864.20747470541 14 17 10
-36.6102668062265 -278.649039140515 2842.10848555739 12 15 8
-22.1541696865604 -272.756593213936 2860.89065500178 8 11 4
8.26921143874548 -262.788797548817 2890.13804456579 12 15 8
-5.52103748175359 -264.230976482868 2889.87501231464 15 18 11
-18.5096884159575 -265.453390124124 2890.20074735871 16 19 12
-22.2788274511974 -264.31330207004 2896.60887225776 16 19 12
-26.0391695019919 -263.174159147055 2903.00873915317 16 19 12
-31.4812469685131 -262.463803654838 2908.30781229459 17 22 15
-52.1694122500951 -265.598411895962 2903.80836520468 17 20 13
-53.3995637362166 -263.816698754625 2911.85180966378 16 19 12
-44.3986876458555 -259.480331977703 2926.36204114398 16 17 9
-41.3011302968789 -256.642522559389 2937.03680061661 13 14 6
-45.0022483751469 -255.510580399452 2943.37892150144 13 14 6
-50.6618182367546 -252.825724338441 2957.10426907484 12 14 9
-94.7810705664467 -261.654220511376 2938.45453763415 8 13 9
161.473683949635 -271.971386628062 2818.71358634605 17 18 12
117.019245570904 -282.188821581009 2794.93434688125 22 23 15
118.004324768787 -279.706716056216 2804.92524478876 15 17 6
133.465624779862 -273.230405418379 2825.45709443044 13 14 6
159.855295432355 -261.646283338953 2862.72219158015 15 16 8
140.854248529728 -264.725684724883 2857.95649861036 16 17 9
150.145470017161 -260.057706652839 2873.5463101323 17 18 10
135.142864465207 -262.024212990972 2871.73084266401 16 19 10
122.536678653854 -263.3227216551 2871.68769315638 16 19 10
96.0238396221609 -268.362527079024 2861.91787029067 15 18 9
90.6783180868147 -267.666614295962 2867.12319659118 15 18 9
116.490254050357 -258.616644577126 2894.00025137195 15 18 9
135.875789500926 -251.34245468064 2916.18566396024 15 18 9
76.294390741253 -265.139684747059 2883.86698863051 17 20 13
61.8732516894123 -266.853855723551 2882.85373059342 18 21 14
54.8593410832403 -266.592907558819 2886.94626084978 16 19 12
23.7798859167118 -272.669675846736 2874.77919569881 15 18 11
-5.75566640784819 -278.294177444353 2863.8463238608 13 16 9
-7.06429790415664 -276.489332149191 2871.96428120793 8 11 4
-3.34053752996999 -273.380148665176 2883.39401216886 10 13 6
-2.08512220183454 -270.929069963998 2893.1213858957 13 16 9
-13.3873983487773 -271.741889114333 2894.54546875339 13 16 9
-29.762847076114 -273.853446684356 2892.69778404362 12 15 8
-37.7564764395646 -273.790339578453 2896.37518317124 12 15 8
-39.0002275386454 -271.9933066374 2904.42953014534 14 19 12
-37.6824844857264 -269.549819976559 2914.09613362035 14 17 10
-19.6359939877273 -260.790735029162 2943.0594080721 11 12 4
-42.0673179940798 -264.399413329888 2937.52719207684 10 11 3
-56.0274938539704 -265.844996149149 2937.43340288123 10 11 3
-41.7549719119616 -260.189266381701 2955.015942418 10 11 5
-41.1305967242863 -257.981813252898 2963.98870892629 9 11 6
141.640219833785 -285.006535785117 2804.91000092135 15 16 10
92.3474618736191 -296.701497611613 2777.65119271877 19 20 12
66.055970764582 -301.841768599246 2767.67641686018 13 14 6
55.7128338258335 -302.472639038696 2769.53841552515 15 16 8
117.740249545362 -282.890033617445 2824.07914083302 14 15 7
130.103496616997 -277.256652459251 2842.1440123373 14 15 7
144.97757059168 -270.962001035876 2861.86858810677 15 16 8
137.264281647186 -270.94626493481 2865.274606468 15 18 9
114.921947970137 -274.952744615815 2858.29590731278 15 18 9
107.152147265608 -274.929176683544 2861.75688514589 15 18 9
87.131555370517 -278.249588967688 2856.62232741305 15 18 9
98.1237095214 -273.09480053584 2873.28529377463 15 18 9
88.6971399059515 -273.51345751919 2875.6226717998 15 18 9
65.2811678982186 -277.708355926361 2868.32071242397 15 18 9
49.1945847134319 -279.8937322704 2866.1967525008 17 20 13
55.3524113592627 -276.084349677411 2879.3573341865 19 22 15
56.5993468537878 -273.611225502744 2889.08953236013 17 20 13
57.0485964759992 -271.363355708748 2898.23022757829 13 16 9
50.8738475202795 -270.887069865908 2902.8745404136 11 14 7
3.85734465714505 -281.227909452893 2880.24046084739 7 10 3
-11.6076764788109 -283.163882238545 2878.87932820205 10 13 6
-5.34806508440822 -279.366905410712 2891.94033185245 13 16 9
-16.6575741912367 -280.197165074471 2893.37451268849 16 19 12
-31.358040038814 -281.902923801676 2892.63738696201 16 19 12
-35.9829224520798 -280.969095229529 2898.50885342928 15 18 11
-35.532663188321 -278.720173340363 2907.64839055926 11 16 9
-25.7374552225231 -274.065826698226 2922.74008861928 14 17 8
-19.267764145896 -270.295599112086 2935.59643356592 14 17 8
-25.5057495726159 -269.809867086627 2940.30214501007 15 16 8
-62.4472895772126 -277.180373890967 2925.64563700025 15 16 8
-83.2914745448781 -280.390430088722 2921.31227094005 15 16 8
-84.5011318353874 -278.583467280282 2929.33163247018 13 14 8
-79.6808498939399 -275.256864177049 2941.0572760982 15 17 12
64.4552795886595 -314.610423667526 2748.48089020974 8 10 5
62.0883895353397 -312.976341866481 2756.25804340005 7 10 3
58.9371091735869 -311.571936022216 2763.43046876646 22 25 18
127.211563431218 -289.920816195541 2822.79801715777 14 17 8
102.541106709645 -294.677336069754 2813.99096841959 14 17 8
118.89833470482 -287.844507969133 2834.99736452123 13 16 7
143.443485996873 -278.757638641996 2861.71032998559 13 16 7
126.814732095386 -281.240684813789 2858.75150190969 14 17 8
103.635985654066 -285.526417108629 2851.22773709049 15 18 9
102.351486841247 -283.699185519551 2859.31808379971 16 19 10
98.639396300535 -282.551560165956 2865.66878253278 17 18 10
89.2103553799304 -282.983291525635 2868.01054698761 17 18 10
74.0240066286324 -284.988905194696 2866.38331927893 17 18 10
56.3264384627504 -287.663409002657 2863.09722760484 16 17 9
53.3987342469993 -286.285108128645 2870.0518346984 19 22 15
69.4738428945598 -279.745242327166 2889.96476986487 19 22 15
47.5808213681925 -283.532732055792 2883.92443980036 15 18 11
33.9064897125176 -285.070370464029 2883.56040886027 11 14 7
17.6999300245897 -287.273968734873 2881.55828057111 9 12 5
-7.72367048822664 -291.929115265151 2873.48413181519 3 6 0
-7.34365100930878 -289.652556963808 2882.6893334402 6 9 2
-1.9119376127481 -286.04170347111 2895.18305167097 11 14 7
-19.088063306044 -288.450437536783 2892.75678857914 15 18 11
-37.1584980815722 -291.074528429966 2889.83384579562 15 18 11
-27.4643724609804 -286.358511072608 2905.01646737192 16 19 12
-17.6995849732862 -281.651503257519 2920.13059011803 14 19 12
-45.9774580998551 -286.929858451663 2910.73182043467 15 18 9
-43.7990561060482 -284.222782083762 2920.92138989063 15 18 9
-62.0045786506487 -286.828663640667 2918.12989992681 15 16 8
-116.083431931208 -298.706358194148 2892.81660646869 14 15 7
-113.971918064761 -295.99018441139 2903.07159007196 13 14 6
-96.4057255473691 -289.310915390566 2922.90016249619 10 11 6
-89.8953993380371 -285.507611746919 2935.71160537049 12 14 11
74.1511046605572 -317.227718899037 2766.16293176352 18 20 15
113.451668392196 -303.604599010343 2804.47606494499 14 17 10
117.907062087591 -297.827876304272 2826.12130013811 13 16 7
137.525423412606 -290.008036634924 2849.41143786887 14 17 8
115.239416690908 -294.134778401665 2842.39457989807 14 17 8
130.138484885074 -287.707898509109 2862.0751305701 15 18 9
67.1769126424575 -303.271750771588 2826.28923903555 16 19 10
95.1093347811458 -293.186691784695 2855.15869975123 16 19 10
86.4841915551957 -293.40168981679 2858.08739598003 17 18 10
86.8410272505575 -291.10460663645 2867.31258587668 17 18 10
88.8655589723353 -288.355059218205 2877.64901142669 16 17 9
73.6688101326175 -290.391162434846 2876.03627965937 15 16 8
61.7212492770691 -291.511410814269 2876.73000620184 14 17 10
54.6971922517909 -291.264531873577 2880.83435358553 13 16 9
60.0798850671631 -287.612765918918 2893.37070313407 12 15 8
8.27765103270561 -299.607398851423 2867.23122371101 13 16 9
-8.81985380839412 -302.064298646631 2864.7343456665 14 17 10
-34.3045627003495 -306.775693187065 2856.72919186575 15 18 11
-3.07987780300323 -296.113294594452 2886.49512224706 9 12 5
-17.732781170313 -297.884018154511 2885.72036804849 11 14 7
-13.126320231525 -294.465033603437 2897.64468515536 11 14 7
-50.5284593187101 -302.309327014103 2882.09867497925 12 15 8
-41.7087360886881 -297.765285254132 2896.75809965591 15 18 11
-52.2573515651223 -298.396610924424 2898.82420882925 15 20 13
-23.8695383838459 -288.703002725192 2925.88240644547 13 16 7
-60.6885113991971 -296.288069288647 2911.13589944216 12 15 6
-45.7513558617686 -290.197660630799 2929.41111196113 15 16 8
-94.6750942311039 -300.891508256067 2907.30621056287 15 16 10
-134.393883490816 -309.102504011691 2891.28071022347 15 16 10
-116.018349093749 -302.120992011498 2911.67783213428 11 12 7
-121.572439361778 -301.394038835129 2917.08568251298 14 16 13
89.5237641746336 -318.118206896463 2787.87161235013 12 14 9
108.924435066883 -310.186834342545 2811.36143538706 14 17 8
130.054765866281 -301.805619825724 2835.90135059888 14 17 8
116.646771387909 -303.43376866905 2835.28622030731 14 17 8
120.172173777208 -300.181772331863 2846.89215384416 14 17 8
116.44989120119 -299.022264168009 2853.2508793028 16 19 10
82.69114655827 -306.433996065915 2838.27405797674 17 18 10
90.31006028051 -302.027444577203 2852.72931593017 17 18 10
82.489489910571 -302.020297257758 2856.24313575095 16 17 9
93.4686595824896 -296.701412809068 2872.89474257247 16 17 9
104.52618890812 -291.392465808638 2889.47000584999 14 15 7
100.04920560938 -290.470648276919 2895.19638153672 14 15 7
62.6303067844676 -298.753915233786 2878.31464696663 14 17 10
37.4452050621472 -303.569360979478 2870.02735754012 13 16 9
14.6506560493012 -307.683797024079 2863.51367080171 13 16 9
14.1711975690701 -305.594881449329 2872.18283309891 13 16 9
8.72753942873539 -304.883501124492 2877.48332440298 14 17 10
-0.881941773933193 -305.316321563346 2880.00476753272 8 11 4
-17.1923826116864 -307.575375225435 2878.11399104359 10 13 6
-11.7844864656638 -303.89084505133 2890.62047077489 11 14 7
-26.4651864782093 -305.687047580802 2889.8770848365 12 15 8
-23.5246997984917 -302.693071497642 2900.68473644077 12 15 8
-66.0682553637533 -311.99384153053 2881.95702600789 15 18 11
-42.0291442154497 -303.312906138603 2906.39833719655 12 18 8
-49.1890386893741 -303.051762717225 2910.63546489078 11 14 5
-34.2860256115767 -296.892020282142 2928.93467171689 12 15 6
-60.9770959371092 -301.846630879259 2920.74615272022 14 15 7
-66.4465326663333 -301.130556017438 2926.07154869362 16 17 11
-61.6595037300103 -297.701767692839 2937.8154479582 16 17 11
-111.645472404161 -308.731272630673 2915.39771979977 14 15 10
109.617936650621 -319.820816561563 2803.59488267888 15 17 12
78.5211997595838 -326.65440657242 2790.13992713823 14 20 10
91.5345952278064 -320.527762938866 2808.90319701302 13 19 9
118.639631647862 -308.074064352475 2846.74631167024 14 17 8
119.77419327597 -305.5008101553 2856.5756374228 14 17 8
97.3922692887328 -309.727074977275 2849.66839833671 16 17 9
89.5808503760276 -309.729189558066 2853.17449952998 16 17 9
90.7333690396959 -307.157491504632 2862.98622367815 16 17 9
90.2820218224933 -305.056918881934 2871.62608601099 15 16 8
98.052138182859 -300.626191700549 2885.92728651077 14 14 6
106.70718630601 -295.970207774535 2900.73402884164 12 13 5
86.6013547604014 -299.471274019175 2895.71047807631 13 16 9
20.1947509737566 -315.986394643052 2859.23542288712 15 18 11
4.80771398548496 -318.06107493991 2857.8173517399 15 18 11
25.8707927091963 -309.919181832506 2881.04251153912 15 18 11
8.81483428605456 -312.456314523217 2878.51589783234 13 16 9
-24.9606807940164 -319.617189137676 2864.93556251906 13 16 9
-16.2690958805021 -314.964795746672 2879.70621611449 10 13 6
-14.2082480521917 -312.169319750814 2889.99979101015 11 14 7
2.15328919341395 -305.455014630333 2909.6025162894 13 16 9
-20.9134739967389 -309.588883837916 2903.36201446612 13 16 9
-35.63098184026 -311.409416295747 2902.65843735881 14 17 10
-66.4437250348273 -317.594846141937 2891.65983056752 12 18 8
-53.3346540869504 -311.816723155577 2908.9626951584 12 15 6
-40.1399465622316 -306.049884217553 2926.18185129796 12 15 6
-41.3215745774256 -304.19173187366 2934.16581355237 14 15 7
-54.4205327868816 -305.542341364068 2934.61969479994 14 15 9
-52.1706111738096 -302.770701123038 2944.72903954646 13 14 8
-102.13366396871 -313.942674183849 2922.30961230753 19 19 17
-113.665942125965 -314.816969143933 2923.97151450134 13 15 14
61.6822232227885 -341.663739603478 2769.40315115814 19 21 16
79.4090492130648 -334.032460309029 2791.76566194395 15 21 11
73.9269144069183 -333.318706079809 2797.10401028392 14 20 10
98.2732622527962 -323.806834800324 2823.95123756425 14 17 8
113.875075699784 -316.926257191455 2844.28380480513 13 16 7
109.327742331706 -315.990601087752 2850.07833165778 13 16 7
105.59682898025 -314.818388018701 2856.44374982457 16 17 9
110.01380171967 -311.279202929106 2868.53880376946 16 17 9
98.1608427170353 -312.476406952949 2869.14962544216 16 17 9
94.4558343887696 -311.306735551263 2875.49003303729 15 16 8
85.8409656798615 -311.554016967802 2878.4132979889 14 14 6
84.6062772985117 -309.677368718455 2886.44687844253 13 14 6
73.5085837804501 -310.629241429009 2887.68869762292 14 17 10
68.9890835316547 -309.695384036273 2893.45585162536 15 18 11
26.4100334118789 -319.572063200078 2873.43159761014 15 18 11
41.7165203705956 -312.993531693342 2892.68482354188 15 18 11
-14.0392035650887 -324.235213317279 2873.19408863692 11 14 7
-19.5216475817079 -323.51782300875 2878.53220661653 10 13 6
-16.6317000966045 -320.463106399059 2889.38106696486 10 13 6
4.75797933981292 -312.27682273374 2912.27534652324 12 15 8
-24.1895897972344 -318.100361820432 2902.20492565973 13 16 9
-51.5587928824672 -323.443722903937 2893.33035035249 12 15 8
-63.8194508141989 -324.584943469142 2894.33808659993 13 19 9
-60.8673459421825 -321.537767941579 2905.12633831285 13 16 7
-43.4466793686497 -314.547962528009 2925.05352300737 12 15 6
-45.487006152539 -312.907006068874 2932.50504013019 14 15 7
-52.6267019941802 -312.658328806797 2936.72429061887 13 14 8
-52.9368705621494 -310.55697881573 2945.22384557131 11 12 6
-34.3802347493001 -303.37244692116 2965.41112484735 15 15 13
53.7656025506679 -351.767104963625 2764.58763879943 9 11 8
81.9015203449638 -340.922147060206 2794.55995975259 14 20 10
89.2924208710437 -336.357178435707 2809.21822419698 15 18 9
95.9400998174398 -332.040605677475 2823.23432213967 15 18 9
116.383678757556 -323.647675657339 2847.03721339383 15 18 9
102.122237132201 -325.589490332312 2845.8990190907 15 18 9
115.424912732756 -319.375215160583 2864.36207761467 15 16 8
128.817597956529 -313.172375585294 2882.73744542835 16 17 9
114.562357912104 -315.114323410992 2881.5931125433 16 17 9
87.1809442998681 -320.873938854534 2871.37493752279 17 17 9
79.3685131279433 -320.890785968239 2874.88422136637 16 16 8
63.3289655271159 -323.290546696609 2872.74524033139 15 16 8
61.2407395911339 -321.63412981394 2880.24237481846 15 18 11
74.8533636303384 -315.458751661301 2898.4033989234 14 17 10
39.7364994240768 -323.318797054988 2883.42422377961 14 17 10
22.7272731377695 -325.936947359027 2880.86317873799 14 17 10
54.7128039024232 -314.55386561286 2911.18430843005 15 18 11
14.3800021667988 -323.806666330471 2893.08835339697 11 14 7
-19.4330524331545 -331.144727321663 2879.57148345097 9 12 5
-15.706188891186 -327.826359831942 2890.96721561573 9 12 5
-29.5562354380943 -329.473140678303 2890.79380336486 12 15 8
-44.2850740881933 -331.350725337291 2890.11024804839 13 16 9
-59.8987387494123 -333.45845803868 2888.92210666153 11 14 7
-64.5746007043311 -332.499699511671 2894.84084977284 13 19 9
-60.7778419226372 -329.189819098962 2906.16842931758 13 16 7
-53.5427583593866 -324.945941743151 2919.61197014103 13 16 7
-54.7557159849639 -323.05622935536 2927.62204075898 14 15 7
-63.6218626533291 -323.278644091925 2930.79115315447 13 14 8
-63.1028817525423 -320.923514383064 2939.84675121362 12 13 7
-24.8712798439814 -308.280608402214 2972.28137004448 12 12 10
96.2669267831333 -346.555601109681 2796.71453686892 3 3 1
81.9873735508025 -348.525471990038 2795.59847435415 15 18 9
86.1613854326846 -344.890851083559 2807.92068665014 14 15 7
96.8314160240054 -339.316844508278 2824.84156620971 13 14 6
91.4192356559997 -338.611083583945 2830.11163016547 14 15 7
108.686922752401 -331.110563367785 2851.53215163517 13 14 6
108.202137146908 -328.957037569843 2860.19739232573 14 15 7
124.832199413654 -321.721144325066 2880.87328711019 14 15 7
112.199481470285 -323.207321259255 2880.88455953221 14 15 7
112.616097119151 -320.822421699499 2890.0374078288 14 15 7
69.6183798234355 -331.235137539115 2869.09121317719 14 15 7
69.9881571726104 -328.843714094776 2878.28960837047 14 15 7
59.6798528580273 -329.5872719898 2880.13367288145 13 16 9
46.8726095509342 -331.049665126094 2880.31439849268 13 16 9
26.5847899837897 -334.670801331074 2875.4896486527 13 16 9
20.3269432222908 -334.20055096086 2880.21737087777 13 16 9
63.9433422758948 -319.336912352596 2918.31253345492 14 17 10
6.13539727553691 -333.73756688266 2888.57304399307 11 14 7
-18.5090701049884 -338.531257608214 2881.16259060836 9 12 5
-23.9886286094522 -337.813611891664 2886.49780548256 9 12 5
2.41605718596549 -328.018890963853 2912.67651485637 11 14 7
-35.7859970640484 -336.616623302708 2896.6189430467 10 13 6
-54.7514558234679 -339.712351280405 2893.23723290548 15 18 11
-56.036311944121 -337.79967133975 2901.3156430396 10 13 6
-61.5349676514243 -337.078851522595 2906.66935258784 13 16 9
-60.2433089730017 -334.457191419047 2916.33518643331 13 16 9
-76.7832429535207 -336.823915110537 2914.68821361081 11 14 7
-75.46854242847 -334.205172835786 2924.33193565776 12 15 8
-79.2493817639857 -333.011510814748 2930.74376091903 12 17 10
-77.0265356305573 -330.162834699436 2940.86860614851 11 16 12
113.957759360865 -348.702686210672 2810.63898672469 12 12 10
94.1062061767446 -352.432128544358 2805.39702551569 16 17 9
95.8965846834579 -349.507219447017 2815.9397124481 14 15 7
91.2744695148038 -348.553467491624 2821.80582417522 14 15 7
95.544806555063 -344.898396587362 2834.02902382226 14 15 7
91.763203755403 -343.702793839413 2840.44165821811 13 14 6
94.4851181762702 -340.547168138637 2851.44246356361 14 15 7
107.826347558255 -334.213358544191 2869.84957047722 14 15 7
110.652578086225 -331.070913030644 2880.74873641221 14 15 7
93.8937133695461 -333.797651713909 2877.95546578795 14 15 7
85.6843442900979 -331.670514438356 2890.0441664754 14 15 7
70.4720416571947 -333.896364507114 2888.47492435652 13 16 9
55.2140505725416 -336.116042038785 2886.95013924734 13 16 9
33.2913906749988 -340.274158974702 2880.99401906293 13 16 9
-12.7583294151608 -351.463949928993 2858.94229387053 14 17 10
-3.30252883300641 -346.376500930712 2874.30701614077 14 17 10
-13.7730551205726 -347.113819655623 2876.31124732238 11 14 7
-49.3198582291114 -355.109956822283 2861.77912216883 9 12 5
-24.7365148028145 -345.677332102457 2886.98581262355 9 12 5
-4.20812410764349 -337.470863132252 2909.31513409522 11 14 7
-25.6053684602011 -341.34511956794 2904.21256120931 10 13 6
-48.7615359225209 -345.691933871224 2898.09197450009 14 17 10
-58.4809739449597 -346.175256979908 2900.73007064986 11 14 7
-59.7517935283367 -344.250741215394 2908.79245512339 13 16 9
-71.1864066905559 -345.212179840739 2910.37025432904 13 16 9
-86.0497133372586 -347.130189340312 2909.82620249478 11 14 7
-83.9040069090316 -344.247021632338 2920.02255074953 10 15 8
-78.3049045297259 -340.410397188556 2932.31668039799 11 16 9
-91.4957673644823 -341.844448904514 2932.87415702158 6 11 7
109.432662256908 -355.26071878453 2817.51865871026 16 17 9
90.3536052715328 -358.785200771884 2812.89621362436 15 16 8
86.5240581627096 -357.578217203164 2819.35477534761 15 16 8
88.3588279137948 -354.633944067418 2829.85085696371 15 16 8
86.9894626592074 -352.686361182042 2838.00768943513 14 15 7
97.818155656654 -347.024001305437 2854.75795630061 14 15 7
105.470072063223 -342.361911617655 2869.14267366641 14 15 7
105.027502316872 -340.180714741125 2877.76190361144 14 15 7
98.0675567824645 -339.978685135858 2881.80921604915 14 15 7
107.492884419446 -334.839806695673 2897.19659715537 14 15 7
84.9484366072604 -339.324711747261 2890.48897354298 14 15 7
73.8522073685091 -340.350981321615 2891.74033449635 13 16 9
50.3485470734759 -345.063906575954 2884.60235286985 13 16 9
39.9979251717033 -345.83329469151 2886.49225706579 14 17 10
25.4783295559995 -347.827201666605 2885.61777486851 14 17 10
10.9170601009048 -349.815366794959 2884.78416460935 14 17 10
-54.5089426144174 -366.743619516449 2850.23023743943 14 17 10
-74.2824745647992 -370.173593578186 2846.28344802988 9 12 5
-18.7880209356828 -351.589598109197 2891.8717415204 8 11 4
-15.8652222655467 -348.430343366159 2902.67252946591 11 14 7
-10.3801322456976 -344.544141463477 2915.07254754595 11 14 7
-28.4433920166811 -347.489249154538 2912.18992601938 14 17 10
-59.2356282188593 -354.07916626984 2901.23073852323 12 15 8
-88.4497775078952 -360.167333532514 2891.46414762026 12 15 8
-63.4583344962785 -350.690567782129 2916.25906512889 12 15 8
-80.8556032633296 -353.368432782015 2914.09251565493 12 15 8
-104.273945200232 -357.736565085011 2908.23542286567 10 15 8
-80.7782336433109 -348.77190191695 2931.75749372238 10 15 9
79.0374538319822 -372.335915248475 2796.37898624501 16 17 9
100.892479057395 -363.069582588004 2821.48535842148 16 17 9
90.6401184376247 -363.870434514831 2823.28233804939 16 17 9
62.5907512300015 -370.189897463923 2812.39362456437 15 16 8
101.653544629642 -355.683153223598 2849.39535858941 12 13 5
104.398518934606 -352.476271720497 2860.36568954392 14 15 7
110.438030450521 -348.273351237105 2873.58525733232 14 15 7
110.007067530671 -346.077283220544 2882.19076357905 14 15 7
113.688255447225 -342.635426330416 2893.61360063561 14 15 7
119.052054070603 -338.700115097981 2906.12680452787 14 15 7
115.430482545946 -337.512686678849 2912.38173366417 14 15 7
76.4089194137312 -347.03199725452 2894.4399986726 14 17 10
47.9595351901212 -353.296992338124 2883.94045767105 14 17 10
40.0854308941963 -353.336109191696 2887.51427529628 14 17 10
22.2492622274464 -356.352230873105 2884.41630694095 14 17 10
0.199955059164481 -360.600378373801 2878.59925584673 14 17 10
-37.7554673295082 -369.544685799267 2862.3479985993 15 18 11
-72.5207601384001 -377.479333290862 2848.44798117794 9 12 5
-48.8308464320788 -368.092526350941 2873.13138524006 7 10 3
-25.0044080172338 -358.723444792752 2897.68217589409 12 15 8
-12.8140575611564 -352.82575752542 2914.46242480629 12 15 8
-32.5682590350382 -356.303102746647 2910.5034413845 13 16 9
-45.6296775932725 -357.802446580837 2910.94202807452 13 16 9
-66.3449754456034 -361.510509913255 2906.5546182825 12 15 8
-70.157009306357 -360.296004311359 2912.99467733831 12 15 8
-61.2024629207557 -355.401288519295 2927.46839115963 12 15 8
-117.822291775228 -369.392999079523 2900.73970885634 9 14 8
-127.680445376316 -369.884073543152 2903.51669727318 9 14 8
39.7991934220801 -394.92404781233 2759.32900990223 18 19 14
75.1135088510302 -381.21779168629 2794.5030368037 16 17 9
100.398038868132 -368.356794031454 2831.2599239712 16 17 9
102.265612495689 -365.36797757931 2841.71684737032 16 17 9
71.7747112482123 -372.52105867767 2829.12441804064 14 15 7
83.377592164334 -366.492626051569 2846.46904662548 14 15 7
98.3174127836182 -359.462990464044 2866.01970466646 14 15 7
111.723630253125 -352.951209065449 2884.33597329353 14 15 7
117.861517620445 -348.722757019324 2897.45441669539 14 15 7
120.776120155226 -345.509986767626 2908.25543395566 14 15 7
110.586537265525 -346.332846374353 2909.99332709506 14 15 7
88.0231516218566 -350.927493234926 2903.32072882073 14 17 10
58.7765922932757 -357.52262417861 2892.24467910106 14 17 10
28.5908857372768 -364.354133153821 2880.71856802949 14 17 10
17.362160590725 -365.399582044636 2882.10433407255 15 18 11
11.094153356296 -364.937485797603 2886.84335097329 15 18 11
3.98978677961681 -364.725298870016 2891.0325743931 13 16 9
-32.3476200393609 -373.266840462947 2875.94923162958 9 12 5
-71.3384194704685 -382.539235317568 2859.357700952 7 10 3
-21.5592578316564 -365.33025580706 2900.90554972659 12 15 8
-13.5658562205858 -360.623706016785 2914.94459605251 12 15 8
-30.7930430473382 -363.398964396244 2912.62354739653 12 15 8
-47.2289820125487 -365.918259586452 2910.89585598738 14 17 10
-34.9286025766675 -359.977980568958 2927.56054945404 12 15 8
-45.4578472279272 -360.754216924329 2929.6288408476 12 15 8
-58.5608915985456 -362.271707341071 2930.11178248363 12 15 8
-78.5178350497633 -365.767559874502 2926.35652237308 9 14 8
-5.7193255932364 -417.355118578045 2727.07530021103 14 15 10
64.7736333939042 -392.182626126 2787.97011122738 16 17 9
84.9842020685774 -383.242027997083 2811.92377785434 16 17 9
110.155319037922 -372.777617435647 2839.22845947257 17 18 10
124.164226902781 -365.921590286964 2858.31227757384 16 17 9
90.4876122005454 -374.189305387118 2843.38007610405 12 13 5
77.7818824513363 -375.786250100546 2843.48022175799 14 15 7
83.75690284092 -371.499188668624 2856.75139419274 14 15 7
98.7588850625825 -364.410047138945 2876.23152989138 14 15 7
107.318248512761 -359.374212068777 2891.07714668377 14 15 7
114.304926755837 -354.856762298269 2904.72658593685 14 15 7
106.564587437977 -354.929695890376 2908.17257106063 14 15 7
82.3456447049433 -360.088061834326 2900.39346424857 14 17 10
60.5143378307078 -364.472400767586 2894.38006467397 14 17 10
54.3243148779351 -364.023319995005 2899.04356571165 15 18 11
25.7427276205968 -370.420797394261 2888.69454726332 15 18 11
45.2593999779265 -362.110133054089 2910.59654849451 15 18 11
35.7354044858793 -362.672716379007 2913.05194410579 13 16 9
-5.53726261612697 -372.840296504209 2894.60758395451 9 12 5
-42.7909701713904 -381.723095915199 2879.0673319643 6 9 2
-13.0809468956663 -370.400707814514 2907.40597893019 12 15 8
-1.70539132587066 -364.645094897207 2923.59942041852 13 16 9
-21.4332085341633 -368.216814142425 2919.6281854705 12 15 8
-30.2452458633193 -368.509589131493 2922.75396570685 15 18 11
-44.9982058697733 -370.559506200193 2922.11983390871 11 14 7
-42.8223480057497 -367.582827958185 2932.27208268391 11 14 7
-70.3775900997643 -373.388697967621 2923.65060547981 13 16 9
-110.818625000471 -382.9395048676 2907.12341992296 9 14 8
-72.8178942823874 -369.442801828558 2939.66076858455 7 12 6
34.3943824857771 -414.816060242564 2747.79801599369 17 18 13
64.7785498850788 -402.379106556678 2779.5532235256 21 22 16
43.2063818773782 -406.85396248039 2773.29587359742 14 17 8
93.9145212965711 -387.956078764954 2819.33958951223 14 17 8
106.211460339183 -381.541198142124 2837.35480058997 16 19 10
98.3982038825131 -381.61422696045 2840.8732075849 16 19 10
91.3839648345749 -381.426683063796 2844.97691310755 12 15 6
90.8562773085721 -379.169464209851 2853.66909240899 14 17 8
96.048468596968 -375.106876493473 2866.33389351297 14 17 8
94.7670960354374 -373.115175217114 2874.39716510249 13 16 7
111.49153112703 -365.454190677798 2894.9165179691 12 15 6
102.098241761084 -366.048419613061 2897.24713551435 13 16 7
98.4360633326915 -364.8389644418 2903.53879452001 14 17 8
65.1417518586168 -372.883972594192 2889.61129146327 14 17 10
54.8246007179856 -373.721502438923 2891.47803001642 14 17 10
54.4117581781909 -371.477388890789 2900.0584413493 15 18 11
53.1936226413578 -369.492585169402 2908.0595992521 16 19 12
33.711520932906 -373.142809631777 2903.8559682172 14 17 10
0.83576401310248 -380.876880405697 2890.88378720967 13 16 9
-27.1571254248872 -387.060834574925 2881.33587164374 9 12 5
-16.7560494242753 -381.488758155337 2897.10720304621 9 12 5
-11.3136987784372 -377.456439171064 2909.5280659156 12 15 8
-4.13890011086604 -372.921161430918 2922.9880638401 12 15 8
-21.3437618013304 -375.774124658168 2920.65633073633 12 15 8
-31.8449495334425 -376.586006560023 2922.70202959062 13 15 10
-37.2890675790671 -375.870764767507 2928.00240686421 13 15 10
-69.036287495587 -383.021658910396 2916.65753515562 13 15 10
-100.052346007554 -389.903295035229 2905.963722464 12 14 9
-119.250342904239 -393.224482700655 2902.84624897401 9 14 8
82.3701690944696 -406.829009862972 2783.99750833982 15 16 11
56.0655846990001 -412.943239983514 2774.1796850427 9 10 4
93.8207312669093 -398.042021027449 2811.0043813518 14 17 8
53.8041335940971 -408.60842353671 2791.37167146341 14 17 8
70.8389449147298 -400.549372417844 2812.94122923948 16 19 10
76.6734796114052 -396.169120434211 2826.33813252121 16 19 10
86.6119958818934 -390.488135757749 2842.55269598078 13 16 7
99.8716562611475 -383.771595986379 2860.9842347669 15 18 9
108.339433263397 -378.63265284818 2875.90522108656 15 18 9
104.640385139829 -377.413373447186 2882.23237806969 14 17 8
90.3219586223014 -379.581537270415 2881.18388707015 12 15 6
90.7118636324706 -377.059499627366 2890.34299047699 12 15 6
66.48811685307 -382.340681698762 2882.58680632399 13 16 7
48.762687909532 -385.532086144611 2879.4051163445 15 18 11
28.5038873292915 -389.494257756781 2874.60161726381 13 16 9
40.4370602314881 -383.337250166013 2891.59925770023 14 17 10
32.5529723748943 -383.406243973511 2895.18740494953 15 18 11
14.685185525837 -386.57827365365 2892.14387705076 15 18 11
-30.7289262865713 -398.272002531299 2870.95271240724 13 16 9
-35.4161770123409 -397.288885841767 2876.87882676858 9 12 5
-19.1768243734676 -389.85721249975 2896.49685645868 9 12 5
-50.6484330798438 -397.128019246901 2884.89568393268 12 15 8
-46.9276230831168 -393.569959964626 2896.26233885709 12 15 8
-32.2089253900297 -386.673976527764 2914.63541964437 12 15 8
-35.1334683185698 -385.185979385196 2921.57067447241 12 14 9
-46.5110653780725 -386.266410691244 2923.10944291146 12 14 9
-64.7029866112789 -389.394718093893 2920.38132311421 12 14 9
-148.990049502731 -409.960444305254 2885.25624269411 12 17 13
97.514608743432 -411.987408424998 2786.72552812773 14 16 11
82.4571989416345 -414.461230430049 2785.03912528172 16 17 11
69.7541019133827 -416.132352457042 2785.14728213738 21 22 14
51.4030835644097 -419.655137099323 2781.218542374 14 17 8
58.7157878443212 -414.690762527777 2795.89542482225 14 17 8
62.062005178408 -411.057780986402 2807.62264447899 16 19 10
81.6075486758718 -402.141123990753 2830.82332010912 17 20 11
85.8892395076256 -398.259818811182 2843.00214578826 15 18 9
112.944707439104 -386.993816267246 2871.15098273576 13 16 7
118.188767935036 -382.8677420072 2883.75489366646 14 17 8
103.910855850362 -385.070792575811 2882.67132748191 13 16 7
97.7659807801912 -384.636130797521 2887.29212712581 12 15 6
83.4238785226722 -386.830217680417 2886.27131574496 13 16 7
67.3970689048118 -389.543971592218 2884.16609375997 15 18 9
36.5013025082712 -396.974734728713 2872.01674279229 15 18 11
37.6703127730265 -394.164788251315 2881.77687752377 13 16 9
28.1177925214324 -394.763815410233 2884.2659850257 13 16 9
40.9324609682042 -388.295262682168 2901.75915043795 15 18 11
-6.00158739049217 -400.659309408258 2879.34222146151 15 18 11
-3.15004349766967 -397.328553782568 2890.18841869867 13 16 9
-13.6177278068339 -398.177239599864 2892.20628776134 9 12 5
-65.9499858461476 -412.055271614185 2866.87149557207 7 10 3
-71.5265929986142 -411.322708291909 2872.30087637277 12 15 8
-61.9697312042224 -405.907618560872 2887.51648036609 12 15 8
-64.9820233961189 -404.3999202963 2894.53595969259 12 15 8
-38.4215437923263 -393.806617701666 2920.44193349004 12 14 9
-44.7275249883905 -393.348373166467 2925.21922837737 12 14 9
-51.0368625886848 -392.889692465274 2929.99945391657 12 14 9
-97.3169887033212 -404.597225967351 2909.67029459467 12 14 9
102.37770445677 -417.974451937378 2791.2830783594 20 22 17
95.3133240518946 -417.797717370061 2795.43817260487 14 15 7
73.0417279024422 -422.714852897023 2788.52348673339 14 15 7
46.6798644942799 -428.960615736597 2778.78198282105 15 18 9
57.1962793182341 -422.88085212567 2795.78099228148 14 17 8
80.6837895497527 -412.53271062658 2821.94021047586 16 19 10
82.5025000866448 -409.415491828161 2832.42667783563 17 20 11
112.696229515984 -396.96133745646 2862.95187935733 15 18 9
119.523712441106 -392.261978642338 2876.73251583727 12 15 6
123.969544341546 -388.369169073311 2888.74664666502 14 17 8
99.9197044235744 -393.796934967036 2880.83943545273 13 16 7
107.661906539049 -388.843658178772 2895.09146044864 12 15 6
94.9821967504478 -390.538986800877 2895.17997115379 14 17 8
78.9831289551102 -393.291088586658 2893.05286892796 15 18 9
64.5809563012656 -395.506232006874 2892.09482048569 15 18 11
43.5352890590814 -399.834542176545 2886.70989743351 13 16 9
43.0951696180561 -397.53786890914 2895.30962682899 15 18 11
22.7811844372656 -401.588819515355 2890.57404836896 15 18 11
17.3565015776833 -400.876558556292 2895.85556678139 15 18 11
-29.3902971332396 -410.786426331987 2882.80901046759 9 12 5
-54.1426786976009 -416.119935196502 2875.58550234788 7 10 3
-63.8857252830798 -416.70610162981 2878.26224234822 12 15 8
-19.8438819358508 -400.468697621002 2915.73189052632 12 15 8
-40.4545340729032 -404.479536077518 2911.2849781812 12 15 8
-47.6213035907596 -404.284101752709 2915.53864467147 12 14 9
-42.0977295991225 -400.15664496884 2927.86479023255 12 14 9
-44.158763721375 -398.392145995476 2935.31894836081 13 15 10
-80.2178128865032 -407.091981763249 2921.39949745977 12 14 9
87.2852590190023 -433.331323481258 2771.69749369735 10 12 7
94.503326652577 -428.26960211157 2786.45396392014 23 24 19
97.7941820042161 -424.571216243509 2798.22682995492 22 23 15
83.5289874503831 -426.836932278775 2797.13989700285 13 14 6
74.8353163057036 -427.202654531414 2800.15891944195 17 20 11
59.6959743998657 -429.728831555452 2798.56161443536 15 18 9
92.052332943636 -416.313334025945 2831.04827297316 16 19 10
109.244759018827 -408.048466014436 2852.43055947914 16 19 10
104.685774417064 -407.07625463584 2858.2312533254 15 18 9
119.609596734604 -399.640577293546 2877.73778512249 15 18 9
97.2084055966511 -404.594902560968 2870.95762345975 15 18 9
98.3752688174437 -401.74250966572 2880.71327883361 14 17 8
95.4868758461047 -400.236927005313 2887.61003708791 12 15 6
102.443149710404 -395.512893007811 2901.25947312203 12 15 6
83.176741500437 -399.374367216848 2896.87254003291 13 16 7
73.7242131014795 -400.013286057753 2899.26858796219 14 17 10
67.5536095236371 -399.579420156876 2903.91505402488 14 17 10
45.6649624320211 -404.223600259767 2897.99699854518 15 18 11
35.306061398376 -405.118934027026 2899.91373875378 16 19 12
24.0936604761712 -406.277921412163 2901.30007554062 14 17 10
-33.473582067526 -419.768790240526 2881.1064778017 9 12 5
-39.8257696644522 -419.310162232848 2885.92926180908 7 10 3
-28.5679441957889 -413.269659824771 2902.19750448588 12 15 8
-33.2041308199171 -412.284059837324 2908.07288225107 12 15 8
-20.9843633068569 -405.993810543494 2924.76589909475 12 15 8
-55.130932446521 -414.289731633844 2911.72178532127 12 14 9
-61.4755148579214 -413.831472692378 2916.53707181482 13 15 10
-49.1586815172345 -407.553650032822 2933.13587534988 13 15 10
-73.3237108425513 -412.649216809938 2926.71085935525 11 13 8
82.6495339280702 -439.98761086984 2778.70188077006 25 24 20
91.4969373017351 -434.339198695427 2794.58750250766 25 25 17
118.22421840328 -420.06273946531 2832.5363305533 18 21 12
79.8797453963829 -430.552779008484 2814.0660462175 18 21 12
51.0458524613044 -437.748477578493 2802.66863845965 17 20 11
133.561924857625 -407.320424025289 2870.6859701489 15 18 9
116.916716695874 -410.437181316738 2867.83748146541 14 17 8
101.840967703232 -413.002569747142 2866.18282318468 15 18 9
89.9736328975482 -414.474715213171 2866.84889430939 16 19 10
82.1530935646968 -414.585037708793 2870.38004529725 16 19 10
85.7650329452939 -410.895981006107 2881.83511114936 15 18 9
93.5170321106034 -405.857461507609 2896.06480869461 13 16 7
87.3703721651502 -405.429650976607 2900.68839335741 12 15 6
77.1044417078697 -406.353747153111 2902.51706348084 14 17 10
61.8653799777089 -408.89602479639 2901.02149924043 15 18 11
54.0240798879266 -409.002373785717 2904.57267868432 16 19 12
20.4725824548166 -417.468652674487 2890.96249087568 15 18 11
10.4457909962332 -415.772817504702 2902.08584647949 14 17 10
-11.6772927166382 -420.438981900783 2896.40383929924 9 12 5
-24.6729639223431 -422.139235905141 2896.80683233169 8 11 4
-39.3800891913427 -424.37170667466 2896.15382947696 11 14 7
-17.1418357665063 -414.797438446069 2919.41722832604 11 14 7
-48.698346793147 -422.388871296198 2907.94809129914 13 16 9
-53.3507574659695 -421.398205561564 2913.83849322731 13 16 9
-67.3090768139533 -423.349945470439 2913.81767028473 9 11 6
-85.5470726280738 -426.632557841874 2911.15844727643 15 17 12
-117.447181174684 -434.178597818235 2900.02346077726 4 9 5
99.4534612474469 -441.822628891311 2792.04367012047 23 22 18
132.280427639263 -427.836393938892 2825.39556268416 21 21 13
131.698286126401 -425.475968270106 2834.12689951936 22 23 15
124.725269815852 -425.326188393223 2838.19491391804 18 21 12
99.2581977313738 -431.516827570115 2828.97363105828 18 21 12
77.7235261905145 -436.317259904146 2822.72716663549 17 20 11
143.339556975563 -411.383808430261 2878.58146653692 16 19 10
150.196672065143 -406.567164742863 2892.31568102846 14 17 8
101.1162936938 -420.713007801199 2866.62512524807 14 17 8
84.36652743337 -423.852908680062 2863.88388491432 14 17 8
80.6097223262863 -422.598413316327 2870.26285268998 15 18 9
85.0350607035937 -418.605220414363 2882.28249727639 15 18 9
84.5918671229824 -416.260188462475 2890.87813194547 13 16 7
79.2452541053947 -415.558683464284 2896.08371557702 12 15 6
68.1372448435811 -416.769396689447 2897.37403495847 15 18 11
65.2538163295482 -415.247044073954 2904.26338484124 16 19 12
54.9393432041976 -416.180293601895 2906.141611413 16 19 12
12.6216175006291 -420.153528367222 2913.32554529179 10 13 6
-14.5416888832131 -426.499045439474 2904.39462973383 8 11 4
-44.3206000390357 -433.644557043101 2893.9285592694 11 14 7
-64.1243366204152 -437.524799741573 2890.07797517081 11 14 7
-58.717374832554 -433.276911030646 2902.50211858786 13 16 9
-52.4148088528906 -428.765323492975 2915.41518639127 14 17 10
-57.0606132365352 -427.772601113563 2921.29872420542 13 15 10
-93.0897207002648 -436.765925353051 2907.39291822021 18 20 15
-141.160863833969 -449.515632557415 2886.16214161497 5 9 8
66.1086352712381 -461.14749215832 2768.49719830317 25 24 20
115.609389437381 -441.158715676123 2814.16172283046 19 19 11
117.386170548043 -437.939944398067 2824.67481731817 22 23 15
108.775063583459 -438.348213187929 2827.61814066553 19 22 13
111.401585534177 -434.856410111404 2838.66398527473 19 22 13
97.9537236944728 -436.932649503044 2838.15467144967 17 20 11
138.579047405315 -420.383962930076 2876.13681022767 16 19 10
159.186925242777 -410.805226760258 2899.60162645892 15 18 9
92.2766997248741 -431.201589658749 2861.36616452951 13 16 7
84.4541384912563 -431.327696782456 2864.90165625586 14 17 8
82.3282324186394 -429.513846390183 2872.41260122967 14 17 8
77.7665705601875 -428.531849450695 2878.21416948778 14 17 8
69.93256467298 -428.655688230398 2881.76069066407 14 17 8
61.2665188013364 -429.053964719105 2884.75709230054 14 17 8
59.17060211892 -427.243187340061 2892.23871155657 14 17 10
62.8666016001089 -423.504887427746 2903.60336420327 14 17 10
65.778760511662 -420.047501270404 2914.37065389349 14 17 10
48.0067147061716 -423.472871583892 2911.26949735812 14 17 10
23.5303682152286 -429.089437814911 2903.81371808511 13 16 9
14.7892230480533 -429.47671365465 2906.88306854109 15 18 11
6.86793293108012 -429.587602899027 2910.51435031218 10 13 6
-56.285277333016 -447.787043429241 2878.14245343827 6 9 2
-69.3878304912623 -449.521057295207 2878.6565715224 10 13 6
-69.9160165014634 -447.146617579102 2887.33225847578 11 14 7
-57.7829249153408 -440.675270412144 2904.08491745164 14 17 10
-59.9232260189266 -438.856951700298 2911.60949648832 15 18 11
-58.6619495110048 -435.949384059936 2921.26324326914 7 9 4
-108.758218900416 -447.029859034112 2907.46471029092 8 12 11
98.0356322407481 -457.563256537529 2792.94423453992 22 23 18
77.3966365139578 -462.203004575892 2787.20151104223 15 16 8
96.6766631134583 -452.752393488116 2810.58659285347 19 20 12
125.699174216584 -439.940924329319 2840.80477335769 21 24 15
136.40351130085 -433.616471138043 2857.58067038051 20 23 14
135.101301528742 -431.514642829527 2865.6483569009 18 21 12
90.2087606468354 -444.56719199282 2842.72285049825 16 19 10
81.5561341155551 -444.979366749686 2845.70798068932 14 17 8
80.191863314695 -442.8686401856 2853.83564172842 14 17 8
99.1831441010951 -433.76437786165 2876.14173327884 14 17 8
75.8932081524888 -439.213228666572 2868.90028969189 14 17 8
73.76809370066 -437.388391931299 2876.40882479786 14 17 8
54.4554902019616 -441.425856420128 2872.09411344183 14 17 8
54.7856745805082 -438.763020494696 2881.29171039406 15 18 9
53.4973291854164 -436.660745126709 2889.34522546594 14 17 10
75.3302506170384 -426.768249575955 2912.96409111695 14 17 10
62.5588924801859 -428.570741753147 2913.15978655536 14 17 10
54.7267560389271 -428.701656590087 2916.70549718236 14 17 10
32.7592752137322 -433.549306631277 2910.8957975335 14 17 10
-2.60939609034105 -442.823316973645 2896.37565396214 15 18 11
-43.9597528925653 -454.018158344595 2878.16026959514 10 13 6
-73.7626662723025 -461.316190812865 2867.74023836907 6 9 2
-57.5548728675224 -453.390419526642 2887.31657938478 10 13 6
-53.8535604921218 -449.622053592555 2898.6711746621 11 14 7
