ply
format ascii 1.0
comment KinectMotionCapture
element vertex 800
property float x
property float y
property float z
property uchar red
property uchar green
property uchar blue
end_header
120.293490125245 351.862336568469 2825.50144969318 10 13 4
115.883582071414 352.500520171014 2831.20313964103 72 65 55
114.790040045151 353.117153827445 2839.28312712608 84 76 65
110.397502402846 353.752911738307 2844.96792651467 62 56 42
101.851173687728 354.4162548025 2847.68854033868 53 47 31
91.6228975621616 355.093073875418 2849.24320457937 54 49 30
79.7012347299684 355.784768539785 2849.64340961125 49 46 27
71.0993439303302 356.454539437221 2852.4179095336 56 53 34
63.3224623038116 357.119372003386 2855.79114019408 42 40 27
54.6935305664298 357.792273443059 2858.59236731657 44 42 30
49.4233547562821 358.438529929432 2863.73021337711 39 39 29
23.022371177353 359.267677361987 2854.39913488389 60 59 54
-29.7380420321138 360.343009137081 2827.27940647023 53 54 49
-37.7096842411575 361.031244477174 2830.84257834849 59 60 55
233.051838324693 328.975294829737 2692.82429021904 104 89 82
230.880041551919 329.644227536204 2700.55002367044 99 82 75
225.599669530317 330.297887432789 2705.69690049889 89 70 64
218.753639251924 330.945188728 2709.56528244208 85 62 54
206.40500443496 331.573659023717 2708.981912183 85 62 54
192.447794091252 332.201046737708 2707.16154688676 70 53 45
166.61364376227 332.799048695019 2695.88451063759 71 56 49
150.170615651097 333.433786216176 2692.28078488015 45 34 28
141.602834915083 334.093081717829 2695.023299106 173 168 162
143.353094626507 334.774436097514 2705.93775884465 54 51 46
147.529422322775 335.45508854712 2718.6939289086 8 7 3
155.74685734971 336.135174101413 2734.52252571411 15 15 13
156.024761998448 336.798202842983 2744.06794568129 8 10 7
158.738363421189 337.459463214671 2755.44567206313 19 21 18
156.664381009074 338.113337558546 2763.07650002785 35 37 32
155.413196758623 338.765174712755 2771.30748766832 29 31 26
150.140272386713 339.414785109162 2776.44756738488 24 26 21
150.540805151977 340.061689524569 2785.87326114595 25 28 21
147.720115083865 340.707345241543 2792.82988624319 7 10 3
144.911990450344 341.351239979352 2799.77429395009 8 11 4
146.197480352041 341.988110618682 2809.73994234005 20 23 16
147.514648657709 342.620927018718 2819.67439497937 32 35 26
140.663230667339 343.264987797967 2823.54894378904 19 22 13
134.626705368155 343.907991551212 2828.03101981374 22 25 14
121.995969931112 344.56729286416 2827.72322282972 12 15 4
119.241490812312 345.203597464578 2834.61514372447 49 43 31
118.983224042084 345.8307735137 2843.28104168933 61 51 39
114.600455342708 346.468441688391 2848.95619587901 60 53 37
104.400339649294 347.126201890021 2850.48571328715 65 58 40
95.0115003726344 347.783333174385 2852.62662349199 67 62 42
84.768679832746 348.446078960886 2854.1978105767 60 58 37
73.6660323248057 349.115131966883 2855.20497702926 60 58 37
62.5371961346506 349.787280081502 2856.23769177469 62 60 45
54.7476303102608 350.445942549462 2859.62442996899 58 56 43
48.6341400613939 351.0970142769 2864.18207872541 45 42 35
230.001373752557 321.602305735956 2691.27519608858 132 112 103
229.379910973854 322.295758375798 2700.29161956572 127 103 93
223.314326909774 322.944284670415 2704.80207298633 124 91 82
217.245620392772 323.59292449791 2709.31561026873 121 87 77
204.892934090774 324.19793301543 2708.73939299275 107 75 64
189.357920540153 324.785983390582 2705.65780501126 75 53 42
165.883349202691 325.330000465895 2696.29671667966 47 30 22
154.184053979183 325.956099017443 2696.48580246574 137 133 124
145.625682266759 326.603783917792 2699.22035159188 4 1 0
136.258058264529 327.248733660744 2701.34233298409 2 1 0
149.977607159453 328.012800617878 2721.61387787585 12 11 7
161.395292426949 328.753641194399 2739.9239122732 15 16 11
166.49018015154 329.455699829498 2753.18202198506 20 22 17
165.215694675567 330.124641733988 2761.4336200123 26 29 22
159.134488935467 330.772439565273 2765.95969365468 37 39 34
161.921311883249 331.451639087089 2777.26205858118 32 34 29
148.579702434632 332.073789574424 2776.2484137154 18 21 14
149.786334765335 332.742875233479 2786.28726963124 15 18 11
142.902218685048 333.38666494894 2790.19432819067 21 24 15
145.78179697817 334.053714177248 2801.40638149615 24 27 18
152.781931242475 334.72384506796 2815.61109077146 25 27 16
153.296279098686 335.375389244832 2824.92307871 24 26 15
146.458362887643 336.012809271044 2828.78520155361 29 31 18
133.03755650104 336.643572765584 2827.84892741928 34 36 22
122.87461137617 337.281521522441 2829.34446202626 27 29 16
125.903153365627 337.929260790452 2840.41144618288 30 27 10
119.037652299921 338.569478480098 2844.30020985952 46 40 24
110.505924031509 339.21048925879 2847.00962592615 76 70 54
96.9694596892774 339.854742353077 2846.18620809456 75 69 53
89.2304897197085 340.499994377044 2849.52468591484 69 66 49
83.9875123679494 341.144193090788 2854.63582764203 82 79 62
72.8829923202676 341.795054401897 2855.64754227879 62 59 44
62.5916155274671 342.44780824377 2857.26842324549 62 60 47
53.9607891964824 343.100279953389 2860.07455123261 59 57 45
47.845278587507 343.749365563915 2864.63449978369 45 42 33
41.7266256409685 344.398698189657 2869.1971943717 47 44 35
-64.6623107129005 347.275595745872 2832.71670965447 44 49 42
228.50577301667 314.225137386736 2691.01653551119 141 119 108
229.438667128877 314.953410551636 2701.31846963707 140 112 101
223.372913277912 315.599599497528 2705.82943711768 130 92 83
216.52081130862 316.237449876663 2709.70524518096 123 83 73
201.811174926275 316.794185947883 2707.22592087022 112 74 63
188.629520790892 317.372259667262 2706.05995254087 48 24 12
171.464916614064 317.916310291525 2701.76891880752 48 31 21
166.10638299729 318.579145557614 2706.99205513981 23 20 13
146.477515452745 319.11173022484 2700.89903806939 14 13 8
137.11158685414 319.743358709244 2703.02096693494 8 9 4
161.18992291466 320.660020300672 2731.40470211826 16 15 11
178.224926425323 321.500127679806 2754.04102577887 25 26 20
175.354029825737 322.170053993279 2761.0439195205 29 30 22
172.495613222552 322.838274325046 2768.03467258456 29 32 23
168.040663701155 323.493178033016 2773.77861815125 28 31 24
164.397023637158 324.152860752548 2780.13346225728 25 27 22
161.570350801532 324.816563300795 2787.09336101733 18 21 14
144.17022716951 325.387503875378 2783.03222726169 17 20 13
141.333651068 326.052101074687 2790.00182788212 24 27 18
149.908474305678 326.779123535661 2805.46859565689 27 30 21
162.631086322412 327.519418034109 2823.8998085297 22 24 13
149.260965367448 328.117639150088 2822.91801276183 20 22 9
146.513359911417 328.770636888477 2829.80097861134 22 24 11
135.558548640002 329.385686234158 2830.66932321302 26 28 14
131.992601984118 330.034260704413 2836.94832056866 22 24 10
126.78373374383 330.67535354142 2842.02605049116 29 26 9
119.920273364186 331.310391777449 2845.91389109934 39 33 17
108.071444262609 331.930130572705 2846.25206836407 57 54 37
95.360881946597 332.550991768067 2846.02888424153 58 55 38
86.7844601338854 333.186875067337 2848.78343949757 57 54 39
81.5356112414109 333.832270990487 2853.90023480445 66 63 48
72.1003479192577 334.468853175673 2856.09061976262 58 54 42
59.28885674513 335.101686204756 2855.96589005639 49 47 35
48.1262174629902 335.741063313199 2857.03701531227 52 50 38
42.8403837621785 336.390561555253 2862.18993075963 43 40 31
21.4963346163648 337.025326850652 2856.36776496239 32 29 20
-10.9333545802035 337.662078089416 2843.13233759153 28 28 20
-1.27148493862883 338.985284279778 2867.3509152729 28 33 26
-4.04645068175435 339.639739314902 2874.26049706214 31 36 30
1.74018033158063 340.288367112473 2886.83959251687 31 36 30
230.896914471275 306.895521170553 2693.97647657011 136 116 107
231.056140399537 307.633451358387 2703.62833801808 135 108 99
223.431741164133 308.254043571672 2706.85669011492 121 84 75
215.79645982591 308.875757029413 2710.09568258129 104 67 58
200.299812457704 309.389741335371 2706.98694334619 99 66 57
189.475302484704 309.973577698743 2707.73051009748 48 28 19
174.67961535415 310.508417688864 2705.33953384101 10 0 0
162.21091813484 311.079197257407 2704.88391398658 27 24 17
170.321320862479 311.911942364194 2720.79623243233 10 9 4
161.808525066084 312.53291998264 2723.48980916671 12 13 8
180.369233430587 313.476427131644 2747.429621548 14 13 9
178.282247717347 314.166098440978 2755.06807120711 20 21 13
173.009348226464 314.817636929804 2760.20784124523 19 22 13
171.749893626415 315.512502497444 2768.44068188439 15 18 7
166.488412549347 316.162321411851 2773.56936742114 18 21 14
166.872934708534 316.869477638998 2783.00239260125 17 19 14
151.926290569071 317.421004147848 2780.75885262599 16 19 12
144.226814264056 318.047832475433 2784.06083566783 16 19 12
135.704340038599 318.668334859884 2786.76409346472 16 19 10
148.33618554967 319.479763113195 2805.27492528153 16 19 10
154.525179434778 320.224069382513 2818.85723653796 18 20 9
141.135764849062 320.798113084262 2817.89817304191 22 24 11
126.888279218647 321.370147467737 2816.37423659451 25 27 14
129.860111910307 322.079965305676 2827.48835873664 26 28 15
118.86559025519 322.681327658199 2828.39815926797 23 25 11
120.232284879512 323.373475518172 2838.27500021886 25 23 10
112.525380592816 323.999869235658 2841.5844235915 22 20 5
100.659164241498 324.600600676897 2841.94267593087 22 20 7
88.7630361021379 325.204927772115 2842.33043752386 24 22 9
81.0046697814695 325.837263635036 2845.69008521047 24 22 9
79.9197428338028 326.508094498747 2853.75350747156 29 27 15
71.3178892562114 327.136538298597 2856.53407855885 31 29 17
62.7016209894067 327.7666683235 2859.32905226427 28 28 18
48.1815535601156 328.370930058206 2858.07136822621 30 30 20
39.5226011669054 329.006102024713 2860.90798270338 28 28 20
26.6230666497016 329.625694933012 2860.87263822242 30 30 22
-18.5011895625529 330.1267222488 2839.00817236111 38 39 31
-12.8628375532669 330.82928988262 2851.72620093261 32 37 30
-3.99097499620638 332.207744905799 2875.30385441427 20 25 19
8.63436986979416 332.910150636115 2892.4203456313 26 31 25
-21.4981950729931 333.500466076391 2881.1617689046 32 37 31
230.956406955478 299.53763068786 2695.00489265385 134 114 105
230.336167999172 300.280538275017 2704.01312927963 134 107 98
224.271884812204 300.921748898896 2708.52303432098 117 83 74
213.506170778218 301.480128639024 2709.21197831347 101 68 59
195.648719781021 301.919302130686 2704.20754319158 94 64 56
175.369029671578 302.325849225849 2697.36252152942 38 19 12
166.849672322289 302.937819276182 2700.06360745547 22 12 3
160.688352857806 303.589981997006 2704.6685900817 18 15 8
159.28080296413 304.318084333983 2713.04391699868 11 10 5
165.840819168327 305.16726827525 2727.65920605114 14 13 9
167.679995040729 305.936112433346 2738.47243977648 16 15 10
179.937245667403 306.85501572236 2757.33936508769 17 18 10
173.867347939899 307.494855497151 2761.85504806168 16 19 10
166.189533489252 308.112038908895 2765.13694607626 17 20 9
175.39477010023 308.965167373994 2781.37631279949 24 27 20
170.155331878961 309.612458053693 2786.48348312656 22 25 18
158.449940802062 310.173838498317 2786.68784965112 21 24 17
141.852815461583 310.676010273478 2783.25673787971 21 24 17
153.630272034132 311.542402361814 2801.19095759414 17 20 11
147.578157247241 312.178820937852 2805.6894874969 15 18 9
141.523277336763 312.815471868298 2810.19106670838 18 20 9
138.737548164042 313.490347182203 2817.10865647602 20 22 11
134.324347366702 314.14498540819 2822.81118418068 21 23 12
124.1624274804 314.735718309491 2824.31267919343 22 24 11
118.921407655407 315.381807865841 2829.42159760189 21 23 10
121.939334581454 316.113132101996 2840.48676885162 21 22 8
118.375109107126 316.772931246602 2846.76273588856 19 20 6
104.863285226265 317.334735463182 2845.92703562269 19 19 7
92.9767277600022 317.916713994394 2846.30825866182 17 17 5
84.3944786515509 318.532648600995 2849.07154891673 16 16 4
83.3171621996218 319.216495652669 2857.12549005615 21 21 11
72.2109358416492 319.812318280891 2858.14703377755 27 27 17
63.5964227029144 320.431891052875 2860.94148713024 39 40 32
49.9196638885788 321.013352788618 2860.26666431874 44 45 37
48.0106608288593 321.688976576312 2867.73078863139 34 35 29
34.2854356897728 322.276194449429 2867.10324284225 32 33 27
59.4893821055966 323.140574993331 2892.96004810145 41 44 37
19.4571812105222 323.549688366682 2874.55447462464 35 40 33
8.2006236191563 324.163430681075 2875.72265096131 32 37 30
44.6808520535593 325.072171126795 2908.79655760618 23 28 22
-28.9235609505747 325.315807781345 2868.48962693397 28 33 27
-26.5829988321631 326.018820123654 2878.8147066188 43 48 42
225.575622626635 292.058154517215 2691.53451343857 122 104 94
224.162153242815 292.802303806156 2699.91300892228 125 101 91
218.082370518544 293.443081859814 2704.43870700898 116 86 78
210.433285719777 294.050967692894 2707.6934502326 98 69 63
193.353152199278 294.464515308922 2703.33782417643 66 41 36
165.985301678804 294.676352700484 2690.8070312084 35 20 13
155.864888290535 295.24914526609 2692.26996122881 14 5 0
167.074513726392 296.244865010705 2710.74859324294 20 17 12
163.303919628769 296.938935835047 2717.22442203421 8 5 0
157.952394880347 297.601595147832 2722.44062446243 17 14 9
162.958442384714 298.456924149501 2735.76430053302 21 18 13
171.210264611133 299.364142037052 2751.52518028145 17 18 10
162.717413107287 299.961243903127 2754.20248086427 17 20 9
179.087230984575 300.997809919509 2776.05306003157 22 25 14
177.06069539769 301.701826417768 2783.62936160893 34 37 30
170.212406716364 302.321743003023 2787.50437146979 31 34 27
155.273808349079 302.80830352213 2785.26244386873 27 30 23
154.874403686116 303.537317565161 2794.05344223646 28 31 24
156.935769235062 304.301974589978 2804.64665718489 26 29 20
149.263178789961 304.909801530911 2807.92475056704 23 26 17
142.395874076068 305.531258636943 2811.81807809905 24 25 17
139.61189505736 306.214463795966 2818.73269879041 20 22 11
137.660391086094 306.907915701376 2826.2360543065 19 21 10
126.684423387233 307.470216196212 2827.1332038105 23 25 14
122.273106754748 308.127522812282 2832.83380396672 25 27 16
122.821106930636 308.851646218243 2842.10164747599 23 25 14
120.086346768373 309.528071612297 2848.96839516161 23 25 14
103.25971487703 310.019768712311 2845.76639709837 27 29 18
95.5274638570494 310.633775275873 2849.10282096778 28 30 19
91.9523254378576 311.300404787028 2855.38861519511 26 27 19
92.5630848375363 312.016188871635 2864.59537041546 27 30 21
79.8032639580146 312.571362149927 2864.43080942011 33 36 27
68.6883633926425 313.149732603891 2865.46354618142 30 33 26
60.071093661727 313.759290821163 2868.2625548597 39 42 35
59.8714489943131 314.461544526591 2876.85914376505 51 56 49
68.9925643132079 315.258230706113 2891.77313916031 41 42 36
50.2264461129465 315.762039025233 2887.66147100436 43 48 41
28.8523267193406 316.248116510091 2881.89114140116 63 68 61
33.7853147613076 316.995634330641 2893.8863917257 62 67 60
-37.4151931576066 317.744241412308 2863.87091074447 19 24 18
-48.8023177333039 318.35547054978 2865.16911347317 31 36 30
220.972517536748 284.559950444372 2688.71156453627 118 101 93
218.768032384273 285.299712525453 2696.45928948131 122 99 91
213.45552142042 285.959311048823 2701.63720302807 116 87 81
208.143777650121 286.618606464364 2706.81439953949 91 63 59
192.628036063851 287.030682045858 2703.73968321016 72 47 42
166.832447674028 287.204922856904 2692.48698609771 45 30 23
156.71394333698 287.76164162636 2693.95039610208 22 11 5
160.807728140541 288.649834410365 2706.7581959499 20 15 9
181.596863379605 289.910602719121 2732.68932223684 15 10 4
177.084544422848 290.585888804286 2738.48722399447 23 18 12
175.763732874324 291.330624321021 2746.77396007579 25 20 14
161.685670325188 291.795738170152 2745.09792465442 24 21 14
163.576228886477 292.607194567625 2755.85349869776 19 21 10
173.527538688918 293.58232828362 2772.75088070779 20 23 12
183.553615176288 294.548006986574 2789.57541574124 34 37 30
175.914251520753 295.144701583412 2792.82215978576 30 33 26
168.264175292507 295.74255502157 2796.0793702971 24 27 20
158.172580556997 296.293964921316 2797.51684331797 25 28 21
161.865899198985 297.11366062743 2809.31552650469 23 26 17
159.089452829556 297.804730311584 2816.22116694859 21 24 15
155.509786161382 298.478933228619 2822.51033844802 18 19 11
152.756702267387 299.166853014935 2829.39358300397 19 21 10
145.916358031532 299.779751552009 2833.2614033355 26 28 17
125.91912856538 300.162496353543 2827.55632136534 27 29 18
122.329517864318 300.837407412283 2833.85526277339 26 28 17
126.180285498994 301.636662778546 2845.50028001415 29 31 20
124.280744428382 302.334443683157 2852.95139577755 26 28 17
114.931048499848 302.90884740649 2855.06600099844 31 32 24
106.394184304822 303.498626120945 2857.78775135086 34 35 27
107.011526224473 304.233040087056 2866.98521654321 33 36 27
105.150803422612 304.925634192259 2874.39888964058 33 36 27
82.3714684598857 305.303189541236 2867.20584291727 27 30 23
62.8691613339178 305.739722699243 2862.41825516914 31 34 27
46.6669719835293 306.232262139484 2860.01329909396 35 38 31
47.2793438388277 306.966816168359 2869.21567893247 24 29 22
57.2162410858716 307.825020490572 2884.72774561869 19 24 18
55.3646455111094 308.515946282245 2892.13226397864 27 32 25
9.38134296939852 308.62836966584 2869.76103215328 32 37 30
-7.85477562310177 309.132270114805 2866.96419462996 45 50 43
-25.3906843575415 310.366941296246 2872.85917714447 49 54 48
204.712199069597 276.688571228159 2676.26422699035 127 114 106
214.932776057854 277.803348575224 2694.2908305964 119 100 93
208.829187549404 278.442334804787 2698.84009516753 105 78 71
205.071722573919 279.147340339124 2705.30127040107 106 79 72
191.118339979078 279.568976723868 2703.50785189223 65 37 33
177.122743128226 279.995638337909 2701.75527219496 48 29 22
155.985648056245 280.236365197833 2694.36892733401 35 20 13
177.474417829418 281.619096205478 2721.00418947017 13 3 0
176.106963003086 282.38389385128 2729.33427784195 34 23 17
177.938424439883 283.227937546893 2740.14405765708 119 108 102
172.636107239244 283.885056865702 2745.31221507162 68 59 52
160.945935755669 284.381834776209 2745.51101654135 34 31 22
168.438000256885 285.356676731359 2760.59944281681 17 19 8
172.78325569074 286.245438337004 2773.15744453974 12 15 4
177.17587876235 287.128123599525 2785.66896973702 31 34 27
171.133723891613 287.757155516218 2790.15903888282 25 28 21
161.047054636613 288.292361968485 2791.5940156912 19 22 15
133.923406558318 288.44019742155 2780.24709486439 21 24 17
159.486493724552 289.792171774282 2808.50935837479 21 24 17
165.659379919922 290.691459067515 2822.08475867759 22 25 18
171.887495629353 291.583813287353 2835.60633996171 27 28 20
163.447163154897 292.152210469764 2838.23573091169 29 30 22
149.252804112639 292.600717119487 2836.67763416399 30 31 23
122.688569749756 292.797321372047 2826.18490855857 30 31 23
117.443434768331 293.445271250055 2831.29763842347 21 22 14
118.804990563353 294.226179405786 2841.16612573288 23 26 17
125.992466848363 295.117916427262 2855.15238616485 24 27 18
105.031863505651 295.452397975339 2848.99383482347 27 30 23
112.271341663598 296.337489176919 2862.92910103418 28 31 24
111.235159122125 297.058210161075 2870.93674564133 28 31 24
96.0168517860902 297.513604057055 2868.97717959439 28 31 24
69.8672620856513 297.776742760002 2859.48011910659 26 31 24
48.6575826305411 298.14145967538 2853.56443525276 29 34 27
34.1052061536047 298.632962491447 2852.35550029556 32 37 30
35.5314582608459 299.405007023123 2862.16105325031 33 38 32
60.6527161249368 300.572326636594 2888.05519520156 30 35 29
43.5620011490183 301.021203297044 2885.12210222942 25 30 23
9.43830646113453 301.200875716832 2870.80224692584 30 35 28
5.81708611574028 301.884223819895 2877.13133018652 36 41 34
-18.4952799438687 302.986181723763 2878.43876189611 45 50 44
-4.99486945594274 303.927526996323 2896.06789417245 40 45 39
-48.0795161599916 304.02715544477 2876.48812044898 49 54 48
211.876859772268 270.30433578635 2692.7654385031 105 88 80
207.327692770315 270.99172841395 2698.59847941463 111 84 77
202.783037057065 271.678344226738 2704.42681752069 97 68 62
191.96362452585 272.168927434591 2705.17910521261 75 46 40
181.904590284309 272.686807122292 2706.58920093233 40 20 11
181.289006741643 273.49433260047 2715.58326416748 17 0 0
180.697595547414 274.298663347977 2724.5537960831 18 4 0
181.715650282247 275.14669867625 2734.75346365637 114 99 92
177.203019679254 275.828215776156 2740.55075394207 87 72 65
166.322393350761 276.325321837066 2741.36286376475 26 13 5
157.012561283254 276.870979876854 2743.44213218182 30 26 17
162.893363033222 277.845743121219 2757.29642134409 16 16 6
169.631987785323 278.835741228491 2771.71387503792 13 16 5
174.016488021016 279.752266655482 2784.22846476982 37 40 33
163.128513898581 280.249458716794 2785.04785834968 29 32 25
136.049041261059 280.319547310018 2773.66856160908 20 23 16
147.755217571831 281.423368937436 2791.63813385298 21 24 17
172.538133787881 282.85335243434 2819.24634177281 23 26 19
169.786804844557 283.558387816224 2826.12531395925 25 28 21
171.944198756552 284.385062754937 2836.61400510303 33 34 28
167.593614490937 285.044677118543 2842.25361819508 34 35 29
154.228882228341 285.482796681837 2841.2901343156 33 34 28
130.964308271246 285.687495439316 2833.18791373986 32 33 27
122.44333521025 286.255164158293 2835.89748965094 30 31 25
114.733441202931 286.843840915662 2839.21545641058 33 36 29
107.012833949768 287.433750310243 2842.54387939847 34 37 30
100.940594206244 288.062637029715 2847.06350688579 37 40 33
108.170257380651 288.989876893592 2861.00262780835 36 39 32
107.957588200819 289.744220376816 2869.60445140067 31 34 27
79.3651141320835 289.878146371093 2858.30090514782 28 31 24
60.7132960441881 290.240305359557 2854.09667099984 24 29 22
44.5182846588263 290.662916891858 2851.69492241354 19 24 17
57.7166622481027 291.701881982937 2869.60954965655 19 24 17
46.5496745641074 292.231343922322 2870.70123835374 28 33 26
49.722961143094 293.052278130095 2881.59889085679 33 38 31
37.6895195816203 293.567300125714 2882.13620596251 36 41 34
29.021688271329 294.151874055679 2884.98877786131 42 47 40
10.1288484861786 294.543254728733 2881.01990071143 48 53 46
-5.41385715729392 295.006123603434 2879.38136218067 48 53 47
-32.9686836349197 295.253793503372 2869.86476170845 48 53 47
-45.2025010050661 295.793250489944 2870.5974414733 46 51 45
208.042531571118 262.755107215896 2690.60387134386 130 115 108
207.388503817582 263.584727579453 2699.6328446343 106 81 74
203.626578544993 264.301777879771 2706.09633095566 116 83 74
198.303517672567 264.963325559426 2711.28443263313 85 51 42
195.341825635006 265.705229580918 2718.36684931306 38 10 0
190.814940329587 266.392126068771 2724.1774996578 20 0 0
184.711379135213 267.025508520742 2728.72790318352 99 77 66
180.189981639105 267.711374112281 2734.53325641851 112 89 81
174.084170266605 268.344686422001 2739.08590477136 36 16 9
161.602570161524 268.772926861478 2738.66382705228 30 13 6
152.281080929522 269.30690442377 2740.75639757549 36 23 15
168.555894538334 270.64872869625 2762.65620034887 15 12 3
175.307665751866 271.67802333316 2777.05479140224 29 35 25
173.270601816417 272.428183405169 2784.63472778532 33 36 29
157.542928933145 272.760390140237 2781.78226694745 28 31 24
137.724347657113 272.977538679259 2775.92392189689 21 24 17
140.522156723024 273.874394636581 2787.18354576156 19 22 15
172.595656897493 275.620576712679 2820.25822156758 23 26 19
160.075503802898 276.052293305941 2819.87425160498 27 30 23
159.761293474455 276.836848210388 2828.57244182406 32 33 27
152.927631238023 277.434191653055 2832.43592586754 32 33 27
150.186622886332 278.146122627257 2839.3036303884 28 29 23
143.348966595316 278.743689482041 2843.17104756691 26 27 21
124.148208666577 279.007596483669 2838.10953107873 24 25 19
124.699116143824 279.808735220648 2847.36310476248 27 30 23
106.242450133562 280.104571744152 2842.97488414789 29 32 25
91.0431504287153 280.494164899826 2841.00650640487 34 37 30
102.406590802937 281.571981326743 2857.90335473989 36 39 32
110.514747242244 282.555603403419 2872.37869491518 36 39 32
94.4595029762611 282.926555314428 2869.84579078266 36 39 32
72.4935434479002 283.159216961648 2863.28371261469 29 34 27
87.3785298197411 284.297838081551 2882.34260192186 27 32 25
69.5506346785129 284.639405067259 2878.74015291475 26 31 24
65.1559839003277 285.306345484055 2884.42277975974 26 31 24
52.3152342833835 285.775985225813 2884.35122401634 26 31 24
39.4405570543967 286.249784144503 2884.31274416871 30 35 28
46.9067103783027 287.188046579699 2898.01539774563 35 40 33
22.949314238252 287.418079156489 2890.59707766994 41 46 39
6.58307018267923 287.82679279631 2888.36741975888 50 55 49
-14.9610448888602 288.130770032894 2882.79281271403 52 57 51
-33.1507506737894 288.516535451637 2879.54345235755 46 51 45
-55.6907995452578 288.819403078087 2873.54107698081 38 43 37
-41.3039624593483 289.894853824108 2891.68706312886 54 59 53
201.20142592204 255.934683123758 2695.57108960829 107 82 75
202.121684071479 256.839776824726 2705.85977527598 132 98 89
202.288825813593 257.710892663103 2715.48409142279 137 101 89
199.336665107772 258.460086619795 2722.55596590016 109 77 66
195.608088998 259.178195696007 2728.98617952324 70 42 30
186.353166491509 259.691471722319 2731.01570798196 129 102 91
179.457522199709 260.293429929083 2734.94005906257 98 74 64
166.992614241238 260.695831105595 2734.50522482692 35 12 4
160.06969584048 261.300875538498 2738.45654120003 23 4 0
155.535179501165 261.990974854832 2744.27429589758 33 24 17
167.814876052069 263.265888529786 2763.06631389465 29 26 17
179.3784878292 264.502244369572 2781.15786632924 31 37 27
179.763966062951 265.344641305218 2790.56961575353 25 28 21
178.56505830056 266.129100538879 2798.72942842513 27 30 23
173.345241060346 266.776320661831 2803.81712525623 28 31 24
177.038077269121 267.716696216586 2815.59811323534 22 25 18
162.0963467813 268.043523445243 2813.38324222884 17 20 13
164.203546265853 268.926014072418 2823.9131898047 21 24 17
160.634932855981 269.622234174727 2830.18813112487 26 27 21
152.985291789252 270.188676080381 2833.44955212518 27 28 22
142.045495917571 270.654425172345 2834.32505272524 27 28 22
141.762917591382 271.451370951851 2842.99000053256 26 27 21
131.619590316995 271.94526241456 2844.48734592916 26 27 21
111.5457024081 272.144738268521 2838.88513615428 28 29 23
115.404103887992 273.063579995127 2850.50523590406 27 28 22
106.86272337841 273.612784268413 2853.23780575027 26 27 21
113.273469700696 274.596381841133 2866.56454640834 26 29 22
113.905473972458 275.40643242278 2875.73627260955 30 33 26
99.5289759545308 275.78894610971 2874.36879628828 32 35 28
95.1583184513511 276.456309765006 2880.02719706005 34 37 30
96.6670834852321 277.284542778505 2889.7425088258 36 39 30
76.3374430314174 277.514949952401 2884.39003131517 38 41 32
57.6250981973705 277.798998625245 2880.2574457914 35 41 31
57.4428895566768 278.582421420895 2888.82472370838 35 41 31
51.3557528260082 279.207952658951 2893.35964006284 35 40 33
51.2082811041825 279.986952087411 2901.89307747762 32 37 30
30.6645318008862 280.243525520263 2896.74934585798 28 33 26
0.671324180981703 280.273066668361 2885.43526744506 32 37 31
-15.7575278125215 280.654910910347 2883.27175142714 40 45 39
-21.9558874268611 281.29396402942 2887.91545306314 42 47 41
-38.4602474629521 281.685061900228 2885.82554996543 36 41 35
-44.6879395779654 282.327619494102 2890.49752340638 55 60 54
191.11015621713 248.075649547562 2688.33225883369 104 77 70
197.48529846406 249.235216482479 2703.08559382974 130 93 84
200.779887219468 250.25721309893 2715.24998385995 147 107 95
198.610443441706 251.047634541877 2722.95542477034 99 65 53
194.879898162151 251.771831481348 2729.38703186657 113 81 68
184.832227962878 252.240410606059 2730.79312952602 113 83 72
175.554829426296 252.743178396102 2732.84653012761 75 47 36
163.874825915354 253.154172143749 2733.04791351201 28 3 0
161.723118522243 253.94162052326 2740.73618134772 26 6 0
161.983436480313 254.819345770646 2750.26733310892 29 20 13
167.874627543379 255.90753787114 2764.0945407943 18 15 6
174.623421743188 257.019054834791 2778.48359780033 22 28 18
198.322027034707 258.755285219991 2805.70637002321 22 25 18
187.492445137961 259.189803254201 2806.4770424536 24 27 20
187.951281505653 260.04214658447 2815.81447609368 26 29 22
167.374806092365 260.12698802964 2809.3117145801 24 27 20
176.772087920569 261.298911360769 2825.31292197971 19 22 15
163.447704592301 261.652778650222 2824.32182346125 20 23 16
170.484531629502 262.727661873818 2838.43061189461 25 26 20
169.401235905192 263.510930592393 2846.47545821896 26 27 21
164.239201362324 264.150659897323 2851.50688311703 26 27 22
136.890042915422 264.035869130261 2840.42271346054 25 26 21
123.440305700961 264.40466947867 2839.55388610455 25 26 21
124.814447984256 265.272296725217 2849.39705780129 27 28 22
110.496354293337 265.618744542431 2847.97691563972 27 28 22
114.386264888765 266.563730668193 2859.56152439921 26 27 21
117.488237647006 267.476506317407 2870.51641845554 26 27 21
116.463002569399 268.251793873918 2878.50512715367 29 30 22
105.433842874622 268.709393209598 2879.47057188153 30 31 23
81.8191345443493 268.779879048234 2871.7355386831 36 39 30
90.8497847859646 269.86606677386 2886.69657903533 41 44 35
80.6005729344288 270.356530038822 2888.29957606843 41 44 35
55.9966135615007 270.419579698723 2880.13107352542 35 38 29
54.9653453560581 271.195156076249 2888.12573052106 33 36 27
47.1786290340743 271.76956142128 2891.52209228331 28 33 26
44.4745927609236 272.492753060669 2898.35141866223 31 36 29
23.9155541184441 272.703133690958 2893.22935901648 32 37 30
-6.94528098557878 272.632730626592 2881.37470991441 34 39 33
-37.0665603506191 272.600372011293 2870.19695739564 37 42 36
-21.8973523758828 273.83385384804 2888.95992791904 37 42 36
-45.2701093155343 274.003316521256 2882.38691399781 25 30 24
-52.3734766616775 274.622470477862 2886.51533345977 51 56 50
-54.3092139840788 275.379906121286 2893.99357569193 26 31 27
182.67167174476 241.136492460712 2692.06942793258 84 59 52
188.283530412266 242.298891984586 2706.16304899128 115 85 77
190.803494838982 243.314317054067 2717.68071438499 137 104 95
188.630928652868 244.116205227668 2725.38789895723 133 96 88
181.730421447272 244.708884461343 2729.3184504113 54 16 7
174.822921516077 245.302297817122 2733.25583724232 44 7 0
165.524938558885 245.794363130085 2735.33126029931 120 90 82
162.580495706226 246.558771071623 2742.39322221409 116 92 82
158.849928766926 247.28795190319 2748.82377635971 57 44 35
160.731009215401 248.248955696899 2759.56699711132 22 18 7
173.078426878985 249.635009282897 2778.27534061208 19 22 11
183.903612657723 250.944585107291 2795.67242977955 18 21 12
185.93886138437 251.88603560225 2806.26544912093 22 25 18
169.421805413053 252.079375581932 2802.80013464481 23 26 19
172.294204493388 253.049279740079 2813.97455518834 23 26 19
168.709878374737 253.75940712415 2820.26304397043 23 26 19
176.530183826682 254.910758905772 2834.99943405425 24 27 20
162.38303591673 255.207393776691 2833.41656469486 24 27 20
170.276939235743 256.349393666714 2848.0812532142 20 23 16
170.035700320465 257.174651734473 2856.70096583153 26 29 22
142.700638581765 256.985670134438 2845.61376330812 26 29 22
135.854083503304 257.569454451882 2849.49205416711 23 26 19
122.395745857001 257.912714596224 2848.63554199809 22 25 18
122.140756681144 258.739263836613 2857.26871799269 21 24 17
103.660602110345 258.909789526589 2852.9223427524 18 21 14
111.725873915812 260.02984662521 2867.42010296639 19 22 15
112.353548764834 260.879215002796 2876.59031719531 24 27 20
67.0665991043147 260.132276135337 2853.65494787234 26 29 22
72.6674129096994 261.160058590228 2866.36252366869 29 32 25
75.8019815136293 262.095953870793 2877.28163249697 42 45 38
95.7988345559517 263.591674778837 2899.71371503064 48 51 44
94.8360194600935 264.372816594903 2907.63923666517 52 55 48
66.8534222830508 264.2630494039 2897.18333854931 52 55 48
50.6243874220775 264.551343909269 2894.83522777516 42 47 40
35.1949988529334 264.872969187102 2893.10537729839 50 55 48
20.5706193120871 265.227201544041 2891.98789311997 52 55 48
11.874037582476 265.774182415774 2894.87490868974 31 34 27
-14.7854457343759 265.765064513924 2885.92408166595 35 38 31
-50.9633204368694 265.478195047591 2870.87919353483 45 46 40
-35.7666897855493 266.77349831114 2889.60579575511 53 54 49
-67.8027889474131 266.635636886048 2877.51092439262 27 32 26
164.682828092729 231.837232036088 2668.79672212311 167 157 155
167.076371515858 232.896118181578 2680.43350191417 70 51 44
171.079322299997 234.025799429125 2693.29580939659 75 50 43
176.703205718021 235.22476216183 2707.37208567398 111 82 74
180.016231393572 236.304332097045 2719.50965825857 138 105 98
177.838252717073 237.117898582902 2727.22015362233 133 96 88
175.676853818271 237.929302917602 2734.91484242874 108 74 65
173.531636628493 238.7385181644 2742.59344826311 75 47 36
169.013359907398 239.436093684297 2748.39397180009 63 41 30
161.306094489547 239.988011073638 2751.71476135007 31 21 11
159.190706583745 240.793082567851 2759.36435870933 19 15 3
164.312698595522 241.917774048202 2772.53308851337 13 15 4
171.898972039238 243.142457863359 2787.49103739846 19 22 13
174.710914672978 244.147595670212 2798.72028456929 22 25 18
179.987138738658 245.25272581187 2811.73875082116 23 26 19
175.593738372102 245.933896988073 2817.41803268889 24 27 20
177.701109006885 246.89074047144 2827.93682099037 23 26 19
170.890857786448 247.465645090701 2831.78071183919 22 25 18
157.546318786903 247.76878973026 2830.81712498576 28 31 24
151.524408107687 248.380923673607 2835.28925102121 28 31 24
153.697786731336 249.329152661319 2845.74410347467 30 33 26
153.441707087866 250.172822394504 2854.37583191837 27 30 23
142.50207781471 250.583060818358 2855.25937153614 26 29 22
142.269192625129 251.423659100019 2863.86852150345 25 28 21
113.096098012493 251.119391283019 2851.78939557007 23 26 19
102.889897405843 251.5736063431 2853.35503927002 19 22 15
114.278473399941 252.866202808415 2870.19518316706 18 21 14
104.911435267177 253.351479564342 2872.34018237998 20 23 16
93.8551700368868 253.775624020408 2873.3371500799 22 25 18
78.5867378563121 254.045852132001 2871.45506400863 20 23 16
83.4128612838057 255.069929650261 2883.51521923056 27 30 23
95.0153402729597 256.33564869751 2900.14692676209 31 34 27
102.481100510535 257.438056189373 2913.82571011185 34 37 30
85.5012254531831 257.649733224271 2910.81760946313 35 38 31
71.855767941539 257.988852710199 2910.14752207403 42 47 40
47.1374600168164 257.942792872708 2902.1086956694 44 49 42
29.9881588118902 258.175312788347 2899.26575712112 42 45 38
19.6073508884371 258.650375240784 2901.00170723235 30 31 25
-18.9993356000393 258.162465731615 2884.14731294453 36 37 31
-7.21713633079579 259.405498697508 2900.60390857409 42 43 37
-28.8390737941273 259.516183302519 2895.13514888125 49 50 45
-38.4870524923362 260.035476571053 2897.55409860301 53 54 49
-34.5018434086866 261.838568584506 2917.41937846977 47 52 46
153.032448624534 223.661310040183 2660.31878988394 14 6 3
160.093612506492 224.99658104338 2675.78183558831 86 73 65
160.154565897942 225.958096898005 2685.49823725416 55 41 32
163.390718484032 227.077566393271 2697.70658665742 31 14 4
168.247754026672 228.271763510555 2711.12814924931 33 16 6
171.574876399919 229.379571465716 2723.24755003768 74 56 46
170.982748204998 230.28345827062 2732.20407960378 91 73 61
173.592904948273 231.34191190793 2743.62582309032 46 32 21
172.260323250512 232.199374225855 2751.90724828985 38 28 16
170.948296818993 233.054158476918 2760.16899546523 31 29 17
165.654586771692 233.712802097858 2765.32838055808 40 40 28
165.175707325064 234.601940347979 2774.17463227296 29 32 23
170.350670138742 235.755482735034 2787.28649713626 26 29 22
185.251170364172 237.358206058348 2807.67829617221 21 24 17
195.401017990013 238.722242604548 2824.32104752022 22 25 18
191.044198399394 239.401984805032 2829.96387749668 25 28 21
177.760082067564 239.671271079466 2828.94529429259 23 26 19
173.391697244824 240.35225183242 2834.59976349998 21 24 17
160.86893835614 240.664868607305 2834.23564618859 33 36 29
154.854974465389 241.273820589414 2838.70068908009 38 41 34
148.837846978498 241.88302226672 2843.1684987225 37 40 33
140.352833804465 242.384358340416 2845.85216987024 31 34 27
149.149833911403 243.639359457246 2861.02027771469 31 34 27
143.153220385243 244.245755595046 2865.46846919034 32 35 28
124.740510452007 244.322613089162 2861.06896454638 31 34 27
112.902644569497 244.687626679987 2861.43424128848 29 32 25
111.011465172169 245.474369376442 2868.86390527271 29 32 25
120.803473858425 246.743451946338 2884.45878297408 31 34 27
99.7610205478012 246.73228836666 2878.43293390172 31 34 27
97.901751620975 247.514860819205 2885.83152667725 27 30 23
99.4154065958299 248.430886391047 2895.52900695756 32 35 28
99.2790145388875 249.275566091822 2904.04173458576 33 36 29
77.2480670904656 249.248760995586 2897.58253945447 35 38 31
74.5747458236758 249.99408577286 2904.37809410991 37 40 33
53.2821326447701 250.013528356142 2898.59579606529 35 40 33
41.2543098103995 250.401427600164 2899.14632037911 34 39 32
26.6438976012773 250.695652694652 2898.023835481 33 36 29
10.2865429775596 250.930614440819 2895.81103068669 40 41 35
-0.137491247204746 251.395383283 2897.59176438722 48 49 43
-3.73157790215473 252.116646196312 2903.88796185779 41 42 36
-20.1943293201063 252.364541070119 2901.77790612759 45 46 41
-44.4504364892584 252.337327817222 2894.69423134084 50 51 46
-56.7173687982923 252.754604015074 2895.47785299675 47 49 44
-38.7640388419843 254.252318358052 2915.68782373969 46 51 45
131.231614647462 214.833837359564 2643.59587327371 17 9 6
152.328735045526 217.004172732703 2670.50364144773 71 62 55
152.369996971172 217.987453815736 2680.23638013897 60 51 42
155.586338151343 219.13950969722 2692.45958630752 17 9 0
159.634719270062 220.328843711298 2705.26762630129 26 18 7
167.683816818299 221.725186952866 2721.15752213826 27 19 8
168.666937070803 222.731713575613 2731.36879306679 32 24 11
172.859981567404 223.902664754534 2744.03623500481 29 23 11
172.321702904134 224.81616934201 2752.93753184388 29 27 14
172.606271640351 225.768233978237 2762.43361489468 25 27 14
167.316405491325 226.426820538715 2767.58919137323 65 68 57
162.829643637203 227.12634947594 2773.3581314672 40 46 36
155.935021644507 227.702365201867 2777.28530167702 25 28 21
179.667835410056 229.824995767418 2804.41699460159 15 18 11
190.611618820606 231.283008351854 2821.67437567916 14 17 10
195.153711664228 232.409543658697 2834.0017720952 17 20 13
177.007495573982 232.411306057856 2829.34873414789 17 20 13
163.683678723648 232.658840108447 2828.37278911474 16 19 12
160.928274944331 233.424168835998 2835.2468963434 26 29 22
155.732017849402 234.07012892425 2840.31138383452 27 30 23
142.339178168766 234.325951617543 2839.40275443443 29 32 25
138.768601847137 235.051415392193 2845.67498491099 25 28 21
140.972354003495 236.045245932289 2856.09293610793 23 26 19
148.99093413967 237.30240963885 2870.61679754298 26 29 22
142.177167939585 237.867200252908 2874.4653358221 26 29 22
121.256284359055 237.790380983687 2868.32847009288 26 29 22
115.227319761376 238.398318124254 2872.80822105926 26 29 22
99.1956531756681 238.558904331298 2870.28299590086 27 30 23
95.6435953356865 239.281504541949 2876.53759832689 28 31 24
102.146450683728 240.444858892556 2889.7463053875 28 31 24
105.347909496068 241.454951667615 2900.58802489273 30 33 26
82.5160895171888 241.333423377438 2893.52119875223 31 34 27
68.8768114032388 241.618972010193 2892.85289287858 32 35 28
41.6806769081823 241.335328307461 2883.05863388367 33 36 29
49.9537672873549 242.560126851964 2897.33454644188 31 36 29
39.6158032327092 242.998667355802 2899.03334988609 32 37 30
15.643560001533 242.877672702266 2891.68165486271 38 41 34
3.52486022801557 243.255696455464 2892.32388091374 48 49 43
-6.91475924592089 243.706713169388 2894.12178571364 47 48 42
-11.3808802208397 244.401443407034 2899.87093835514 31 32 26
-18.4174053849246 244.992976491494 2903.93706489504 34 35 30
-46.1108085337969 244.77070934746 2894.62752959578 39 40 35
-65.280293700154 244.897770778877 2890.97209382549 52 54 49
-35.2470503087967 246.939793262523 2918.94416526405 38 43 37
118.021808930315 206.366130297548 2633.87578142221 24 19 15
147.72515212666 210.146330266227 2677.50556277894 49 46 37
150.929441012301 211.330023859064 2689.7360610142 18 18 8
151.811234858709 212.371435890943 2700.04245667164 11 13 2
158.259342714085 213.725983913228 2714.69451762032 18 21 10
164.766403727857 215.073039280048 2729.28880678043 14 20 6
161.798987032158 215.874530616693 2736.36810115136 8 14 2
159.640705834276 216.718933013648 2744.05481693547 11 17 5
178.256264670408 218.714354895243 2767.78468944951 28 31 22
173.780166128019 219.415797580255 2773.5427578662 26 29 22
161.286279733012 219.677850074875 2773.15744312031 34 37 30
143.933258394145 219.682281954547 2769.13360367097 28 31 24
152.319310332763 221.082053972638 2784.68839204551 26 29 22
178.55019686438 223.422541378046 2813.55832843443 20 23 16
183.872832137971 224.628495256607 2826.51580596648 18 21 14
165.699689732746 224.590840777585 2821.89533204536 18 21 14
161.301743374121 225.281811965368 2827.57734187099 18 21 14
157.72462432684 226.014264501211 2833.85537427699 23 26 19
150.884879093474 226.577789585565 2837.72989716494 20 23 16
142.398948143369 227.058690723489 2840.41749995247 24 27 20
131.43337751277 227.416975161642 2841.33447849807 23 26 19
140.208229722071 228.767496852525 2856.51046163315 21 24 17
153.177740958076 230.314480125745 2874.57727168278 24 27 20
149.683579233788 231.036060086805 2880.77419536052 23 26 19
125.462650337915 230.744258482304 2872.27778475347 23 26 19
102.816244063816 230.543880925024 2865.03849395045 22 25 18
84.255827575249 230.553441597218 2860.79561054033 21 24 17
73.9868369204943 230.968161404065 2862.42944306744 21 24 17
93.8337334441104 232.808530511481 2884.9594957876 16 19 12
101.211253244131 234.045012115792 2898.70608710102 19 22 15
84.2573975339289 234.141795752231 2895.68913005006 21 24 17
52.0765125072877 233.546664418137 2882.38870816675 21 24 17
76.3822056365364 235.550504251134 2907.55183347313 22 25 18
51.7068233996429 235.31462268602 2899.49843679436 25 30 23
69.3830467203935 236.993765734934 2919.95710128129 27 32 25
13.151424205434 235.367439338835 2891.01532596487 30 33 26
16.3747859338068 236.401985016726 2901.83168142233 33 34 28
-23.9462440278175 235.526079154916 2883.90318260204 32 33 27
-25.8814792521922 236.340208996393 2891.37254686572 31 32 26
-40.6770301056358 236.599042511852 2890.43947608018 35 36 31
-53.7935076850538 236.936295005757 2890.66128905695 39 40 35
-56.5959357436112 237.714569181244 2897.5801787585 51 53 48
118.087393814974 198.642955970084 2634.95213645496 28 25 20
120.362780941606 199.826272189362 2646.68785648455 32 29 22
139.157304968165 202.028386571284 2671.62637417534 20 20 10
144.699690121041 203.39048539571 2685.75946799167 28 31 20
155.817995367377 205.083438204258 2704.22606940359 12 15 4
170.971594003064 207.00610625216 2725.73649744582 10 18 5
174.339324214642 208.199149928443 2737.80297624808 11 19 6
172.98407840008 209.101361102816 2746.10063123118 16 24 13
187.577037702823 210.946953325611 2766.76192703238 32 38 28
201.469728012176 212.733155047053 2786.71046886833 21 24 17
177.842965429424 212.307119327327 2777.64388207257 27 28 22
163.754541186722 212.450920982897 2776.02562576797 33 34 28
151.232557943534 212.692470992674 2775.67124186598 27 30 23
153.992817764664 213.813887338653 2786.93462491644 27 30 23
167.297614275169 215.526273891287 2806.06095451731 24 27 20
176.642777749251 216.999289077233 2822.06975281036 19 22 15
179.563072744638 218.100464106712 2833.17721022476 18 21 14
165.431520907205 218.24903928157 2831.60107473521 18 21 14
147.179009767885 218.178306393751 2827.06430411471 23 26 19
149.309351245827 219.231085790528 2837.54610274326 23 26 19
141.63944818727 219.746540052054 2840.83551799451 25 28 21
139.710073132561 220.572358806211 2848.29733540689 24 27 20
133.679232621915 221.176441473078 2852.77951887211 27 30 23
146.63265691616 222.785342975311 2870.8531520055 26 29 22
136.503239799739 223.167297589307 2872.35322862697 26 29 22
120.545757137074 223.249626660375 2869.76590410687 26 29 22
117.009002179173 223.982297855775 2876.00382205763 25 28 21
90.9823218167869 223.560636627757 2866.48558606895 23 26 19
74.0472144191413 223.618002205161 2863.45583763838 22 25 18
72.9647089587582 224.484289563632 2871.48796694223 24 27 20
79.4542379982413 225.725835959538 2884.69835047409 25 28 21
87.6810358769644 227.043980147777 2899.0064357242 25 28 21
63.0952441378096 226.735528295072 2890.8748002136 26 29 22
46.8703373259287 226.850612185913 2888.54819067887 28 31 24
61.0820247356831 228.448670730794 2906.7908618401 26 31 24
30.3990602385507 227.873958371286 2894.83412128955 28 33 26
7.25713550512097 227.678382943778 2888.08584004709 33 36 29
-10.8490870131672 227.73460999011 2884.80228520025 32 33 27
-17.9031658954036 228.31868340782 2888.88660753527 31 32 26
-26.6768287970551 228.82390180054 2891.8563383245 37 38 32
-39.7573762945993 229.133007721714 2892.04663224998 33 34 29
-52.8718092909122 229.446311737394 2892.26995450012 38 39 34
-56.5345974670843 230.193898436906 2898.63082079475 36 38 33
-23.990937432429 233.462414471111 2936.68193357005 34 41 34
164.2215917518 193.984343923523 2673.43246764219 33 32 27
137.649022821422 193.267606588662 2661.66576271354 26 23 16
136.867848739066 194.262107827482 2670.79662486671 22 22 12
141.617420740179 195.612011530139 2684.30188697863 18 19 11
175.596693791861 198.84154266676 2720.9331767566 17 20 11
199.494373702623 201.387033385384 2749.25590377555 18 25 17
183.119386701579 201.339214708027 2745.68515585598 19 26 18
169.074295531735 201.448732527288 2744.02893630549 24 29 22
186.046209310826 203.513659330586 2766.5468812262 26 29 22
183.169478481643 204.320647992824 2773.53497284677 28 29 23
179.505235126283 205.076452643403 2779.89606954627 27 26 21
182.267261750179 206.225324748749 2791.15364018621 29 28 23
176.223420453876 206.829728648026 2795.64902398776 27 28 22
175.01303767173 207.727150207939 2803.80319789913 25 28 21
164.934752125069 208.087896259486 2805.25597257422 22 25 18
188.043048291542 210.432080133945 2831.55782806472 20 23 16
170.692250654608 210.355680263682 2827.54372734382 19 22 15
163.050372389359 210.860243489316 2830.80658540938 17 20 13
160.292671738699 211.651572182342 2837.6791306817 21 24 17
151.823108955915 212.109842770163 2840.35348658055 23 26 19
152.355627097402 213.087965439144 2849.59916299869 23 26 19
143.878409785611 213.547077397513 2852.28133344579 24 27 20
150.210971579438 214.847038294482 2865.63929197723 26 29 22
127.705833484847 214.516853390527 2858.27856741079 28 31 24
125.806310256573 215.350024471427 2865.70965484755 27 30 23
140.511076286042 217.098961804832 2884.85763899102 24 27 20
116.237723457955 216.690421027178 2876.43054012243 23 26 19
101.875094712207 216.837726983642 2875.08371716672 25 28 21
94.9878450627533 217.396716523229 2879.00642083561 26 29 22
73.8623870744473 217.192668670751 2873.09116700452 25 28 21
75.3189851024172 218.204229850517 2882.83118555541 27 30 23
77.6487624165068 219.256193536462 2893.11539985416 26 29 22
80.0143391071262 220.303651513271 2903.36473078465 27 30 23
38.482156511324 219.060365084941 2883.85906664407 27 30 23
35.7377730191897 219.848997726277 2890.71878625638 26 31 24
34.7033164731791 220.722980530106 2898.70172705251 32 37 30
22.6304725278172 221.032252091968 2899.30857913217 27 30 23
7.96963741514745 221.216171342546 2898.25246807822 36 37 31
-10.1507607943363 221.234197224539 2894.9886360177 43 44 38
-19.763665963584 221.684511090366 2897.38261449033 33 34 28
-37.9788329577058 221.71427032148 2894.21115505002 40 41 36
