ply
format ascii 1.0
comment KinectMotionCapture
element vertex 793
property float x
property float y
property float z
property uchar red
property uchar green
property uchar blue
end_header
-117.604590952396 -108.486421406269 2812.00003623962 22 25 18
-110.125780105591 -108.6815148592 2816.99991226196 22 25 18
-103.601098060608 -109.91819947958 2848.99997711182 22 25 18
-95.5222696065903 -109.572887420654 2839.99991416931 23 26 19
-87.9557579755783 -109.806165099144 2845.99995613098 19 22 13
-79.4263407588005 -108.766049146652 2819.00000572205 18 21 12
-71.9346031546593 -109.076201915741 2826.99990272522 17 20 11
-63.7855678796768 -108.344435691833 2808.00008773804 16 19 10
-56.179691106081 -108.461357653141 2811.00010871887 15 18 9
-48.4536588191986 -108.34663361311 2808.00008773804 15 18 9
-40.8309660851955 -108.463257551193 2811.00010871887 13 15 10
-33.2978777587414 -108.926996588707 2822.99995422363 12 14 9
-25.4815705120564 -108.464553952217 2811.00010871887 11 13 8
-18.0537439882755 -109.969817101955 2849.99990463257 11 13 8
-10.1497704163194 -108.65817964077 2815.99998474121 13 15 10
-2.48822220601141 -109.854459762573 2846.99988365173 15 17 12
5.30920224264264 -110.3560552001 2859.99989509583 5 7 2
13.0904456600547 -110.124357044697 2854.00009155273 4 6 1
20.6413138657808 -108.850695192814 2821.00009918213 9 11 6
27.8511364012957 -106.959521770477 2772.0000743866 8 10 5
34.7677245736122 -104.991041123867 2720.99995613098 17 19 14
42.1965755522251 -104.990281164646 2720.99995613098 19 22 15
49.7529245913029 -105.259492993355 2727.9999256134 20 23 16
57.6827637851238 -106.14587366581 2750.99992752075 21 24 17
64.9796351790428 -105.797439813614 2742.00010299683 23 26 19
71.8835145235062 -104.947246611118 2720.00002861023 21 24 17
79.5125737786293 -105.215862393379 2726.99999809265 22 25 18
87.689682841301 -106.101632118225 2750 20 23 16
95.4035446047783 -106.331348419189 2756.00004196167 17 20 13
104.158096015453 -107.602596282959 2789.00003433228 16 19 12
121.821030974388 -109.797291457653 2845.99995613098 11 14 7
127.265229821205 -107.827357947826 2795.00007629395 10 13 6
136.098444461823 -108.789265155792 2819.9999332428 12 15 8
142.773002386093 -108.015030622482 2799.99995231628 11 14 7
150.41221678257 -108.012214303017 2799.99995231628 13 15 10
-126.434162259102 -117.232069373131 2838.00005912781 47 49 44
-116.723984479904 -115.293093025684 2790.99988937378 19 22 15
-103.744469583035 -117.858864367008 2852.9999256134 20 23 16
-94.6122333407402 -116.208486258984 2812.99996376038 25 28 21
-86.5632966160774 -115.714639425278 2801.00011825562 20 23 16
-80.2136361598969 -117.616727948189 2846.99988365173 18 21 14
-72.1112713217735 -117.081269621849 2834.00011062622 16 19 10
-64.8291856050491 -117.908962070942 2854.00009155273 17 20 11
-56.9979399442673 -117.827594280243 2851.99999809265 17 20 11
-49.3326894938946 -118.117898702621 2858.99996757507 15 18 9
-41.2658974528313 -117.375202476978 2841.00008010864 13 15 10
-33.1320762634277 -116.053901612759 2809.00001525879 12 14 9
-25.3450814634562 -115.517407655716 2796.0000038147 12 14 9
-17.8253389894962 -116.261541843414 2813.99989128113 14 16 11
-10.1459603756666 -116.303145885468 2815.00005722046 14 16 11
-2.44884379208088 -115.766167640686 2802.00004577637 9 11 6
5.18843345344067 -115.476936101913 2795.00007629395 5 7 2
13.2690565660596 -119.525648653507 2892.99988746643 4 6 1
20.9921039640903 -118.533730506897 2868.99995803833 9 11 6
27.6596751064062 -113.740645349026 2753.00002098084 10 12 7
34.7670204937458 -112.417921423912 2720.99995613098 16 18 13
42.0561581850052 -112.045273184776 2711.99989318848 19 22 15
49.5877787470818 -112.333528697491 2719.00010108948 19 22 15
57.1154803037643 -112.538985908031 2723.99997711182 20 23 16
64.196303486824 -111.9180098176 2709.00011062622 23 26 19
71.9349160790443 -112.453654408455 2721.99988365173 22 25 18
79.481802880764 -112.617328763008 2726.0000705719 22 25 18
87.7198055386543 -113.648377358913 2750.99992752075 21 24 17
95.5054759979248 -113.97697776556 2759.0000629425 17 20 13
105.239011347294 -116.412229835987 2818.00007820129 14 17 10
117.281429469585 -113.185472786427 2740.00000953674 10 13 6
128.992900252342 -117.024570703506 2832.99994468689 10 12 7
136.86791062355 -117.145761847496 2835.99996566772 12 14 9
-118.64522844553 -124.935202300549 2836.99989318848 21 23 18
-108.870290219784 -122.647739946842 2785.00008583069 17 19 14
-102.833181619644 -124.543756246567 2828.00006866455 12 14 9
-95.2492281794548 -124.722108244896 2832.00001716614 22 25 18
-88.2611349225044 -125.781118869781 2855.99994659424 21 24 17
-78.7186846137047 -123.052403330803 2793.99991035461 21 24 17
-71.8043819069862 -124.287247657776 2822.00002670288 20 23 16
-64.9186447262764 -125.874295830727 2858.00004005432 19 22 13
-57.4163943529129 -126.536294817925 2872.99990653992 17 20 11
-49.4696721434593 -126.273229718208 2867.00010299683 15 18 9
-41.6862182319164 -126.406356692314 2869.99988555908 12 14 9
-33.1313572824001 -123.72050434351 2809.00001525879 12 14 9
-25.4261177033186 -123.544998466969 2805.0000667572 12 14 9
-17.8756285458803 -124.294228851795 2822.00002670288 11 13 8
-10.1385321468115 -123.89812618494 2812.99996376038 10 12 7
-2.4391773622483 -122.929282486439 2790.99988937378 6 8 3
5.23658515885472 -124.250613152981 2821.00009918213 6 8 3
20.3331485390663 -122.400157153606 2779.00004386902 9 11 6
27.8298780322075 -122.003220021725 2769.99998092651 9 11 6
35.3667885065079 -121.914424002171 2767.99988746643 6 8 3
42.5359718501568 -120.812453329563 2743.00003051758 16 19 12
49.8237907886505 -120.326951146126 2732.00011253357 22 25 18
57.2610162198544 -120.281703770161 2730.99994659424 23 26 19
63.934251666069 -118.82695555687 2697.99995422363 21 24 17
71.2198540568352 -118.693321943283 2694.9999332428 20 23 16
79.9465999007225 -120.76161056757 2742.00010299683 14 17 10
87.941125035286 -121.464394032955 2757.99989700317 13 16 9
95.884196460247 -121.990859508514 2769.99998092651 11 14 7
108.839876949787 -119.608230888844 2716.00008010864 8 11 4
117.364533245564 -120.750710368156 2742.00010299683 9 12 5
126.850172877312 -122.685641050339 2786.00001335144 10 12 7
137.63715326786 -125.589117407799 2851.99999809265 12 14 9
149.385407567024 -122.45637178421 2780.99989891052 13 15 10
-117.555238306522 -131.460696458817 2811.00010871887 18 20 15
-109.258741140366 -130.715072154999 2795.00007629395 24 26 21
-102.139972150326 -131.372287869453 2809.00001525879 25 27 22
-95.7851782441139 -133.198589086533 2848.00004959106 17 20 13
-87.0229974389076 -131.704106926918 2815.99998474121 22 25 18
-77.8435096144676 -129.227221012115 2763.00001144409 21 24 17
-70.708654820919 -129.97730076313 2779.00004386902 19 22 15
-64.5082965493202 -132.831960916519 2839.99991416931 18 21 12
-57.0153892040253 -133.441433310509 2852.9999256134 16 19 10
-49.0199252963066 -132.881417870522 2841.00008010864 13 16 9
-41.4673984050751 -133.53730738163 2855.00001907349 12 14 9
-33.8854417204857 -134.380117058754 2872.99990653992 12 14 9
-25.7881060242653 -133.071169257164 2845.00002861023 12 14 9
-18.0145725607872 -133.024916052818 2844.00010108948 11 13 8
-10.1995691657066 -132.370412349701 2829.99992370605 11 13 8
-2.47145653702319 -132.276996970177 2828.00006866455 6 8 3
5.35155134275556 -134.849533438683 2882.99989700317 6 8 3
20.303413271904 -129.797354340553 2775.00009536743 9 11 6
27.8794690966606 -129.796773195267 2775.00009536743 9 11 6
35.468190908432 -129.842787981033 2776.00002288818 7 9 4
42.9071560502052 -129.420921206474 2766.99995994568 12 15 8
50.0961989164352 -128.484353423119 2746.99997901917 19 22 15
57.1339093148708 -127.454102039337 2724.99990463257 19 22 15
64.2645359039307 -126.844644546509 2711.99989318848 14 17 10
72.0110088586807 -127.451062202454 2724.99990463257 14 17 10
80.3821012377739 -128.945916891098 2756.99996948242 12 15 8
88.7681320309639 -130.206733942032 2783.99991989136 12 15 8
95.8473980426788 -129.503041505814 2769.00005340576 11 14 7
101.798743009567 -127.489671111107 2726.0000705719 10 13 6
110.600598156452 -129.077285528183 2759.99999046326 10 13 6
118.175089359283 -129.121363162994 2760.99991798401 10 13 6
127.029418945313 -130.474716424942 2789.99996185303 11 14 7
134.545490145683 -130.378141999245 2788.00010681152 14 16 11
-109.451547265053 -138.588964939117 2799.99995231628 13 15 10
-101.737543940544 -138.492584228516 2798.00009727478 14 16 11
-94.5048704743385 -139.088973402977 2809.99994277954 24 26 21
-86.6500735282898 -138.794228434563 2803.99990081787 22 25 18
-78.5459503531456 -138.004317879677 2788.00010681152 20 23 16
-71.4956820011139 -139.095157384872 2809.99994277954 16 19 12
-63.9616101980209 -139.393851161003 2815.99998474121 14 17 10
-56.2945939600468 -139.44485783577 2816.99991226196 14 17 10
-48.3285672962666 -138.654127717018 2801.00011825562 13 16 9
-40.1446931064129 -136.823654174805 2763.99993896484 13 15 10
-25.7693491876125 -140.735998749733 2842.99993515015 10 12 7
-18.0268008261919 -140.885055065155 2845.99995613098 10 12 7
-10.2065298706293 -140.192359685898 2832.00001716614 11 13 8
-2.47139646671712 -139.994502067566 2828.00006866455 6 8 3
5.30130369588733 -141.380548477173 2855.99994659424 6 8 3
12.9287596791983 -139.548733830452 2819.00000572205 7 9 4
20.3687660396099 -137.815698981285 2783.99991989136 10 12 7
28.1801875680685 -138.854667544365 2805.0000667572 11 13 8
36.0805951058865 -139.794394373894 2823.99988174438 8 10 5
42.7820682525635 -136.575788259506 2759.0000629425 9 12 5
50.1314550638199 -136.079594492912 2749.00007247925 17 20 13
57.7195808291435 -136.27627491951 2753.00002098084 16 19 12
64.642108976841 -135.037213563919 2727.9999256134 9 12 5
73.1984078884125 -137.114524841309 2769.99998092651 11 14 7
81.2839716672897 -138.00360262394 2788.00010681152 11 14 7
88.5427966713905 -137.456983327866 2776.99995040894 11 14 7
95.4643189907074 -136.514246463776 2757.99989700317 11 14 7
101.833634078503 -134.977400302887 2726.99999809265 11 14 7
112.040512263775 -138.389989733696 2796.0000038147 11 14 7
119.156651198864 -137.793183326721 2783.99991989136 12 15 8
125.660508871078 -136.602312326431 2759.99999046326 9 14 7
134.59050655365 -138.034403324127 2789.00003433228 14 19 12
142.505556344986 -138.327956199646 2795.00007629395 9 14 7
149.271056056023 -137.532517313957 2779.00004386902 8 13 7
-109.800577163696 -146.698489785194 2809.00001525879 13 15 10
-101.734958589077 -146.12677693367 2798.00009727478 15 17 12
-94.1997766494751 -146.285995841026 2801.00011825562 23 25 20
-86.6787731647491 -146.497279405594 2805.0000667572 18 21 14
-79.614482820034 -147.596225142479 2825.99997520447 17 20 13
-71.697399020195 -147.180393338203 2818.00007820129 15 18 11
-63.8918280601501 -146.921008825302 2812.99996376038 14 17 10
-56.3531033694744 -147.28818833828 2819.9999332428 14 17 10
-48.3963489532471 -146.506130695343 2805.0000667572 15 18 11
-39.6643877029419 -142.642214894295 2730.99994659424 13 15 10
-32.4566960334778 -143.740013241768 2752.00009346008 11 13 8
-25.4786461591721 -146.822422742844 2811.00010871887 10 12 7
-18.0580113083124 -148.912265896797 2851.0000705719 10 12 7
-10.1810405030847 -147.554606199265 2825.00004768372 11 13 8
-2.47133313678205 -147.711455821991 2828.00006866455 6 8 3
12.9513563588262 -147.502243518829 2823.99988174438 7 9 4
20.5730982124805 -146.875023841858 2812.00003623962 11 13 8
28.631541877985 -148.859187960625 2849.99990463257 12 14 9
36.5779399871826 -149.537310004234 2862.99991607666 10 12 7
43.1065931916237 -145.201131701469 2779.99997138977 9 12 5
49.874871969223 -142.849534749985 2734.99989509583 13 16 9
57.3407150804996 -142.848119139671 2734.99989509583 16 19 12
65.2091503143311 -143.73442530632 2752.00009346008 18 21 14
72.5094899535179 -143.314778804779 2743.99995803833 17 20 13
80.7862728834152 -144.722938537598 2770.99990844727 16 19 12
88.7318402528763 -145.347446203232 2782.99999237061 16 19 12
95.6349670886993 -144.300520420074 2763.00001144409 17 20 13
102.57788002491 -143.462315201759 2746.99997901917 16 19 12
110.034137964249 -143.407329916954 2746.00005149841 15 18 11
118.083663284779 -144.083276391029 2759.0000629425 14 17 10
126.658946275711 -145.281195640564 2782.00006484985 14 20 10
132.994651794434 -143.920078873634 2756.00004196167 16 22 12
141.380295157433 -144.804254174232 2773.00000190735 17 23 13
154.262557625771 -149.970099329948 2871.99997901917 19 24 17
161.024361848831 -148.973912000656 2852.9999256134 10 15 9
-109.367661178112 -153.757467865944 2798.00009727478 10 12 7
-102.059461176395 -154.254928231239 2806.99992179871 16 18 13
-94.2981466650963 -154.092758893967 2803.99990081787 4 6 1
-86.429238319397 -153.710559010506 2796.99993133545 13 16 9
-79.1052654385567 -154.31734919548 2808.00008773804 13 16 9
-71.3392794132233 -154.099568724632 2803.99990081787 12 15 8
-63.844695687294 -154.486164450645 2811.00010871887 13 16 9
-56.5114505589008 -155.42209148407 2828.00006866455 13 16 9
-48.6883521080017 -155.093804001808 2822.00002670288 14 17 10
-40.5637659132481 -153.501227498055 2792.99998283386 13 15 10
-32.7860414981842 -152.787744998932 2779.99997138977 12 14 9
-25.4688952118158 -154.437348246574 2809.99994277954 11 13 8
-17.9625153541565 -155.866906046867 2835.99996566772 10 12 7
-10.1987840607762 -155.537530779839 2829.99992370605 11 13 8
-2.46602343395352 -155.098035931587 2822.00002670288 7 9 4
5.237917881459 -155.097991228104 2822.00002670288 7 9 4
12.9785249009728 -155.537411570549 2829.99992370605 7 9 4
20.7627601921558 -155.976638197899 2838.00005912781 11 13 8
28.7915039807558 -157.514840364456 2865.9999370575 11 13 8
35.8104072511196 -154.051467776299 2802.99997329712 9 11 6
42.872853577137 -151.961952447891 2765.00010490417 9 12 5
49.5635345578194 -149.377599358559 2717.99993515015 10 13 6
56.5005764365196 -148.112073540688 2694.9999332428 19 22 15
64.8045837879181 -150.308713316917 2734.99989509583 20 23 16
72.5868195295334 -150.966331362724 2746.99997901917 18 21 14
88.123694062233 -151.896178722382 2763.99993896484 20 23 16
96.1515828967094 -152.663007378578 2778.00011634827 20 23 16
101.977698504925 -150.07746219635 2730.99994659424 19 22 15
110.471963882446 -151.503324508667 2756.99996948242 18 21 14
119.749642908573 -153.753206133842 2798.00009727478 16 19 10
126.018196344376 -152.101337909698 2767.99988746643 18 24 14
133.135885000229 -151.603266596794 2759.0000629425 18 24 14
139.796078205109 -150.665447115898 2742.00010299683 20 26 16
153.50653231144 -157.035276293755 2858.00004005432 20 25 18
-111.318945884705 -164.274334907532 2848.00004959106 8 10 5
-102.965548634529 -163.354501128197 2832.00001716614 8 10 5
-94.6317836642265 -162.31906414032 2813.99989128113 9 11 6
-86.2723141908646 -161.052644252777 2792.00005531311 6 8 3
-78.6241292953491 -160.997331142426 2790.99988937378 7 9 4
-71.108303964138 -161.230221390724 2795.00007629395 9 12 5
-63.9791637659073 -162.501245737076 2816.99991226196 9 12 5
-55.8504424989223 -161.233901977539 2795.00007629395 8 11 4
-49.4115874171257 -165.21580517292 2864.00008201599 7 10 3
-41.5356606245041 -164.986357092857 2859.99989509583 12 14 9
-33.610638231039 -164.410561323166 2849.99990463257 12 14 9
-25.6131906062365 -163.026914000511 2825.99997520447 12 14 9
-17.7466664463282 -161.643013358116 2802.00004577637 11 13 8
-10.0867813453078 -161.470353603363 2799.00002479553 10 12 7
-2.46420619077981 -162.681996822357 2819.9999332428 7 9 4
5.23776933550835 -162.797331809998 2822.00002670288 7 9 4
12.9689872264862 -163.143217563629 2828.00006866455 7 9 4
20.6524357199669 -162.85428404808 2822.99995422363 10 12 7
28.3788200467825 -162.968933582306 2825.00004768372 10 12 7
35.6177687644959 -160.833567380905 2788.00010681152 7 9 4
42.7165925502777 -158.928751945496 2755.00011444092 10 13 6
64.4947364926338 -157.020419836044 2721.99988365173 13 16 9
72.6904720067978 -158.691331744194 2750.99992752075 17 20 13
79.7614902257919 -157.823860645294 2736.00006103516 20 23 16
87.0372503995895 -157.475367188454 2730.00001907349 21 24 17
94.4183394312859 -157.357394695282 2727.9999256134 22 25 18
101.564094424248 -156.893119215965 2720.00002861023 22 25 18
110.589079558849 -159.197315573692 2759.99999046326 21 24 17
119.703494012356 -161.32815182209 2796.99993133545 18 21 14
127.83570587635 -161.95909678936 2808.00008773804 12 18 8
131.250277161598 -156.879797577858 2720.00002861023 19 25 13
140.047088265419 -158.433169126511 2746.99997901917 17 23 13
148.990660905838 -159.986287355423 2773.9999294281 12 17 10
-112.449161708355 -173.794746398926 2877.00009346008 12 15 8
-102.780744433403 -170.777529478073 2826.99990272522 15 18 11
-94.2927226424217 -169.39103603363 2803.99990081787 5 8 1
-79.1852176189423 -169.819161295891 2811.00010871887 9 12 5
-71.0807666182518 -168.794393539429 2793.99991035461 8 11 4
-64.0226975083351 -170.306757092476 2819.00000572205 8 11 4
-57.0676736533642 -172.543913125992 2855.99994659424 9 12 5
-42.3186495900154 -176.051005721092 2914.00003433228 10 12 7
-33.7983295321465 -173.152193427086 2865.9999370575 11 13 8
-26.0655879974365 -173.757269978523 2875.99992752075 12 14 9
-17.822140827775 -170.012086629868 2813.99989128113 12 14 9
-10.0936908274889 -169.227123260498 2801.00011825562 12 14 9
-2.44753086008132 -169.227287173271 2801.00011825562 11 13 8
5.3044306114316 -172.671005129814 2858.00004005432 5 7 2
12.8952311351895 -169.891566038132 2812.00003623962 10 12 7
20.3811507672071 -168.32023859024 2786.00001335144 9 11 6
27.8556253761053 -167.534083127975 2773.00000190735 13 15 10
35.3867635130882 -167.351886630058 2769.99998092651 10 12 7
43.4440486133099 -169.284000992775 2802.00004577637 12 15 8
49.6518425643444 -164.509788155556 2723.00004959106 11 14 7
57.3149025440216 -165.172725915909 2733.99996757507 10 13 6
65.8433437347412 -167.889505624771 2779.00004386902 10 13 6
72.5562199950218 -165.89380800724 2746.00005149841 11 14 7
79.8757448792458 -165.529012680054 2740.00000953674 17 20 13
88.0548730492592 -166.855558753014 2762.00008392334 19 22 15
94.3809598684311 -164.738431572914 2726.99999809265 21 24 17
101.971834897995 -164.977118372917 2730.99994659424 19 22 15
110.545769333839 -166.665390133858 2759.0000629425 18 21 14
118.758492171764 -167.628467082977 2775.00009536743 21 24 17
127.058058977127 -168.591290712357 2790.99988937378 8 14 4
133.707314729691 -167.379304766655 2770.99990844727 19 25 15
-127.877786755562 -181.255429983139 2871.00005149841 0 2 0
-119.292117655277 -180.122867226601 2852.9999256134 14 17 10
-112.328477203846 -181.452348828316 2874.00007247925 13 16 9
-102.341316640377 -177.730619907379 2815.00005722046 12 15 8
-93.8190594315529 -176.155269145966 2789.99996185303 17 20 13
-86.4525064826012 -176.663190126419 2798.00009727478 15 18 11
-78.8447558879852 -176.728934049606 2799.00002479553 15 18 11
-71.1040198802948 -176.478713750839 2795.00007629395 14 17 10
-63.7709125876427 -177.301675081253 2808.00008773804 13 16 9
-56.326612830162 -177.998125553131 2819.00000572205 12 15 8
-49.0118116140366 -179.388925433159 2841.00008010864 10 13 6
-41.5331497788429 -180.590063333511 2859.99989509583 11 13 8
-33.8680408895016 -181.348979473114 2871.99997901917 9 11 6
-25.9107146412134 -180.529028177261 2858.99996757507 9 11 6
-17.9102569818497 -178.572282195091 2828.00006866455 9 11 6
-10.1258102804422 -177.436113357544 2809.99994277954 10 12 7
-2.4596881121397 -177.752032876015 2815.00005722046 9 11 6
12.8077045083046 -176.36251449585 2792.99998283386 13 15 10
20.4463582485914 -176.488295197487 2795.00007629395 9 11 6
28.1360261142254 -176.866382360458 2801.00011825562 8 10 5
42.8380444645882 -174.46468770504 2763.00001144409 11 14 7
50.7078617811203 -175.59976875782 2780.99989891052 11 14 7
58.8015131652355 -177.113488316536 2805.0000667572 11 14 7
65.9360885620117 -175.722405314445 2782.99999237061 9 12 5
72.8181973099709 -174.015417695045 2756.00004196167 9 12 5
79.7275453805923 -172.687098383904 2734.99989509583 10 13 6
87.988406419754 -174.262911081314 2759.99999046326 11 14 7
94.8972031474113 -173.123583197594 2742.00010299683 18 21 14
101.81936621666 -172.17344045639 2726.99999809265 21 24 17
110.902972519398 -174.758672714233 2767.99988746643 21 24 17
118.027359247208 -174.123764038086 2757.99989700317 19 22 15
125.324323773384 -173.804327845573 2753.00002098084 17 23 13
133.510246872902 -174.684152007103 2766.99995994568 13 18 11
143.403351306915 -177.58384346962 2812.99996376038 17 22 15
149.142920970917 -175.306662917137 2776.99995040894 1 6 0
-125.824883580208 -186.055466532707 2825.00004768372 3 5 0
-118.786565959454 -187.113180756569 2841.00008010864 13 16 9
-109.745405614376 -184.943452477455 2808.00008773804 11 14 7
-100.956581532955 -182.905077934265 2776.99995040894 14 17 10
-93.8833206892014 -183.896258473396 2792.00005531311 20 23 16
-86.7278128862381 -184.887170791626 2806.99992179871 15 18 11
-78.7858888506889 -184.231221675873 2796.99993133545 15 18 11
-71.330688893795 -184.694737195969 2803.99990081787 15 18 11
-64.4728690385818 -187.002375721931 2838.99998664856 15 18 11
-56.1250038444996 -185.028269886971 2809.00001525879 12 15 8
-48.4236963093281 -184.898212552071 2806.99992179871 11 14 7
-40.7766923308373 -184.965580701828 2808.00008773804 11 13 8
-33.7726175785065 -188.655570149422 2864.00008201599 9 11 6
-25.5383159965277 -185.626462101936 2818.00007820129 8 10 5
-17.5993647426367 -183.058187365532 2779.00004386902 8 10 5
-10.1759303361177 -186.022847890854 2823.99988174438 10 12 7
-2.47621024027467 -186.681807041168 2834.00011062622 8 10 5
12.8898313269019 -185.166388750076 2811.00010871887 15 17 12
20.0287364423275 -180.357173085213 2737.99991607666 10 12 7
28.0346721410751 -183.847591280937 2790.99988937378 9 11 6
35.5889201164246 -183.517187833786 2786.00001335144 11 13 8
43.2397611439228 -183.713510632515 2789.00003433228 12 15 8
50.9250313043594 -183.975473046303 2792.99998283386 13 16 9
58.4432743489742 -183.644324541092 2788.00010681152 13 16 9
65.7444447278976 -182.785987854004 2775.00009536743 11 14 7
73.1329098343849 -182.322636246681 2767.99988746643 10 13 6
80.9201374650002 -182.847067713737 2776.00002288818 8 11 4
88.6869356036186 -183.239504694939 2782.00006484985 8 11 4
94.7557389736176 -180.33841252327 2737.99991607666 14 17 10
102.114796638489 -180.13758957386 2734.99989509583 19 22 15
109.897829592228 -180.661082267761 2743.00003051758 21 24 17
119.906514883041 -184.54322218895 2802.00004577637 19 22 15
132.637530565262 -181.044459342957 2749.00007247925 15 20 13
-126.711487770081 -195.130556821823 2845.00002861023 8 10 5
-118.364550173283 -194.174498319626 2831.00008964539 13 16 9
-110.60156673193 -194.109752774239 2829.99992370605 18 21 14
-102.334663271904 -193.084508180618 2815.00005722046 7 10 3
-94.5863127708435 -192.950651049614 2812.99996376038 15 18 11
-87.8062918782234 -194.942951202393 2842.00000762939 11 14 7
-80.1352858543396 -195.151567459106 2845.00002861023 12 15 8
-71.9133764505386 -193.91942024231 2826.99990272522 13 16 9
-63.7213215231895 -192.481219768524 2805.99999427795 14 17 10
-56.6026382148266 -194.335371255875 2832.99994468689 14 17 10
-48.249576240778 -191.867664456367 2796.99993133545 14 17 10
-40.964100509882 -193.515539169312 2821.00009918213 13 15 10
-33.2526490092278 -193.448185920715 2819.9999332428 11 13 8
-25.664335116744 -194.272413849831 2832.00001716614 10 12 7
-17.9027486592531 -193.930149078369 2826.99990272522 10 12 7
-10.2584641426802 -195.302590727806 2846.99988365173 10 12 7
-2.49185413122177 -195.645838975906 2851.99999809265 10 12 7
5.26865804567933 -194.753974676132 2838.99998664856 6 8 3
12.6830590888858 -189.745903015137 2766.00003242493 15 17 12
20.2475115656853 -189.882546663284 2767.99988746643 12 14 9
35.2811627089977 -189.469084143639 2762.00008392334 13 15 10
43.0677831172943 -190.565317869186 2778.00011634827 11 14 7
50.7410019636154 -190.906688570976 2782.99999237061 12 15 8
58.043047785759 -189.944490790367 2769.00005340576 12 15 8
66.0028532147408 -191.108509898186 2786.00001335144 12 15 8
73.6853033304214 -191.311940550804 2789.00003433228 11 14 7
81.44211769104 -191.652253270149 2793.99991035461 12 15 8
88.8752490282059 -191.237837076187 2788.00010681152 10 13 6
95.8253964781761 -189.931422472 2769.00005340576 10 13 6
102.708779275417 -188.693419098854 2750.99992752075 15 18 11
110.094502568245 -188.484042882919 2747.99990653992 20 23 16
128.229469060898 -193.208605051041 2816.99991226196 21 26 19
142.06874370575 -191.141977906227 2786.99994087219 24 29 22
-127.197042107582 -203.67220044136 2855.99994659424 10 12 7
-119.656540453434 -204.104423522949 2861.99998855591 14 17 10
-111.223042011261 -202.967405319214 2845.99995613098 18 21 14
-103.058166801929 -202.186658978462 2835.00003814697 10 13 6
-95.3227654099464 -202.190145850182 2835.00003814697 14 17 10
-88.4829461574554 -204.261675477028 2864.00008201599 12 15 8
-80.9774994850159 -205.0491720438 2875 12 15 8
-71.2749660015106 -199.845358729362 2802.00004577637 12 15 8
-63.514731824398 -199.491113424301 2796.99993133545 13 16 9
-56.3809052109718 -201.276302337646 2822.00002670288 14 17 10
-49.4036488234997 -204.273819923401 2864.00008201599 15 18 11
-41.2530936300755 -202.634960412979 2841.00008010864 13 15 10
-33.4401577711105 -202.279627323151 2835.99996566772 13 15 10
-26.0893516242504 -205.347687005997 2878.99994850159 12 14 9
-18.2377528399229 -205.419823527336 2880.00011444092 11 13 8
-10.3445844724774 -204.778388142586 2871.00005149841 11 13 8
-2.49176751822233 -203.423395752907 2851.99999809265 10 12 7
5.30558964237571 -203.922629356384 2858.99996757507 5 7 2
20.2980153262615 -197.930306196213 2775.00009536743 11 13 8
27.9021915048361 -198.143437504768 2778.00011634827 15 17 12
35.4459919035435 -197.928339242935 2775.00009536743 13 15 10
42.6477119326591 -196.215122938156 2750.99992752075 12 15 8
50.1922890543938 -196.356132626534 2753.00002098084 11 14 7
58.8794760406017 -200.348377227783 2809.00001525879 11 14 7
66.2374645471573 -199.418962001801 2796.0000038147 12 15 8
73.365718126297 -198.061361908913 2776.99995040894 13 16 9
81.0603797435761 -198.343932628632 2780.99989891052 13 16 9
89.0634283423424 -199.268102645874 2793.99991035461 13 16 9
96.894845366478 -199.692755937576 2799.99995231628 12 15 8
103.862598538399 -198.405519127846 2782.00006484985 10 13 6
111.172392964363 -197.902530431747 2775.00009536743 12 15 8
118.999816477299 -198.326379060745 2780.99989891052 16 19 12
129.830330610275 -191.899493336678 2690.99998474121 14 19 12
137.578189373016 -192.465335130692 2698.99988174438 20 25 19
-139.000475406647 -217.74710714817 2940.99998474121 7 9 6
-117.770954966545 -208.575427532196 2816.99991226196 11 14 7
-110.320247709751 -209.023803472519 2822.99995422363 12 15 8
-102.909103035927 -209.62005853653 2831.00008964539 16 19 12
-95.4202339053154 -210.141956806183 2838.00005912781 14 17 10
-88.943175971508 -213.181227445602 2878.99994850159 14 17 10
-80.7211026549339 -212.221682071686 2865.9999370575 13 16 9
-70.992611348629 -206.670820713043 2790.99988937378 11 14 7
-63.2853880524635 -206.377074122429 2786.99994087219 10 13 6
-56.5187372267246 -209.489375352859 2828.9999961853 11 14 7
-49.1258837282658 -210.898265242577 2848.00004959106 13 16 9
-41.3387268781662 -210.825875401497 2846.99988365173 17 19 14
-33.380001783371 -209.642440080643 2831.00008964539 15 17 12
-25.7440730929375 -210.384041070938 2841.00008010864 14 16 11
-18.0724542587996 -211.347535252571 2854.00009155273 11 13 8
-10.3153865784407 -212.014496326447 2862.99991607666 11 13 8
-2.49342527240515 -211.348280310631 2854.00009155273 10 12 7
5.26271807029843 -210.015267133713 2835.99996566772 3 5 0
13.3148934692144 -215.050533413887 2904.00004386902 5 7 2
21.2774034589529 -215.420186519623 2908.99991989136 10 12 7
28.192451223731 -207.865878939629 2806.99992179871 12 14 9
35.5724431574345 -206.23554289341 2785.00008583069 12 14 9
42.8322106599808 -204.604998230934 2763.00001144409 13 16 9
50.5915768444538 -205.491900444031 2775.00009536743 12 15 8
58.3533458411694 -206.156343221664 2783.99991989136 12 15 8
65.3112083673477 -204.154744744301 2756.99996948242 14 17 10
72.6497992873192 -203.633859753609 2750 15 18 11
81.1740607023239 -206.222742795944 2785.00008583069 13 16 9
89.3789976835251 -207.626521587372 2803.99990081787 14 17 10
96.7183634638786 -206.956744194031 2795.00007629395 13 16 9
104.680195450783 -207.619488239288 2803.99990081787 11 14 7
111.7292791605 -206.504911184311 2789.00003433228 10 13 6
119.509056210518 -206.796884536743 2792.99998283386 13 16 9
123.94193559885 -201.609656214714 2723.00004959106 8 13 6
-131.197243928909 -213.098078966141 2776.00002288818 8 10 7
-127.944901585579 -220.549151301384 2872.99990653992 16 18 13
-118.728153407574 -218.020468950272 2839.99991416931 11 14 7
-111.9574457407 -219.944030046463 2865.00000953674 12 15 8
-104.504659771919 -220.715761184692 2875 16 19 12
-96.8623980879784 -221.180185675621 2881.00004196167 15 18 11
-88.9089927077293 -220.953375101089 2878.00002098084 15 18 11
-80.6899517774582 -219.958513975143 2865.00000953674 14 17 10
-71.3969394564629 -215.508416295052 2806.99992179871 12 15 8
-63.7825801968575 -215.664550662041 2809.00001525879 11 14 7
-56.416742503643 -216.81846678257 2823.99988174438 12 15 8
-48.8480813801289 -217.434674501419 2832.00001716614 12 15 8
-40.9887172281742 -216.745346784592 2822.99995422363 15 17 12
-33.5791930556297 -218.666240572929 2848.00004959106 14 16 11
-25.3715980798006 -214.981943368912 2799.99995231628 14 16 11
-17.9641339927912 -217.823624610901 2836.99989318848 12 14 9
-10.2105205878615 -217.593833804131 2834.00011062622 11 13 8
-2.47498601675034 -217.517271637917 2832.99994468689 9 11 6
5.30148996040225 -219.359949231148 2857.00011253357 6 8 3
13.1493424996734 -220.204159617424 2868.00003051758 6 8 3
20.4940065741539 -215.136080980301 2802.00004577637 11 13 8
28.0307084321976 -214.290574193001 2790.99988937378 13 15 10
35.6222093105316 -214.135825634003 2789.00003433228 14 16 11
43.1251414120197 -213.596880435944 2782.00006484985 14 17 10
50.7537610828877 -213.748648762703 2783.99991989136 14 17 10
58.8961280882359 -215.74279665947 2809.99994277954 15 18 11
65.5456632375717 -212.439060211182 2766.99995994568 15 18 11
73.3867883682251 -213.280975818634 2778.00011634827 15 18 11
81.1419114470482 -213.738694787025 2783.99991989136 15 18 11
89.4075781106949 -215.347737073898 2805.0000667572 16 19 12
96.8186035752296 -214.806824922562 2798.00009727478 16 19 12
103.631064295769 -213.114097714424 2776.00002288818 15 18 11
112.285979092121 -215.182796120644 2802.99997329712 14 17 10
120.060876011848 -215.408757328987 2805.99999427795 13 16 9
126.258656382561 -212.947636842728 2773.9999294281 6 11 4
-135.870948433876 -228.534042835236 2875 9 11 8
-128.74162197113 -229.811042547226 2891.00003242493 18 20 15
-121.315479278564 -230.690285563469 2901.99995040894 12 15 8
-112.656533718109 -229.18438911438 2882.99989700317 11 14 7
-105.445720255375 -230.619594454765 2901.00002288818 15 18 11
-97.3293706774712 -230.146512389183 2894.99998092651 16 19 12
-88.5966792702675 -228.003680706024 2868.00003051758 15 18 11
-80.3207382559776 -226.734966039658 2851.99999809265 15 18 11
-71.5976804494858 -223.796397447586 2815.00005722046 14 17 10
-64.4839927554131 -225.786581635475 2839.99991416931 13 16 9
-56.4944818615913 -224.834933876991 2828.00006866455 12 15 8
-48.4667457640171 -223.405912518501 2809.99994277954 11 14 7
-41.2775240838528 -226.031303405762 2842.99993515015 11 13 8
-32.9058691859245 -221.89849615097 2790.99988937378 13 15 10
-25.5427807569504 -224.125802516937 2819.00000572205 13 15 10
-17.7798196673393 -223.252087831497 2808.00008773804 12 14 9
-10.1704960688949 -224.445208907127 2822.99995422363 11 13 8
-2.47838487848639 -225.558519363403 2836.99989318848 10 12 7
5.24747418239713 -224.842935800552 2828.00006866455 7 9 4
12.8783406689763 -223.331958055496 2809.00001525879 9 11 6
20.2445480972528 -220.071598887444 2767.99988746643 11 13 8
27.8689451515675 -220.627203583717 2775.00009536743 12 14 9
35.4803502559662 -220.864474773407 2778.00011634827 14 16 11
43.0459752678871 -220.783412456512 2776.99995040894 14 17 10
50.4054501652718 -219.827577471733 2765.00010490417 14 17 10
58.6214028298855 -222.369536757469 2796.99993133545 15 18 11
66.253773868084 -222.367092967033 2796.99993133545 15 18 11
74.1764530539513 -223.238885402679 2808.00008773804 15 18 11
81.3719630241394 -221.963852643967 2792.00005531311 17 20 13
88.2248282432556 -220.052540302277 2767.99988746643 17 20 13
95.5000445246696 -219.412997364998 2759.99999046326 16 19 12
103.067152202129 -219.488620758057 2760.99991798401 16 19 12
110.479101538658 -219.246000051498 2757.99989700317 16 19 12
120.227448642254 -223.375231027603 2809.99994277954 16 19 12
137.389823794365 -226.385921239853 2848.00004959106 18 23 17
-137.850448489189 -239.822536706924 2917.00005531311 7 9 6
-129.716232419014 -239.499017596245 2913.00010681152 16 18 13
-119.889430701733 -235.804170370102 2868.00003051758 11 14 7
-110.815607011318 -233.177736401558 2835.99996566772 10 13 6
-104.205779731274 -235.730931162834 2867.00010299683 12 15 8
-96.21611982584 -235.323816537857 2861.99998855591 13 16 9
-87.9444777965546 -234.094128012657 2846.99988365173 15 18 11
-78.7123441696167 -229.821756482124 2795.00007629395 16 19 12
-71.925476193428 -232.538267970085 2828.00006866455 17 20 13
-64.2544031143188 -232.70545899868 2829.99992370605 16 19 12
-56.2725029885769 -231.638878583908 2816.99991226196 12 15 8
-48.7925186753273 -232.627794146538 2828.9999961853 11 14 7
-41.6098050773144 -235.672101378441 2865.9999370575 9 11 6
-33.7651968002319 -235.509157180786 2864.00008201599 11 13 8
-25.7682800292969 -233.8657528162 2844.00010108948 12 14 9
-17.8424287587404 -231.728628277779 2818.00007820129 12 14 9
-10.2349389344454 -233.620524406433 2841.00008010864 12 14 9
-2.48964270576835 -234.360843896866 2849.99990463257 11 13 8
5.2546882070601 -232.880637049675 2832.00001716614 8 10 5
12.9099208861589 -231.564536690712 2815.99998474121 8 10 5
20.3461311757565 -228.768020868301 2782.00006484985 10 12 7
27.7372822165489 -227.122396230698 2762.00008392334 12 14 9
35.7599072158337 -230.245903134346 2799.99995231628 14 16 11
43.1217700242996 -228.764161467552 2782.00006484985 16 19 12
50.111785531044 -226.048722863197 2749.00007247925 16 19 12
57.6131045818329 -226.046532392502 2749.00007247925 16 19 12
66.7248740792274 -231.635525822639 2816.99991226196 16 19 12
74.5961591601372 -232.208296656609 2823.99988174438 17 20 13
80.8150172233582 -228.011652827263 2773.00000190735 17 20 13
87.552048265934 -225.870415568352 2746.99997901917 16 19 12
94.3544656038284 -224.222302436829 2726.99999809265 14 17 10
102.391198277473 -225.533932447433 2743.00003051758 13 16 9
110.194377601147 -226.18742287159 2750.99992752075 16 19 12
119.238696992397 -229.142740368843 2786.99994087219 17 20 13
128.79753112793 -232.673138380051 2829.99992370605 13 18 12
135.165467858315 -230.365887284279 2802.00004577637 19 24 18
143.011048436165 -230.689167976379 2805.99999427795 8 13 7
-138.506457209587 -248.960688710213 2930.99999427795 5 7 4
-129.043057560921 -246.163114905357 2898.00000190735 15 17 12
-118.79774928093 -241.411402821541 2842.00000762939 12 15 8
-110.342226922512 -239.887073636055 2823.99988174438 10 13 6
-102.347940206528 -239.211916923523 2815.99998474121 11 14 7
-95.0692296028137 -240.235343575478 2828.00006866455 12 15 8
-87.7246707677841 -241.258516907692 2839.99991416931 14 17 10
-80.455094575882 -242.706179618835 2857.00011253357 14 17 10
-72.1259936690331 -240.925312042236 2835.99996566772 16 19 12
-64.0474408864975 -239.653885364532 2821.00009918213 16 19 12
-56.549858301878 -240.505903959274 2831.00008964539 14 17 10
-48.4283491969109 -238.554120063782 2808.00008773804 13 16 9
-40.7079979777336 -238.216146826744 2803.99990081787 11 13 8
-33.4690921008587 -241.191148757935 2838.99998664856 11 13 8
-25.7762856781483 -241.702124476433 2845.00002861023 11 13 8
-18.069626763463 -242.467641830444 2854.00009155273 12 14 9
-10.2957608178258 -242.808073759079 2858.00004005432 12 14 9
-2.49041430652142 -242.213636636734 2851.0000705719 12 14 9
5.26931555941701 -241.279020905495 2839.99991416931 8 10 5
13.0239985883236 -241.363599896431 2841.00008010864 6 8 3
20.6158868968487 -239.493861794472 2819.00000572205 10 12 7
28.0374083667994 -237.199008464813 2792.00005531311 12 14 9
35.7456766068935 -237.792387604713 2799.00002479553 14 16 11
43.2905033230782 -237.281024456024 2792.99998283386 16 19 12
50.5107529461384 -235.410019755363 2770.99990844727 16 19 12
57.4430897831917 -232.859149575233 2740.9999370575 16 19 12
65.7747387886047 -235.914945602417 2776.99995040894 16 19 12
74.5138749480248 -239.649951457977 2821.00009918213 17 20 13
81.3654214143753 -237.183123826981 2792.00005531311 16 19 12
87.8353118896484 -234.121426939964 2756.00004196167 15 18 11
95.492385327816 -234.457418322563 2759.99999046326 13 16 9
102.42436081171 -233.094185590744 2743.99995803833 12 15 8
110.430225729942 -234.194099903107 2756.99996948242 14 17 10
118.249878287315 -234.784007072449 2763.99993896484 15 18 11
128.746822476387 -240.300223231316 2828.9999961853 14 19 13
137.089490890503 -241.398990154266 2842.00000762939 15 20 14
141.833126544952 -236.381888389587 2782.99999237061 9 14 8
-137.697398662567 -255.456537008286 2914.00003433228 11 13 10
-129.928216338158 -255.812883377075 2917.99998283386 15 17 12
-111.861392855644 -251.001298427582 2862.99991607666 13 16 9
-104.415237903595 -251.882582902908 2872.99990653992 12 15 8
-94.628244638443 -246.801808476448 2815.00005722046 12 15 8
-87.9989862442017 -249.786600470543 2848.99997711182 11 14 7
-80.5643498897552 -250.842273235321 2861.00006103516 12 15 8
-72.4790096282959 -249.881118535995 2849.99990463257 14 17 10
-63.9539361000061 -246.990635991096 2816.99991226196 16 19 12
-56.1479963362217 -246.467143297195 2811.00010871887 17 20 13
-48.719484359026 -247.696876525879 2825.00004768372 17 20 13
-40.48852622509 -244.542300701141 2789.00003433228 14 16 11
-33.632718026638 -250.155478715897 2852.9999256134 12 14 9
-25.8295591920614 -249.981418251991 2851.0000705719 10 12 7
-18.0308762937784 -249.719277024269 2848.00004959106 10 12 7
-10.280916467309 -250.245958566666 2854.00009155273 12 14 9
-2.48419493436813 -249.369442462921 2844.00010108948 12 14 9
5.25239622220397 -248.229503631592 2831.00008964539 9 11 6
13.0326170474291 -249.281272292137 2842.99993515015 6 8 3
20.6442680209875 -247.526913881302 2822.99995422363 9 11 6
28.5483486950397 -249.279499053955 2842.99993515015 10 12 7
35.8718708157539 -246.296957135201 2809.00001525879 14 16 11
43.3816723525524 -245.418459177017 2799.00002479553 13 16 9
50.654448568821 -243.66283416748 2779.00004386902 14 17 10
57.8807592391968 -242.169976234436 2762.00008392334 14 17 10
65.4167011380196 -242.167338728905 2762.00008392334 14 17 10
73.5334604978561 -244.093269109726 2783.99991989136 14 17 10
81.5659984946251 -245.40513753891 2799.00002479553 15 18 11
88.5327607393265 -243.560343980789 2778.00011634827 15 18 11
94.8656499385834 -240.400195121765 2742.00010299683 13 16 9
102.979958057404 -241.886422038078 2759.0000629425 12 15 8
111.466996371746 -243.98598074913 2782.99999237061 12 15 8
119.057781994343 -243.981078267097 2782.99999237061 11 14 7
126.466080546379 -243.625238537788 2779.00004386902 11 16 9
135.009691119194 -245.373040437698 2799.00002479553 9 14 8
-136.746466159821 -261.587649583817 2894.00005340576 9 11 8
-128.141671419144 -260.147154331207 2878.00002098084 17 19 14
-123.051010072231 -266.11852645874 2944.00000572205 14 17 10
-114.239864051342 -264.315813779831 2924.00002479553 12 15 8
-103.066094219685 -256.365656852722 2835.99996566772 11 14 7
-95.3972935676575 -256.550788879395 2838.00005912781 12 15 8
-88.4584859013557 -258.905202150345 2864.00008201599 11 14 7
-80.4482474923134 -258.276104927063 2857.00011253357 11 14 7
-72.3741501569748 -257.28502869606 2845.99995613098 12 15 8
-64.0873834490776 -255.208730697632 2822.99995422363 13 16 9
-56.7847155034542 -257.019460201263 2842.99993515015 15 18 11
-47.9241013526917 -251.235842704773 2779.00004386902 17 20 13
-41.0964675247669 -255.93888759613 2831.00008964539 12 15 8
-33.5251688957214 -257.115811109543 2844.00010108948 13 16 9
-25.846553966403 -257.930755615234 2852.9999256134 14 17 10
-18.0237628519535 -257.389277219772 2846.99988365173 12 15 8
-10.1724062114954 -255.310535430908 2823.99988174438 10 13 6
-2.48670717701316 -257.390171289444 2846.99988365173 12 14 9
5.28741674497724 -257.66134262085 2849.99990463257 8 10 5
13.0183007568121 -256.756871938705 2839.99991416931 6 8 3
28.2057095319033 -253.952443599701 2809.00001525879 8 10 5
35.5383008718491 -251.600474119186 2782.99999237061 12 14 9
43.2248078286648 -252.141207456589 2789.00003433228 14 17 10
50.6157986819744 -251.054257154465 2776.99995040894 15 18 11
57.8363388776779 -249.515026807785 2759.99999046326 15 18 11
65.105989575386 -248.517885804176 2749.00007247925 14 17 10
73.2133537530899 -250.594109296799 2772.0000743866 13 16 9
81.5333425998688 -252.941161394119 2798.00009727478 14 17 10
88.6882767081261 -251.581430435181 2782.99999237061 14 17 10
95.4496785998344 -249.407842755318 2759.0000629425 13 16 9
102.602295577526 -248.499572277069 2749.00007247925 13 16 9
111.54230684042 -251.749128103256 2785.00008583069 12 15 8
-138.063445687294 -272.07824587822 2921.99993133545 5 7 2
-131.252601742744 -274.505227804184 2947.99995422363 16 18 13
-123.756110668182 -275.721430778503 2960.99996566772 14 17 10
-112.906500697136 -269.115328788757 2890.00010490417 12 15 8
-102.443747222424 -262.508571147919 2819.00000572205 11 14 7
-95.6955701112747 -265.120416879654 2846.99988365173 11 14 7
-89.4119963049889 -269.594520330429 2894.99998092651 11 14 7
-80.3038850426674 -265.593945980072 2851.99999809265 11 14 7
-72.5998058915138 -265.876770019531 2855.00001907349 12 15 8
-64.5158514380455 -264.669209718704 2842.00000762939 13 16 9
-56.4825981855392 -263.368129730225 2828.00006866455 15 18 11
-48.5600121319294 -262.252956628799 2815.99998474121 16 19 12
-41.4720512926579 -266.073316335678 2857.00011253357 15 18 11
-33.7476395070553 -266.633778810501 2862.99991607666 14 17 10
-25.6823413074017 -264.027446508408 2835.00003814697 13 16 9
-17.7697408944368 -261.420756578445 2806.99992179871 12 15 8
-10.3088282048702 -266.543656587601 2861.99998855591 12 15 8
-2.50231777317822 -266.823321580887 2865.00000953674 11 13 8
5.33356005325913 -267.754584550858 2875 8 10 5
12.9673006013036 -263.470113277435 2828.9999961853 7 9 4
20.3792117536068 -259.557813405991 2786.99994087219 8 10 5
27.4915602058172 -254.993289709091 2737.99991607666 10 12 7
35.511177033186 -258.996486663818 2780.99989891052 12 14 9
42.6649674773216 -256.387084722519 2753.00002098084 15 18 11
50.4859685897827 -257.968187332153 2769.99998092651 15 18 11
57.6451756060123 -256.196290254593 2750.99992752075 15 18 11
65.31623005867 -256.845414638519 2757.99989700317 14 17 10
72.9724019765854 -257.307946681976 2763.00001144409 13 16 9
80.8595418930054 -258.422017097473 2775.00009536743 13 16 9
88.8755470514297 -259.72193479538 2789.00003433228 13 16 9
95.4454615712166 -256.924122571945 2759.0000629425 12 15 8
102.597758173943 -255.988478660583 2749.00007247925 12 15 8
109.054334461689 -253.56262922287 2723.00004959106 11 14 7
129.139810800552 -264.260441064835 2838.00005912781 10 13 4
-138.293460011482 -280.516088008881 2927.00004577637 6 8 3
-129.154205322266 -278.030425310135 2901.00002288818 17 19 14
-121.368281543255 -278.32368016243 2904.00004386902 14 17 10
-112.627901136875 -276.316314935684 2882.99989700317 13 16 9
-102.729812264442 -270.953983068466 2826.99990272522 11 14 7
-96.4306816458702 -274.984121322632 2868.99995803833 11 14 7
-89.4079357385635 -277.48042345047 2894.99998092651 11 14 7
-81.7924812436104 -278.442829847336 2904.99997138977 11 14 7
-73.3593255281448 -276.529401540756 2884.99999046326 11 14 7
-65.7387003302574 -277.586996555328 2895.99990844727 12 15 8
-56.7995719611645 -272.605508565903 2844.00010108948 13 16 9
-48.8336831331253 -271.457701921463 2832.00001716614 15 18 11
-41.0782471299171 -271.26806974411 2829.99992370605 16 19 12
-33.4749929606915 -272.228360176086 2839.99991416931 14 17 10
-25.7626939564943 -272.613137960434 2844.00010108948 13 16 9
-18.0854387581348 -273.860305547714 2857.00011253357 13 16 9
-10.2867456153035 -273.765116930008 2855.99994659424 13 16 9
-2.50395014882088 -274.819821119308 2867.00010299683 11 13 8
5.31476549804211 -274.628013372421 2865.00000953674 8 10 5
12.9162883386016 -270.12237906456 2818.00007820129 7 9 4
20.349033176899 -266.766667366028 2782.99999237061 9 11 6
28.3638089895248 -270.791411399841 2825.00004768372 9 11 6
34.8072797060013 -261.300325393677 2726.0000705719 12 14 9
42.8954735398293 -265.324413776398 2767.99988746643 16 19 12
50.119161605835 -263.596892356873 2750 15 18 11
57.6215945184231 -263.594388961792 2750 14 17 10
65.2422159910202 -264.070838689804 2755.00011444092 13 16 9
72.9690790176392 -264.834463596344 2763.00001144409 13 16 9
80.6810408830643 -265.406042337418 2769.00005340576 11 14 7
86.8958756327629 -261.3765001297 2726.99999809265 11 14 7
101.84670984745 -261.559545993805 2729.00009155273 10 13 6
110.010527074337 -263.279855251312 2746.99997901917 10 13 6
129.816517233849 -273.427993059158 2852.9999256134 12 15 6
137.355089187622 -272.942692041397 2848.00004959106 11 14 7
-136.680722236633 -285.136252641678 2892.99988746643 7 9 4
-128.925621509552 -285.438150167465 2895.99990844727 18 20 15
-119.732782244682 -282.388508319855 2865.00000953674 16 19 12
-111.489810049534 -281.309694051743 2854.00009155273 15 18 11
-103.124752640724 -279.737681150436 2838.00005912781 12 15 8
-98.2075035572052 -288.022249937058 2921.99993133545 11 14 7
-89.0640541911125 -284.280955791473 2884.0000629425 10 13 6
-80.3246349096298 -281.229197978973 2852.9999256134 10 13 6
-74.4238197803497 -288.527339696884 2927.00004577637 10 13 6
-65.3724446892738 -283.897638320923 2880.00011444092 11 14 7
-57.4359744787216 -283.506214618683 2875.99992752075 12 15 8
-48.9520989358425 -279.861390590668 2838.99998664856 13 16 9
-40.9166589379311 -277.891933917999 2819.00000572205 15 18 11
-33.1551916897297 -277.302265167236 2812.99996376038 15 18 11
-25.4353936761618 -276.810765266418 2808.00008773804 14 17 10
-17.7807528525591 -276.910364627838 2809.00001525879 13 16 9
-10.2466456592083 -280.45991063118 2845.00002861023 13 16 9
-2.4889858905226 -280.953079462051 2849.99990463257 11 13 8
5.27370627969503 -280.262976884842 2842.99993515015 7 9 4
12.824016623199 -275.826454162598 2798.00009727478 8 10 5
20.5235555768013 -276.712864637375 2806.99992179871 9 11 6
27.8303697705269 -273.261457681656 2772.0000743866 10 12 7
36.2484380602837 -279.864698648453 2838.99998664856 11 13 8
42.7540019154549 -271.976590156555 2759.0000629425 16 19 12
50.3355115652084 -272.270113229752 2762.00008392334 15 18 11
57.9960383474827 -272.858947515488 2767.99988746643 14 17 10
65.0733932852745 -270.884543657303 2747.99990653992 12 15 8
73.361799120903 -273.838549852371 2778.00011634827 12 15 8
80.1236853003502 -271.074831485748 2750 10 13 6
87.6884162425995 -271.268010139465 2752.00009346008 10 13 6
96.0593223571777 -273.72795343399 2776.99995040894 10 13 6
102.401733398438 -270.470499992371 2743.99995803833 10 13 6
109.604947268963 -269.775539636612 2736.99998855591 10 13 6
119.378700852394 -275.09269118309 2790.99988937378 10 13 6
130.17450273037 -281.986266374588 2861.00006103516 10 13 4
138.747319579124 -283.556938171387 2877.00009346008 11 14 7
145.929232239723 -282.269060611725 2864.00008201599 19 22 15
-128.83049249649 -293.121486902237 2894.00005340576 19 21 16
-120.186768472195 -291.304260492325 2875.99992752075 18 21 14
-111.836075782776 -289.993107318878 2862.99991607666 16 19 12
-102.611124515533 -286.047905683517 2823.99988174438 13 16 9
-96.3879823684692 -290.509611368179 2868.00003051758 12 15 8
-87.6701697707176 -287.576496601105 2838.99998664856 10 13 6
-80.9964761137962 -291.429877281189 2877.00009346008 10 13 6
