ply
format ascii 1.0
comment KinectMotionCapture
element vertex 760
property float x
property float y
property float z
property uchar red
property uchar green
property uchar blue
end_header
-16.6494250297546 429.620891809464 2634.0000629425 155 156 151
-9.4840656965971 430.111140012741 2637.00008392334 153 154 149
-2.29883543215692 429.948419332504 2635.99991798401 150 151 146
4.8828050494194 429.948300123215 2635.99991798401 149 150 145
12.0369680225849 428.969144821167 2630.00011444092 148 149 144
19.1656965762377 428.152441978455 2625 150 151 146
26.2771397829056 427.498489618301 2621.00005149841 152 153 148
33.3794467151165 427.007079124451 2618.00003051758 155 156 151
40.5117124319077 427.004486322403 2618.00003051758 156 157 152
47.6074330508709 426.675170660019 2615.9999370575 158 159 154
54.7339394688606 426.67156457901 2615.9999370575 158 159 154
61.8839077651501 426.830619573593 2617.00010299683 158 159 154
69.012738764286 426.826059818268 2617.00010299683 159 160 155
76.141320168972 426.820993423462 2617.00010299683 162 163 158
83.3014398813248 426.978498697281 2618.00003051758 162 163 158
90.6049087643623 427.787870168686 2622.99990653992 163 164 159
97.8235006332397 428.107500076294 2625 164 165 160
105.13262450695 428.752809762955 2628.99994850159 163 164 159
112.377740442753 429.071456193924 2631.00004196167 160 161 156
119.860544800758 430.204927921295 2638.00001144409 160 163 156
127.284750342369 431.011825799942 2642.99988746643 158 161 154
134.735748171806 431.818127632141 2648.00000190735 158 161 154
142.213523387909 432.624012231827 2653.00011634827 157 159 154
149.718016386032 433.429270982742 2657.99999237061 157 159 154
157.308295369148 434.397161006927 2664.00003433228 158 160 155
164.807170629501 435.038387775421 2667.99998283386 158 160 155
172.456219792366 436.005175113678 2674.00002479553 160 162 159
180.339053273201 437.460631132126 2683.00008773804 161 163 160
188.410118222237 439.241647720337 2694.00000572205 145 147 144
196.322456002235 440.532922744751 2701.99990272522 146 148 145
205.634489655495 444.758296012878 2727.9999256134 151 153 152
248.048141598701 440.917938947678 2704.99992370605 183 183 181
254.081517457962 438.619405031204 2690.99998474121 143 144 139
260.037988424301 436.320602893829 2677.00004577637 150 151 146
266.416758298874 434.836536645889 2667.99998283386 148 149 144
273.053526878357 433.841019868851 2661.99994087219 150 151 146
279.867380857468 433.171182870865 2657.99999237061 156 156 154
286.982715129852 432.989895343781 2657.00006484985 155 155 153
294.091671705246 432.808190584183 2655.99989891052 157 159 156
301.534712314606 433.115035295486 2657.99999237061 155 157 154
309.103816747665 433.584362268448 2661.00001335144 176 178 175
317.520469427109 435.193777084351 2671.0000038147 178 180 177
328.787177801132 440.550059080124 2703.9999961853 172 174 171
-263.706922531128 452.324479818344 2822.00002670288 207 209 206
-255.669862031937 451.700299978256 2818.00007820129 203 205 202
-247.653767466545 451.07564330101 2813.99989128113 183 185 182
-239.914506673813 450.931400060654 2812.99996376038 168 170 167
-232.345029711723 451.107323169708 2813.99989128113 148 150 147
-224.92903470993 451.603382825851 2816.99991226196 148 150 147
-217.573136091232 452.259421348572 2821.00009918213 144 144 142
-210.120320320129 452.754586935043 2823.99988174438 142 144 141
-202.578827738762 453.089118003845 2825.99997520447 140 142 139
-195.163637399673 453.743696212769 2829.99992370605 141 143 140
-187.79231607914 454.558312892914 2835.00003814697 136 141 137
-180.58368563652 455.853432416916 2842.99993515015 140 145 141
-131.970018148422 448.540806770325 2796.99993133545 199 205 201
-122.841343283653 443.097054958344 2763.00001144409 209 211 206
-114.732176065445 440.860062837601 2749.00007247925 167 170 163
-106.737874448299 438.782870769501 2736.00006103516 153 156 149
-98.7051576375961 436.223924160004 2720.00002861023 184 186 181
-90.8599272370338 434.145539999008 2707.00001716614 185 187 182
-83.0543786287308 431.906163692474 2693.00007820129 165 167 162
-75.4935145378113 430.628597736359 2684.99994277954 175 177 172
-67.8997859358788 428.869366645813 2674.00002479553 155 157 154
-60.3884272277355 427.26993560791 2664.00003433228 180 182 179
-52.9911667108536 426.151096820831 2657.00006484985 182 184 181
-45.6146448850632 424.871444702148 2648.9999294281 170 172 169
-38.3250378072262 424.072355031967 2644.00005340576 164 165 160
-31.0507696121931 423.112452030182 2638.00001144409 158 159 154
-23.8452702760696 422.793567180634 2635.99991798401 157 158 153
-16.6442655026913 422.313779592514 2632.99989700317 155 156 151
-9.48472693562508 422.95628786087 2637.00008392334 155 156 151
-2.29986826889217 422.956705093384 2637.00008392334 151 152 147
4.88499877974391 422.956585884094 2637.00008392334 149 150 145
12.0378099381924 421.83330655098 2630.00011444092 147 148 143
19.1670339554548 421.030223369598 2625 149 150 145
26.299025863409 420.707851648331 2622.99990653992 152 153 148
33.432774245739 420.545369386673 2621.99997901917 156 157 152
40.5764356255531 420.54283618927 2621.99997901917 155 156 151
47.6289540529251 419.737845659256 2617.00010299683 156 157 152
54.7377541661263 419.573873281479 2615.9999370575 156 157 152
61.8409179151058 419.409453868866 2615.00000953674 157 158 153
69.0175294876099 419.725716114044 2617.00010299683 158 159 154
76.0884061455727 419.399946928024 2615.00000953674 160 161 156
83.211749792099 419.39440369606 2615.00000953674 161 162 157
90.5075445771217 420.190274715424 2619.99988555908 162 163 158
97.8302657604218 420.985728502274 2625 162 163 158
105.179890990257 421.780675649643 2630.00011444092 162 163 158
112.428210675716 422.09392786026 2631.99996948242 160 161 156
119.86880004406 423.048138618469 2638.00001144409 159 162 155
127.389818429947 424.162238836288 2644.99998092651 158 161 154
134.948536753654 425.275802612305 2651.99995040894 157 160 153
142.330452799797 425.74742436409 2654.99997138977 156 158 153
149.897232651711 426.699638366699 2661.00001335144 154 156 151
157.437115907669 427.490949630737 2665.99988937378 154 156 151
165.127247571945 428.602486848831 2673.00009727478 163 165 160
172.661423683167 429.232478141785 2677.00004577637 162 164 161
180.418461561203 430.342942476273 2684.00001525879 151 153 150
188.282921910286 431.613206863403 2691.99991226196 147 149 146
196.263000369072 433.043301105499 2700.99997520447 152 154 151
205.195978283882 436.396688222885 2721.99988365173 145 147 146
247.330844402313 432.299315929413 2697.00002670288 210 210 208
253.720462322235 430.680066347122 2687.00003623962 141 142 137
259.860664606094 428.739994764328 2674.99995231628 145 146 141
266.13450050354 427.120178937912 2664.99996185303 155 156 151
272.660881280899 425.98095536232 2657.99999237061 153 154 149
279.569536447525 425.482392311096 2654.99997138977 159 159 157
287.001132965088 425.784766674042 2657.00006484985 156 156 154
294.221252202988 425.766259431839 2657.00006484985 154 156 153
301.553875207901 425.907552242279 2657.99999237061 153 155 152
309.239566326141 426.529198884964 2661.99994087219 172 174 171
318.253815174103 428.912848234177 2677.00004577637 171 173 170
-273.321181535721 447.803676128387 2842.00000762939 204 209 205
-263.537138700485 444.354474544525 2819.9999332428 206 208 205
-255.323618650436 443.425804376602 2813.99989128113 200 202 199
-247.405931353569 442.969352006912 2811.00010871887 170 172 169
-239.759668707848 442.985266447067 2811.00010871887 155 157 154
-232.277780771255 443.315893411636 2812.99996376038 161 163 160
-224.864050745964 443.803668022156 2815.99998474121 153 155 152
-217.587530612946 444.606184959412 2821.00009918213 142 142 140
-210.283100605011 445.408344268799 2825.99997520447 142 144 141
-202.807366847992 445.894867181778 2828.9999961853 138 140 137
-195.245668292046 446.223318576813 2831.00008964539 137 139 136
-187.804892659187 446.866542100906 2835.00003814697 134 139 135
-180.659353733063 448.297470808029 2844.00010108948 140 145 141
-122.938647866249 435.915052890778 2765.00010490417 205 207 202
-114.82347548008 433.71593952179 2750.99992752075 158 161 154
-106.78418725729 431.516289710999 2736.99998855591 154 157 150
-98.7119078636169 428.843021392822 2720.00002861023 174 176 171
-90.899720788002 426.957488059998 2707.99994468689 179 181 176
-83.060085773468 424.598425626755 2693.00007820129 169 171 166
-75.4424706101418 423.027187585831 2683.00008773804 160 162 157
-67.8536668419838 421.297669410706 2671.99993133545 157 159 156
-60.3925846517086 420.040726661682 2664.00003433228 177 179 176
-53.034707903862 419.256210327148 2658.99991989136 179 181 178
-45.6866733729839 418.313533067703 2653.00011634827 169 171 168
-38.3856669068336 417.528003454208 2648.00000190735 162 163 158
-31.1353113502264 417.05733537674 2644.99998092651 156 157 152
-23.8740593194962 416.11322760582 2638.99993896484 155 156 151
-16.6580602526665 415.483891963959 2634.99999046326 155 156 151
-9.47459228336811 415.327101945877 2634.0000629425 155 156 151
-2.29915487580001 415.642857551575 2635.99991798401 150 151 146
4.8816311173141 415.485084056854 2634.99999046326 149 150 145
12.0340622961521 414.538413286209 2628.99994850159 147 148 143
19.1756617277861 414.064317941666 2625.99992752075 150 151 146
26.3309217989445 414.062738418579 2625.99992752075 152 153 148
33.5115939378738 414.376050233841 2628.00002098084 155 156 151
40.672093629837 414.37354683876 2628.00002098084 155 156 151
47.7414391934872 413.58208656311 2622.99990653992 154 155 150
54.804302752018 412.947922945023 2618.99995803833 155 156 151
61.8924722075462 412.628591060638 2617.00010299683 157 158 153
69.1277682781219 413.254767656326 2621.00005149841 157 158 153
76.2391239404678 413.092106580734 2619.99988555908 158 159 154
83.3765715360641 413.086652755737 2619.99988555908 158 159 154
90.6173884868622 413.553714752197 2622.99990653992 158 159 154
97.9487672448158 414.335638284683 2628.00002098084 159 160 155
105.347044765949 415.27470946312 2634.0000629425 159 160 155
112.649470567703 415.740251541138 2637.00008392334 159 160 155
120.013296604156 416.363000869751 2641.00003242493 158 161 154
127.49482691288 417.300581932068 2647.0000743866 159 162 155
135.059475898743 418.39525103569 2654.00004386902 159 162 155
142.447337508202 418.858826160431 2657.00006484985 158 160 155
149.963706731796 419.63717341423 2661.99994087219 155 157 152
157.388687133789 420.099765062332 2664.99996185303 153 155 150
165.076568722725 421.192407608032 2671.99993133545 147 149 144
172.608524560928 421.811670064926 2676.00011825562 147 149 146
180.497765541077 423.21851849556 2684.99994277954 153 155 152
188.225582242012 424.152016639709 2690.99998474121 147 149 146
196.203410625458 425.557792186737 2700.00004768372 144 146 143
204.757273197174 428.066343069077 2716.00008010864 145 147 146
243.037506937981 430.356949567795 2730.99994659424 209 211 208
246.888354420662 424.195498228073 2691.99991226196 157 157 155
253.264755010605 422.603577375412 2681.99992179871 153 154 149
259.683161973953 421.169012784958 2673.00009727478 150 151 146
266.251474618912 420.049160718918 2665.99988937378 154 155 150
272.780954837799 418.929070234299 2658.99991989136 157 158 153
279.692679643631 418.438881635666 2655.99989891052 156 156 154
287.127405405045 418.735980987549 2657.99999237061 151 151 149
294.350624084473 418.717682361603 2657.99999237061 154 156 153
301.799833774567 419.014036655426 2660.00008583069 159 161 158
309.839844703674 420.097529888153 2667.00005531311 174 176 173
319.700360298157 423.543214797974 2688.99989128113 169 171 168
-271.415114402771 436.996400356293 2822.00002670288 206 211 207
-263.273686170578 436.239153146744 2816.99991226196 205 207 204
-255.430817604065 435.946077108383 2815.00005722046 195 197 194
-247.685983777046 435.807287693024 2813.99989128113 174 176 173
-239.945828914642 435.668140649796 2812.99996376038 156 158 155
-232.375457882881 435.838252305985 2813.99989128113 149 151 148
-225.038453936577 436.472654342651 2818.00007820129 151 151 149
-217.756047844887 437.261492013931 2822.99995422363 137 137 135
-210.520178079605 438.204854726791 2828.9999961853 150 150 148
-202.892422676086 438.373237848282 2829.99992370605 143 145 142
-195.258572697639 438.541263341904 2831.00008964539 129 131 128
-187.684819102287 438.863605260849 2832.99994468689 124 126 123
-180.734902620316 440.734773874283 2845.00002861023 112 117 113
-123.08032810688 428.875833749771 2767.99988746643 124 126 121
-114.872984588146 426.404774188995 2752.00009346008 160 163 156
-106.791399419308 424.088001251221 2736.99998855591 160 163 156
-98.7185835838318 421.460837125778 2720.00002861023 171 173 168
-90.9730195999146 419.917702674866 2710.00003814697 170 172 167
-83.2199454307556 418.064147233963 2697.99995422363 167 169 164
-75.5881890654564 416.519939899445 2687.99996376038 149 151 146
-67.9852664470673 414.820313453674 2677.00004577637 168 170 167
-60.4873783886433 413.430035114288 2667.99998283386 168 170 167
-53.0383177101612 412.039190530777 2658.99991989136 175 177 174
-45.7070060074329 411.267727613449 2654.00004386902 166 168 165
-38.4172834455967 410.650789737701 2650.00009536743 160 161 156
-31.1609841883183 410.188227891922 2647.0000743866 154 155 150
-23.8937810063362 409.260332584381 2641.00003242493 152 153 148
-16.6844874620438 408.951759338379 2638.99993896484 153 154 149
-9.47883632034063 408.332794904709 2634.99999046326 153 154 149
-2.29931180365384 408.488154411316 2635.99991798401 151 152 147
4.88011166453362 408.178120851517 2634.0000629425 150 151 146
12.0486179366708 407.867640256882 2631.99996948242 149 150 145
19.2061830312014 407.556682825089 2630.00011444092 150 151 146
26.3628028333187 407.400161027908 2628.99994850159 151 152 147
33.5393883287907 407.553106546402 2630.00011444092 152 153 148
40.6748689711094 407.240629196167 2628.00002098084 152 153 148
47.7628968656063 406.617790460587 2624.00007247925 151 152 147
54.84988540411 406.149446964264 2621.00005149841 152 153 148
62.0149374008179 406.300395727158 2621.99997901917 155 156 151
69.1852197051048 406.450986862183 2622.99990653992 154 155 150
76.360709965229 406.60098195076 2624.00007247925 157 158 153
83.4777131676674 406.440615653992 2622.99990653992 157 158 153
90.6926319003105 406.744658946991 2625 157 158 153
98.0299562215805 407.513082027435 2630.00011444092 158 159 154
105.474159121513 408.590883016586 2637.00008392334 158 159 154
112.827949225903 409.203290939331 2641.00003242493 158 159 154
120.157718658447 409.660339355469 2644.00005340576 153 156 149
127.599716186523 410.426706075668 2648.9999294281 156 159 152
135.119438171387 411.347597837448 2654.99997138977 158 161 154
142.564103007317 411.958038806915 2658.99991989136 158 160 155
150.030061602592 412.568032741547 2663.00010681152 156 158 153
157.517313957214 413.17754983902 2667.00005531311 155 157 152
165.211111307144 414.251267910004 2674.00002479553 149 151 146
172.74896800518 414.859771728516 2677.99997329712 148 150 147
180.5769354105 416.087418794632 2686.00010871887 155 157 154
188.30794095993 417.004734277725 2691.99991226196 149 151 148
196.434333920479 418.696105480194 2703.00006866455 145 147 144
204.92148399353 421.006411314011 2717.99993515015 145 147 146
242.252215743065 421.553581953049 2721.99988365173 210 212 209
246.720835566521 416.582226753235 2690.00005722046 137 137 135
253.092139959335 415.017664432526 2680.0000667572 150 151 146
259.408265352249 413.452804088593 2670.00007629395 150 151 146
266.26843214035 412.81670331955 2665.99988937378 150 151 146
272.900879383087 411.870658397675 2660.00008583069 157 158 153
279.710322618485 411.233901977539 2655.99989891052 153 153 151
286.929368972778 411.216139793396 2655.99989891052 152 152 150
294.479757547379 411.662459373474 2658.99991989136 159 161 158
302.272468805313 412.418037652969 2664.00003433228 160 162 159
310.556173324585 413.7924015522 2673.00009727478 168 170 167
321.028023958206 417.952597141266 2700.00004768372 169 171 168
-269.604802131653 426.448464393616 2802.99997329712 204 210 206
-262.729614973068 427.682399749756 2811.00010871887 201 206 202
-255.084127187729 427.698761224747 2811.00010871887 194 199 195
-247.789859771729 428.323298692703 2815.00005722046 176 178 175
-239.961192011833 428.034514188766 2812.99996376038 160 160 158
-232.473030686378 428.35396528244 2815.00005722046 151 151 149
-225.132837891579 428.977280855179 2819.00000572205 151 150 148
-217.770159244537 429.600238800049 2822.99995422363 136 136 134
-210.310593247414 430.070519447327 2825.99997520447 128 128 126
-202.762246131897 430.388271808624 2828.00006866455 139 139 137
-195.133358240128 430.553406476974 2828.9999961853 143 145 142
-187.763392925262 431.32683634758 2834.00011062622 139 141 138
-181.064397096634 433.774024248123 2849.99990463257 102 104 101
-131.666287779808 424.702763557434 2789.99996185303 52 57 53
-123.310871422291 422.123402357101 2773.00000190735 20 22 17
-115.047611296177 419.543415307999 2756.00004196167 181 183 178
-106.837548315525 416.810601949692 2737.99991607666 171 173 168
-98.7977832555771 414.381712675095 2721.99988365173 164 166 161
-91.0798385739326 413.017928600311 2713.00005912781 158 160 155
-83.3797603845596 411.501318216324 2703.00006866455 160 162 157
-75.7057517766953 409.832000732422 2691.99991226196 141 143 138
-68.0914297699928 408.162176609039 2680.99999427795 183 185 180
-60.6274828314781 407.100737094879 2674.00002479553 164 166 161
-53.1416311860085 405.582100152969 2664.00003433228 170 172 167
-45.7789823412895 404.671967029572 2657.99999237061 152 154 149
-38.4343676269054 403.609037399292 2651.00002288818 153 153 151
-31.1984047293663 403.459131717682 2650.00009536743 148 148 146
-23.9225402474403 402.547538280487 2644.00005340576 150 150 148
-16.7045798152685 402.244359254837 2641.99995994568 151 151 149
-9.47947520762682 401.179432868958 2634.99999046326 151 151 149
-2.29772250168025 401.027619838715 2634.0000629425 150 150 148
4.87858848646283 400.875270366669 2632.99989700317 149 149 147
12.0631651952863 401.179194450378 2634.99999046326 148 148 146
19.2439947277308 401.178181171417 2634.99999046326 149 149 147
26.4046937227249 400.872141122818 2632.99989700317 149 149 147
33.5544049739838 400.565654039383 2631.00004196167 147 147 145
40.6930893659592 400.258630514145 2628.99994850159 143 145 142
47.8207245469093 399.951189756393 2627.00009346008 148 150 147
54.9582205712795 399.795472621918 2625.99992752075 147 149 146
62.161035835743 400.096118450165 2628.00002098084 149 151 148
69.400891661644 400.54839849472 2631.00004196167 149 151 148
76.5695497393608 400.543540716171 2631.00004196167 151 153 150
83.7061107158661 400.385975837708 2630.00011444092 158 160 157
90.8369123935699 400.227874517441 2628.99994850159 159 161 158
98.1483235955238 400.830537080765 2632.99989700317 146 148 145
105.521194636822 401.584923267365 2638.00001144409 152 154 151
112.963654100895 402.491122484207 2644.00005340576 156 158 153
120.392955839634 403.244495391846 2648.9999294281 159 161 156
127.800896763802 403.845191001892 2653.00011634827 147 149 144
135.331958532333 404.749780893326 2658.99991989136 154 156 151
142.734378576279 405.197322368622 2661.99994087219 159 161 156
150.152668356895 405.644357204437 2664.99996185303 153 155 150
157.586753368378 406.090915203094 2667.99998283386 153 155 150
165.283769369125 407.145738601685 2674.99995231628 157 159 154
172.953858971596 408.047944307327 2680.99999427795 155 157 152
180.790454149246 409.253984689713 2688.99989128113 140 142 137
188.739955425262 410.611718893051 2697.99995422363 134 136 131
196.883201599121 412.273347377777 2709.00011062622 133 135 130
205.462589859962 414.695292711258 2724.99990463257 141 146 142
241.466671228409 412.797719240189 2713.00005912781 213 215 212
246.644780039787 409.13063287735 2688.99989128113 137 137 135
252.82484292984 407.289087772369 2677.00004577637 146 147 142
259.424686431885 406.208008527756 2670.00007629395 152 153 148
266.185313463211 405.430823564529 2664.99996185303 161 160 156
272.712737321854 404.349118471146 2657.99999237061 154 153 149
279.622465372086 403.875559568405 2654.99997138977 155 155 153
286.839187145233 403.858035802841 2654.99997138977 165 165 163
294.83026266098 404.904901981354 2661.99994087219 151 151 149
302.971929311752 406.10334277153 2670.00007629395 159 161 158
311.504721641541 407.757639884949 2680.99999427795 165 167 164
322.117745876312 411.996811628342 2709.00011062622 166 168 165
-269.814014434814 419.140309095383 2805.0000667572 202 207 203
-262.652605772018 419.903963804245 2809.99994277954 193 198 194
-255.009412765503 419.920176267624 2809.99994277954 184 189 185
-247.453421354294 420.085370540619 2811.00010871887 178 180 177
-239.805802702904 420.100659132004 2811.00010871887 165 165 163
-232.48778283596 420.713394880295 2815.00005722046 147 146 144
-225.227072834969 421.475172042847 2819.9999332428 145 144 142
-217.938408255577 422.236561775208 2825.00004768372 133 132 130
-210.472941398621 422.698616981506 2828.00006866455 113 113 111
-202.990397810936 423.160225152969 2831.00008964539 122 122 120
-195.49086689949 423.621445894241 2834.00011062622 128 128 126
-188.371852040291 424.979031085968 2842.99993515015 137 139 136
-132.099702954292 418.473780155182 2799.00002479553 54 59 55
-123.852640390396 416.389048099518 2785.00008583069 43 45 40
-115.01345038414 411.911457777023 2755.00011444092 105 107 102
-106.805577874184 409.227401018143 2736.99998855591 180 182 177
-98.8769084215164 407.290428876877 2723.99997711182 164 166 161
-91.2201553583145 406.250029802322 2717.00000762939 136 138 133
-83.6012288928032 405.209124088287 2710.00003814697 156 158 153
-75.8232772350311 403.121113777161 2696.00009918213 141 143 138
-68.2229474186897 401.630580425262 2686.00010871887 175 177 172
-60.7222095131874 400.438576936722 2677.99997329712 156 158 153
-53.2449074089527 399.096518754959 2668.99991035461 166 168 163
-45.7992516458035 397.604525089264 2658.99991989136 151 153 148
-38.4369269013405 396.411061286926 2651.00002288818 153 153 151
-31.1769340187311 395.964771509171 2648.00000190735 147 147 145
-23.9331815391779 395.517975091934 2644.99998092651 148 148 146
-16.7246647179127 395.519375801086 2644.99998092651 149 149 147
-9.501694701612 394.92204785347 2641.00003242493 148 148 146
-2.30049295350909 394.324332475662 2637.00008392334 148 148 146
4.88076731562614 393.875658512115 2634.0000629425 147 147 145
12.0639698579907 394.024610519409 2634.99999046326 146 146 144
19.2525796592236 394.173055887222 2635.99991798401 146 146 144
26.4265108853579 394.022047519684 2634.99999046326 146 146 144
33.5949026048183 393.870562314987 2634.0000629425 145 145 143
40.7112762331963 393.269926309586 2630.00011444092 143 145 142
47.8603169322014 393.117487430573 2628.99994850159 147 149 146
55.0037361681461 392.964541912079 2628.00002098084 147 149 146
62.2124746441841 393.259733915329 2630.00011444092 148 150 147
69.4318786263466 393.554419279099 2631.99996948242 146 148 145
76.6619369387627 393.848657608032 2634.0000629425 149 151 148
83.8389694690704 393.843412399292 2634.0000629425 152 154 151
91.0502523183823 393.98717880249 2634.99999046326 156 158 155
98.3039289712906 394.279986619949 2637.00008392334 150 152 149
105.68817704916 395.020872354507 2641.99995994568 144 146 143
113.013811409473 395.462244749069 2644.99998092651 150 152 149
120.49176543951 396.351665258408 2651.00002288818 157 159 154
127.857476472855 396.792143583298 2654.00004386902 145 147 142
135.391741991043 397.680580615997 2660.00008583069 144 146 141
142.743721604347 397.970527410507 2661.99994087219 150 152 147
150.218784809113 398.559004068375 2665.99988937378 156 158 153
157.656073570251 398.99754524231 2668.99991035461 153 155 150
165.418088436127 400.183022022247 2677.00004577637 147 149 144
172.965034842491 400.77006816864 2680.99999427795 143 145 140
180.802121758461 401.954561471939 2688.99989128113 151 153 148
188.752114772797 403.287976980209 2697.99995422363 152 154 149
196.968525648117 405.069410800934 2710.00003814697 145 147 142
205.701977014542 407.746970653534 2727.9999256134 140 145 141
217.423364520073 415.954083204269 2782.99999237061 133 138 134
240.76983332634 404.238939285278 2704.99992370605 183 185 182
246.293395757675 401.234954595566 2684.99994277954 149 149 147
252.557367086411 399.575650691986 2674.00002479553 159 160 155
259.149372577667 398.513734340668 2667.00005531311 157 158 153
265.802323818207 397.600919008255 2661.00001335144 153 152 148
272.524416446686 396.837294101715 2655.99989891052 161 160 156
279.53439950943 396.521508693695 2654.00004386902 170 170 168
287.180960178375 397.101789712906 2657.99999237061 171 171 169
295.069813728333 397.980391979218 2664.00003433228 146 146 144
303.21729183197 399.157375097275 2671.99993133545 142 144 141
311.872214078903 400.931388139725 2684.00001525879 143 145 142
323.564141988754 406.439155340195 2720.99995613098 162 164 161
-281.019926071167 416.791260242462 2841.00008010864 203 209 205
-270.215421915054 412.113398313522 2809.00001525879 199 204 200
-262.855857610703 412.569999694824 2812.00003623962 191 196 192
-254.84374165535 411.999046802521 2808.00008773804 183 188 184
-247.380778193474 412.308007478714 2809.99994277954 179 181 178
-239.820823073387 412.469923496246 2811.00010871887 167 167 165
-232.584998011589 413.218289613724 2815.99998474121 149 148 146
-225.401014089584 414.11304473877 2822.00002670288 145 144 142
-218.029335141182 414.713948965073 2825.99997520447 138 138 136
-210.858419537544 415.754705667496 2832.99994468689 136 136 134
-203.433558344841 416.354775428772 2836.99989318848 117 117 115
-196.124166250229 417.247951030731 2842.99993515015 116 116 114
-189.311563968658 419.314920902252 2857.00011253357 107 109 106
-134.279400110245 417.625993490219 2845.00002861023 203 208 204
-124.438844621181 410.734981298447 2798.00009727478 35 37 32
-115.146175026894 404.870748519897 2757.99989700317 32 34 29
-106.695465743542 401.354759931564 2733.99996757507 20 22 17
-98.7744554877281 399.453014135361 2720.99995613098 158 160 155
-91.0918191075325 398.284763097763 2713.00005912781 132 134 129
-83.4832936525345 397.262752056122 2706.00008964539 135 137 132
-75.7438689470291 395.359396934509 2693.00007820129 140 142 137
-68.1766122579575 394.042789936066 2684.00001525879 160 162 157
-60.6808513402939 392.872542142868 2676.00011825562 154 156 151
-53.3082596957684 392.28892326355 2671.99993133545 169 171 166
-45.8711683750153 390.970855951309 2663.00010681152 150 152 147
-38.4829565882683 389.652281999588 2654.00004386902 151 151 149
-31.2143098562956 389.214068651199 2651.00002288818 142 142 140
-23.9800028502941 389.069080352783 2650.00009536743 143 143 141
-16.7637076228857 389.217227697372 2651.00002288818 144 144 142
-9.5167113468051 388.337135314941 2644.99998092651 143 143 141
-2.30500684119761 387.897074222565 2641.99995994568 145 145 143
4.88850055262446 387.309730052948 2638.00001144409 143 143 141
12.0830778032541 387.455999851227 2638.99993896484 142 142 140
19.2757602781057 387.454956769943 2638.99993896484 142 142 140
26.4784004539251 387.600272893906 2640.00010490417 143 143 141
33.6608849465847 387.451499700546 2638.99993896484 143 143 141
40.7913587987423 386.861801147461 2634.99999046326 141 143 140
47.9544922709465 386.712104082108 2634.0000629425 143 145 142
55.0701431930065 386.268317699432 2631.00004196167 144 146 143
62.3111836612225 386.704921722412 2634.0000629425 148 150 147
69.5683434605598 387.141048908234 2637.00008392334 144 146 143
76.8707171082497 387.723505496979 2641.00003242493 135 137 134
84.1309279203415 388.011872768402 2642.99988746643 131 133 130
91.2980958819389 387.859404087067 2641.99995994568 139 141 138
98.534032702446 388.000041246414 2642.99988746643 161 163 160
105.935089290142 388.727426528931 2648.00000190735 152 154 151
113.23481798172 389.013975858688 2650.00009536743 144 146 143
120.590515434742 389.446794986725 2653.00011634827 145 147 142
127.913907170296 389.732331037521 2654.99997138977 162 164 159
135.451391339302 390.604645013809 2661.00001335144 153 155 150
142.913833260536 391.182869672775 2664.99996185303 141 143 138
150.284841656685 391.467034816742 2667.00005531311 156 158 153
157.784342765808 392.044275999069 2671.0000038147 156 158 153
165.428712964058 392.914652824402 2677.00004577637 150 152 147
173.040613532066 393.63768696785 2681.99992179871 151 153 148
180.746451020241 394.507110118866 2687.99996376038 143 145 140
188.624233007431 395.669519901276 2696.00009918213 141 143 138
196.835666894913 397.418439388275 2707.99994468689 143 145 140
205.262526869774 399.460315704346 2721.99988365173 128 133 129
215.171307325363 404.143154621124 2753.99994850159 175 180 176
235.496580600739 400.432467460632 2729.00009155273 199 201 198
239.894688129425 395.428895950317 2694.9999332428 143 145 142
246.033474802971 393.506437540054 2681.99992179871 153 153 151
252.478510141373 392.170637845993 2673.00009727478 153 153 151
259.068131446838 391.127943992615 2665.99988937378 152 152 150
265.618860721588 390.084981918335 2658.99991989136 158 157 153
272.541075944901 389.628440141678 2655.99989891052 161 160 156
279.762089252472 389.611750841141 2655.99989891052 154 154 152
287.414461374283 390.181362628937 2660.00008583069 150 150 148
294.976890087128 390.603929758072 2663.00010681152 145 145 143
303.008586168289 391.612678766251 2670.00007629395 130 132 129
312.239497900009 394.087761640549 2687.00003623962 135 137 134
-279.454261064529 406.774938106537 2825.00004768372 202 208 204
-270.616739988327 405.063599348068 2812.99996376038 203 208 204
-262.778460979462 404.791802167892 2811.00010871887 199 204 200
-254.768639802933 404.231488704681 2806.99992179871 193 198 194
-247.307986021042 404.534816741943 2809.00001525879 180 182 179
-239.835634827614 404.837816953659 2811.00010871887 167 167 165
-232.682004570961 405.716478824615 2816.99991226196 149 149 147
-225.494906306267 406.594723463058 2822.99995422363 145 145 143
-218.04291009903 407.040566205978 2825.99997520447 136 136 134
-211.020484566689 408.350259065628 2835.00003814697 132 132 130
-203.80488038063 409.371435642242 2842.00000762939 120 122 119
-196.82639837265 410.968393087387 2852.9999256134 108 110 107
-126.27038359642 409.043192863464 2838.99998664856 40 42 37
-115.571096539497 398.821085691452 2767.99988746643 28 30 25
-106.194965541363 392.056256532669 2720.99995613098 31 33 28
-98.4177887439728 390.621930360794 2710.99996566772 135 137 132
-90.7619148492813 389.47531580925 2703.00006866455 117 119 114
-83.3035707473755 389.04857635498 2700.00004768372 132 134 129
-75.6925046443939 387.756854295731 2690.99998474121 139 141 136
-68.2064294815063 386.896908283234 2684.99994277954 156 158 153
-60.6620982289314 385.460078716278 2674.99995231628 151 153 148
-53.3117167651653 385.031431913376 2671.99993133545 165 167 162
-45.9085926413536 384.02596116066 2664.99996185303 147 149 144
-38.5579541325569 383.164048194885 2658.99991989136 148 150 147
-31.2634371221066 382.589906454086 2654.99997138977 137 139 136
-24.0177605301142 382.447600364685 2654.00004386902 139 141 138
-16.7837683111429 382.44891166687 2654.00004386902 142 144 141
-9.5317242667079 381.729245185852 2648.9999294281 141 143 140
-2.30951909907162 381.441414356232 2647.0000743866 141 143 140
4.89623146131635 380.720794200897 2641.99995994568 140 142 139
12.1021792292595 380.864351987839 2642.99988746643 138 140 137
19.2989278584719 380.719274282455 2641.99995994568 139 141 138
26.5102107077837 380.861878395081 2642.99988746643 140 142 139
33.7013378739357 380.715847015381 2641.99995994568 140 142 139
40.824968367815 379.992961883545 2637.00008392334 139 141 138
48.0122268199921 379.990100860596 2637.00008392334 141 143 140
55.115569382906 379.410326480865 2632.99989700317 142 144 141
62.3388737440109 379.694759845734 2634.99999046326 149 151 148
69.5728436112404 379.978746175766 2637.00008392334 146 148 145
76.9630074501038 380.98269701004 2644.00005340576 133 135 132
84.231860935688 381.265670061111 2645.99990844727 129 131 128
91.4076566696167 381.11600279808 2644.99998092651 129 131 128
98.614938557148 381.109923124313 2644.99998092651 154 156 153
105.981908738613 381.679713726044 2648.9999294281 157 159 156
113.32755535841 382.104963064194 2651.99995040894 138 140 137
120.643697679043 382.385671138763 2654.00004386902 138 140 135
127.970278263092 382.665902376175 2655.99989891052 154 156 151
135.460048913956 383.377909660339 2661.00001335144 157 159 154
142.922922968864 383.945345878601 2664.99996185303 149 151 146
150.294378399849 384.224236011505 2667.00005531311 136 138 133
157.794371247292 384.790778160095 2671.0000038147 140 142 137
165.315568447113 385.356873273849 2674.99995231628 148 150 145
172.857984900475 385.922431945801 2678.99990081787 144 146 141
180.488839745522 386.631637811661 2684.00001525879 135 137 132
188.426181674004 387.916564941406 2693.00007820129 134 136 131
196.557238698006 389.489084482193 2703.9999961853 134 136 131
204.822897911072 391.205042600632 2716.00008010864 105 110 106
214.090839028358 394.648909568787 2740.00000953674 76 81 77
223.812103271484 398.668199777603 2767.99988746643 33 35 32
230.676203966141 397.50200510025 2759.99999046326 100 102 99
233.181029558182 389.134585857391 2701.99990272522 198 200 197
238.930255174637 386.527895927429 2684.00001525879 156 158 155
245.498135685921 385.361075401306 2676.00011825562 168 170 167
252.021640539169 384.193897247314 2667.99998283386 169 169 167
258.695185184479 383.314400911331 2661.99994087219 168 168 166
265.335261821747 382.434695959091 2655.99989891052 167 167 165
272.762775421143 382.706463336945 2657.99999237061 163 163 161
280.09495139122 382.833927869797 2658.99991989136 163 163 161
287.863910198212 383.536845445633 2664.00003433228 171 171 169
295.105248689651 383.519530296326 2664.00003433228 181 181 179
303.253561258316 384.6535384655 2671.99993133545 175 177 174
314.001083374023 388.953983783722 2701.99990272522 153 155 152
-279.17417883873 398.680746555328 2822.00002670288 200 205 201
-270.440608263016 397.143095731735 2811.00010871887 198 203 199
-262.420326471329 396.59383893013 2806.99992179871 197 199 196
-254.602551460266 396.326839923859 2805.0000667572 194 196 193
-247.234970331192 396.765828132629 2808.00008773804 174 176 173
-240.020900964737 397.487074136734 2812.99996376038 163 165 162
-232.696235179901 398.066610097885 2816.99991226196 144 144 142
-225.508749485016 398.92840385437 2822.99995422363 139 139 137
-218.210652470589 399.648547172546 2828.00006866455 136 136 134
-211.107954382896 400.792270898819 2835.99996566772 129 131 128
-203.960910439491 401.935607194901 2844.00010108948 129 131 128
-197.252586483955 404.067873954773 2858.99996757507 114 116 113
-125.922545790672 400.200605392456 2831.00008964539 32 34 29
-114.367537200451 387.202560901642 2739.00008201599 33 35 30
-105.928495526314 383.675247430801 2713.99998664856 39 41 36
-98.0609878897667 381.843864917755 2700.99997520447 27 29 24
-90.398296713829 380.577445030212 2691.99991226196 38 40 35
-83.031177520752 380.441606044769 2690.99998474121 121 123 118
-75.584813952446 379.881143569946 2687.00003623962 122 124 119
-68.2615861296654 379.885643720627 2687.00003623962 154 156 151
-60.7566870748997 378.758728504181 2678.99990081787 151 153 148
-53.4148924052715 378.479570150375 2677.00004577637 156 158 153
-46.0148975253105 377.634435892105 2671.0000038147 139 141 136
-38.690946996212 377.213001251221 2667.99998283386 148 150 147
-31.3714258372784 376.649707555771 2664.00003433228 134 136 133
-24.091700091958 376.368701457977 2661.99994087219 135 137 134
-16.8101415038109 375.804424285889 2657.99999237061 139 141 138
-9.54312924295664 374.95693564415 2651.99995040894 138 140 137
-2.31315731070936 374.815940856934 2651.00002288818 137 139 136
4.9076653085649 374.391704797745 2648.00000190735 136 138 135
12.1350111439824 374.673932790756 2650.00009536743 133 135 132
19.3439945578575 374.390125274658 2648.00000190735 135 137 134
26.5520345419645 374.247342348099 2647.0000743866 137 139 136
33.7417721748352 373.962610960007 2644.99998092651 138 140 137
40.8895090222359 373.394727706909 2641.00003242493 139 141 138
48.0881333351135 373.391896486282 2641.00003242493 140 142 139
55.2237704396248 372.964471578598 2638.00001144409 140 142 139
62.4374896287918 373.102128505707 2638.99993896484 148 150 147
69.6828216314316 373.380690813065 2641.00003242493 149 151 148
77.0261287689209 374.082893133163 2645.99990844727 131 133 130
84.3327343463898 374.501943588257 2648.9999294281 128 130 127
91.5517061948776 374.496340751648 2648.9999294281 123 125 122
98.7703502178192 374.49038028717 2648.9999294281 142 144 141
105.988629162312 374.483913183212 2648.9999294281 159 161 158
113.377466797829 375.042498111725 2653.00011634827 149 151 148
120.78770250082 375.600576400757 2657.00006484985 141 143 138
128.219291567802 376.158237457275 2661.00001335144 138 140 135
135.519474744797 376.291304826736 2661.99994087219 151 153 148
142.931908369064 376.706689596176 2664.99996185303 158 160 155
150.191098451614 376.697540283203 2664.99996185303 139 141 136
157.804250717163 377.536028623581 2671.0000038147 133 135 130
165.202304720879 377.808719873428 2673.00009727478 145 147 142
172.67519235611 378.222286701202 2676.00011825562 144 146 141
180.365547537804 379.059374332428 2681.99992179871 143 145 140
188.367873430252 380.461275577545 2691.99991226196 132 134 129
196.642071008682 382.286727428436 2704.99992370605 113 115 110
204.684674739838 383.546322584152 2713.99998664856 28 33 29
213.791444897652 386.642605066299 2736.00006103516 13 18 14
222.208604216576 388.325095176697 2747.99990653992 68 70 67
227.681279182434 384.919971227646 2723.99997711182 136 138 135
232.332170009613 380.384296178818 2691.99991226196 161 163 160
238.499596714973 378.533154726028 2678.99990081787 136 138 135
244.962483644485 377.247005701065 2670.00007629395 170 172 169
251.564532518387 376.243114471436 2663.00010681152 175 175 173
258.224785327911 375.380158424377 2657.00006484985 169 169 167
265.051424503326 374.799519777298 2653.00011634827 171 171 169
272.57376909256 375.207304954529 2655.99989891052 176 176 174
280.111581087112 375.614851713181 2658.99991989136 170 170 168
287.556737661362 375.880658626556 2661.00001335144 190 190 188
294.901043176651 376.004844903946 2661.99994087219 153 153 151
303.725361824036 377.96488404274 2676.00011825562 147 149 146
-278.39919924736 389.908850193024 2813.99989128113 204 209 205
-270.071774721146 388.955056667328 2806.99992179871 204 209 205
-261.968523263931 388.277947902679 2802.00004577637 204 206 203
-254.345417022705 388.293206691742 2802.00004577637 201 203 200
-246.809512376785 388.446658849716 2802.99997329712 192 194 191
-239.608705043793 389.154106378555 2808.00008773804 179 181 178
-232.379823923111 389.861106872559 2812.99996376038 147 147 145
-225.282728672028 390.845030546188 2819.9999332428 137 137 135
-218.146726489067 391.828566789627 2826.99990272522 134 134 132
-211.120784282684 393.088966608047 2835.99996566772 134 136 133
-203.973367810249 394.210398197174 2844.00010108948 116 118 115
-197.540625929832 396.856218576431 2862.99991607666 120 122 119
-131.566807627678 386.400878429413 2786.99994087219 17 23 19
-124.151073396206 386.963367462158 2790.99988937378 32 34 29
-116.420812904835 386.554896831512 2788.00010681152 35 37 32
-106.949977576733 379.906594753265 2740.00000953674 35 37 32
-98.2486829161644 375.198781490326 2706.00008964539 17 19 14
-90.370386838913 373.124778270721 2690.99998474121 29 31 26
-82.943819463253 372.714191675186 2687.99996376038 100 102 97
-75.5333006381989 372.303158044815 2684.99994277954 102 104 99
-68.1642666459084 372.030347585678 2683.00008773804 128 130 125
-60.7831925153732 371.618390083313 2680.0000667572 152 154 149
-53.4781217575073 371.621936559677 2680.0000667572 152 154 149
-46.0694842040539 370.793104171753 2674.00002479553 129 131 126
-38.7223921716213 370.241105556488 2670.00007629395 149 151 148
-31.3851833343506 369.549930095673 2664.99996185303 134 136 133
-24.0932237356901 369.135677814484 2661.99994087219 135 137 134
-16.8112032115459 368.582278490067 2657.99999237061 138 140 137
-9.55093186348677 368.028432130814 2654.00004386902 136 138 135
-2.31592147611082 368.028789758682 2654.00004386902 138 140 137
4.91538923233747 367.751359939575 2651.99995040894 136 138 135
12.1449362486601 367.750853300095 2651.99995040894 134 136 133
19.3598307669163 367.472559213638 2650.00009536743 135 137 134
26.5737753361464 367.332428693771 2648.9999294281 137 139 136
33.7694175541401 367.053180932999 2647.0000743866 139 141 138
40.9540273249149 366.773515939713 2644.99998092651 139 141 138
48.1275804340839 366.493374109268 2642.99988746643 139 141 138
55.290050804615 366.212785243988 2641.00003242493 136 138 135
62.4887496232986 366.209119558334 2641.00003242493 143 145 142
69.7399750351906 366.48228764534 2642.99988746643 149 151 148
77.0309716463089 366.893708705902 2645.99990844727 140 142 139
84.4017118215561 367.582023143768 2651.00002288818 136 138 135
91.6957035660744 367.853790521622 2653.00011634827 124 126 123
98.9256873726845 367.847919464111 2653.00011634827 107 109 106
106.075286865234 367.56420135498 2651.00002288818 122 124 121
113.384559750557 367.834717035294 2653.00011634827 160 162 159
120.840691030025 368.520677089691 2657.99999237061 150 152 147
128.275454044342 369.067579507828 2661.99994087219 134 136 131
135.476991534233 368.920773267746 2661.00001335144 130 132 127
142.672598361969 368.773579597473 2660.00008583069 138 140 135
149.918600916862 368.764579296112 2660.00008583069 151 153 148
157.459482550621 369.448274374008 2664.99996185303 144 146 141
164.903432130814 369.854301214218 2667.99998283386 144 146 141
172.427654266357 370.398491621017 2671.99993133545 144 146 141
180.309355258942 371.635317802429 2680.99999427795 50 52 47
188.379377126694 373.148858547211 2691.99991226196 12 14 9
196.435958147049 374.523341655731 2701.99990272522 11 13 8
204.01830971241 374.927043914795 2704.99992370605 20 22 17
213.022962212563 377.825200557709 2726.0000705719 24 26 21
220.685586333275 378.227949142456 2729.00009155273 14 16 11
226.190432906151 375.026911497116 2706.00008964539 132 134 129
231.914594769478 372.380018234253 2687.00003623962 156 158 155
237.97969520092 370.425879955292 2673.00009727478 138 140 137
244.426593184471 369.164377450943 2664.00003433228 166 168 165
251.012623310089 368.179738521576 2657.00006484985 172 174 171
257.948517799377 367.749035358429 2654.00004386902 166 168 165
265.266865491867 367.872208356857 2654.99997138977 167 169 166
272.795081138611 368.2721555233 2657.99999237061 172 174 171
280.338674783707 368.671715259552 2661.00001335144 173 175 172
287.681549787521 368.79375576973 2661.99994087219 170 172 169
295.582920312881 369.608163833618 2667.99998283386 187 189 186
304.87796664238 372.084438800812 2686.00010871887 196 198 195
-278.118640184402 381.85852766037 2811.00010871887 200 205 201
-269.991338253021 381.19512796402 2805.99999427795 180 185 181
-261.890381574631 380.531340837479 2801.00011825562 177 179 176
-254.269629716873 380.546420812607 2801.00011825562 177 179 176
-246.824115514755 380.832761526108 2802.99997329712 155 157 154
-239.622890949249 381.526440382004 2808.00008773804 143 145 142
-232.31104016304 382.083833217621 2812.00003623962 136 138 135
-225.296169519424 383.184373378754 2819.9999332428 140 142 139
-218.236967921257 384.284615516663 2828.00006866455 105 107 104
-211.431264877319 385.92803478241 2839.99991416931 92 94 91
-204.631149768829 387.707024812698 2852.9999256134 97 99 96
-129.969745874405 374.206483364105 2753.00002098084 24 31 24
-122.334823012352 373.80638718605 2750 32 34 29
-116.595014929771 379.522770643234 2792.00005531311 31 34 27
-99.9250039458275 374.098658561707 2752.00009346008 29 32 25
-90.8125713467598 367.579430341721 2703.9999961853 25 28 21
-82.8872472047806 365.137904882431 2686.00010871887 42 45 38
-75.3973200917244 364.327073097229 2680.0000667572 57 60 53
-68.0160522460938 363.923668861389 2677.00004577637 128 131 124
-60.6735609471798 363.655716180801 2674.99995231628 150 153 146
-53.401630371809 363.795220851898 2676.00011825562 138 141 134
-46.0378862917423 363.254457712173 2671.99993133545 127 129 124
-38.7248024344444 362.985193729401 2670.00007629395 140 142 139
-31.4224697649479 362.715423107147 2667.99998283386 138 140 137
-24.1309273988009 362.445265054703 2665.99988937378 134 136 133
-16.8438777327538 362.038671970367 2663.00010681152 137 139 136
-9.5659215003252 361.359745264053 2657.99999237061 138 140 137
-2.32042907737195 361.496061086655 2658.99991989136 134 136 133
4.92311036214232 361.088126897812 2655.99989891052 134 136 133
12.1640134602785 361.087620258331 2655.99989891052 132 134 131
19.3902589380741 360.81475019455 2654.00004386902 132 134 131
26.6055278480053 360.54140329361 2651.99995040894 133 135 132
33.8225476443768 360.403567552567 2651.00002288818 139 141 138
41.033998131752 360.265284776688 2650.00009536743 139 141 138
48.2216216623783 359.990656375885 2648.00000190735 139 141 138
55.3981699049473 359.715521335602 2645.99990844727 142 144 141
62.5636130571365 359.44002866745 2644.00005340576 139 141 138
69.7706937789917 359.435975551605 2644.00005340576 143 145 142
76.9775211811066 359.431475400925 2644.00005340576 147 149 146
84.3750983476639 360.242158174515 2650.00009536743 137 139 136
91.805063188076 361.052364110947 2655.99989891052 128 130 127
99.118247628212 361.318409442902 2657.99999237061 105 107 104
106.241881847382 360.904276371002 2654.99997138977 97 99 96
113.477006554604 360.897600650787 2654.99997138977 146 148 145
120.848126709461 361.298263072968 2657.99999237061 164 166 161
128.13875079155 361.426532268524 2658.99991989136 134 137 130
135.332554578781 361.282646656036 2657.99999237061 124 127 120
142.520412802696 361.138314008713 2657.00006484985 128 131 124
149.814993143082 361.265301704407 2657.99999237061 140 143 136
157.173633575439 361.527919769287 2660.00008583069 158 161 154
164.72801566124 362.197726964951 2664.99996185303 94 97 90
172.179967164993 362.595319747925 2667.99998283386 32 35 28
179.983973503113 363.671988248825 2676.00011825562 20 23 16
187.620937824249 364.340454339981 2680.99999427795 24 27 20
195.284500718117 365.008503198624 2686.00010871887 18 21 14
202.597439289093 364.996641874313 2686.00010871887 18 20 15
211.316376924515 367.430299520493 2703.9999961853 43 45 40
219.647377729416 369.048118591309 2716.00008010864 8 10 5
225.785881280899 366.996794939041 2700.99997520447 144 146 141
231.49673640728 364.401757717133 2681.99992179871 155 157 154
237.904697656631 363.029301166534 2671.99993133545 158 160 157
244.165688753128 361.520767211914 2661.00001335144 168 170 167
250.838398933411 360.691219568253 2654.99997138977 174 179 175
257.67195224762 360.133051872253 2651.00002288818 169 173 172
265.182375907898 360.525459051132 2654.00004386902 172 176 175
272.708237171173 360.917508602142 2657.00006484985 172 176 175
280.460178852081 361.580729484558 2661.99994087219 171 173 170
287.698090076447 361.564546823502 2661.99994087219 161 163 160
296.264588832855 363.17777633667 2674.00002479553 176 178 175
-277.837753295898 373.823195695877 2808.00008773804 203 205 202
-269.71822977066 373.173117637634 2802.99997329712 199 201 198
-261.812001466751 372.788906097412 2799.99995231628 190 192 189
-254.102796316147 372.670620679855 2799.00002479553 181 183 180
-246.574267745018 372.818201780319 2799.99995231628 166 168 165
-239.29551243782 373.364865779877 2803.99990081787 158 160 157
-232.242047786713 374.310672283173 2811.00010871887 127 129 126
-225.469216704369 375.788778066635 2822.00002670288 126 128 125
-218.481346964836 377.000212669373 2831.00008964539 138 140 137
-211.890444159508 379.0103495121 2845.99995613098 117 122 118
