ply
format ascii 1.0
comment KinectMotionCapture
element vertex 790
property float x
property float y
property float z
property uchar red
property uchar green
property uchar blue
end_header
-10.8384434426907 -155.36592479546 2890.40135601139 15 18 11
-13.726322312539 -154.13552600566 2897.3382758112 13 16 9
-22.5206492786985 -154.139479986385 2900.4034439344 15 18 11
-49.97357300386 -158.010167738286 2891.39468182696 15 18 11
-48.6465680279617 -155.897382938879 2901.10062782423 13 16 9
-48.9902979912094 -154.139305295119 2909.68424524134 13 16 9
-50.1633118083831 -152.559467807549 2917.70045044199 14 17 10
-76.1168961283873 -156.052868287744 2909.98087788236 14 17 10
-106.448294040201 -160.407394230381 2899.65059063008 14 19 12
-125.7229032552 -162.480873183805 2896.42478350197 10 15 8
-103.730004910258 -156.189469330624 2919.00012017568 10 15 8
-129.937128175433 -159.649904728163 2911.52744331178 11 16 10
106.157759127565 -180.908866456216 2763.82752625664 20 23 16
101.227374692823 -174.229613194869 2797.49340289381 15 18 11
139.377009420502 -163.605083228362 2834.55879723558 12 15 8
160.754630213832 -156.862415816758 2859.09532637437 12 15 8
118.22142276859 -164.61811707553 2837.29516097985 12 15 8
111.26365034529 -164.29582914412 2841.32254135802 14 17 10
75.7912479597991 -170.370984278124 2825.01570556342 14 17 10
66.3024480559731 -170.585547890299 2827.38471427375 14 17 10
92.8044421112526 -162.77573628937 2855.17707315643 12 15 8
72.6999123698797 -165.362933390168 2850.01749806189 12 15 8
72.2607020120454 -163.577680383647 2858.69157457354 11 14 7
68.54906404241 -162.521572733698 2865.05535017347 17 19 14
59.889196803391 -162.554313787125 2867.9915903587 15 17 12
40.4496966635302 -164.938806314932 2863.55858070927 14 16 11
20.9449752367825 -167.314798265574 2859.18874253828 11 13 8
-2.78416487046451 -170.585019356962 2852.06143465328 8 10 5
-19.0925983602863 -172.22143836304 2850.07663970775 6 8 3
-24.5847079914543 -171.510583950899 2855.42532178813 6 8 3
-50.3132801508972 -171.350432093704 2865.3634878852 15 17 12
-31.3593931135179 -165.444317574772 2886.76214967036 16 18 13
-32.584280115389 -163.844007558487 2894.82717772143 14 15 10
-35.4838886538862 -162.603373186844 2901.77423244108 14 15 10
-44.3166481434139 -162.61240193809 2904.87865251898 12 15 8
-36.9891327833183 -159.236509339192 2918.35835712778 12 15 8
-45.8142402621045 -159.246384810324 2921.45530379073 13 16 7
-80.3093071975121 -164.580860041581 2908.31955307551 13 16 7
-108.078060597063 -168.479946339027 2899.62827395419 14 17 10
-140.241767581037 -173.2513537697 2888.34495512151 10 15 9
-140.668095012038 -171.465703474203 2897.00651781922 4 9 3
-108.279936989828 -162.974290515642 2925.93797291685 17 22 18
95.7964914146192 -192.965792918494 2747.55821332257 30 32 27
88.7037208713037 -192.632795993459 2751.71806604498 18 21 14
76.0113995695915 -193.611301837566 2751.71315407554 34 37 30
122.551185872014 -180.727240467153 2795.70006214054 18 21 14
109.934457647198 -181.715010660008 2795.62145439497 17 20 13
119.817452891649 -177.468696545816 2812.1031947367 13 16 9
142.682615092655 -170.247492320966 2837.92600221319 11 14 7
123.634225400556 -172.729644972917 2833.11904823115 13 16 9
130.459802669012 -169.250700628639 2847.081953782 14 17 10
132.469357011006 -166.893766522846 2857.49128016766 15 18 11
112.523592267472 -169.550233890908 2852.18394935654 15 18 11
103.938893265449 -169.603861562906 2855.04863340435 16 19 12
99.4314733162125 -168.730319003879 2860.81270599683 17 20 13
90.8270671023743 -168.781124902238 2863.6962046984 17 20 13
69.8747959363888 -171.597497177384 2857.99541204338 18 21 14
65.3330837759203 -170.719117267315 2863.79248450818 17 19 14
60.7961112011304 -169.841216919676 2869.58492137346 15 17 12
61.2323880766166 -167.861199241843 2878.7780871467 14 16 11
34.3069356478942 -171.940484965743 2869.2760310916 11 13 8
13.1053721363346 -174.723867305735 2863.81791352294 8 10 5
-11.504466292819 -178.229798635 2856.18274280123 6 8 3
-12.8001809972131 -176.606954308992 2864.3144354048 6 8 3
-12.3999653998412 -174.621653423731 2873.54262970454 7 9 4
-0.216199164736253 -170.088218512834 2890.53139058997 8 10 5
-57.8038795020257 -180.671785408402 2861.42625833592 10 12 7
-34.6504449890204 -173.775898778474 2885.59364178389 13 15 10
-24.8919315824776 -169.801082528918 2900.82221237895 16 17 12
-31.1640062207514 -169.279226296892 2905.55609793015 17 20 13
-24.6985034851601 -166.041797808413 2918.4956872773 17 20 13
-35.2037581969595 -166.426439090031 2920.48227872546 17 20 13
-57.6763334848001 -169.335146297676 2914.88757044066 15 18 9
-79.3702687702473 -172.053643294937 2909.90845745476 15 18 9
-113.99286784636 -177.46261719093 2896.91035891065 15 18 11
-133.283876386519 -179.619179734281 2893.71311627316 15 20 14
-120.7807573164 -175.126433550834 2910.39043100668 11 16 10
-117.687306229287 -172.615973148198 2921.11765009959 8 13 9
-105.906236021549 -168.32065984077 2937.12424120244 6 10 9
95.0821925615251 -200.80307051953 2748.00862169 25 27 22
83.2059503936544 -201.617622610229 2748.58634594335 30 33 26
116.039165592162 -191.775708465075 2782.54456215503 25 28 19
88.1937948190705 -196.39553595862 2771.20173397484 21 24 15
118.042716762638 -187.341325740165 2802.57150684614 18 21 14
116.67829370848 -185.698392720511 2810.76879659857 14 17 10
110.493979858856 -185.193126753542 2815.41832426523 12 15 8
112.392810279554 -182.797660584 2825.93156827735 15 18 11
118.380592224858 -179.462975376205 2839.33116693062 16 19 12
115.485782934098 -178.208410210269 2846.271396961 18 21 14
134.593758195085 -171.87344038601 2868.87090939515 18 21 14
123.61248616961 -172.508142804548 2869.95024268173 18 21 14
99.5116142115022 -176.142719856388 2861.82867451197 18 21 14
95.8290439519014 -175.079147991455 2868.16214439643 19 22 15
99.5551686547116 -172.33159405289 2879.64297623297 19 22 15
74.4797298517375 -176.133155844136 2871.09693830075 16 18 13
71.6164367991756 -174.881443393094 2878.00629387072 14 16 11
66.2815997369446 -174.190592593705 2883.20175849046 13 15 10
50.1582031613395 -175.920422893208 2881.04702530213 10 12 7
-10.1054055524119 -187.499467765073 2849.07828558068 7 9 4
1.92001764325278 -182.888917367317 2866.21254796775 5 7 2
-10.2095823867194 -183.667077527408 2867.03648161203 7 9 4
-9.80371830049709 -181.663176433245 2876.25631777609 9 11 6
-12.7283950968042 -180.402605178254 2883.22531898366 9 11 6
-14.7989443114236 -178.95883394657 2890.73599131747 9 11 6
-12.6355070753905 -176.594822221579 2900.99146364552 14 16 11
-23.1180812213614 -176.998362269701 2902.95832618597 15 16 11
-29.385971973944 -176.479198883022 2907.68879292019 17 20 13
-37.3555704897401 -176.326952971511 2911.32915438431 19 22 15
-35.1207474902999 -173.971881587444 2921.5150609725 19 22 15
-54.1800219679613 -176.201265338658 2918.09846592801 18 21 12
-84.4167719464508 -180.801033319154 2907.71043854487 17 20 11
-95.0525868015633 -181.184281955357 2909.82647231299 13 16 9
-101.415680463017 -180.652350134559 2914.6495897741 13 18 12
-99.1726112896911 -178.298082436431 2924.82742657415 11 16 10
-102.933989261124 -177.222010463266 2931.23730617091 10 15 11
80.1692383031982 -207.99678635928 2756.79574935138 16 19 12
119.507742178818 -196.496137925147 2795.38490776308 17 20 11
111.700753004962 -196.376303207892 2798.8685861072 18 21 14
115.953817288693 -193.372295011465 2811.20550248269 15 18 11
104.12093925778 -194.212615563468 2811.74363623233 15 18 11
106.004319643827 -191.790418317942 2822.26860935789 17 20 13
107.112830387358 -189.564112299806 2832.17474497129 18 21 14
107.44079192032 -187.53287660952 2841.46789948097 18 21 14
106.168114886493 -185.886885364546 2849.5736320746 18 21 14
104.099202801654 -184.434032928913 2857.08133651636 17 20 13
97.9552923649498 -183.935187252722 2861.69169191288 17 20 13
88.5272658293594 -184.196449676742 2864.00725383416 16 19 12
102.10195738777 -179.13755228329 2882.37096082189 16 19 12
112.47023291894 -174.848836716313 2898.36454374895 15 17 12
84.0884294814566 -179.471843463047 2887.55520886866 15 17 12
33.2430533625963 -189.188121147501 2861.54572479751 15 17 12
-16.6765572437555 -196.652296376811 2845.62037019551 12 14 9
-0.4980236766845 -191.040547179115 2865.56777811672 10 12 7
-45.2273119232731 -199.177194373348 2844.58740990515 6 8 3
-23.1232474298677 -192.257916510021 2868.37646676332 8 10 5
-17.6827829913702 -189.108270493821 2880.92966134369 9 11 6
-11.349481268788 -185.777739330037 2893.9864298743 10 12 7
-10.0219208406545 -183.57714455625 2903.67918386542 11 13 8
-12.0442731538137 -182.128215748368 2911.14123367608 11 12 7
-50.4865110017145 -188.707181330599 2895.02379488469 12 13 8
-50.0114382428949 -186.69236847008 2904.17329305945 15 18 11
-57.1692576115757 -186.356373401664 2908.39763494475 17 20 13
-51.5366576147063 -183.231008094333 2920.76362475354 18 21 12
-86.0422360958415 -188.83749513547 2907.67817754333 18 21 12
-89.8254388826989 -187.752817437214 2914.10879542403 13 16 9
-84.1515547290941 -184.632656653818 2926.43455868124 13 18 12
-87.0354565474107 -183.368026595759 2933.36246984359 13 18 12
-100.260821110412 -184.320612045608 2933.88304668949 10 15 11
100.901654360658 -212.64661678347 2763.81870071954 18 21 14
111.406892613364 -208.027681140476 2781.04438057412 12 15 6
98.1347290139487 -207.209763665141 2789.85188158617 17 20 13
114.424818510557 -201.2456624683 2811.05334466637 14 17 10
117.107950376151 -198.60351307938 2822.16855323722 15 18 11
113.362290493235 -197.521268476465 2828.56225006974 15 18 11
108.004117706183 -196.828153979678 2833.7805528357 15 18 11
88.0225551001783 -199.624611567661 2828.52946032457 16 19 12
105.812552505264 -191.461151068218 2859.25271640225 15 18 11
91.4897543683288 -192.896311985643 2858.10022897604 15 18 11
96.8104095871669 -189.697094834538 2870.76506929054 15 18 11
98.8938360082985 -187.274818943775 2881.0913821223 15 18 11
102.661287571421 -184.472251294269 2892.52338261517 13 15 10
93.2555917588087 -184.748977674021 2894.81905536433 13 15 10
27.5299382029477 -198.069494483953 2858.61255479884 14 16 11
-0.30217329608595 -202.539355627011 2848.65164216211 14 16 11
-14.0967255302362 -203.742551610125 2848.35756158925 13 15 10
-27.9290776685075 -204.940746439404 2848.10027771161 11 13 8
-50.992258020949 -208.233333253517 2841.73153906518 6 8 3
-48.1686061654152 -205.606657826693 2852.7094962536 7 9 4
-29.3530557864701 -199.368341216043 2874.19676690349 11 13 8
-35.6699270835059 -198.847573137519 2878.97563486966 12 14 9
-20.9035040733188 -193.580133495812 2897.54202177326 11 13 8
-20.414915267343 -191.547918648018 2906.67552630728 11 12 7
-42.7760716068515 -194.631597911941 2900.99603815321 11 12 7
-76.2540289397751 -200.163424325569 2888.29636030337 12 15 8
-69.8527944282947 -196.803156916433 2901.2812755663 13 16 9
-85.957155914544 -196.507386871613 2908.7272983146 16 19 10
-113.736042274624 -200.683305771969 2900.08733495268 12 15 8
-113.270205261973 -198.647662495265 2909.24292563351 15 20 14
-120.524241167256 -198.303888458842 2913.56132439193 13 18 12
-133.824688745782 -199.27053706333 2914.15853831029 7 12 8
111.866358145259 -223.769896503281 2744.65556275014 24 26 23
90.5180197127007 -227.043338693763 2737.99804047795 21 23 18
106.561310582647 -218.864961159797 2769.03668791718 20 23 16
105.896057310085 -216.96996584722 2777.91934636176 16 19 10
99.6493358822916 -216.464367385287 2782.63045869149 15 18 9
105.440687694501 -212.990755390002 2796.20458205218 13 16 9
137.840875842867 -203.004234946408 2829.15418061849 13 16 9
131.707583961993 -202.512536337309 2833.75504796551 16 19 12
127.188243301358 -201.626155930604 2839.52872273036 16 19 12
125.105101038522 -200.149661604715 2847.04706368817 15 18 11
113.289374837453 -201.033907384459 2847.5749953887 12 15 8
112.030053722315 -199.36198941655 2855.66329555731 13 16 9
103.444416067196 -199.457042294667 2858.53503432889 13 16 9
98.1170795131288 -198.766724271725 2863.72312957727 12 15 8
111.654811694558 -193.578477977952 2882.10442006173 11 14 7
100.619021937443 -194.261001156726 2883.24495814923 11 14 7
85.43656326483 -195.915284175323 2881.56160317621 10 12 7
89.2064209514318 -193.082903232085 2892.98647011911 9 11 6
72.3215890972972 -195.119895491532 2890.21634250426 9 11 6
8.0805915006561 -208.2251908392 2855.33790346332 10 12 7
-71.4071846036628 -224.787790235386 2810.60433412691 11 13 8
-34.5143636952114 -214.173275073871 2844.66783971696 11 13 8
-11.6296462996037 -206.87475082516 2869.04255357066 6 8 3
-19.6040079858322 -206.745328102355 2872.69135603275 8 10 5
-35.9848478044356 -208.544926051176 2870.80257941853 14 16 11
-36.4268911180412 -206.67490203046 2879.46693997826 16 18 13
-37.688000955594 -205.000383366106 2887.55696983486 12 14 9
-36.3929416009592 -202.751540111054 2897.27452892597 11 12 7
-42.6915122124236 -202.235084064833 2902.03586135733 11 12 7
-64.2792945284798 -205.17046475077 2896.98339221806 10 13 6
-75.7257036772252 -205.79780263882 2898.52352506965 11 14 7
-72.6957108369755 -203.169778236256 2909.29638323194 13 16 7
-124.349794286204 -208.844139676314 2903.33098369703 12 17 11
-118.71635562924 -205.647763690677 2915.6856453567 7 12 6
96.1268038594607 -235.437827150679 2733.66913663505 20 22 19
109.716992890332 -227.763313557565 2762.96715553924 18 21 14
132.142326075992 -220.012686915988 2789.14813348586 19 22 13
142.722677268091 -215.294789818512 2806.28493646349 18 21 12
114.144583741834 -220.424743059965 2794.32819985387 17 20 11
121.302488047997 -212.524114288943 2827.14599637437 15 18 11
131.311254408596 -208.035565515361 2843.46670411966 16 19 12
129.238020437412 -206.549158732363 2850.97407878256 15 18 11
123.118927172158 -206.061065080082 2855.56104166341 14 17 10
111.296716948117 -206.965427379104 2856.09838530737 15 18 11
98.6279400160388 -208.064514689523 2856.0879153189 15 18 11
105.994489130163 -202.318347483343 2879.09791203113 15 18 11
58.7733112664122 -211.730099605688 2855.11251188494 16 19 12
69.8614601938736 -207.075291426609 2871.75405087733 12 14 9
94.2435935848795 -199.270374097467 2897.40112031301 11 13 8
79.0267680052454 -200.95176804379 2895.75623701197 12 14 9
8.1647047217408 -215.82632096062 2856.37782150375 12 14 9
-17.2548089442945 -219.839769660176 2848.20443394742 13 15 10
-53.6044255863897 -226.395588937481 2832.83972682771 14 16 11
-24.0798604246311 -217.429124589972 2861.71074094418 7 9 4
-7.7931794184547 -211.619723790087 2881.52154403915 7 9 4
-7.35596230455737 -209.542585049379 2890.69942169106 12 14 9
-13.622280411032 -209.032878025488 2895.42972441074 15 17 12
-25.7955843676219 -209.889457697788 2896.30830922789 16 18 13
-31.2361909410379 -209.182059169863 2901.60635878874 16 17 12
-29.0503996298348 -206.722004293644 2911.82543805388 16 19 12
-40.4161945388584 -207.378315943165 2913.28980208302 16 19 12
-60.3195220212012 -209.973528357423 2909.34852414849 16 19 12
-81.140910691158 -212.754246377033 2904.92906503245 13 16 7
-68.6857215816805 -207.970297653521 2921.61127315917 13 16 7
-48.4363516377662 -201.455686298576 2943.05081286047 11 14 7
-60.7071143356852 -202.298947793511 2944.02420722766 9 14 8
-88.5021604768488 -206.611864951625 2935.42020120792 14 19 15
100.95500300863 -241.889758355704 2738.33038771074 18 20 15
120.814652697714 -234.634152664908 2762.88156322441 19 21 16
113.772991167011 -234.338233148358 2766.99614396654 18 21 14
100.349727970281 -235.672915249005 2766.35280148161 18 21 12
106.857973620192 -231.909288104447 2780.58908386913 17 20 9
123.834501794535 -225.507920215504 2802.4611846865 15 18 7
105.603792813382 -228.062225808624 2798.27017300386 14 17 10
119.495664634071 -222.48958415309 2817.65989344251 13 16 9
106.865636840229 -223.618588674923 2817.61536673773 12 15 8
111.988280763561 -220.28867794787 2830.45751874237 12 15 8
115.541290689372 -217.369637259376 2842.08491044483 13 16 9
121.575141640636 -213.85005459695 2855.41143413111 19 22 15
103.234896112234 -216.388916687187 2851.32657347416 20 23 16
88.9144958220904 -217.91236138041 2850.18475325415 19 22 15
87.6435404335463 -216.210684728677 2858.28054594976 18 21 14
78.191373852758 -216.521179781105 2860.62735585374 16 19 12
66.2547414629189 -217.431137264625 2861.27914936564 16 19 12
64.1758688182588 -215.93153469253 2868.78983514079 13 15 10
86.8917046406716 -208.427721052977 2893.30224705287 14 16 11
74.1413301445908 -209.539018301224 2893.37460927517 15 17 12
40.6115594685339 -215.638285447586 2879.39300317378 14 16 11
-13.0108121199801 -226.507160144659 2852.06074203748 14 16 11
-45.1811662638493 -232.167670233316 2839.49852359968 14 16 11
-20.6521557336612 -224.283675693524 2864.98805428772 7 9 4
-27.8102098837398 -223.968218109714 2869.21532690368 6 8 3
2.80244678799946 -214.721750467796 2898.38171286087 9 11 6
-5.96510253793925 -214.811990365581 2901.43304341234 12 14 9
-7.15669267003216 -213.118756291584 2909.45127304436 14 16 11
-21.8531276086509 -214.59105132194 2908.67530089127 16 17 12
-36.5909371510589 -216.057819135438 2907.93993525312 16 19 12
-46.2754694436223 -216.335937972277 2910.51304039537 17 20 13
-63.6386447040125 -218.384055140173 2908.21922126876 17 20 13
-89.5852429647563 -222.391925318375 2900.5687498457 15 18 9
-85.6998737644434 -219.512749372889 2911.87199586701 14 17 8
-55.2070563556999 -210.557605149877 2939.78319429829 12 15 8
-68.351828333558 -211.615939043372 2940.23937108955 10 15 9
-94.4418444945527 -215.604903552859 2932.72852151197 17 22 16
108.156077135306 -247.686039143605 2744.78949980606 16 18 13
118.517328000095 -242.83212322753 2762.12343128364 19 21 16
104.316437115355 -244.402814512985 2760.87025732508 19 22 15
127.523437833098 -236.254094472027 2787.6334369863 18 21 12
121.317260857337 -235.761066839047 2792.30614603884 19 22 11
104.699261632557 -237.947541850841 2789.29314316404 16 19 8
110.501350327247 -234.361077239806 2802.83958723239 16 19 12
113.140351762119 -231.604213211074 2813.98166319965 15 18 11
102.108314853445 -232.34432080447 2815.1269856045 13 16 9
71.6471140190706 -238.004825177789 2802.28479897943 11 14 7
100.225330601165 -228.690731258821 2832.04417172626 11 14 7
108.658909077322 -224.514270763164 2847.14137220211 13 16 9
94.3594631750653 -226.069900471998 2845.98350089642 16 19 12
81.6509391185254 -227.211518937876 2846.0191243183 19 22 15
79.544205033018 -225.697701146456 2853.55537591287 18 21 14
83.1944690173159 -222.760227603154 2865.08346852969 15 18 11
71.2698712484467 -223.69290153499 2865.72666896619 14 17 10
82.3861328522781 -218.933193733561 2882.32478753699 16 18 13
76.2368569696621 -218.444403984079 2886.9419571622 16 18 13
65.9452569417578 -218.968374416706 2888.73697913852 16 18 13
41.5249921691161 -222.930062718306 2880.98091965495 13 15 10
12.8577432372956 -227.890874878086 2870.50462602072 12 14 9
-20.0851504821156 -233.847033899868 2857.33633826714 11 13 8
-49.8126420067408 -238.97992210843 2846.52140464798 6 8 3
-67.0885226462228 -241.077327956642 2844.14852335978 7 9 4
-60.9127498879189 -237.535731344015 2857.33052509946 10 12 7
1.6920893034329 -220.541701627917 2907.42938492751 11 13 8
-18.0356122399594 -223.250809976364 2903.33054160871 10 12 7
-10.7797459551509 -219.539138605541 2916.83176685259 12 13 8
-26.3392110325418 -221.238547040742 2915.52979217155 14 17 10
-49.5867077049561 -224.730888471392 2909.37360600063 15 18 11
-62.7015001454203 -225.817103565458 2909.80447133935 17 20 13
-92.0575213460282 -230.687045672003 2899.99870819577 17 20 11
-93.3078336665325 -228.971784464131 2908.07199422819 17 20 11
-78.2574289414741 -223.480476002461 2926.32329537707 20 23 16
-66.5487085520367 -218.795840342112 2942.34418924527 13 18 12
-103.823730470637 -225.428415331085 2927.90976770579 9 14 8
105.86536045994 -255.954308030023 2744.03519606306 7 9 4
87.6762873015031 -258.600975883377 2739.81615265271 14 16 11
82.9382391173294 -257.675744425849 2745.80160289517 16 19 12
129.995226523506 -243.141409748129 2790.44792226211 16 19 10
134.977307014431 -239.723753285514 2803.41668705164 21 24 13
130.402716595784 -238.818908847765 2809.24249666721 18 21 10
118.609356791944 -239.792085200432 2809.7610242625 19 22 15
92.3040698514472 -244.511702460985 2799.73777543134 21 24 17
90.8998122770544 -242.766419619006 2807.95949419219 20 23 16
105.684390862579 -236.866174959487 2827.83157119552 15 18 11
96.2556242013282 -237.206922510243 2830.15961593954 15 18 11
91.6822116080675 -236.300840788676 2835.98407308708 11 14 7
79.7854729191494 -237.259110625719 2836.60339210897 11 14 7
83.3659908500613 -234.282947289143 2848.19502525328 17 20 13
87.8081991727981 -231.10562143287 2860.31850252754 17 20 13
92.297898618277 -227.934223618395 2872.39569657686 16 19 12
92.7248642212328 -225.799388829315 2881.57522667993 16 19 12
65.9898227464275 -230.461143150645 2871.97017833712 17 19 14
74.6676192375482 -226.268855358906 2886.82252744646 17 19 14
37.8822864498973 -233.379276523103 2870.55521565731 16 18 13
29.1622969536318 -233.497225659168 2873.56375185016 14 16 11
27.9129325905862 -231.769494111943 2881.6342534361 13 15 10
20.0147949403209 -231.680980048972 2885.21307274374 7 9 4
-41.370308817132 -244.668814716644 2853.14896553629 8 10 5
-57.7886644692445 -246.60191916573 2851.31751274376 9 11 6
-54.1102650612242 -243.636532670715 2862.81354094683 14 16 11
-36.0850757712554 -237.215697356228 2883.64142849732 14 16 11
-33.9733454339033 -234.672241071415 2893.92172471255 11 13 8
-40.2782521284499 -234.164185398177 2898.69059053954 10 11 6
-21.1709987665438 -227.570765247122 2919.83571166699 11 14 7
-30.8204663459111 -227.879650575742 2922.37820646274 13 16 9
-56.6580641949761 -232.030138358054 2914.64057483916 14 17 10
-93.6763430488181 -238.795533285729 2899.97083436995 15 18 9
-112.028898382912 -241.102321793373 2897.28080647559 15 18 9
-85.0258763231562 -232.718409218919 2923.07387595239 18 21 14
-69.0393668149758 -226.97088287313 2941.7746516398 11 16 10
-83.9406849165805 -228.474267080796 2941.2070643051 11 16 12
75.8665657968365 -269.477423842366 2731.89592381123 15 17 12
83.0215441539162 -265.360537880787 2746.85468887891 15 18 11
98.206695708853 -259.130859513117 2767.69687231959 14 17 8
141.44815197887 -245.500124999218 2809.18073778765 18 21 10
147.297423545293 -241.843892565669 2822.67001691318 14 17 6
107.455298608353 -250.239799682586 2802.54325474779 20 23 16
69.8606034882965 -257.980723813642 2784.33902114701 23 26 19
105.498831505145 -246.517021090369 2819.52284647394 21 24 17
129.210031079589 -238.237325168128 2845.76599103898 19 22 15
106.87263622951 -241.963499977394 2838.74095861795 18 21 14
77.9562676522492 -247.35948059591 2827.15945286474 17 20 13
74.9833262666897 -246.026809221306 2834.16572515674 16 19 12
93.2428487711579 -239.247088116513 2856.12512035779 13 16 9
107.525179329695 -233.528394720128 2875.10552311421 12 15 8
108.781069013514 -231.166566169074 2884.84561693206 14 17 10
96.9170888548625 -232.1495328219 2885.43571858573 16 19 12
57.834084945616 -240.010514427266 2867.31023273841 13 15 10
38.4133378423988 -242.851637428107 2862.92609083086 12 14 9
38.7944152197197 -240.691056751288 2872.14738338938 12 14 9
17.1857815705438 -241.98392470034 2875.37498885724 14 16 11
9.26262826679158 -241.899863995381 2878.97930728296 9 11 6
-13.7108253892197 -245.540959073002 2872.57331591171 8 10 5
-44.3021379692357 -251.032512292513 2861.25193274244 7 9 4
-33.0383391957043 -246.182282082192 2877.69016555022 10 12 7
-25.9027826637102 -242.373431155659 2891.29683490325 13 15 10
-33.0441635523808 -242.07475873917 2895.51003156456 14 16 11
-18.2167655278547 -236.424792795549 2913.95966999916 15 16 11
-50.735854768154 -242.296379458656 2901.77494769289 15 18 11
-45.1692965430555 -238.914547714803 2914.16861233 15 18 11
-54.0188005109807 -239.024690489241 2917.30460453095 14 17 10
-95.2949009549813 -246.914036333391 2899.94384102496 12 15 6
-128.183694083363 -252.737128944605 2888.11907274509 11 14 5
-135.490907517835 -252.416119002409 2892.49397994128 13 16 9
-71.5296302322375 -235.161277591191 2941.20699099327 8 13 7
-95.9036491058467 -238.934523568973 2934.79440411486 12 17 13
110.240514173129 -263.522520121348 2777.65152718776 20 21 13
104.791087456724 -262.816574818205 2782.95855006697 27 29 16
124.961775451838 -255.25376807692 2807.15545576366 14 16 3
101.117630438056 -259.47799453397 2798.86610386764 16 19 12
127.063121736496 -250.436871755849 2827.02909096024 16 19 12
83.0015834275941 -259.991174106319 2804.17825668465 17 20 13
134.141955698633 -244.356008698841 2850.27498732902 19 22 15
113.437524900607 -247.714016830081 2844.40780122586 20 23 16
80.4765544268853 -254.25370590529 2829.92680012588 18 21 14
108.832157162546 -242.659714881956 2868.07239550701 14 17 10
110.879682336353 -240.060858479354 2878.40792244356 13 16 9
96.5630865814529 -241.701377202558 2877.2799655963 14 17 10
84.6705756121824 -242.701782517919 2877.90131403538 14 17 10
69.4522386004031 -244.543102734603 2876.28123079972 12 15 8
59.1431720800326 -245.112311659228 2878.10028349063 13 16 9
40.5342481023645 -247.785864952305 2874.30213180656 13 16 9
43.4361773236938 -244.978529352857 2885.17565691897 13 16 9
44.7145622268663 -242.596656776962 2894.89045015334 12 15 8
7.68063083933646 -249.878178118883 2878.89528898038 11 14 7
-16.9670004303013 -253.994448889119 2871.38785501077 9 12 5
-46.7274845573407 -259.356045751688 2860.63948657271 9 12 5
-28.7549164694925 -252.776862945933 2881.49656190673 13 16 9
-15.7209172311097 -247.465655642474 2898.94298374892 11 14 7
-11.8768199121821 -244.461570002802 2910.26875176032 11 14 7
-50.2481047927099 -251.886631279097 2894.20590819751 12 15 8
-57.4260542062661 -251.587872972132 2898.45574309203 13 16 9
-60.3659729786878 -250.24832441416 2905.42786915433 15 18 9
-72.6540121731296 -251.195181560399 2906.43406857197 16 19 10
-103.736289053234 -256.702221067034 2895.60284691894 12 18 8
-129.804528327393 -260.950887560517 2888.10875641063 12 18 8
-118.266518416577 -256.081328513683 2904.2718367119 13 18 11
-136.705295961135 -258.456678350953 2901.67756208171 14 19 13
-60.5302143002691 -238.114480964466 2957.64419462905 6 12 10
-91.809355836002 -243.595582145506 2947.00462881606 10 16 16
82.3939420842477 -280.944835850493 2748.36401228599 19 20 14
99.1696828211066 -274.138969513902 2770.37605114505 15 16 8
127.235608883706 -264.305925389047 2800.567097495 6 8 0
102.627860630262 -268.813806782461 2791.66102966209 15 17 6
87.5579487400331 -270.708790411694 2789.90182735754 13 16 9
135.189700091729 -255.713363919934 2833.90924846126 13 16 9
114.534783217569 -259.129123337952 2828.00142991471 14 17 10
95.4236960481492 -262.103221234327 2823.32944474678 14 17 10
114.33041577457 -254.930377976456 2846.00496957428 14 17 10
91.1190343000499 -258.976255185046 2838.4778235065 13 16 9
71.8941182079158 -261.934853244929 2833.91658127245 13 16 9
139.926184459563 -241.884885620488 2890.92731765566 10 13 6
112.598176679982 -247.000171942558 2880.56121613308 9 12 5
105.665564773997 -246.740525955646 2884.57287019765 10 13 6
102.013883695082 -245.622983297466 2890.86802765138 10 13 6
82.7175697231182 -248.571312690361 2886.37616686297 13 16 9
76.5688888613174 -248.091885542878 2890.9941294122 13 16 9
56.3456874407762 -251.240470465012 2886.03503208219 13 16 9
35.2239779366617 -254.593078530662 2880.58141177536 14 17 10
14.861329095551 -257.723006004324 2875.75836807464 14 17 10
21.9362834772676 -253.8254200395 2889.41176341686 11 14 7
-18.5514527358861 -262.043789369764 2871.31710994502 9 12 5
-44.9652595363146 -266.633957578005 2862.79939974331 9 12 5
-28.6683642983721 -260.403273833772 2882.53779451995 15 18 11
-21.5238578036248 -256.514085758471 2896.12370263216 15 18 11
-34.5577527413443 -257.706605417419 2896.48960948103 16 19 12
-45.0902091616254 -258.261097388078 2898.52831648549 19 22 15
-54.7979086181303 -258.601708510862 2901.13332545458 19 22 13
-61.1278409285569 -258.097014016427 2905.92753886884 19 22 13
-87.8836371915379 -262.641723303774 2897.74304829231 19 22 13
-118.146927707938 -268.014587966023 2887.4956394076 15 21 11
-95.5227640447789 -260.358635467224 2910.65934991232 14 20 10
-142.167092385945 -269.701352321283 2890.34199207546 12 17 10
-129.293198648474 -262.37974328231 2916.15239613862 8 13 9
72.9414603316862 -291.27428784224 2742.27322955434 16 17 11
84.116459591526 -285.930780292495 2760.14364473429 17 18 10
112.94321580948 -275.75943438866 2790.94642179736 17 19 8
116.320289059659 -272.638889885356 2802.71873904372 20 22 11
106.901319630724 -273.034370296445 2805.04548232606 14 17 10
103.094521448742 -271.893072838124 2811.49082456512 14 17 10
71.0736304999977 -278.414424119579 2797.49050959971 14 17 10
80.1492173195979 -273.767452440505 2813.29789211218 14 17 10
107.931025618009 -264.106055681865 2842.37953169005 14 17 10
118.004710480343 -259.264578861483 2858.58394963425 15 18 11
86.632453467177 -265.545659402198 2845.32092898942 14 17 10
91.8599357489627 -262.016146721273 2858.0294738727 12 15 8
126.586799008287 -250.666847973235 2891.30138809844 12 15 8
108.208200071263 -253.456622807351 2887.29169773719 12 15 8
97.1654272600162 -254.286129993595 2888.46089427278 12 15 8
79.5058738693171 -256.845142799888 2885.12032168736 11 14 7
60.1373937272518 -259.82933823056 2880.70542395739 11 14 7
39.0485273837466 -263.237153702193 2875.22734953705 11 14 7
46.0942421244486 -259.295311063401 2888.90323915795 12 15 8
29.0836001078452 -261.614206042141 2886.29970799305 13 16 9
2.01749302678067 -266.510611173101 2877.05809397849 13 16 9
-26.8191756411795 -271.824029134208 2866.80248947218 10 13 6
-19.7564163682094 -267.883804510097 2880.46169276243 9 12 5
-28.5814800676332 -268.028842050606 2883.57857284665 13 16 9
-36.5799830677509 -267.957543051159 2887.25960080924 13 16 9
-42.0596465063534 -267.242360796705 2892.59528398321 14 17 10
-52.6092638960911 -267.810404546744 2894.6530350311 15 18 11
-53.8633955956938 -266.025609349642 2902.71983667018 15 18 9
-63.5874743133495 -266.377010810474 2905.34270529498 15 18 9
-92.901000060388 -271.627335434079 2895.5513017497 15 18 9
-105.265100037412 -272.606488223423 2896.63746608879 11 17 7
-99.7086541991301 -269.117031373974 2909.02526553189 10 16 6
-74.3966013586972 -260.750201192668 2933.66586073341 10 15 8
98.4558936345037 -291.850231687173 2762.36628310571 5 6 1
100.133258664228 -289.132192098145 2773.05210715639 32 33 27
92.2634024159623 -289.089966270054 2776.60968399467 22 23 15
113.20119673011 -281.04091654165 2801.38988459322 19 20 12
111.799395903434 -279.227421635385 2809.59908205396 14 17 10
95.1339743267141 -281.631721449204 2806.66502684429 14 17 10
70.3519190697404 -286.244794949504 2797.94759579008 14 17 10
69.7258383633761 -284.204986626475 2806.76995199765 13 16 9
126.649144563638 -266.469730915872 2856.7327922412 13 16 9
130.269878049628 -263.349311873861 2868.26350765655 16 19 12
124.164751230845 -262.881554094416 2872.83960728273 16 19 12
103.368205647572 -266.379394677644 2867.08489754036 15 18 11
94.7680973518015 -266.566164306879 2869.98422372579 15 18 11
101.731915466843 -262.573764110976 2883.73430336376 15 18 11
88.2083657774895 -264.078636352244 2883.21570087697 15 18 11
70.5279006487993 -266.67503969696 2879.90108241976 14 17 10
56.9188632203104 -268.168368255622 2879.46566437043 14 17 10
58.6231792603447 -263.489366206936 2898.33702786462 14 17 10
30.8321125303435 -268.687772289742 2888.4430357894 14 17 10
2.93725822354274 -273.872462088788 2878.64974120947 11 14 7
-8.3530281135813 -274.687071142789 2880.06252039774 9 12 5
-23.0188512463334 -276.368302409672 2879.2873687954 9 12 5
-23.4586430540151 -274.349649493685 2887.92786413265 13 16 9
-24.7157006760936 -272.551086476043 2895.99519853615 13 16 9
-32.6977220486846 -272.48953119507 2899.66130011629 14 17 10
-53.3666569690028 -275.674783782347 2895.1505800476 13 16 9
-63.0932516629992 -276.03901811269 2897.77784376661 13 16 9
-66.8955721711524 -274.888391411364 2904.21769859331 13 16 7
-77.4964544038448 -275.465127401789 2906.32764109742 13 16 7
-85.5613064626861 -275.392333917532 2910.07433377194 10 16 6
-103.893757138035 -277.9014858433 2907.39458872105 9 15 5
-107.720015045593 -276.747533570387 2913.8573843792 13 18 11
-106.385693264325 -274.305812593134 2923.50778589914 5 10 6
108.182985545916 -294.480284440174 2780.01916178175 12 13 7
101.93003760617 -293.997707986868 2784.74019761471 12 13 5
102.878202108764 -291.488923921493 2794.76380928369 18 19 11
103.055892256244 -289.208883649732 2804.16941229209 13 16 9
96.8267253944237 -288.728509100007 2808.86715860351 13 16 9
94.6259015119097 -287.126081866985 2816.48374632064 13 16 9
114.264303275999 -279.475958274394 2839.77940540316 13 16 9
132.403135807889 -272.289102422174 2861.79813535125 13 16 9
136.849321398219 -268.91694372596 2873.88886693134 15 18 11
125.875669036901 -269.793376442756 2874.99636141129 15 18 11
80.6033996404678 -280.033979505121 2852.03232663129 15 18 11
84.2184994689839 -276.882291361043 2863.56367695017 15 18 11
80.4983142819204 -275.738834805387 2869.92302993325 15 18 11
95.6886682232634 -269.483773691069 2889.33972429273 14 17 10
78.8498987416721 -271.900540104106 2886.57964867307 15 18 11
53.700942296135 -276.527950348976 2878.22867488748 16 19 12
51.6335194727699 -274.940394467841 2885.71499136016 17 20 13
54.5598362729063 -272.027158918868 2896.54864728001 15 18 11
7.6354734680173 -282.380203912505 2873.82487522765 13 16 9
7.19107007728415 -280.344841659157 2882.46748030228 11 14 7
6.77073139583317 -278.312513144787 2891.08663715014 8 11 4
-27.9555485780043 -285.31401917898 2877.00962366498 7 10 3
-32.6033894467805 -284.377384781962 2882.90347351828 13 16 9
-6.12246197345545 -275.310191307068 2909.11400201869 14 17 10
-13.2186717488274 -275.042452084884 2913.28691500935 18 21 14
-52.4337382747486 -283.105193039035 2896.73929855399 18 21 14
-78.2508510158526 -287.64380148223 2889.03868897956 17 20 13
-77.8434945224817 -285.389146688614 2898.21998187398 16 19 10
-73.1537480804816 -282.045510861197 2910.07306959542 15 18 9
-82.0614967748643 -282.199938169979 2913.27344490559 13 19 9
-72.1800602231117 -277.556596395374 2928.28080537768 12 18 8
-116.197571474669 -286.639749805204 2909.56768177079 18 23 16
-114.882922605644 -284.173641825735 2919.23401439513 11 16 12
116.387089055826 -297.471686437801 2796.4036412375 18 21 14
77.3475318611156 -306.33350905382 2776.96568886497 13 16 9
66.2295841865994 -307.211240250781 2778.2166626388 14 17 10
58.3026107938363 -307.176290745973 2781.83203308331 13 16 9
85.0348864425765 -297.378511018203 2810.51914527825 13 16 9
115.155851668704 -286.693847237733 2841.37779482401 13 16 9
122.764060684386 -282.37313166062 2855.85636921955 13 16 9
127.186609282496 -278.965399831421 2867.96497714682 12 15 8
88.5129143030654 -287.541026815988 2849.53866575644 13 16 9
86.3996939926159 -285.937672733412 2857.06812484353 14 17 10
84.3028411710134 -284.336205126394 2864.58160959251 15 18 11
99.439324708364 -278.006715547714 2884.04079756498 14 17 10
111.386299756433 -272.589695121953 2901.13376420434 14 17 10
54.2224155770787 -286.060388838045 2870.61760286609 15 18 11
54.6117751104531 -283.785833562544 2879.8138257253 16 19 12
50.0636611485179 -282.860044784257 2885.61058610558 17 20 13
-5.91147382104662 -295.82091926271 2856.67244680383 14 17 10
10.2165659909641 -289.287431431419 2876.53376320273 11 14 7
13.1115074048487 -286.342554652443 2887.39389878497 11 14 7
11.8693777038139 -284.518701945345 2895.44300957913 8 11 4
-25.3559995161603 -292.284547204466 2879.70953981132 7 10 3
-33.3547583021887 -292.23642019236 2883.39424658271 11 14 7
-6.03582203608388 -282.843796326358 2910.14143081188 11 14 7
-13.1319007347379 -282.581115463141 2914.31496126467 15 18 11
-43.0502473962151 -288.309925144253 2903.77796439314 18 21 14
-70.5392623575238 -293.358994128074 2894.97886780618 18 21 14
-78.6035473480404 -293.301810417567 2898.72730449121 15 18 9
-53.4963334971095 -284.616789585187 2923.52427939811 14 17 8
-54.6847249878581 -282.799049738359 2931.52059299115 11 17 7
-77.2201810085122 -286.500862369411 2926.10554683879 10 16 6
-105.828514959084 -291.735641239022 2917.02848907704 13 18 11
-149.135877716061 -300.699777340173 2899.00983397057 12 17 13
73.3526825713624 -317.458394053148 2765.57296107025 19 21 16
77.4325446166504 -313.97505776875 2778.01068750485 14 17 10
75.9435220468054 -312.108905699954 2786.2987147403 14 17 10
30.2378054281798 -322.892409564773 2762.42843064326 14 17 10
68.9946902155811 -309.532256157793 2799.90340206684 14 17 10
113.622974824635 -294.593674556438 2841.23339874052 13 16 9
122.037221351196 -289.999826367329 2856.28844425127 13 16 9
81.7939944648822 -299.150875732986 2836.67125410358 13 16 9
68.2471791742607 -300.733336908099 2836.18722231331 14 17 10
77.5088649529949 -295.914432753271 2851.78439426348 15 18 11
99.1093587261314 -287.681857006403 2875.87939943738 15 18 11
112.640412247552 -281.745132494883 2894.15669717625 14 17 10
93.3911802460758 -284.926899050821 2889.65258520589 14 17 10
61.7212492770691 -291.511410814269 2876.73000620184 14 17 10
31.5795311557694 -297.625255096161 2865.05448127808 14 17 10
54.2869116644158 -289.201185909283 2889.43893823174 14 17 10
24.0383406647382 -295.300763608876 2877.86741120116 13 16 9
1.98895182060266 -299.120934554851 2871.98718646438 12 15 8
12.3647888446312 -294.110804109809 2887.86663591333 13 16 9
4.43804555161709 -294.080129368238 2891.48240967353 11 14 7
-25.2681373659196 -299.914897240883 2880.75005380035 10 13 6
-34.1059158931398 -300.099993351226 2883.88548053566 13 16 9
-42.1172330757269 -300.057860647893 2887.5835439367 14 17 10
-33.2781637327786 -295.516346226093 2902.22413117671 11 14 7
-42.9622647699781 -295.925548161963 2904.81618210079 11 14 7
-51.8181157526074 -296.107792710382 2907.96879574988 13 16 7
-51.350905834322 -293.822543599185 2917.08646932378 14 17 8
-55.9607533551842 -292.884182812034 2922.94233606124 14 17 8
-63.1241827014484 -292.617286569448 2927.1821236715 12 18 8
-76.2770241267843 -293.913014146331 2927.68140022613 12 18 8
-81.7546222648389 -293.19611680014 2933.01477903631 11 16 9
-145.611040070423 -307.63435826208 2902.20252122644 16 21 17
136.746989756066 -304.362316351005 2822.54886754636 20 22 17
68.00546683953 -322.064594036461 2781.48266059227 15 18 11
72.1471214425202 -318.556067665298 2793.85564086178 15 18 11
118.259273661116 -302.96898021835 2836.45044266025 15 18 11
116.939598187884 -301.110348852087 2844.5714172819 15 18 11
123.740797843219 -296.935270704706 2858.45564189086 14 17 10
102.991909191924 -300.643167787573 2852.68431652745 15 18 11
70.7745337661128 -307.580658994279 2838.94061885157 15 18 11
81.6734506939412 -302.251480505553 2855.67039637969 15 18 11
101.647168032186 -294.392657443529 2878.60223644977 15 18 11
106.985581198318 -290.700606181125 2891.17660219368 14 17 10
94.2971370398467 -292.083212933588 2891.22756610146 14 17 10
56.0410639061883 -300.594834855496 2873.79399944206 13 16 9
49.0036172333359 -300.351280287226 2877.91213428452 13 16 9
32.8564342026021 -302.632359926198 2875.8624958094 13 16 9
29.1018778353487 -301.466378454175 2882.2526507097 13 16 9
29.5129715000195 -299.15585007668 2891.42197444647 13 16 9
-48.3828190357078 -318.360913567656 2848.3322514232 13 16 9
-9.67472283163673 -305.517970068189 2883.09795755229 13 16 9
-15.1333513183145 -304.804230742714 2888.41296597231 11 14 7
-23.1085829649849 -304.774696439373 2892.07705794076 13 16 9
-47.9164066134081 -309.300448769061 2884.78921856702 15 18 11
-34.8760960803678 -303.573068532533 2902.16786302257 13 16 9
-26.8199186968197 -299.220920412335 2916.1966146485 14 17 10
-28.0165562695989 -297.374733549439 2924.19725010833 12 15 6
-34.2860256115767 -296.892020282142 2928.93467171689 11 14 5
-43.1111261409027 -297.088608380504 2932.05886968169 13 16 7
-71.5627324713308 -302.488503414208 2922.85058317322 12 18 8
-53.9679805085838 -295.667181763855 2942.62980032942 13 19 9
-57.682030682809 -294.504920973657 2948.98028189639 10 15 8
-166.982601716868 -321.08789555789 2889.98778912907 15 20 16
100.013517210959 -322.650994169937 2796.5462489958 17 19 14
97.776450986963 -321.000154691415 2804.19167058504 16 19 12
126.117100589995 -310.408095436319 2833.9980681354 16 19 12
109.475192777853 -313.002067876328 2831.06903478322 15 18 11
104.901530304536 -312.066263849277 2836.88934712159 15 18 11
131.115053842337 -302.216679045163 2864.66668390388 15 18 11
113.632356726471 -305.04048365602 2861.18928869421 16 19 12
96.0925089885731 -307.856536356943 2857.76783701015 16 19 12
85.8380537465115 -308.560444832332 2859.55256842917 16 19 12
105.820491526413 -300.619119771095 2882.46321737033 15 18 11
111.168320170262 -296.893110058681 2895.02321436159 14 17 10
93.5599869775974 -299.699261250071 2891.66830630774 14 17 10
79.1885765901657 -301.566609108135 2890.62796860597 13 16 9
57.3453873757526 -305.521247950125 2884.562858885 12 15 8
42.8731580178732 -307.374984996115 2883.62096208118 12 15 8
38.312398949873 -306.438419410858 2889.42834858935 14 17 10
24.6111565138532 -308.052096296906 2889.10227890576 14 17 10
-16.6275004596423 -317.301720977464 2870.48847278028 15 18 11
-26.2920106321598 -317.740282437988 2873.06540901106 12 15 8
-14.2082480521917 -312.169319750814 2889.99979101015 9 12 5
2.99237379982964 -305.224246891475 2910.15209481797 11 14 7
-5.774464204789 -305.439308568532 2913.22150546332 13 16 9
-29.7300139884511 -309.797460360965 2906.47948357446 14 17 10
-17.4377031792385 -304.25324379589 2923.21106500616 16 19 12
-20.3068934396304 -302.855518204063 2930.10469591225 15 18 9
-24.8614775703557 -301.91849272241 2935.90588264393 14 17 8
-48.1273612485942 -306.025873861153 2929.85919548386 12 15 6
-78.2950805142266 -311.954715253582 2919.59905605224 10 16 6
-81.2268611414355 -310.548538947647 2926.55359110598 10 16 6
-73.8681119319806 -306.401939882686 2939.88836996155 13 18 11
-114.524372845307 -315.04520954462 2923.44077340941 13 18 14
123.53416081324 -320.926575032093 2823.94748550405 16 19 12
101.270321236232 -325.225440304882 2816.93405500991 15 18 11
103.110221587472 -322.380101958641 2827.4393265409 15 18 11
114.683305993061 -316.688664372757 2844.86335122094 15 18 11
118.238054345898 -313.380560132601 2856.43151321664 15 18 11
121.024364395321 -310.314901255165 2867.38166980825 15 18 11
112.45555011129 -310.568902580545 2870.26019523474 15 18 11
100.608415958782 -311.766840919299 2870.86534127658 15 18 11
112.447274556815 -306.108849424524 2888.03039157232 15 18 11
109.613128087196 -304.709615292287 2894.88900051451 14 17 10
101.861383384124 -304.72638798339 2898.33801079777 14 17 10
75.9794149825637 -309.92272536847 2889.38176874358 12 15 8
55.7803909033856 -313.459437703472 2884.4563658603 13 16 9
51.2343820443713 -312.522048534825 2890.24898346763 13 16 9
57.4754269589306 -308.533323236543 2903.30008356678 14 17 10
50.4701453432408 -308.303507510262 2907.38864646883 14 17 10
-21.5388608378562 -326.343389836397 2868.19974935747 14 17 10
-23.6976407102891 -324.687749396524 2875.76705970433 12 15 8
-12.4458031912988 -319.294412093201 2892.13689922353 9 12 5
-30.4840728510483 -322.082999049255 2889.20599060881 11 14 7
-25.8715365497428 -318.566787242458 2901.11024248695 13 16 9
-24.5838559499569 -315.988557414618 2910.78644559909 13 16 9
-30.868374185538 -315.508841407763 2915.53925397524 11 14 7
-30.3813179134096 -313.168940414044 2924.62880446003 12 15 6
-37.5053203201645 -312.922464396189 2928.83245863682 13 16 7
-58.2474343317769 -316.386377407118 2924.43559237649 13 16 7
-83.3215411911521 -320.999800414244 2917.42513385545 11 17 7
-88.8287415001816 -320.27805083634 2922.78719090129 10 16 6
-86.6266224866541 -317.475646895376 2932.93945747439 11 16 9
-71.5125807498618 -311.213618567683 2951.01365407029 8 13 9
99.3829834881348 -338.016603516047 2798.02649933674 10 12 9
74.6812633420566 -343.091020955867 2789.29714292063 15 18 11
94.9216678402851 -334.672077825146 2813.29828251466 15 18 11
112.062575347293 -327.231068163103 2834.85383146668 14 17 10
118.807878015478 -322.926995779163 2848.77449731835 14 17 10
115.892285052973 -321.509975496989 2855.71135504679 14 17 10
117.048874907202 -318.895743438482 2865.51274993517 12 15 8
120.678795311246 -315.567041728311 2877.0032206757 14 17 10
112.930636087761 -315.592787421514 2880.44999673053 14 17 10
99.4474399455108 -317.28950114205 2879.91967666178 15 18 11
108.058007935056 -312.536052803281 2894.75584538322 14 17 10
89.621366839129 -315.660028459577 2890.85318647934 14 17 10
69.4764643974937 -319.252153999969 2885.88223005748 13 16 9
55.4580544179335 -318.802635926001 2894.06830470947 15 18 11
76.6373157549207 -310.503334893899 2917.1544907917 14 17 10
35.5924427171614 -320.009166091138 2898.38612156465 13 16 9
-4.78487636369529 -329.256148299138 2880.3335129403 14 17 10
-0.63775516515463 -323.570660771084 2900.88144248165 10 13 6
-4.3843501265699 -322.387949790501 2907.26088113221 12 15 8
-51.012955914818 -333.238060040171 2885.73413117771 14 17 10
-60.7416436819137 -333.694080843529 2888.37703934987 12 15 8
-53.5912986917753 -329.439314453244 2901.90311743454 10 13 6
-67.5521971528417 -331.071059215584 2901.83756044647 11 14 5
-54.3916549519166 -325.18088461938 2919.0724143012 12 15 6
-76.8731356259038 -329.157190688321 2913.64433984195 12 15 6
-90.9052126496834 -330.779431542411 2913.64805954538 11 17 7
-101.557043296885 -331.460075349996 2915.82395210825 12 18 8
-96.8147025677246 -327.927588208382 2927.59690078329 9 14 7
85.9985272258683 -347.307062659421 2798.52048136469 15 18 9
85.3570944632192 -345.134306679827 2807.33809494352 13 16 7
116.177610408594 -333.480728159651 2838.77612226813 13 16 7
104.347814040524 -334.724354749058 2839.37114217921 14 17 8
101.397301263543 -333.29449972723 2846.34077883072 14 17 8
99.2711486574951 -331.62355869089 2853.87309055627 14 17 8
93.9059446290655 -330.923159676732 2859.09729880037 14 17 8
96.699428212649 -327.803564128633 2870.03236015014 13 16 9
95.4436802400198 -325.897164807413 2878.0824558938 13 16 9
78.6346402351654 -328.579779080577 2875.33248850388 14 17 10
75.7393674606681 -327.155679077847 2882.24812160563 14 17 10
45.6796848467351 -333.682445417315 2870.55216391013 12 15 8
29.5375970840532 -336.103097950974 2868.51809457139 13 16 9
28.2395114372407 -334.190063979023 2876.6092516529 13 16 9
25.3029243620535 -332.759782666597 2883.5649968711 14 17 10
16.5597231080685 -333.010109564141 2886.61614805784 14 17 10
-7.19603037748895 -337.571547748464 2879.70610897336 14 17 10
-31.0363948570287 -342.12183458406 2872.87810385022 12 15 8
-21.4772966742522 -337.096250524497 2888.14905584496 10 13 6
-42.8916286199934 -340.917610122368 2883.05563306216 10 13 6
-61.855896091334 -344.013576734097 2879.67277522426 11 14 7
-80.0385116038873 -346.86310276698 2876.89421094414 13 16 9
-73.7780160415458 -342.799904697765 2889.91498921949 12 15 8
-68.3092506190617 -338.981699786057 2902.34126779161 14 17 10
-71.2764643157327 -337.545994827453 2909.32662408515 14 17 10
-96.3479164227041 -342.28284993358 2902.33177256606 14 17 10
-95.0776909949855 -339.658264990825 2912.01879549835 11 16 9
-146.397973411282 -349.326156410122 2897.80969915784 14 19 15
102.329690237903 -347.538244569556 2820.59681797449 14 17 8
114.650323690217 -341.423347498127 2838.63283759102 13 16 7
118.976913079524 -337.775603971582 2850.80126080712 14 17 8
86.9035136095015 -345.174956570051 2836.98285579078 14 17 8
86.3663015729887 -342.998221862803 2845.69672643568 13 16 7
102.129627141943 -335.927339290629 2865.84078276139 13 16 7
91.0744160995045 -336.941295603328 2867.04959214477 13 16 9
69.362808675387 -341.12805348152 2860.88812685307 13 16 9
70.5242035663969 -338.469981125586 2870.67793285009 13 16 9
59.393940053643 -339.473414442991 2871.95971515186 13 16 9
58.9429226619087 -337.306572954657 2880.58945545374 12 15 8
48.6105469940408 -338.062664043313 2882.45927557492 12 15 8
32.464054585001 -340.51722858039 2880.43459229442 12 15 8
23.7319624745975 -340.779599835179 2883.47649208809 13 16 9
9.16621944161644 -342.737968906528 2882.6425824717 14 17 10
-11.2734469304363 -346.386872110468 2877.97272270403 14 17 10
-13.4092682251237 -344.701178836618 2885.51245520606 12 15 8
-28.0847184678135 -346.644580716801 2884.78561216835 10 13 6
