ply
format ascii 1.0
comment KinectMotionCapture
element vertex 763
property float x
property float y
property float z
property uchar red
property uchar green
property uchar blue
end_header
-239.733355573587 983.39418646957 3365.99054766661 199 186 177
-263.319078920858 988.759804428899 3363.11242669149 184 171 163
164.94719841983 949.293553293488 2677.27256831068 19 19 11
185.491265714627 942.728785261015 2703.186414383 21 21 11
139.092952190124 954.861566740588 2675.19996296833 14 18 4
142.715456267175 953.025268837206 2687.46118291843 14 21 5
216.204845308973 931.753447596056 2755.07943819527 16 19 8
201.97113944426 934.126486072677 2761.77776220869 12 15 8
159.012243334905 944.444576411066 2746.23114503588 13 18 11
169.458809771956 940.760153899784 2763.32541026199 17 19 8
155.273441024826 943.887452248306 2761.36212393313 23 19 7
139.395019017021 947.47494621411 2758.17822917336 31 15 2
136.704739704919 947.423248543778 2765.10842298816 50 28 15
128.221006552571 948.966829938304 2767.63677965219 162 119 103
123.878297263531 949.370691463383 2773.30637293393 179 130 113
115.373753041214 950.9167784863 2775.85502496731 177 130 114
113.534898307442 950.634601418462 2783.39071566148 152 109 93
107.526555014128 951.495673678491 2787.81291394967 164 125 108
104.870474290494 951.440372358607 2794.7096806784 171 135 119
98.0213545703634 952.531125404799 2798.51558850778 150 114 98
90.3219326684281 953.852688103191 2801.71483608995 85 52 35
85.9904597151227 954.255886666447 2807.37370735167 126 93 76
80.8160839387817 954.889093050722 2812.41835136184 164 131 112
77.3390769142686 955.061559781485 2818.67939886474 170 137 118
70.4677952282271 956.155978190106 2822.50710995691 173 138 118
61.8837124373184 957.713212721113 2825.13309736787 179 142 124
41.3214971805744 962.508628424278 2819.33652596564 194 161 146
21.5463570308527 967.081369121225 2814.20853577541 202 176 163
13.7221774127947 968.420015795062 2817.52914460984 188 168 157
23.9523691812757 964.891498650495 2833.39832101761 182 169 160
-189.762706044468 968.300186070884 3332.7699473525 229 224 220
-192.654104686722 968.49882565193 3338.44594658109 232 225 219
-194.52132321871 968.446622507534 3344.55890358301 232 223 216
-194.336671429178 967.889696779886 3351.54273943626 238 221 214
-196.183180900976 967.839187653732 3357.63488166012 237 217 210
-199.047195853291 968.043397316004 3363.28286522422 230 210 201
-204.990383807039 969.010845177967 3367.62430318755 220 197 189
-213.000457421709 970.490025795292 3371.10907449515 210 187 179
-231.343397998836 974.517530122819 3370.30744976769 171 153 143
-244.573774326403 977.282600602764 3371.70044476476 160 143 135
-280.624501171656 985.66414965719 3363.7502400504 200 189 183
178.28782976382 937.563222820218 2698.35014109789 20 20 10
167.425389542325 939.758916617877 2698.89280347981 14 18 4
159.776233696583 941.065696901094 2702.04465880161 14 20 6
165.603061435723 937.872247285131 2725.07073658524 14 15 7
85.3676613506935 959.088697670574 2671.24477605957 12 13 5
179.762774328804 932.419707874097 2754.32613541661 15 18 9
158.243151889192 937.529802217801 2746.59995549896 11 14 5
151.434458750292 938.609267124297 2750.36738751768 14 14 2
157.794276722693 936.095003542307 2764.26168313113 23 19 7
141.921873502656 939.646534354869 2761.07712696447 34 16 2
135.100614632242 940.727511364747 2764.85715129411 48 26 13
125.783717314069 942.485661380628 2766.763891983 168 125 108
122.266559516131 942.666832783683 2773.06386109268 175 126 109
115.424532928331 943.750499901058 2776.86377263398 209 163 147
111.080292740007 944.156913173376 2782.53450897422 174 131 115
104.22929204321 945.2417575507 2786.3434957819 174 132 116
101.565490379846 945.194859650086 2793.24668749623 163 126 110
95.5496084094221 946.053946876735 2797.6763273473 155 118 102
88.6875287629074 947.140541744668 2801.49605699409 106 70 54
84.3521272960892 947.546371475137 2807.15810260044 142 109 90
78.3273524814216 948.407038498807 2811.59667752599 161 128 109
74.8446470562736 948.585000078458 2817.8625714887 174 139 119
68.8182964143613 949.446160604323 2822.30263829459 173 138 118
61.0830616558009 950.764395228414 2825.53794046073 181 144 126
42.2284315812465 955.054251302835 2820.95458969961 182 146 132
25.0248596010794 958.894618012086 2817.63230465294 169 143 130
18.0672315233825 959.99461456098 2821.54493454176 152 130 119
-175.754547310644 959.118175892538 3325.88471085845 230 221 216
-183.706948128201 960.560011835898 3329.31773175246 234 221 213
-188.627063230315 961.258050404059 3334.10030898599 234 220 211
-191.515089282727 961.459698046413 3339.77217675087 233 216 206
-193.378791840055 961.413125446672 3345.88081014594 230 214 201
-195.234010891328 961.367665212775 3351.98085488689 241 218 210
-195.033581542897 960.822313303223 3358.94731278566 239 215 205
-197.893800107766 961.029346624818 3364.59110914529 226 202 190
-202.805369336751 961.740283461758 3369.36329384199 213 186 175
-208.750323921619 962.705582244675 3373.70714157107 203 176 165
-216.766360899709 964.1776848227 3377.19854287583 168 146 135
-226.865559450876 966.158585718997 3379.84919777077 158 138 129
-236.988511950429 968.145416581337 3382.52290208321 210 197 191
-247.135639745021 970.138374540633 3385.21936939675 223 214 209
174.308485098432 931.470155297696 2696.11701962243 19 16 7
170.70860476695 931.667003416067 2702.49681641911 16 20 6
158.207356604412 934.286510964479 2701.7703811898 15 21 7
161.908962727164 932.498561160746 2713.94590581116 18 20 9
120.894388297607 942.850070258488 2690.79563407705 18 18 10
143.337208806009 935.98025508944 2717.70323245053 16 16 8
177.359614732051 925.996036062933 2753.41085851461 15 15 5
158.293344745767 930.388305575383 2747.60562333532 21 19 6
144.090750413507 933.457922123736 2745.66796761201 24 21 6
152.903303584619 930.316782486851 2761.47037871734 30 21 6
141.146701076787 932.723327628845 2761.4532222554 49 27 13
133.496078736056 934.02122462569 2764.60750893226 96 68 54
124.175584726742 935.766016318333 2766.52013338495 119 76 57
120.65438807112 935.952604334081 2772.82297472503 151 104 84
114.641895353896 936.807654155186 2777.25018356635 187 142 123
109.460733526622 937.439887995386 2782.30170996701 192 149 132
103.442838976782 938.295854678631 2786.73414739614 190 147 130
99.9380299915682 938.480671612267 2793.02097730241 166 127 110
96.4414238276565 938.664500380857 2799.30014557823 160 121 104
90.4239111521115 939.520785773647 2803.73181885342 135 98 80
86.9373793997159 939.703580377896 2810.00113593871 147 112 93
78.3784641963354 941.234644292272 2812.60599956891 170 135 115
73.1987398746878 941.867581444444 2817.65599455603 171 136 116
66.3179605413062 942.951298517385 2821.49438076316 174 139 119
58.5771490848548 944.261685693015 2824.7363805222 181 144 126
40.5717603200002 948.283112768163 2820.76664143503 175 142 127
23.3647957832614 952.085695363516 2817.45330972272 140 114 101
23.2696468626243 951.370254506285 2826.15532960203 99 79 68
-172.885540252945 952.684852092643 3314.06754597848 224 219 216
-174.772925378719 952.63666548849 3320.19993506325 232 221 217
-181.710586459855 953.819708647428 3324.08046317662 232 219 213
-184.604386767624 954.021199694022 3329.75808800721 236 219 211
-187.493276922735 954.224181577697 3335.43095448055 236 218 208
-188.342131653324 953.934901056661 3341.98461042395 232 213 199
-190.198321623498 953.893455165067 3348.08502598369 229 210 196
-193.067627550705 954.100395747721 3353.73785993523 231 201 190
-189.790681041999 952.822522433003 3362.00862295349 233 201 188
-192.639449054649 953.031296547179 3367.64079145712 221 189 176
-197.539262547271 953.738451602527 3372.40186147949 209 175 163
-203.472603703579 954.697228047076 3376.7348030591 203 171 158
-212.508192270846 956.406262897132 3379.78670635961 186 158 146
-215.362151195774 956.62542126465 3385.42249472775 173 149 137
-220.28340200015 957.345539409577 3390.20293637862 208 193 186
-225.208588077053 958.0687482865 3394.98682900444 216 205 201
163.074887042087 927.305100090724 2688.04966008007 17 14 5
178.839126341588 922.291769159365 2709.97885053626 15 18 7
225.480938609625 908.994697181607 2756.31675822451 15 17 6
139.227852183442 931.403767408771 2696.95423027585 16 16 6
131.52485924706 932.700128853278 2700.16074868234 19 16 7
143.387811128087 928.756622220928 2718.72063337993 18 15 6
165.96213398762 921.961087014731 2745.4870072707 18 16 4
151.786490039006 924.997644719282 2743.52747550071 18 14 2
142.497880200659 926.724854075465 2745.41103716195 28 19 2
147.188883175565 924.725827824546 2758.05218240758 32 19 2
139.545777266409 926.014462651225 2761.20037410148 79 53 36
131.891319815586 927.304469551274 2764.35963525221 124 93 75
123.396285891029 928.815922325432 2766.90396234616 118 76 54
119.042161757998 929.227814343626 2772.58404167535 115 70 47
113.85890017816 929.859782171562 2777.63769247784 136 91 70
108.675871904162 930.491779556417 2782.69110723568 156 113 94
103.493098733089 931.123744781495 2787.74427342575 176 133 114
98.3105795879253 931.755795920223 2792.79717466633 170 132 113
93.1282724900258 932.387879295851 2797.84986057624 162 123 106
87.1031358061396 933.241941499403 2802.28943319082 149 112 93
81.919380970966 933.874443260624 2807.34349488804 160 123 104
74.1956157122154 935.173718230556 2810.57020989992 174 139 119
66.4605419674613 936.47430087718 2813.80796113154 174 139 117
59.5646779270007 937.554009696577 2817.6622569359 175 140 120
50.103552878348 939.303452124694 2819.7135048709 180 145 126
38.060198113576 941.724682292143 2819.97892719873 179 147 132
25.9858077386772 944.14989699812 2820.27424159116 137 114 100
-92.3512664834689 928.977782558391 3316.95238124002 196 201 197
-138.142312968367 939.547962832634 3302.76396315686 219 223 222
-154.038247188805 942.882990278176 3302.46892920198 220 222 221
-164.960693149725 945.01527932544 3304.49779652432 219 219 217
-170.880309168154 945.94060026963 3308.82205354746 229 221 218
-175.798696070296 946.626096485989 3313.604768407 231 222 217
-177.690560600434 946.584784246364 3319.74058957845 237 220 212
-183.620782559906 947.517915770947 3324.07456189946 238 218 209
-183.475489716147 946.992297891329 3331.09319232342 235 213 199
-184.329508433628 946.710449787938 3337.65087767406 234 215 201
-184.15329673067 946.184898044121 3344.63845759694 231 210 193
-187.019637227237 946.392644163653 3350.28822777402 230 207 191
-189.8815734136 946.602029934393 3355.93304422423 231 199 186
-188.64455800865 945.83291714451 3363.32047576543 230 197 182
-192.51527369924 946.289893797503 3368.51385987584 220 187 172
-196.385667264936 946.74908369485 3373.70625915294 207 171 157
-202.314969563561 947.702443526706 3378.03632850215 198 165 150
-209.283642660305 948.905507770512 3381.94435505587 184 154 143
-210.062926013649 948.63393367502 3388.42630859125 179 152 141
-212.901203672737 948.856599270677 3394.04600686381 194 180 171
-213.660802147145 948.587261089534 3400.50808255624 207 196 190
125.242635804535 930.144511717846 2658.59817546126 33 30 21
226.558972368777 902.447092949722 2749.12910338082 14 17 8
221.480594684783 903.066487153142 2754.08046130048 13 14 6
163.633518164813 917.675943658204 2717.25832963894 18 18 8
116.927798625375 929.299140470908 2689.65211549062 22 18 9
154.042264848277 918.729025131494 2728.0438503029 24 16 5
159.470575299593 916.555642648252 2741.39585525976 27 17 5
153.475482893549 917.402660969832 2745.80697238697 43 30 13
149.119723480795 917.817189900814 2751.48794799654 54 37 19
143.944734718496 918.447760995691 2756.53359020545 84 62 41
137.119256276404 919.512064090202 2760.31993118757 140 105 85
129.459241473822 920.794149096167 2763.48621956523 150 109 89
122.616884798525 921.860462022505 2767.28902383015 142 100 76
116.598368133051 922.71013850005 2771.72300871896 132 90 66
111.409350325387 923.342301272528 2776.78234672806 127 85 63
106.220543487971 923.974614355334 2781.84145302478 139 96 77
103.543058715285 923.951908550954 2788.75465668767 166 123 104
98.360542801168 924.583605469399 2793.80760707338 176 135 117
94.019089872297 924.996389809594 2799.47463398273 165 126 109
86.3105829367403 926.285013839124 2802.68777145846 161 124 105
78.5907233825029 927.57512801545 2805.91196200932 169 132 113
70.8594697694451 928.866619625109 2809.14726344498 177 142 122
63.9655755442341 929.939888391213 2813.00055503074 176 141 119
57.0638579210625 931.014451302982 2816.86108625018 177 142 120
45.8924213345897 933.190942701376 2817.71376253854 180 147 128
35.5483545171693 935.150542613131 2819.19381420018 185 156 140
30.3192715490406 935.789289425183 2824.29196438772 143 120 106
-103.913173565836 927.642978720066 3277.61835761377 144 146 143
-121.633769558967 931.389527673998 3276.24026059598 149 151 148
-127.501943248951 932.289834245878 3280.51746958182 181 186 182
-135.364844346964 933.669333361676 3283.87049144517 187 191 190
-137.265740773145 933.621847601574 3290.01619386654 185 189 188
-140.15520834775 933.813639232294 3295.69128764047 212 216 215
-145.039402791876 934.484564370217 3300.44220248277 231 235 234
-153.933959480188 936.115023050925 3303.36567256615 237 237 237
-162.846985548751 937.749946006143 3306.30648535733 232 231 229
-169.766598254882 938.909779947234 3310.17252147978 233 223 221
-175.689424036722 939.833146780044 3314.50025466225 235 224 218
-180.609259214645 940.51912041871 3319.28433711824 236 217 210
-185.532090518149 941.207653613192 3324.07101646999 237 215 204
-183.361833105478 940.212181363383 3331.98242789069 237 211 198
-182.183121371165 939.456741379935 3339.42539716191 235 209 194
-182.001490975132 938.942110344663 3346.4063200085 232 205 188
-185.882098839574 939.394391249785 3351.60988338128 229 202 185
-187.718690630555 939.364686183483 3357.68910237051 227 198 184
-189.546968445589 939.336055886162 3363.75990660834 224 192 179
-195.469125119857 940.278902979813 3368.08443402505 226 193 178
-202.426374489947 941.468025690144 3371.98317720189 211 178 163
-206.306831721961 941.931727557992 3377.18490298114 199 166 151
-208.123969553994 941.910950994564 3383.24348427273 193 164 150
-206.832591527328 941.160105652509 3390.57423300612 184 156 145
-206.556834713793 940.652950261789 3397.46058203169 170 153 145
-207.302818055626 940.390151312557 3403.90817120059 164 153 147
199.446500852492 903.285361106414 2719.24752807034 20 20 10
154.701402005884 914.30622039665 2692.61790813292 16 19 12
89.8086148001314 929.827770911469 2659.82330776336 14 15 7
135.694835203845 917.07743552074 2705.41381259608 20 16 7
163.880387293412 908.983857569192 2736.71904397111 26 16 4
157.884815673379 909.827823993416 2741.130750192 34 22 8
152.70530044968 910.458788814195 2746.18082905148 70 53 35
149.990608013807 910.448321636756 2753.12917161024 90 69 48
143.17076982328 911.506239642686 2756.91119329446 119 94 72
136.343410162935 912.564941980827 2760.70023014346 145 107 84
127.026780054174 914.267909420048 2762.61519929217 149 104 83
122.666388682418 914.685086191988 2768.30038315577 141 99 75
114.98551256193 915.961499531923 2771.48788755827 144 102 78
109.792650721364 916.593734124043 2776.55103213395 140 98 76
103.765021408645 917.441434047763 2780.99435814998 146 105 85
102.755511858342 916.995837061835 2789.14755952723 168 127 107
100.087905016722 916.979669872386 2796.04998785412 176 135 117
94.9095595532716 917.610428257473 2801.09893563549 169 131 112
85.5176953401395 919.32288015097 2803.08721156381 169 132 113
75.2619222121211 921.254307249393 2804.48375021616 168 131 112
68.3696568848315 922.321545791121 2808.33597770475 172 137 115
63.1671170066062 922.95559014193 2813.40846523335 173 141 118
57.1143535936578 923.807166244267 2817.87617688494 174 142 119
45.090788377959 926.181910880057 2818.12881843928 178 150 129
32.1819275802993 928.778385818806 2817.81055279192 180 154 137
28.6577559828087 928.981506331702 2824.11390479739 159 140 125
-109.919844247299 923.891242813041 3254.38045259992 151 153 152
-115.785832280261 924.780069771094 3258.65718787794 170 172 171
-116.72679314311 924.499275343732 3265.30105233131 195 197 196
-121.607047418229 925.157261338357 3270.04996692727 234 236 235
-127.479545985818 926.052157278304 3274.33227026954 240 241 243
-133.358478886478 926.949705439703 3278.6202331605 235 239 240
-136.261299001535 927.143416245616 3284.30830255123 241 245 246
-140.154873934727 927.573980200506 3289.52795217073 252 255 255
-144.046938472075 928.006286679364 3294.74618224253 252 255 255
-147.937656703275 928.440264506472 3299.9624905459 253 254 255
-154.832843214257 929.585651191947 3303.80606855156 255 255 253
-160.734503777928 930.497668357303 3308.1147996774 255 252 249
-168.654568932997 931.886673695024 3311.523181279 233 222 216
-173.566035207187 932.567700357851 3316.29968445073 226 211 204
-180.499818727977 933.726326383055 3320.17963308907 232 212 203
-182.38595105627 933.699092683753 3326.30768129724 233 209 197
-182.235940010185 933.196290623874 3333.31825430835 235 207 193
-184.100763730067 933.170203609624 3339.42497327382 233 205 191
-184.939318150406 932.906337449211 3345.96464462547 230 203 186
-187.804447214766 933.120948138816 3351.612197252 226 199 182
-190.665257003229 933.337209199554 3357.25487900759 221 193 179
-196.592027559058 934.273738593588 3361.58492183014 217 189 175
-209.704708165925 936.892707050086 3362.88263705195 218 189 175
-216.687747411323 938.078168593376 3366.8078689171 202 170 155
-218.535110118385 938.065330173553 3372.89529070224 194 162 147
-215.21728668955 936.850176792824 3381.11619235569 182 153 139
-209.804725324255 935.151419618848 3390.1626211792 177 149 138
-207.462716282059 934.173758529941 3397.90051036903 175 156 149
189.824473506162 898.672256416913 2712.48023298481 22 19 10
166.168731569373 902.664428772048 2721.21058639037 19 16 7
167.480504358708 901.61672411969 2731.3987771348 23 16 8
162.298355225478 902.247785111311 2736.45145729137 38 26 14
157.116546767991 902.878744186516 2741.5038142151 51 38 22
153.574204688784 903.087916344334 2747.82465318904 98 80 60
150.039753608159 903.295929847829 2754.13748969135 115 93 70
142.396431750185 904.559353240555 2757.28962206455 135 107 85
134.741989205433 905.82416553464 2760.45293000709 149 109 84
127.076028039858 907.090325034159 2763.62713915201 153 107 83
123.54472430566 907.297823826975 2769.93692636681 149 107 83
115.034795832347 908.777718971054 2772.5007081718 152 112 87
109.00891754379 909.622013833726 2776.94279866149 144 103 81
102.144259337229 910.679639301273 2780.76903267925 154 113 93
101.130993647592 910.247475940305 2788.92431631648 167 126 106
96.7816341186061 910.665738663888 2794.59838489394 178 137 119
94.118124490604 910.656661934176 2801.49569666029 169 131 112
82.1960820447272 912.99650773968 2801.65234479329 169 132 113
71.0881377703285 915.126193435462 2802.44889013958 165 128 109
65.0331107415152 915.974516772958 2806.91933035242 170 135 113
61.5200799320736 916.180465530097 2813.2115392194 171 139 114
54.6129427803979 917.24391789425 2817.07909424484 171 141 117
41.7313060103921 919.812252873446 2816.73795380931 175 148 127
27.1064181917624 922.815209563579 2815.22983190054 173 150 132
23.570975456976 923.024573388284 2821.5437913952 173 156 140
-87.3902572873813 913.339751627889 3244.90369571509 149 150 145
-96.1626161939027 914.90786615068 3247.71503603405 152 152 150
-103.972251200623 916.248925000661 3251.02084533583 170 170 170
-109.831001060768 917.131060527024 3255.29138199192 185 187 186
-114.711507721319 917.78412495742 3260.04127461539 213 215 214
-119.594198911966 918.439233847339 3264.79303433931 228 230 229
-123.490951836614 918.864360524727 3270.01664337854 239 240 242
-128.37596911002 919.52306490862 3274.77018152459 247 248 250
-131.279063175772 919.718874159298 3280.45821280319 246 250 251
-138.152942594046 920.846950478215 3284.28319101543 248 252 253
-143.045068334776 921.512094067053 3289.04283626293 251 255 255
-147.939592268388 922.179426988657 3293.80453936899 247 251 254
-149.837069651299 922.148198381719 3299.94444382971 250 251 253
-156.734405961342 923.286884724091 3303.79148476739 255 254 251
-162.638744245344 924.194770865739 3308.10314763061 255 254 251
-171.566784965073 925.808693713724 3311.06231184103 238 225 219
-175.47493258687 926.25389102291 3316.29426955236 223 206 198
-179.381911565579 926.701050845908 3321.52511456713 225 201 189
-181.264614030537 926.679576484615 3327.64890564266 221 194 183
-182.125068579802 926.42354250251 3334.20916655355 224 196 182
-187.035234079414 927.110950721772 3338.98343484564 220 192 178
-190.9308897854 927.564774833462 3344.20171286226 216 189 172
-196.864977549904 928.493381353944 3348.54019277845 211 184 167
-197.698805640392 928.242128381686 3355.07330659099 199 177 163
-216.942810918344 932.255103863274 3353.751690471 192 170 156
-220.863976966764 932.721461033555 3358.99344825418 184 161 147
-230.949127472525 934.614601363596 3361.64346204772 165 137 123
-232.822823642798 934.611700241708 3367.75522678083 167 138 124
-222.311555696596 931.754082324895 3378.99506598103 160 132 120
-209.678039866179 928.414182061659 3391.03258141524 157 130 119
-203.192859487816 926.498797308283 3400.46314832388 148 131 121
168.653558286762 894.859890361129 2724.1476898914 31 19 5
162.647451592071 895.699523891567 2728.57049799697 39 23 7
159.900559594397 895.708624781887 2735.54792304473 101 76 54
155.530617953075 896.131945860568 2741.24202018332 112 84 60
152.803541938721 896.13850270041 2748.19980583426 136 102 75
146.802879296879 896.976965132962 2752.61771884462 147 112 84
139.975322420475 898.024416249555 2756.4089522997 153 116 87
134.790906697112 898.65487844848 2761.46397171508 158 117 89
128.779384450338 899.494605007043 2765.89214379441 164 120 93
123.593651233701 900.125174328102 2770.94845566749 163 119 90
112.590365726744 902.222737129989 2771.64582106025 155 114 84
108.224702741419 902.645178041047 2777.33546167659 160 119 91
100.523444013225 903.907105903788 2780.54568509905 163 124 95
98.6692011831245 903.698692780653 2788.08575412154 166 127 98
91.797453406921 904.75137408728 2791.91975893158 175 140 112
87.4406748913024 905.172871876243 2797.6007165312 167 131 105
76.346169907008 907.281816405013 2798.38698199917 171 135 111
67.758983249572 908.760306062577 2801.02769005338 156 120 96
61.6963322124184 909.606406210834 2805.5060296056 166 130 106
58.1754365399223 909.818194940611 2811.80484741046 172 136 112
48.7095038243379 911.512445903775 2813.8693645462 173 139 114
36.6669538870119 913.84572409639 2814.14664908995 163 135 111
22.030861614188 916.819960215674 2812.65389825766 163 139 115
21.0527750252383 916.397750363753 2820.77277740357 176 159 141
-33.0774232239182 896.394633860921 3237.40229687376 142 143 138
-68.8611732022952 904.276070673083 3226.42674007752 146 146 144
-78.5665294174058 906.048092615615 3228.71751377083 174 174 172
-88.2932402556689 907.824293906279 3231.0285373728 187 188 183
-93.1689004492373 908.467489256746 3235.77507602861 197 197 195
-96.0935113761545 908.657047788038 3241.48539772202 222 222 220
-98.0338642849032 908.61925365062 3247.66884859625 232 232 230
-101.925082953949 909.038257515117 3252.88786698693 241 241 243
-106.796548513914 909.687174760976 3257.62939461592 242 243 245
-111.669983864174 910.337873519689 3262.37261496898 244 245 247
-117.531617351698 911.219547009532 3266.64608339848 252 253 255
-121.423150898025 911.645136109053 3271.86444117209 248 249 251
-128.283200882609 912.760913588172 3275.6775043154 250 251 255
-132.177107633833 913.190326959558 3280.89799133284 246 250 253
-140.045356588914 914.541546563911 3284.26050339675 248 252 255
-142.948346525576 914.744844766335 3289.94698656784 252 255 255
-147.841494832038 915.410353141138 3294.70759332303 247 250 255
-151.737253540187 915.847253146777 3299.92881283979 249 250 254
-161.642651741639 917.672575759539 3302.41001552494 251 250 248
-165.547798391286 918.114682182483 3307.63945005819 255 254 251
-173.474488044974 919.485003961949 3311.0571713066 240 227 221
-178.392726368898 920.163523126139 3315.84076983104 217 200 192
-185.333016313353 921.30886280199 3319.72948100288 214 190 178
-188.237932521006 921.527794705191 3325.41556633539 210 183 172
-189.110548400222 921.282479950982 3331.98665717148 214 185 171
-193.017419480288 921.73671546873 3337.21601141473 207 178 164
-196.923374569238 922.192958388996 3342.44415937203 200 172 158
-202.867626062674 923.118423547019 3346.79319631329 191 165 150
-214.947728723314 925.45021420127 3348.52523828366 180 157 141
-242.410466467986 931.301029001733 3343.75702508187 165 148 132
-242.277627705273 930.837129359927 3350.77890066383 165 146 131
-240.073874905152 929.903787452011 3358.64752999025 153 127 112
-245.051692272574 930.614466470774 3363.48553817316 142 114 100
-234.563226347932 927.798655574475 3374.74150321648 139 111 99
-218.852673319025 923.799584535962 3388.07196617348 137 110 99
162.208636487344 889.321017102134 2720.02994749269 33 17 1
157.000791657981 889.954668787449 2725.10776095198 79 58 39
155.871513737027 889.563194832902 2733.37223257338 130 102 78
154.761796157961 889.169268024368 2741.61730517488 139 108 80
152.032883224753 889.183709346553 2748.57608743234 153 114 85
146.030250817572 890.019294751521 2752.99638167223 155 116 85
140.024046430929 890.855389430083 2757.42014767011 159 118 88
136.490100121167 891.073246062039 2763.73102811741 168 127 99
131.309810715793 891.702952197711 2768.78206178384 174 133 105
121.984055516973 893.365732852162 2770.71203187112 180 139 109
110.977032908328 895.444660875317 2771.41586247327 171 130 100
104.941349634257 896.284013123337 2775.8680821328 154 115 86
98.0673557160219 897.331244577779 2779.70546072286 162 123 94
94.5333254489667 897.548993856233 2786.01644040779 170 133 104
86.8131813735209 898.805118888099 2789.24593707312 166 131 103
81.6041100087785 899.43821757177 2794.32505023357 176 140 114
72.1818010452924 901.112875518301 2796.34914417791 167 131 105
65.27421994917 902.164472145757 2800.21889231945 153 117 93
56.666131057006 903.634510722753 2802.88160566775 165 129 105
51.4367757786602 904.27052032899 2807.98043082118 179 143 121
41.9553688062551 905.952818462964 2810.06174290364 171 135 111
34.1598797285698 907.218664766941 2813.36495931222 161 134 107
23.7897599381318 909.115268108945 2814.8801928267 169 143 120
28.8091408693223 907.235829495218 2827.17757890687 176 159 141
-14.808514034903 888.474637957616 3204.84455589977 139 140 135
-33.9627584807127 892.431629218645 3202.02483323019 143 143 141
-39.7527358989125 893.279384477607 3206.23215922329 143 143 141
-51.3126030829998 895.466926769312 3207.46891951994 149 149 149
-61.9384944505783 897.436403704103 3209.22736730633 162 162 162
-71.6245415573513 899.186957533677 3211.50180190535 174 174 172
-75.5317934516846 899.599137317006 3216.73775012197 190 190 188
-78.4680799022697 899.788339699952 3222.45971842155 206 206 206
-83.3392375605988 900.42678064763 3227.20248869197 221 221 221
-90.1570426013714 901.515826796325 3230.97755286053 229 229 227
-93.0866942468249 901.708615418647 3236.69240265592 234 234 234
-96.0101507734406 901.901979330812 3242.40101557914 247 247 247
-98.9279646073031 902.096237088121 3248.10355527312 252 252 252
-102.819793353138 902.51666110759 3253.32330742278 254 255 255
-106.709805950097 902.938461368861 3258.54071485982 254 255 255
-109.613718611933 903.135553193112 3264.22936945262 254 255 255
-116.456454910214 904.238828462335 3268.02708767065 252 253 255
-120.344896012946 904.66526605556 3273.24224919505 240 241 245
-127.201484609251 905.773753749906 3277.05329039763 244 245 250
-133.076305118258 906.6581051813 3281.33912009382 244 245 250
-140.945148186572 907.99996467083 3284.70360554184 243 244 249
-144.844370145535 908.434765614724 3289.92857435827 245 246 251
-148.742415866966 908.871259346719 3295.15178711811 244 244 252
-155.638413310149 909.993809389583 3298.99954563724 240 243 248
-163.546440550814 911.348097707611 3302.40110457224 225 229 228
-169.461333567717 912.248868860952 3306.72463787541 231 232 227
-176.388510946519 913.381351412521 3310.60222835308 220 209 205
-185.341937755167 914.975843588925 3313.58913532784 198 181 174
-193.304123284079 916.345332993086 3317.04222752978 181 157 147
-196.223108145081 916.569917378222 3322.74178565067 175 148 137
-197.110346447288 916.335658187613 3329.32542491949 185 157 146
-197.984934562326 916.101986086488 3335.89641559387 175 148 137
-196.811874999816 915.407216907726 3343.3363682788 144 122 109
-218.045967356941 919.791063900068 3341.10196692256 135 115 104
-242.870798752187 923.302451499235 3365.23440992282 80 65 58
155.319146135258 884.514987332826 2706.32665122495 44 28 12
161.446094184633 882.326104213716 2720.4040990241 113 92 71
158.677227462236 882.353543137442 2727.40063494502 135 110 88
155.104626033744 882.581697993355 2733.74837842364 142 110 85
150.722885857174 883.011165002166 2739.45328331636 162 128 101
147.164551626457 883.237226406971 2745.78716866784 164 127 100
146.078713519784 882.853308284256 2754.00738716286 169 132 105
141.719086329879 883.279823731168 2759.6904319305 175 138 111
139.014361581173 883.298645820498 2766.62454748771 188 151 125
131.358131326834 884.53857580161 2769.79297040529 194 157 131
122.032479803227 886.18766261841 2771.72486148477 191 155 131
110.194388904722 888.451587537692 2771.80936556403 188 153 131
103.323954886957 889.492650233946 2775.64412086005 178 143 121
95.6110530356131 890.739311788551 2778.8678245876 161 126 106
90.3975636563876 891.372554651361 2783.95130359213 149 114 92
82.6678468090631 892.621277034562 2787.19140026969 171 139 118
78.2898118454161 893.049877198536 2792.8924161085 158 126 105
70.545213994119 894.300475568737 2796.14701257293 160 125 105
61.1001562739659 895.964261620939 2798.19530323016 178 141 122
50.7892888025747 897.836589151099 2799.6552862703 178 139 122
44.6980802639492 898.680097699396 2804.16236688098 175 133 117
38.6031315896904 899.524208726781 2808.6727346135 180 141 124
33.3569836509562 900.162158408206 2813.78794838467 160 129 109
26.4025532255001 901.214222968083 2817.70448728459 165 136 118
30.5714790886054 899.573043352437 2829.39426392582 189 170 156
-15.3322933694557 884.415929943945 3169.12220679713 146 146 144
-27.7542211063722 886.782764280255 3169.77125952073 147 147 145
-30.7171318617043 886.966949506496 3175.52040768207 181 181 179
-36.5265866362687 887.80862275378 3179.74763605465 192 192 190
-45.1999373308865 889.309945429097 3182.47053156147 199 199 199
-48.1604994360456 889.497372700255 3188.21686830565 217 217 217
-52.0714895839478 889.905011399594 3193.45719983355 223 223 223
-52.1444664969288 889.433386894066 3200.68459515547 230 230 232
-55.0819312837407 889.621689424049 3206.40752871622 236 236 238
-60.9008095966468 890.471908723475 3210.6431895409 243 243 245
-68.6543814846177 891.76586009335 3213.90028980198 248 248 250
-74.4878684912798 892.620692585592 3218.14977544763 251 251 253
-81.2955527839181 893.698968872109 3221.91638134461 251 251 253
-85.2011007859916 894.115238577079 3227.1500330824 254 254 255
-91.0491254533019 894.976208496772 3231.41304773088 254 254 255
-93.9796231587327 895.173290565078 3237.12810310689 254 254 255
-95.9278251221365 895.14863350397 3243.31740655428 252 252 254
-98.8444850942054 895.346755678867 3249.01822928722 251 251 253
-102.735136283907 895.768446500511 3254.23662487342 245 246 248
-107.606278913931 896.414551501075 3258.97824747683 239 240 242
-110.511247232056 896.615917263338 3264.66698082377 238 239 243
-114.396201686557 897.04160742711 3269.87912836668 234 235 239
-119.267558542829 897.692574878068 3274.62024503189 234 235 239
-128.101026538972 899.242047145063 3277.49468505547 235 236 240
-134.968155056503 900.346733276049 3281.31675442503 225 226 231
-143.833502327134 901.903939468202 3284.22170796868 220 221 226
-146.74166839478 902.115720020194 3289.91241526879 232 232 240
-151.639976868668 902.778930474768 3294.67848577811 225 225 233
-158.540333090486 903.895130658239 3298.5315111353 220 223 228
-167.454477476793 905.46614141171 3301.48321847003 203 209 207
-172.37222600825 906.137522570599 3306.26738561737 209 211 208
-178.298151944938 907.037325845726 3310.60201782497 210 201 196
-191.283937367308 909.525648711348 3311.79337145599 183 168 161
-204.304266346758 912.02075710101 3313.01768661035 161 136 129
-207.243440957379 912.251896605088 3318.73632460735 160 133 124
-204.097188032883 911.120407618031 3327.11523274704 151 124 115
141.602237767634 880.659990181106 2696.42836329146 101 83 63
157.436375124266 876.122348405285 2718.21749945219 142 120 97
161.980639955317 874.363943360414 2730.96913197668 149 123 100
159.231368487753 874.396460000702 2737.94545903558 169 137 112
150.771431539485 875.826769800079 2740.46692720949 172 138 111
145.574182097644 876.45814226722 2745.53455615979 179 143 117
144.484168120507 876.087677790238 2753.75659507095 187 151 125
141.767318137058 876.115871311991 2760.70136607189 192 156 132
139.062458529603 876.142494287504 2767.63446257826 198 163 141
135.542406366311 876.36861100412 2773.9306629378 201 169 148
127.055374722296 877.801523994752 2776.4783139526 213 182 164
119.384636178223 879.03477842739 2779.6624683015 204 175 157
110.036324998734 880.672818248722 2781.61815565335 177 148 130
100.669133751824 882.313225164633 2783.59257917771 164 135 119
91.2827500762647 883.955887722561 2785.58538984252 156 127 109
84.3938120068888 884.99357621028 2789.4386807999 156 127 111
79.1790508825909 885.626566614978 2794.52345997928 165 133 118
68.9085518932719 887.477398684874 2795.94687138161 160 127 110
56.0812154383252 889.940469275164 2795.56736796122 165 129 113
41.5263001956943 892.814721186038 2794.00878476027 174 137 121
36.262344569947 893.454149214619 2799.14146332882 170 131 116
34.4003104375177 893.278148693456 2806.68447866128 181 144 128
34.2587495845286 892.692144420146 2815.41379344693 157 128 112
34.1403608775046 892.103467842862 2824.12015507245 160 132 118
55.4283323487672 885.79731094409 2856.34263080257 178 161 151
11.7447517999807 873.979187218654 3148.02791248362 137 137 135
-4.33789273609131 877.165416515427 3146.52302977394 152 152 150
-14.8315791739164 879.069577636327 3148.1598497595 171 171 169
-18.760188067489 879.471948417545 3153.41845555831 144 145 140
-22.6857069684194 879.87515496354 3158.67420726507 156 156 154
-24.7180562287195 879.847779051468 3164.94747206719 187 187 185
-29.5811888152366 880.467753538693 3169.68500265745 205 205 203
-31.5983769253174 880.440661207224 3175.9428324582 238 238 236
-36.457745409896 881.06234301617 3180.67637289819 243 243 241
-43.2241209964994 882.118474592814 3184.40556945986 247 247 247
-48.0898046372245 882.743429218249 3189.14489722242 248 248 248
-52.9566884514057 883.369596583494 3193.88523753254 246 246 246
-53.9897798290911 883.127896144561 3200.61481087466 253 253 255
-56.93000693728 883.320779626641 3206.34014824065 254 254 255
-60.8265902569531 883.731968279577 3211.56564889356 253 253 255
-67.6145465401285 884.798440462453 3215.31440922688 254 254 255
-72.4786845349965 885.43086618211 3220.05109791578 251 251 253
-78.312658591678 886.283224415207 3224.30143290372 255 255 255
-83.1817533477888 886.918987579397 3229.04255045697 254 254 255
-89.0247674280396 887.775374923602 3233.30126682109 253 253 255
-93.8991601596424 888.414636485455 3238.04712828067 252 252 254
-96.8227751992021 888.616348023139 3243.75432699218 250 250 252
-98.7619963998396 888.598814429894 3249.93365956395 248 248 250
-101.671568176203 888.801749963354 3255.62707004346 227 228 230
-107.521495908761 889.666497924249 3259.89141607103 222 223 225
-113.377643234589 890.533635159926 3264.16124727089 225 226 230
-117.267330017392 890.96133716071 3269.37779673713 223 224 228
-122.14326687915 891.61158467995 3274.12356782108 229 230 234
-129.991153173725 892.927981299312 3277.47100628407 231 232 236
-136.86119405122 894.026325171237 3281.29656721126 213 214 218
-144.73504919734 895.349651644207 3284.66876889839 206 207 211
-151.626978653513 896.454280010948 3288.51547450418 199 200 205
-157.531791502035 897.339699887279 3292.83092912118 185 186 191
-162.443028960357 898.00495302756 3297.60953639512 179 183 186
-169.360009661437 899.118341540286 3301.47982351168 169 175 175
-178.294975797812 900.681670699472 3304.45300464632 168 170 169
-187.248075002094 902.249277722182 3307.44389776107 175 170 166
119.456264002191 879.401755208634 2670.42697613326 163 147 132
141.651678449765 873.37747596046 2697.45562038463 142 123 106
157.48524791258 868.90907621014 2719.23508653118 174 151 133
162.84277569761 866.985799506978 2732.62041419695 173 151 130
160.910980518209 866.828899980967 2740.23021800356 193 168 148
153.272350568279 868.050512674423 2743.3838708458 193 168 148
148.900178638895 868.483503997672 2749.07841559349 196 171 151
146.996428127677 868.322846158229 2756.66058826511 195 169 152
145.931994309102 867.96217596855 2764.85611595128 206 184 170
144.88709903533 867.599114641581 2773.03225714069 226 204 191
143.862078080197 867.233534803047 2781.18937291479 247 227 216
138.711049631549 867.858549660136 2786.21204338756 255 250 242
131.898244475322 868.881333190066 2789.99193618298 255 251 244
122.579200210864 870.502107583725 2791.92145072023 250 236 227
115.7457551303 871.527257228768 2795.72148955484 255 251 243
106.394316322303 873.152010569624 2797.68224642405 217 198 191
99.5404616337825 874.179602194482 2801.50252921952 124 106 96
94.3604375629801 874.808154472812 2806.55346994442 134 114 105
79.0687722316021 877.839886232892 2804.28596786011 170 143 134
56.9743506366049 882.481109316224 2797.19987096837 146 114 101
37.3423953656449 886.529728815233 2792.00716096103 169 133 121
32.0688776882632 887.169890541745 2797.14922634798 175 137 126
37.8508200409855 885.194524890492 2810.1208027978 173 137 125
46.2402918628251 882.608857828785 2824.84433201551 162 134 122
56.4003170586505 879.612370762047 2840.70421321203 151 124 113
75.1923599490922 874.588499020745 2862.46246434779 148 130 120
85.5114315871619 871.573082030522 2878.16720791044 138 127 121
88.1597282004196 870.3708329965 2888.46829949209 153 144 139
24.4401441431119 865.867558230175 3133.78593895906 134 136 131
-8.34226902835278 872.810614052107 3122.80285912363 140 142 139
-9.5011298927834 872.580523099866 3129.65560754824 145 147 144
-10.6452884379813 872.3495221879 3136.49389084417 148 150 147
-15.5243078755087 872.965248769519 3141.24782515093 201 201 199
-18.5253463114736 873.157778725317 3147.03360131539 224 224 224
-20.5783201860736 873.138074192666 3153.32621283787 243 243 243
-23.564069920357 873.330871649179 3159.09642971707 247 247 247
-26.5426867627938 873.523582416998 3164.85991418376 255 255 255
-31.4089575411067 874.143067990766 3169.60063330607 249 249 249
-30.5818228803965 873.483180756077 3177.37893899608 252 252 252
-35.4385041681367 874.10358029994 3182.11000052811 252 252 252
-41.2493469056181 874.939118857571 3186.33951387283 255 255 255
-48.9746337495243 876.204724503179 3189.57305399469 255 255 255
-52.8858666396292 876.615696058313 3194.81313397456 255 255 255
-53.9182390451574 876.383634837885 3201.54056869442 251 252 255
-59.7396306668214 877.22538462467 3205.77997706212 248 249 253
-62.6786734848186 877.423733884579 3211.50299272887 245 246 250
-70.4339050575058 878.699437241396 3214.76443812978 247 248 252
-74.3361418650421 879.115571323904 3219.99515968937 245 246 250
-79.2046607423167 879.748726229878 3224.73609088585 242 243 247
-84.0746795671583 880.383367542258 3229.47829186221 242 243 247
-88.9463269680446 881.019629414361 3234.22187052065 237 238 242
-95.7682582269857 882.090797464557 3238.00367446 228 229 233
-97.7183719216712 882.080180112951 3244.19280122188 203 204 208
-101.615028503349 882.50405629942 3249.41649941313 196 197 201
-103.549308609377 882.494214407223 3255.58978857485 194 195 199
-109.402091966913 883.355430422472 3259.85749230025 199 200 204
-115.260671120113 884.218851310519 3264.13062545719 217 218 222
-118.167428439671 884.430113492381 3269.81967262251 223 224 228
-124.032032129539 885.297537154457 3274.09819662516 229 230 234
-130.892641687997 886.386200547747 3277.91582288364 226 227 229
-137.763133293908 887.477806788196 3281.74316505179 201 202 204
-147.625227142695 889.23009192408 3284.19216078176 192 193 195
-154.521687061643 890.328568981422 3288.0442743649 184 185 189
-161.42862098182 891.430266493402 3291.90597496231 170 171 175
-165.346785419763 891.874839578975 3297.14797178013 166 170 171
-175.273153166866 893.642939339371 3299.65879288867 160 166 166
-187.228853316328 895.85691307295 3301.28471461586 156 160 159
-198.209286003347 897.85610749256 3303.39083494226 165 161 158
159.896848412497 862.360052167381 2703.63816777503 153 139 126
165.183503953107 860.480206800233 2717.08745349469 156 139 123
166.462612904159 859.563212976242 2727.28909875203 185 166 151
166.145746930817 859.030326301566 2736.1846433558 183 164 149
164.221320108559 858.883007366081 2743.78537642575 180 161 146
163.947865226678 858.344530095899 2752.63863946153 191 172 157
162.059068318154 858.192660474826 2760.20466408978 216 197 183
157.722035996484 858.623639614063 2765.86461208748 232 214 202
153.389234670166 859.054026400282 2771.52044619376 255 245 236
149.060916991172 859.483775944777 2777.17225999801 255 251 242
148.872540011876 858.934455315489 2785.94264206258 255 252 244
146.220241240485 858.969974001733 2792.82189225759 255 248 246
141.918178442722 859.39635473245 2798.44813248587 255 247 244
134.288240069691 860.607908452909 2801.59464117558 255 254 248
127.481908316013 861.624037993768 2805.36908924324 255 253 248
123.178931937943 862.050474926972 2810.99622836357 255 246 240
118.879933364743 862.476423432578 2816.61915181224 255 245 239
115.425819092545 862.704501244029 2822.84924718023 255 251 244
100.182915429731 865.697816835 2820.53933977322 255 245 238
74.7589385526841 871.070632054144 2810.98343638539 249 226 220
52.6282342663 875.66254467774 2803.94031896497 151 124 117
57.5710386780202 873.918527220015 2816.29406931526 158 129 123
71.0642866678533 870.183839873445 2834.62142963708 136 116 109
85.4952078011784 866.24011504421 2853.46547163241 130 111 104
94.8897346922237 863.479668336645 2868.633707982 220 205 200
98.3570448703888 862.10598477463 2879.56375425254 255 246 242
101.005170213238 860.927167956078 2889.86155263702 255 253 251
95.9478813194634 861.541544829344 2894.79271063545 253 249 248
93.476748102006 861.55627558993 2901.49547104562 250 249 247
94.4729836161082 860.769145602275 2910.54157282948 255 255 253
96.3622072831383 859.778552416204 2920.14790526629 255 255 253
102.621565944693 857.781212652949 2932.64864802809 236 232 231
99.3645721861882 857.987611570253 2938.68654178509 241 235 235
98.7300860292617 857.590089519132 2946.46023393449 252 248 245
95.4946000272008 857.794425699083 2952.47707504308 244 241 236
92.266849454667 857.998081549365 2958.48633530822 211 208 203
86.4144208069946 858.806724661316 2962.76111921165 188 187 183
84.0758269969402 858.807931040264 2969.33426492867 145 144 140
90.5619011009757 856.785135540928 2981.61363825129 150 149 144
31.1780748758999 860.071462399093 3101.02843048044 135 136 131
27.2326356763082 860.470588744599 3106.3042285481 138 139 134
20.519145655685 861.492750688673 3109.98592965782 146 146 144
10.0941537009636 863.347799163501 3111.56179383382 135 137 134
-2.21006598745221 865.6227682047 3112.1078762177 142 144 141
-8.0385371138334 866.444784424185 3116.35689340887 154 156 153
-10.1450616258889 866.434189553329 3122.70133510193 187 189 188
-10.3735260506137 866.005695281017 3130.0767571919 199 201 200
-10.5835861742301 865.575778424424 3137.43377595415 236 236 236
-13.587037342786 865.772091704264 3143.2213888241 246 246 246
-17.5230259368839 866.178046411184 3148.48679307197 255 255 255
-19.5734719630183 866.165217399899 3154.77587820449 253 253 255
-23.4996154251097 866.571994880424 3160.03138448516 252 252 254
-26.4775509410189 866.769160355848 3165.7935339807 250 250 252
-33.2372299608243 867.808421240949 3169.5182363914 255 255 255
-34.3113082469526 867.585614551741 3176.28605569355 255 255 255
-38.2239275094074 867.994932847518 3181.52775671267 255 255 255
-41.1811100740356 868.193917783577 3187.26869146332 249 249 251
-47.9506964511556 869.238896241393 3191.00272481354 243 243 245
-52.8158187527521 869.862836599887 3195.74164506625 241 241 243
-55.7648703342348 870.064334625914 3201.47413419684 246 247 251
-60.6286972213752 870.690588367545 3206.21142616683 242 243 247
-64.5310093700817 871.105670509129 3211.44237801773 236 237 241
-71.3247576045024 872.15995868649 3215.19869063494 236 237 241
-77.1610318456624 873.003761570416 3219.45257421694 231 232 236
-83.002717612576 873.849543977332 3223.71153895138 229 230 234
-87.8794869717976 874.483974862956 3228.46047440916 225 226 230
-90.8133562095848 874.692463206121 3234.17685408221 218 219 223
-97.6379953756688 875.75759095987 3237.96257760855 207 208 212
-101.543495525422 876.182582018614 3243.194892816 189 190 194
-103.490410790313 876.179817089818 3249.37968290515 186 187 191
-106.407921718839 876.392081122 3255.07926049009 197 198 203
-112.265387861967 877.249877596579 3259.35211969743 205 206 211
-119.11279605091 878.325259888664 3263.15859974179 217 218 222
-123.998005935391 878.972489633081 3267.91402510018 222 223 227
-128.885271721491 879.621629683705 3272.67120965685 210 211 213
-135.754241276063 880.704670472038 3276.4983063756 192 193 195
-141.641330616921 881.574280150612 3280.79883586981 179 180 182
-150.516207992545 883.096127091509 3283.71847903049 164 166 165
-158.413121337626 884.405259457157 3287.11567573292 161 163 162
-164.328660603189 885.283762895175 3291.44314192917 149 151 150
-171.250092067902 886.382262664839 3295.32004926953 147 151 150
-182.188403054511 888.354269540201 3297.38836043191 149 155 155
-197.166899722535 891.203180345692 3297.67105457009 151 155 156
-216.209559834502 894.932089866005 3296.19114670687 172 172 172
164.800066330379 855.176891595117 2689.91182698723 189 188 183
171.633416239745 852.959073571257 2704.70933102286 203 200 195
175.293959301273 851.496619084298 2716.87752380537 233 224 219
178.997465947127 850.028748354872 2729.0038536318 238 227 221
172.192573581141 851.040437644625 2732.77786647538 242 231 225
169.448188230489 851.095984811658 2739.74593764616 241 230 224
166.715858108578 851.149835319079 2746.70228856215 245 231 222
167.265436841663 850.434522317119 2756.18131261325 252 238 229
165.384175369438 850.292258154508 2763.7384347593 255 245 237
160.233488135039 850.917112058466 2768.76079019008 255 247 241
158.376294603142 850.771459936593 2776.29451325449 255 248 245
154.059519511276 851.202172076463 2781.93472282792 255 247 244
151.400898558183 851.246389596914 2788.81896535892 253 249 248
148.754520633057 851.288991682421 2795.69162698474 254 253 251
146.120090566771 851.33002858165 2802.55265554396 253 253 251
139.332981141398 852.33829667265 2806.30951531631 254 253 251
134.208148644818 852.95941942548 2811.30674807275 255 254 250
130.757176309016 853.192231433829 2817.53302373923 255 254 249
131.508178444637 852.451702717973 2826.81575824552 255 252 248
128.923896284723 852.48653561444 2833.62790614129 255 251 246
121.295713268871 853.689553439701 2836.77393333695 255 248 242
110.278017481324 855.674533363054 2837.50224805165 255 251 246
100.080034480742 857.467292552268 2838.86189530959 123 104 98
105.979372245489 855.546356746281 2851.70885167249 133 112 107
109.378165623141 854.206962255177 2862.70186822909 187 172 167
109.406704345923 853.647337945846 2871.25837267431 254 243 237
109.458754516474 853.084808613769 2879.79195926542 255 249 247
112.102710360897 851.930104957336 2890.09033410865 255 253 250
111.34920517674 851.558378440977 2897.97840134273 251 250 248
108.89535056772 851.578419999387 2904.6632189057 255 255 255
103.867399587363 852.188980424854 2909.56580799172 252 254 253
101.431312302232 852.207312849214 2916.23323494868 254 254 254
97.275530825581 852.619793094729 2921.7162701483 255 255 255
