ply
format ascii 1.0
comment KinectMotionCapture
element vertex 761
property float x
property float y
property float z
property uchar red
property uchar green
property uchar blue
end_header
2.37257858762074 831.305833399325 2854.73285541164 247 247 245
-3.73617753879207 832.122305561948 2859.26135700239 248 248 246
232.629821617377 794.73962915508 2658.41178236232 239 241 238
236.056074136407 793.513868201152 2670.77764591616 252 253 255
238.737127435073 792.452064337848 2682.44236120779 237 238 242
238.296585900504 792.064382413391 2691.43925627345 248 249 253
239.464133223636 791.333346834432 2701.7241993291 233 234 238
231.133628236566 792.64179851702 2704.13481238663 238 239 243
226.768536863961 793.09906387458 2709.81907618709 253 254 255
224.00371472065 793.213856466302 2716.79868494721 248 249 253
225.250354479176 792.471978534646 2727.00635269831 242 243 247
222.519294187352 792.582161095576 2733.95311680135 244 245 249
219.800332179932 792.690582600217 2740.88812741247 245 246 250
215.481938402261 793.140735676494 2746.52673316093 242 243 247
211.975645367194 793.41813081138 2752.80169157492 244 243 248
206.858313378778 794.038720787763 2757.79155496 245 244 249
200.929946510738 794.831331610397 2762.14445404617 245 244 249
194.184508701113 795.796855196366 2765.86591306525 244 243 248
186.616449010327 796.935978291894 2768.96168052349 243 242 247
178.220007979507 798.249250061805 2771.43739448237 243 242 247
173.904795731025 798.697468866288 2777.07312680983 244 243 248
169.593921847795 799.144963844416 2782.70465805769 246 245 250
167.757078540074 799.070326310973 2790.2080149655 246 245 250
158.510068435231 800.560144127811 2792.08501600026 247 246 251
152.552420710635 801.354972047006 2796.46666372394 247 246 251
143.275312230167 802.84817146055 2798.37305309211 248 248 250
141.457480310883 802.77073749564 2805.85760687952 249 249 251
135.491481196532 803.566264427253 2810.24744434296 250 250 252
132.026364153015 803.836345796391 2816.48259536003 251 251 253
120.202206972842 805.860044214793 2816.58876842292 252 252 254
111.702189051027 807.184604432789 2819.16566733801 252 252 254
99.8248851311727 809.214753928978 2819.32400027458 252 252 254
92.971921720288 810.191474072438 2823.15057895892 252 252 254
81.8895004695208 812.051167214549 2823.96168434696 252 252 254
73.3196093743196 813.384123274505 2826.60672745436 253 253 255
62.1896141205327 815.249519031485 2827.46423168669 253 253 255
54.4338638112434 816.409826821043 2830.74324761516 254 254 255
48.3711034899446 817.216975389909 2835.22711487258 254 254 255
39.7427093290612 818.557247722043 2837.9291710472 254 254 255
33.66731896201 819.36597547095 2842.42568456664 254 254 254
24.1563774420621 820.887414909218 2844.56009973638 254 254 254
18.0661889513161 821.698244072055 2849.07099742334 255 255 255
11.1104599631884 822.688096355883 2852.99768292043 253 253 253
5.01121316456521 823.500303337665 2857.51737199998 255 255 253
-1.09160561351906 824.31301959304 2862.04053283752 254 254 252
-11.5362913667045 826.022480060793 2863.65747109038 255 255 253
-20.2646917978688 827.376008429421 2866.45687573336 226 226 224
232.42738346257 788.053992904296 2649.68189965273 210 211 206
241.308546069293 785.697081907614 2666.71718124145 229 231 230
245.542076690286 784.331426930862 2679.71932914147 253 254 255
246.669397854337 783.627235033303 2690.03991204136 227 228 232
243.087056658698 783.921883194627 2696.38783741323 239 240 244
241.889395690729 783.712988047836 2704.69322934315 238 239 243
235.152805500464 784.674624715956 2708.40647703018 224 225 229
231.59313510265 784.965412392941 2714.73246054257 253 254 255
228.04152631054 785.254960939036 2721.05028406233 249 250 254
228.49766310555 784.701562410321 2730.59816645083 242 243 247
224.170565375067 785.155866099218 2736.24513973636 244 245 249
219.847597490541 785.609308380362 2741.88780149749 244 245 249
213.917697055634 786.400107593367 2746.24249119334 241 242 246
212.830090165953 786.175464416783 2754.44058750656 243 242 247
210.143289924973 786.287084585392 2761.34318824704 244 243 248
205.03397618968 786.906250951778 2766.32529979717 244 243 248
195.044346227767 788.544958482891 2767.50081817547 243 242 247
187.478168368607 789.67564767676 2770.59596347407 243 242 247
178.266263209882 791.148348621743 2772.44097248657 242 241 246
175.589526891995 791.257756571713 2779.33390656759 243 242 247
170.461238940487 791.878253500664 2784.33466313834 243 242 247
168.625917881206 791.81393355264 2791.83464565434 244 243 248
160.206070411621 793.118598186081 2794.33487468393 244 243 248
154.252043685878 793.910152155074 2798.71307274864 245 244 249
144.150141239505 795.561054407607 2799.9986148312 246 246 248
140.672243216546 795.838185192231 2806.24507780728 247 247 249
136.369771574619 796.286389999132 2811.86816059293 248 248 250
133.741214731557 796.388898597189 2818.71427146442 248 248 250
122.757856395884 798.217705010946 2819.43157095832 248 248 250
112.586383001188 799.87674216777 2820.78465784372 248 248 250
104.073306721087 801.191921428765 2823.37591040297 249 249 251
96.3875692905032 802.335501159756 2826.58787490765 249 249 251
84.4686718714405 804.348898805137 2826.78998672002 250 250 252
74.2118506747493 806.018105720258 2828.22632214864 251 251 253
63.9321557876023 807.690137258682 2829.68495401192 251 251 253
57.0307720667089 808.667287506334 2833.55988905266 252 252 254
50.1217802261653 809.645409916266 2837.44189754154 252 252 254
43.2054339949586 810.624341526343 2841.33108944963 253 253 255
37.9938019327803 811.254165928199 2846.41322935791 254 254 255
30.2089572573245 812.409931820113 2849.72214555455 254 254 255
22.4125056956916 813.567409857671 2853.04199666438 254 254 254
15.4666073497722 814.550361825504 2856.95994005212 250 250 250
9.37716588349513 815.358443216846 2861.47050205217 252 252 252
0.686880555609726 816.69597553196 2864.23408420187 250 250 250
-11.4888608379906 818.741516566108 2864.68649509899 255 255 253
-22.825701408669 820.614295343924 2865.74830858147 250 250 248
-28.9603843580699 821.428433956029 2870.30290078847 255 255 253
241.084908216634 779.023966009616 2658.00649964254 233 233 231
243.711876984878 778.022818899316 2669.71595663079 219 221 220
245.59182585919 777.180374303608 2680.72684993663 246 247 249
246.718717700593 776.497642213003 2691.04468741016 233 234 238
245.506668370612 776.304123777955 2699.36209452498 228 229 233
243.522240115166 776.272517804273 2707.00530757985 244 245 249
239.171513350557 776.733587351176 2712.67440701271 223 224 228
236.417214923331 776.863269688552 2719.64136486928 251 252 255
234.473118738299 776.825799583891 2727.24573214 248 249 253
233.344630452966 776.620403706335 2735.48157954105 243 244 248
226.623445740267 777.573598660404 2739.18111488476 243 244 248
222.306087684334 778.028928361882 2744.81792704327 243 244 248
215.576004002366 778.982609553244 2748.52588948736 240 241 245
213.684429723887 778.937351889103 2756.07891488436 242 241 246
207.761042772922 779.724086688506 2760.42773731293 243 242 247
201.834364512059 780.510823628033 2764.77982774457 243 242 247
193.463881123943 781.799771153578 2767.23336049322 243 242 247
188.339862376878 782.42014266326 2772.22989621776 243 242 247
182.39886313257 783.208167308773 2776.5956794333 242 241 246
178.093253515477 783.660233830156 2782.22164535695 242 241 246
172.970663939648 784.279894450657 2787.21686696245 242 241 246
168.671628366371 784.730850403137 2792.83613106302 243 242 247
160.251710990604 786.024555647638 2795.33804930339 244 243 248
152.643739895784 787.151078530693 2798.47531168173 244 243 248
146.682342649102 787.940554260812 2802.86113594549 246 246 248
142.37956850038 788.391378793957 2808.48446977245 246 246 248
137.248164154161 789.011325092755 2813.48840235212 246 246 248
131.282262781671 789.801073795368 2817.87865893418 246 246 248
121.129981633713 791.441579936999 2819.21576435279 246 246 248
112.631824118226 792.744041224503 2821.79374422718 245 245 247
105.799918837341 793.707184385268 2825.60175639124 246 246 248
98.1181689145316 794.841946823011 2828.81106443384 246 246 248
87.0476149959991 796.662344881556 2829.61619318174 248 248 250
75.9504055143174 798.485808453244 2830.44733821638 248 248 250
67.3711508352413 799.798021576187 2833.10440745603 249 249 251
60.4775133389843 800.768652219451 2836.97261397588 249 249 251
53.5763102402314 801.740249665033 2840.84785251589 250 250 252
46.6680048642809 802.712670458769 2844.73035987365 251 251 253
39.7520902916644 803.686181488213 2848.61992429784 251 251 253
32.8288633070315 804.660555394555 2852.51662252242 252 252 254
24.1786019909687 805.981765963256 2855.2432104257 253 253 253
18.0986698524803 806.785582173755 2859.74495991454 247 247 247
12.0151232173771 807.589913017811 2864.25022258934 255 255 255
5.06225800670768 808.568436075263 2868.17573876779 253 253 253
-5.3684383510415 810.243405258742 2869.78388314093 255 255 253
-17.5609475338554 812.269536517484 2870.25581345695 255 255 253
-26.2983318839671 813.60232001722 2873.06720534681 239 239 237
-31.5573786507026 814.23900632837 2878.19541457044 225 224 220
238.548221070453 772.790640131342 2647.27664361725 228 228 226
246.612370893684 770.695428581012 2663.66764259604 215 217 216
251.605515009781 769.236059271232 2677.34624332149 214 215 217
251.145481521263 768.899483899132 2686.35494065944 233 234 238
248.34448010426 769.044135089728 2693.36606288529 241 242 246
246.345687181143 769.025308212376 2701.02165152265 224 225 229
244.36286214197 769.004173485402 2708.66172491437 254 255 255
243.19019546909 768.818368538356 2716.93888441835 248 249 253
241.241240189813 768.79243327054 2724.54603415565 245 246 250
239.308295311632 768.764184793138 2732.13762721935 245 246 250
235.791687202012 769.059686422619 2738.42015252287 243 244 248
229.877882765974 769.843444128961 2742.75989938552 241 242 246
223.96049023539 770.627431334237 2747.10283751725 239 240 244
218.03995167698 771.411507264266 2751.44922442964 239 240 244
212.923514702833 772.031748534573 2756.43825059092 240 239 244
206.188572766388 772.980014327896 2760.15217558899 241 240 245
201.880680957627 773.435801785647 2765.77951996794 241 240 245
195.95043692262 774.220039806339 2770.13552060513 241 240 245
191.647396377501 774.674743934613 2775.7582077232 241 240 245
184.896776139722 775.624114732449 2779.48720034508 242 241 246
179.777460384766 776.24336263581 2784.47923199746 242 241 246
175.479906409649 776.696890306235 2790.09698259236 242 241 246
170.363484513719 777.315478548552 2795.08623809757 243 242 247
163.597374850846 778.265917502141 2798.83045407459 243 242 247
156.823996370127 779.217095899236 2802.58177880575 244 243 248
149.214506811611 780.335495604233 2805.72174964316 244 243 248
144.086461859082 780.954959429252 2810.72241760465 244 243 248
136.460500672865 782.075022862859 2813.8784991135 244 243 248
130.492857697386 782.862206549447 2818.27120208331 243 242 247
121.175307791833 784.319154061938 2820.22344624156 240 239 244
112.677142530372 785.610825030699 2822.80302861222 240 239 244
106.685715515176 786.400535322795 2827.21897605386 240 239 244
101.533313618363 787.022480039392 2832.2434641464 241 240 245
93.0037278830214 788.31786314492 2834.85403670189 242 241 246
80.2274540731989 790.457951816893 2834.47156390653 243 242 247
70.8099942403355 791.92690487496 2836.52124568515 244 243 248
65.6244305787639 792.552853252444 2841.57807216098 243 243 245
57.8828504537716 793.686784664475 2844.84691530404 243 243 245
50.9840794738867 794.652473464313 2848.72061200933 245 245 247
42.3661038059935 795.958645712339 2851.41736244394 245 245 247
36.3068210282052 796.756733395014 2855.89945348627 247 247 249
25.9446430365817 798.406553478316 2857.44327513499 247 247 249
21.5921047280805 798.86602336549 2863.11440988672 251 251 251
15.5164926705376 799.666464457472 2867.61236831236 247 247 247
8.57145818030558 800.638516227324 2871.53106492314 253 253 253
-1.85122226026291 802.296022574487 2873.13383037161 254 254 254
-13.1662868477456 804.128021250535 2874.1800472621 254 254 254
-25.3795598937607 806.135187533666 2874.67539941633 253 253 253
-41.9904090094616 809.005491524284 2872.32481596708 255 255 253
244.062414137239 764.454930223985 2652.95202357913 228 228 226
250.574844349935 762.719894394524 2667.99685062014 226 227 229
254.792869148275 761.452549235564 2680.99986588314 214 218 219
255.912671965767 760.813699103567 2691.31825712789 236 237 241
251.546476727955 761.282851455255 2697.00152234829 251 252 255
250.34538780113 761.114546227978 2705.30431911965 236 237 241
247.579905390227 761.262149755618 2712.27973409325 246 247 251
245.620454504311 761.248505827513 2719.89548946845 251 252 255
241.289092662964 761.711969561914 2725.54500538638 227 228 232
237.76014701456 762.014510635056 2731.83874162159 254 255 255
234.239220454707 762.315817937272 2738.12435929214 237 238 242
228.321380940306 763.097312794512 2742.46844749536 242 243 247
226.418660862288 763.07510179482 2750.02913454913 239 240 244
218.892319547365 764.177712148158 2753.08887161077 240 241 245
214.585353382713 764.636495223655 2758.71519190245 237 236 241
206.235024584259 765.90179110305 2761.15220654859 239 238 243
204.361394855842 765.874969301341 2768.68468792969 238 237 242
200.063471960996 766.331976709806 2774.30195272158 246 245 250
194.954633453507 766.950257602606 2779.28372323609 242 241 246
189.029116643456 767.730715364849 2783.63558838956 242 241 246
182.280823308675 768.674072843421 2787.36315912833 242 241 246
177.988733880079 769.129401349552 2792.97487934303 241 240 245
172.054974127189 769.91030857745 2797.33486342977 241 240 245
166.117878931724 770.691400415577 2801.69813237498 241 240 245
156.869301633491 772.127223450509 2803.58467006113 242 241 246
150.088808258076 773.07362474788 2807.34410388315 244 243 248
144.131673521924 773.856725206997 2811.72663767321 243 242 247
137.338555782756 774.804364193053 2815.49842474521 242 241 246
129.703358192339 775.917395355289 2818.66471750661 241 240 245
121.220445853805 777.196398086427 2821.2313637013 239 238 243
114.399527039276 778.14726003355 2825.02994345788 239 238 243
108.411994933483 778.933648806757 2829.44251411595 239 238 243
102.420809341889 779.720452228984 2833.8583136125 239 238 243
93.8932795580749 781.00460794743 2836.46850398064 240 239 244
81.9655356892626 782.954255119237 2836.68882274054 241 240 245
74.2483932847113 784.0768501326 2839.93507438072 241 240 245
69.0705688222208 784.701704923416 2844.98437734909 240 239 244
61.3368452660361 785.826331285579 2848.24679408549 241 240 245
52.7378888171843 787.119255594769 2850.92661619402 242 241 246
40.6998622093719 789.082346945446 2851.25412245827 242 242 244
34.6368223302447 789.877959829119 2855.74031013197 243 243 245
26.8505039772897 791.009334538765 2859.05395687625 243 243 245
21.6382390043677 791.638708009637 2864.13679192166 243 243 245
15.5627389065192 792.436186545997 2868.6350770341 245 245 245
8.61788420299803 793.402495674709 2872.55444387387 247 247 247
1.66584003394021 794.369875018357 2876.48112962388 252 252 252
-7.90238902551055 795.844521016185 2878.67934821728 254 254 254
-19.2323323631141 797.659525370626 2879.7428516799 255 255 255
-34.0825539211367 800.154685419828 2878.53354162716 255 255 253
-45.4740612626039 801.977640839557 2879.65666604973 249 248 246
257.122543060587 755.054356499632 2655.54262988828 229 229 227
253.478535993072 755.379481622131 2661.94728590096 225 227 226
255.319384841461 754.614733737842 2672.98552257053 230 234 237
256.411141290616 754.001060855531 2683.32804308713 224 228 231
260.679598798268 752.759142049692 2696.27721992037 218 219 223
258.689344440994 752.760998247415 2703.92127268616 235 236 240
255.925018559469 752.916829549511 2710.89432314752 242 243 247
253.172791500853 753.070840758604 2717.85562830782 234 235 239
250.432663265148 753.223031874695 2724.80518816707 239 240 244
244.520709724211 754.002028684571 2729.14346287994 223 224 228
238.605568176802 754.781060542449 2733.48523599228 243 244 248
232.687006691018 755.560228693768 2737.83038500988 231 232 236
227.566778689547 756.18171447805 2742.82299177871 234 235 239
223.250688840953 756.644668186938 2748.45741776362 231 232 236
218.133464222439 757.265126689985 2753.44719396051 232 233 237
213.016624412342 757.885300806511 2758.43663006914 231 230 235
207.090890451682 758.663957910419 2762.7889769929 233 232 237
207.653287985928 758.170520747252 2772.22247863287 233 232 237
203.362995561516 758.629042904388 2777.83194237563 243 242 247
198.261725107475 759.246369723799 2782.80633871281 240 239 244
189.892009356852 760.502374840091 2785.26397805978 241 240 245
182.326388703444 761.599912277666 2788.36346985993 241 240 245
178.0341905462 762.057849119136 2793.97491253296 241 240 245
174.569551811804 762.354642037032 2800.20564062677 241 240 245
170.28800635572 762.81100006095 2805.80673835862 241 240 245
161.87625190974 764.07112544623 2808.30551377757 241 240 245
151.791608843223 765.655235083778 2809.58345111812 240 239 244
145.838450522815 766.43510864858 2813.96285104412 238 237 242
139.048977476839 767.376876069021 2817.73154885475 237 236 241
133.087084573781 768.157555922621 2822.11950318131 235 234 239
123.775393569116 769.586757105033 2824.07003025985 233 232 237
116.960286448708 770.53134332608 2827.86376646782 232 231 236
108.457003339872 771.801827977114 2830.45190010707 233 232 237
102.465844135156 772.585738600358 2834.86810095549 233 232 237
95.6271604173091 773.533107081739 2838.68517569838 234 233 238
87.0885062672198 774.807697001587 2841.30782654754 236 235 240
77.6864746844015 776.247651430147 2843.34613598858 237 236 241
69.9659637814389 777.36241546055 2846.59689001334 237 236 241
61.3822425249047 778.642568867599 2849.26347088443 238 237 242
52.7834282171344 779.924566024749 2851.94476687306 238 237 242
41.6016631853498 781.701607343026 2852.86673800769 239 238 243
34.6825426937416 782.658775382778 2856.76190144356 239 239 241
26.8963427875284 783.781820555797 2860.07666167035 240 240 242
21.6841644644381 784.411006196602 2865.1594384324 241 241 243
13.8813823295765 785.536200791849 2868.4903473737 243 243 243
6.93296183671999 786.497403337365 2872.41434768774 245 245 245
-0.0229822799862056 787.45962636195 2876.34533040314 250 250 250
-7.85582727391887 788.588964671221 2879.70547976878 252 252 252
-18.3141396075661 790.218648067763 2881.34774043377 255 253 254
-30.5420259443547 792.184373469755 2881.86372874589 255 254 255
-41.925283539483 793.987228909012 2882.98196965872 250 248 249
-47.1948697138926 794.624713160526 2888.12052673474 200 199 197
261.844363236534 746.953829164534 2660.553178645 225 225 225
262.113674567058 746.519984203663 2670.2689115164 230 231 233
261.628303554396 746.235193342098 2679.29511566235 230 234 237
261.950915522797 745.794039300645 2688.95900049133 222 226 229
262.301144536886 745.349167816461 2698.5960106221 217 218 222
260.314639676743 745.361034743697 2706.23519834235 227 228 232
254.393241147211 746.139571117319 2710.5829201208 234 235 239
251.636838484673 746.302069519209 2717.54711731414 228 229 233
249.686504992751 746.308504976254 2725.15085125797 235 236 240
246.160372145483 746.621600684018 2731.44023436969 222 223 227
238.653065948057 747.70689224524 2734.48362898818 235 236 240
232.734338444942 748.483309790837 2738.82934940176 228 229 233
227.613898934715 749.104704301506 2743.82217969212 229 230 234
223.29759352608 749.570338782353 2749.45642351441 226 227 231
216.568960358555 750.502064578441 2753.16652841605 227 228 232
214.678316924811 750.49908815277 2760.71238032188 227 226 231
209.565689544027 751.118377412689 2765.69776420736 230 229 234
210.133655648638 750.642990329568 2775.12306838069 230 229 234
204.222321565517 751.416647783476 2779.46185495927 241 240 245
198.307379206287 752.190419342873 2783.80386990263 239 238 243
190.754776109353 753.278531825518 2786.89182808099 239 238 243
184.010363974271 754.21047774639 2790.61756919632 239 238 243
179.721862373681 754.670543206522 2796.22502652504 240 239 244
174.614732629976 755.287724150099 2801.20526278386 240 239 244
172.808095297062 755.272683199953 2808.66947852118 239 238 243
164.402073459433 756.521235634791 2811.16427185231 239 238 243
157.638645426411 757.45470731726 2814.90833268651 239 238 243
150.868244821685 758.38875012114 2818.65957081798 237 236 241
144.09034346721 759.323633613965 2822.41779520937 235 234 239
135.63598608734 760.577571886004 2824.9597904241 231 230 235
125.493376622735 762.15206505588 2826.29671056457 230 229 234
118.682335003664 763.090641617112 2830.08763573671 229 228 233
108.501931558522 764.669486536971 2831.46144267181 229 228 233
99.1411352280585 766.090974620812 2833.46153421538 230 229 234
92.2948076020411 767.033645730933 2837.2868937415 232 231 236
87.9797031871021 767.495649646679 2842.92048155524 233 232 237
79.4280533774434 768.76096864301 2845.55740752491 234 233 238
70.0110956558255 770.189123980788 2847.61228274289 234 233 238
60.5754279354036 771.619624973295 2849.68572842152 234 233 238
51.9746329004644 772.890916668761 2852.37023572207 235 234 239
42.5030398002599 774.325769719742 2854.47871260155 236 235 240
34.7281828694994 775.439070325938 2857.78364932876 236 236 238
28.661750259114 776.229508878778 2862.27397079859 237 237 239
21.7299661425994 777.182907206457 2866.182266563 238 238 240
14.7911217275345 778.137182559042 2870.09778152633 239 239 241
6.97910318847317 779.255344882918 2873.43890172017 240 240 242
0.890731484930463 780.048857089091 2877.95021690722 243 243 243
-5.2009611616235 780.843010790294 2882.46507286908 245 245 245
-11.296226326146 781.637732801805 2886.98339239808 244 242 245
-24.3817813635614 783.743572004303 2886.91310249036 254 252 255
-38.3770352113895 786.017889657258 2886.30434659009 254 252 255
-50.6563378286105 787.968527345788 2886.87328414422 254 252 253
264.23051263925 739.333447819759 2663.56105184427 227 227 227
267.626795646897 738.318091766925 2675.92557781346 232 233 237
266.37233267046 738.197734396391 2684.27428913282 228 231 236
265.921936507105 737.92433804484 2693.26407863277 234 237 242
263.13664661942 738.099441402084 2700.25509826081 213 214 218
260.36341303749 738.272730026289 2707.23441401576 217 218 222
254.441805973472 739.048521154151 2711.58274861816 220 221 225
250.893106442279 739.370358633642 2717.89324875057 229 230 234
250.528523897317 739.084610922482 2726.79964958445 234 235 239
247.003897449943 739.40277798807 2733.08644943234 218 219 223
241.094140809589 740.175764829642 2737.42376870314 219 220 224
233.58132007448 741.253378012601 2740.47377420003 220 221 225
229.264287284431 741.721934695105 2746.10830842269 217 218 222
223.34439945743 742.495196263681 2750.45564750707 215 216 220
219.032260448176 742.962664256744 2756.08548304088 217 218 222
214.724692274586 743.429248141303 2761.71124818016 219 218 223
210.421337904245 743.895077971611 2767.33260255741 221 220 225
208.556642527111 743.899090956914 2774.85165462756 221 220 225
203.45458496721 744.516575972352 2779.8268091912 234 233 238
198.353040305698 745.133701484666 2784.80150757356 233 232 237
190.800277139974 746.213755417298 2787.89081575276 236 235 240
184.874880930695 746.985647496058 2792.24382715217 237 236 241
180.588162076312 747.448141809896 2797.84915520404 238 237 242
174.659877931594 748.220044145847 2802.20503285002 238 237 242
172.028119666737 748.370897989919 2809.04717737443 238 237 242
165.273818050341 749.29785297935 2812.78313870639 236 235 240
160.999049988922 749.758179010843 2818.37725775735 238 237 243
155.066841381977 750.529940468434 2822.7367154321 235 234 240
146.633265529018 751.770644510035 2825.26003029687 233 232 238
140.688684671784 752.543657804319 2829.63192662014 229 228 234
129.721156240586 754.257248460247 2830.35053562357 227 226 232
121.242456264465 755.503064464211 2832.9175660219 226 225 231
106.865740110877 757.850962926168 2831.25982330114 226 225 231
98.3436941376268 759.101935499767 2833.86947261865 226 225 231
92.3396595023269 759.88173626154 2838.29940423768 228 227 233
89.7171791317186 760.030418009572 2845.1326567108 230 229 235
80.3211345397594 761.44255099145 2847.16913297909 232 231 237
69.2060823536145 763.173559984216 2848.03166082941 231 230 235
59.7683300489003 764.590773979515 2850.10880250144 232 231 236
52.0198235720124 765.692556025429 2853.3892752766 233 232 237
43.404201650413 766.954853583566 2856.09017306635 234 233 238
36.4893891455687 767.900379355847 2859.98311717172 235 234 239
30.4267693997384 768.687460801939 2864.46981074761 235 234 239
24.360872843574 769.475001272956 2868.96002824291 237 237 239
17.4276507078797 770.423096784939 2872.87053573546 237 237 239
10.4872827008182 771.372139078468 2876.78833709201 238 238 240
3.53934801424494 772.322266247741 2880.71315408701 241 241 243
-4.28539548969153 773.434071964056 2884.06784986291 243 243 245
-12.9926881653164 774.708338859112 2886.85800900378 251 249 254
-26.9550416636721 776.951442208897 2886.2211960305 240 238 241
-41.8309377236108 779.360737040204 2885.05007197941 247 245 248
-51.4861695801585 780.805839539231 2887.33905215268 245 243 244
-58.522888459255 781.767794985877 2891.3506227911 255 255 253
266.36409667139 732.122156312153 2656.84022198283 220 219 215
269.730283025981 731.140255740373 2669.22968966793 229 229 229
273.139836580941 730.152639130694 2681.57727575187 228 229 233
272.680619663937 729.896761146968 2690.57289734148 229 232 237
271.461155231147 729.785200671034 2698.88555441244 232 235 240
267.116629152362 730.262530513817 2704.54609320798 210 211 215
261.98838907813 730.887090256104 2709.54620175386 214 215 219
255.280535540261 731.808117720471 2713.23725338482 214 215 219
250.149389503057 732.432336179647 2718.24029803638 220 221 225
248.194503063037 732.460692323329 2725.84531325707 230 231 235
243.072100224609 733.083159906284 2730.83993456174 214 215 219
238.748022486191 733.555848001926 2736.48085390122 210 211 215
232.029130643459 734.476497955218 2740.18292252806 214 215 219
228.509629642243 734.798441538864 2746.46407456442 210 211 215
224.194785126889 735.269199045284 2752.09611051715 208 209 213
220.690103749531 735.588730622521 2758.36324078344 210 211 215
216.386000739198 736.057485334466 2763.98490627504 213 212 217
212.086466949007 736.525533048049 2769.60247679954 215 214 219
208.602564653032 736.841691535076 2775.84913383011 215 214 219
202.687028935708 737.610394570875 2780.1928249544 229 228 233
198.398601574317 738.076288585799 2785.79934710464 228 227 232
192.480285829961 738.844811368739 2790.14582547816 233 232 237
186.558570328792 739.613585838567 2794.49564266124 234 233 238
181.454544875851 740.23031646814 2799.47286286966 235 234 239
175.527925940893 740.999191412181 2803.82719654294 235 234 239
172.073050998883 741.310380187924 2810.04610134507 235 234 239
166.145688255312 742.079041018816 2814.40154311912 233 232 237
162.701276599712 742.388746862482 2820.60993905789 233 232 238
155.942369677733 743.310490440952 2824.35158161263 230 229 235
148.343351667695 744.3866456753 2827.48739776192 227 226 232
140.733217037354 745.464025429793 2830.63407189596 221 220 226
131.438819188801 746.850665926871 2832.57337922354 219 218 224
121.28708889229 748.393817099142 2833.92398881849 218 217 223
106.910558573774 750.712030813916 2832.27044895342 217 216 222
98.3885266516347 751.952151352077 2834.88168824407 217 216 222
92.3844748090432 752.729182748258 2839.31204626123 218 217 223
85.5306403028253 753.661727118439 2843.14601911611 219 218 224
76.9732787795703 754.906065638878 2845.79171780699 221 220 226
65.8506182766736 756.619163756388 2846.66444804785 222 221 226
58.1094570857275 757.711823145416 2849.93897517019 222 221 226
50.3571128062092 758.806010278104 2853.22438146495 225 224 229
42.5935875921502 759.901489007595 2856.52069969555 227 226 231
35.6767448174273 760.841740695875 2860.41610155425 230 229 234
30.4721399328631 761.469381896152 2865.49158604752 231 230 235
25.2679171641788 762.097033893477 2870.56668949827 232 232 234
20.9279328915515 762.567350529431 2876.22409260406 234 234 236
14.8607024702518 763.352418596061 2880.71566222545 235 235 237
9.65766695083925 763.98027473471 2885.78955654813 238 238 240
1.8466888231301 765.082148439747 2889.13205104888 240 240 242
-6.84694179488332 766.343842751287 2891.91050178693 235 233 238
-23.4154175917891 769.033667497139 2889.54451575928 244 242 247
-38.2832196259741 771.412280628172 2888.36988896286 249 247 252
-51.438994443326 773.478381836658 2888.37520159283 245 243 244
-56.7175043735499 774.116460349946 2893.52253225865 249 247 248
274.179995796187 723.505415209196 2664.52257588678 213 213 211
276.008351616288 722.839245989189 2675.55864843459 227 227 227
275.5308307078 722.602009879362 2684.5696908975 221 222 224
274.294978529736 722.506196106855 2692.89629388589 219 220 224
271.510453055721 722.697596431371 2699.88414575521 221 222 226
267.951952450334 723.032404288467 2706.20246148303 223 222 227
262.03708761126 723.802333101495 2710.54496740397 209 208 213
258.489244553602 724.135030810613 2716.8530119083 210 209 214
251.78153127475 725.050274686017 2720.54444122991 205 204 209
248.242431415867 725.381221518914 2726.84406238735 202 201 206
241.527943651518 726.296552831113 2730.54220595008 207 206 211
236.401972064675 726.919175467379 2735.54034815787 204 205 209
229.677072147193 727.835039764268 2739.24909020968 210 211 215
226.151484705878 728.163116803608 2745.53537964896 205 206 210
221.830789733613 728.637134474711 2751.17308118297 203 204 208
219.931114999467 728.667493567215 2758.72297432858 205 206 210
214.817380557152 729.28709929631 2763.70941076852 213 212 217
208.894619656296 730.054367466147 2768.06015083743 211 210 215
204.591620974812 730.525151768564 2773.68075758357 211 210 215
201.919486930362 730.698019674398 2780.55974218527 224 223 228
199.259534589099 730.86929291416 2787.42686586658 223 222 227
194.160139736413 731.48585256478 2792.3995130911 229 228 233
188.241980919858 732.251420161063 2796.7459345663 230 229 234
182.320696795547 733.017132838833 2801.09577591731 232 231 236
177.219033737204 733.633270806898 2806.07073782809 232 231 236
172.117902681796 734.249282738714 2811.04519008018 231 230 235
166.190458955202 735.015182243959 2815.4011203943 229 228 233
161.088417012025 735.630955194693 2820.37651249271 230 229 234
155.156046439034 736.397194000988 2824.73694724759 227 226 232
146.72243383555 737.616320085084 2827.26348781887 224 223 228
140.777691550778 738.383751691359 2831.63636941312 218 217 222
128.973651674516 740.210965533657 2831.75160603038 215 214 220
118.81636971801 741.73858711569 2833.11036161442 214 213 218
106.955254870285 743.572524414413 2833.28128079814 214 213 218
98.4332364607496 744.801851953849 2835.89410187106 213 212 218
90.7405308743101 745.880618858906 2839.12256516489 214 213 219
83.0366438148213 746.96073639748 2842.36193220369 215 214 219
74.4736001210291 748.194823044077 2845.01478859639 216 215 220
65.8955048161394 749.430866154239 2847.68230229695 216 215 220
58.1544179392579 750.515378476744 2850.95795975719 217 216 221
47.8402816249015 752.061666673104 2852.46937727787 220 219 224
40.0710494689496 753.149609217593 2855.77247643099 223 222 227
33.1485174981339 754.085035049749 2859.67424100493 226 225 230
29.6577203824322 754.404880204119 2865.92753764758 227 226 231
24.4516715301484 755.032526532991 2871.00445526414 231 231 233
21.8369087434476 755.196451784226 2877.82779107924 232 232 234
16.6374043018651 755.823626899102 2882.89827964445 234 234 236
11.4383255703325 756.450689377636 2887.96836212089 237 237 239
1.02308184774724 758.009900675813 2889.57827076378 239 239 241
-9.41503556529444 759.571936597294 2891.21047584134 238 237 243
-23.3690731727179 761.760035120663 2890.57353475476 234 233 239
-37.3614187360825 763.952962970567 2889.97392026236 229 227 232
-52.2691291501207 766.307004836105 2888.8425546994 241 239 242
-63.702799843687 768.040381736597 2890.02112546191 250 250 250
-64.5914391295914 767.896799419756 2898.00966324363 210 210 208
278.113087161115 715.648233538769 2668.86313046972 220 220 218
280.72901565632 714.86341960283 2680.55157666361 226 226 226
279.482621303178 714.782674575569 2688.88642103372 222 223 225
278.256106412166 714.699128582103 2697.20193878564 220 221 225
274.696578127937 715.039799008524 2703.52007068657 218 219 223
271.145512075996 715.37897681641 2709.8303579161 224 223 228
266.026390854326 716.002504920092 2714.82156378232 215 214 219
260.117656306297 716.768476595897 2719.15856709677 208 207 212
253.413773607418 717.677858364711 2722.84739685463 199 198 203
246.702434829975 718.58783931565 2726.54320420788 195 194 199
239.188064497544 719.642119288208 2729.59819711612 203 202 207
233.258273172837 720.409317215547 2733.95626672365 198 197 202
228.124780357761 721.032416271527 2738.96180720763 196 195 200
223.793431622511 721.510738497969 2744.60911403238 198 197 202
221.073828741001 721.698730773068 2751.53300051583 196 195 200
216.755407616247 722.174879511447 2757.16812911482 195 194 199
212.441201371757 722.650156122149 2762.79886333351 197 196 201
207.322028503257 723.270034669493 2767.79065988862 201 200 205
203.014736142896 723.743908955804 2773.4147357811 206 205 210
199.525272087281 724.071252004212 2779.66560048991 211 210 215
197.674468079448 724.105062083856 2787.16645422746 210 209 214
192.57103463562 724.722071894234 2792.14304529928 212 211 216
188.287154430743 725.192287080425 2797.74441338866 216 215 220
183.186744012926 725.808444039728 2802.71812860198 221 220 225
178.086844877975 726.424418606049 2807.69136306145 222 221 226
173.812598281158 726.892757627872 2813.28377997389 222 221 226
167.88873142074 727.655565653019 2817.63627748443 219 218 223
161.133026259422 728.566173272265 2821.37638653341 219 219 221
153.53923552341 729.625630004861 2824.50947995358 219 219 221
144.268911406769 730.982640684773 2826.42926098354 222 222 224
137.483831199955 731.896479744641 2830.19806228143 214 214 216
127.345235647734 733.405719125607 2831.54064102907 210 210 212
120.537690268413 734.322108471204 2835.33103580225 210 210 212
110.361448468679 735.83579891571 2836.71033996494 213 213 215
101.004927525561 737.202660567251 2838.7145975905 209 209 211
89.9409839507741 738.871029215837 2839.53563204973 198 198 200
78.8504687701308 740.542570731067 2840.38258355808 200 200 202
71.973903253046 741.466953535797 2844.24033491859 207 207 209
66.7903911850303 742.091463900785 2849.2953366693 207 207 209
58.1993002205721 743.31823608743 2851.97712549037 209 209 211
47.8853125343446 744.848230150744 2853.49080368687 214 214 216
39.2603375520135 746.07903808093 2856.20564335745 215 215 217
34.0515697558912 746.706791300569 2861.28524512703 219 219 221
29.7029127942796 747.183049748454 2866.95004430199 221 221 223
24.4968644805028 747.810637040613 2872.0269701094 224 224 226
20.154881096579 748.286231084471 2877.68524052168 227 227 229
15.8173154302168 748.761432073405 2883.33952001046 230 230 232
8.01397110380764 749.845832145078 2886.67701662905 235 235 237
-5.01703928577779 751.847555533172 2886.56795135162 235 235 237
-14.5971937010136 753.242151024561 2888.78984342949 231 232 237
-24.196058115054 754.639092170679 2891.03030596801 232 233 238
-33.8141814260133 756.038592182327 2893.28917683467 228 229 234
-50.4681566916725 758.66908156006 2891.0168627849 225 226 230
-64.5349157412927 760.84438268976 2890.49374720594 244 245 247
-78.6400263410236 763.024636579386 2890.00798326743 249 251 250
277.136790228063 708.986165496995 2659.48130827794 223 223 221
277.387510292941 708.64901438293 2669.20121124263 224 224 222
280.000982875117 707.8913408699 2680.88808485181 223 223 225
278.752255388705 707.824275894771 2689.22322415201 223 224 228
279.870046715706 707.336108819463 2699.52134194658 221 222 226
275.529950448665 707.821312756275 2705.17631808592 217 218 222
272.766603545925 708.025787862039 2712.14120687393 224 223 228
266.075028511129 708.929077454595 2715.81871536041 221 220 225
260.16602003736 709.692489034728 2720.1563690682 208 207 212
253.461909981181 710.596533302331 2723.84621347557 196 195 200
245.162669430612 711.782798070924 2726.2441775 190 189 194
237.644227989711 712.829453573338 2729.30433997249 197 196 201
230.1147151382 713.877033052364 2732.37535995604 191 190 195
224.973228559625 714.501198818075 2737.38868070612 189 188 193
221.435512909296 714.841301261984 2743.6852362867 192 191 196
217.90627913431 715.180085517519 2749.97390190934 190 189 194
213.579695269646 715.659811996414 2755.61626959926 190 189 194
208.45006102718 716.281245241476 2760.61822466972 192 191 196
204.130558664308 716.759535227201 2766.25411047873 195 194 199
200.626591145997 717.094203806304 2772.51795678818 200 199 204
197.131106041536 717.427495160319 2778.77392133053 203 202 207
193.643745780005 717.759598380214 2785.02165554746 201 200 205
189.347762942518 718.234097792484 2790.63474636519 202 201 206
185.875054148673 718.563882211463 2796.86827417588 203 202 207
181.58981012367 719.036674012828 2802.4709535782 214 213 218
176.485936711816 719.653031662248 2807.44807793388 218 217 222
172.207480393415 720.124568021467 2813.04386475501 216 215 220
168.76036932202 720.450581683453 2819.25286880714 213 212 217
159.519946943599 721.790849632317 2821.14543153735 213 213 215
151.09161115685 722.98784583698 2823.67000293812 214 214 216
140.150298720057 724.623182171803 2824.37414502606 219 219 221
135.859009221686 725.095569762524 2829.98254957296 218 218 220
129.06258802673 726.005249533543 2833.76288953881 211 211 213
121.420557859626 727.061883320123 2836.94430265736 207 207 209
111.246459466301 728.559133057828 2838.32424615708 215 215 217
101.049491987503 730.05898400091 2839.72617669773 213 213 215
89.9856357008764 731.708471620963 2840.5499150863 193 193 195
80.5874058012677 733.066864650537 2842.59650413886 195 195 197
72.0186493168637 734.28008889467 2845.25811687106 198 198 200
67.6851058448262 734.756918737763 2850.90782367549 201 201 203
59.9479510842902 735.824718927242 2854.18204653204 203 203 205
51.3458202493564 737.041973632077 2856.87620478734 208 208 210
43.5845173607534 738.112641170317 2860.17398329915 209 209 211
36.6699907535954 739.036135528375 2864.06989973729 214 214 216
31.4674729791413 739.663100833475 2869.14341159638 216 216 218
24.5420208372886 740.588103504344 2873.04961648202 220 220 222
19.3365263235323 741.215503043557 2878.12602010763 222 222 224
14.1314564428101 741.842908019856 2883.20200126276 225 225 227
5.45696087290715 743.069344418189 2885.96666171935 230 230 232
-6.71021212603673 744.897461683598 2886.44236136998 231 231 233
-19.7790128987507 746.879581986703 2886.37405767104 226 227 232
-26.7697746205124 747.813171780805 2890.34384676191 233 234 239
-39.0187536136124 749.651647922537 2890.89958777866 222 223 228
-51.2985556310679 751.494081802983 2891.48501372019 209 210 214
-68.0040394341246 754.096037167364 2889.2680657242 229 230 232
-81.2355514435459 756.098741813968 2889.35795648965 245 247 246
-85.6723849967995 756.590054195762 2895.10842920073 245 247 244
281.060564836133 701.146774522966 2663.82882292301 219 219 217
282.09690178702 700.69122525126 2674.20300522005 222 222 222
282.386440452376 700.367755616144 2683.882338624 223 223 225
280.362731952835 700.449899026224 2691.54774543269 223 224 228
279.13737564541 700.39297882211 2699.85817741395 223 224 228
275.579152418866 700.744217051693 2706.17345145661 220 221 225
273.601709286781 700.819512469119 2713.7942660438 215 214 219
266.911673807537 701.717254850935 2717.47072776218 215 214 219
260.214371664477 702.615500529402 2721.15433099813 213 212 217
251.926110282743 703.790002685851 2723.54313105455 211 210 215
243.622801059467 704.966048048868 2725.9466457548 198 197 202
236.100287971587 706.005138117851 2729.01196960069 184 183 188
227.768988741372 707.183886502415 2731.4428792862 179 178 183
222.621465803915 707.808695309424 2736.46209918866 178 177 182
219.077664251995 708.154872172313 2742.76380036302 182 181 186
215.542344036909 708.499789883541 2749.05760338857 182 181 186
211.209741020654 708.982928769326 2754.70544383275 182 181 186
206.88173009864 709.465180866623 2760.34919316841 184 183 188
203.367253279177 709.806658410985 2766.62246900716 188 187 192
200.672598199182 710.006542670051 2773.51982432487 192 191 196
195.550283907839 710.626286524221 2778.5147602669 192 191 196
189.613379882613 711.386420328902 2782.88093696543 187 186 191
186.124631568109 711.723756816097 2789.12961390686 188 187 192
184.282203058102 711.777503933387 2796.6192039658 186 185 190
180.813698052491 712.11200662362 2802.8478599942 199 198 203
176.530834706393 712.586857055641 2808.44787108247 208 207 212
170.602361221791 713.344879655753 2812.80565032265 204 203 208
165.497534943521 713.96094464734 2817.78376414346 199 198 203
156.249516030417 715.288712329758 2819.68605572083 197 197 199
146.98251835145 716.61859078095 2821.60654368056 197 197 199
138.529517023318 717.807669298472 2824.15677855925 206 206 208
135.068970506238 718.140035249158 2830.37818534206 221 221 223
129.107024455837 718.90121615917 2834.76873653808 214 214 216
122.303508547747 719.806234223911 2838.55714849909 204 204 206
111.290925894884 721.430859713861 2839.33364602334 207 207 209
101.093977338722 722.914668750642 2840.73792876028 218 218 220
90.0302083402553 724.545275342161 2841.56437107819 210 210 212
81.4781334668413 725.745736284486 2844.21096729251 191 191 193
71.2152862557822 727.237250167628 2845.67988743699 188 188 190
63.479693909708 728.296715691884 2848.95379065277 192 192 194
58.28882745103 728.922035257019 2854.0159758227 194 194 196
53.0985137153568 729.547285142636 2859.07762242913 198 198 200
47.0526474186728 730.318102031906 2863.55008347675 200 200 202
37.5726546554356 731.672813919813 2865.67874617469 206 206 208
29.7929730974635 732.737719652124 2868.99562656927 209 209 211
22.8637025143028 733.657660628503 2872.9063713398 213 213 215
17.6544250508375 734.285419130984 2877.98647843578 216 216 218
15.0420818475969 734.472744823523 2884.80395299373 218 218 220
7.23705845019396 735.541022203839 2888.14549988138 221 221 223
-3.18701057857407 737.052506845854 2889.7715640047 223 223 225
-18.8619175864617 739.451934113479 2887.97808089836 225 226 231
-27.596944071353 740.675210100197 2890.8033165558 230 231 236
-37.2222596322427 742.048432180221 2893.07321329977 221 222 227
-49.4977428428696 743.868725978042 2893.65796073882 202 203 207
-64.441075398971 746.13828765935 2892.57411678186 205 206 208
-79.4262892644122 748.413057138431 2891.53142971595 246 248 247
-90.0395178923441 749.948755204411 2893.34141554205 251 253 250
285.514863907195 693.498277774123 2659.11883541832 225 226 221
286.532992605961 693.066888338629 2669.50786580764 219 219 219
284.476844263133 693.164679196394 2677.20317317432 229 229 231
283.215010074978 693.126405227367 2685.54673448299 227 227 229
280.412625067478 693.352902666206 2692.5471337949 223 224 228
277.62233888289 693.577580012041 2699.53578780577 221 222 226
273.276026173333 694.068920755507 2705.19636778907 221 222 226
271.292216203551 694.155764178319 2712.82146010807 212 211 216
264.596129055388 695.048844337123 2716.50462029767 212 211 216
257.102887180836 696.077462889521 2719.5424250816 208 207 212
248.806645548207 697.242238756977 2721.94058718639 213 212 217
241.289219490526 698.273021577531 2725.00208734377 202 201 206
232.964924075228 699.440508506478 2727.42770657576 177 176 181
225.423418511781 700.473619305424 2730.51277396415 173 172 177
220.269815621273 701.099194587121 2735.53791806524 174 173 178
215.918369684864 701.587893239023 2741.20364807667 178 177 182
212.375050296248 701.93912656756 2747.50446095432 177 176 181
208.839899883238 702.288989291873 2753.79702665114 177 176 181
204.505848012548 702.774715512756 2759.44626126419 180 179 184
200.98530655007 703.122264796117 2765.72466198273 186 185 190
199.096087821803 703.193278509485 2773.25850126672 190 189 194
195.596064117276 703.537887390483 2779.5169621385 189 188 193
188.843894955224 704.433307034216 2783.25580466408 184 183 188
185.352803622635 704.776377066016 2789.50562299972 183 182 187
181.051205264791 705.256596754104 2795.1234446579 182 181 186
177.574807917042 705.597342625026 2801.35901515934 190 189 194
173.283801474087 706.075945227721 2806.96622005198 201 200 205
169.82232842756 706.414442802467 2813.18764064087 203 202 207
164.715419347241 707.03071139552 2818.16779262269 195 194 199
155.46543987334 708.345281345341 2820.07398168503 190 190 192
145.365864291302 709.801895858441 2821.38559095795 189 189 191
139.406640697517 710.560256868826 2825.77385549424 198 198 200
133.444226943229 711.318889074069 2830.16558566657 220 220 222
129.988012304354 711.655898179407 2836.38200457405 216 216 218
118.994264312118 713.259574080773 2837.14289534192 201 201 203
108.814256505966 714.725207946035 2838.53304194608 201 201 203
99.4537696033477 716.052247930384 2840.54678561108 213 213 215
90.918881106361 717.239914830204 2843.17854429544 221 221 223
83.2151212345136 718.287465542538 2846.42259839774 199 199 201
71.2598983310002 720.046451506519 2846.69838388856 185 185 187
61.824204506173 721.38232386131 2848.78550371859 188 188 190
55.7776382767776 722.150444415465 2853.25939616888 190 190 192
48.873672425926 723.061770196225 2857.14628628831 194 194 196
44.5301301001724 723.545036772525 2862.80530859792 196 196 198
34.186526516276 725.030174077297 2864.35502562793 203 203 205
29.8379265616169 725.514150254819 2870.01862751707 205 205 207
22.9087480383199 726.428654493553 2873.93008441825 210 210 212
19.4266872777482 726.768450162598 2880.17175705376 213 213 215
15.0871833015507 727.251574491637 2885.82645240466 214 214 216
9.01718688914066 728.023002605611 2890.32312251715 216 216 218
2.94378910439397 728.794859516613 2894.82310686664 219 219 221
-10.9746556859114 730.870734953858 2894.16740810962 223 224 228
-21.4385833547226 732.371099990232 2895.83435808259 216 217 222
-38.0512932759554 734.891363735659 2893.5373582361 219 220 224
-52.0825344608502 736.981282044223 2892.9915924361 206 207 209
-70.5472882186835 739.804891253753 2889.65470869305 170 171 173
-82.0220612924234 741.467674820329 2890.8845283906 243 245 244
-90.874933970206 742.695251772219 2893.8261513789 247 249 246
290.201458285958 685.565181046867 2664.13961774166 221 221 219
289.681800259236 685.414738870612 2673.1800127224 220 220 220
289.962212871789 685.130336674886 2682.86263428122 228 228 230
287.157029221309 685.365678438154 2689.8645054997 225 225 227
282.023141084436 685.992542366796 2694.86988209753 220 221 225
276.889788181545 686.618926038905 2699.87479818182 223 224 229
271.756927995481 687.244834814443 2704.87929518052 224 225 229
268.19682182015 687.60667589519 2711.19520976438 216 216 218
262.280697953322 688.363318536234 2715.54092960891 219 219 221
255.571501530227 689.252318313362 2719.23804842293 186 186 188
247.271023607225 690.406908944022 2721.64158475824 193 193 195
238.955751033161 691.56293885583 2724.05993751763 196 196 198
229.829721217631 692.8535683772 2725.84658112176 165 165 167
222.280276023188 693.879483425908 2728.94059620984 162 162 164
217.918300885798 694.372516861046 2734.61614119443 167 167 169
213.56077148356 694.864694996496 2740.28739791122 172 172 174
210.011430507591 695.221935667355 2746.59330243155 169 169 171
204.053921561029 695.980598200741 2750.98015757482 168 168 170
199.70781663082 696.47039259874 2756.64042193735 174 174 176
196.984930342341 696.690111246319 2763.56287974846 180 180 182
196.708161277125 696.503329080951 2772.36745343438 186 186 188
194.015552049012 696.718700104551 2779.2604882539 186 186 188
187.259117773946 697.609422245902 2783.00392254656 180 180 182
182.946909247287 698.093823055939 2788.63132444923 172 172 174
179.458341978419 698.441574201742 2794.87828232767 175 175 177
176.798965829904 698.652107010515 2801.7390312939 174 174 176
171.68303934334 699.269925172692 2806.7279086678 190 190 192
