ply
format ascii 1.0
comment KinectMotionCapture
element vertex 793
property float x
property float y
property float z
property uchar red
property uchar green
property uchar blue
end_header
-42.1552360398052 110.707143825791 2817.51848974813 21 24 17
-52.4244935923854 110.484727556559 2817.48376793845 19 22 13
-48.8317455717995 109.419553025178 2804.02617824494 19 22 11
-22.790248912075 106.965339486184 2768.54634396518 18 21 10
-23.725566821766 106.154066135871 2759.21835743387 17 20 9
-14.5898526102581 104.709988193902 2739.89588653979 16 19 8
-23.5336018227128 104.38831033821 2738.3514779757 17 20 9
-25.2884651029741 103.614279600331 2729.66461078568 14 17 8
-34.2210157662437 103.293767440804 2728.12803171635 24 27 18
-23.1783441170021 101.693762422922 2706.48205527638 21 24 15
58.264607668256 113.337681873516 2908.85532353462 1 3 0
66.3335106954728 112.068328870362 2892.46578782705 9 11 6
65.0801083766583 111.317128764262 2884.14285050836 18 20 15
75.3192197618007 109.904964748577 2865.62041742343 12 14 9
68.617766432256 109.455217602284 2861.99544393701 15 17 12
35.194443686871 110.555551750351 2882.23629529764 12 14 9
14.1104881091065 110.957631729889 2891.6566220059 11 13 8
9.81550469163084 110.384785535635 2886.06982755276 10 13 6
14.5944767900601 109.273254912506 2872.23688557661 12 14 9
2.70558738762094 109.146794945805 2873.49861737029 16 19 12
-21.9434386547124 109.79152293904 2886.51154957648 15 18 11
-25.4723621306518 109.174845887091 2880.24482968235 16 19 12
-13.3034708653605 107.600299277541 2859.41540282864 17 20 13
-11.6851309957822 106.657339095855 2848.2325459349 17 20 13
-1.18617274137467 105.159663200251 2828.66301162718 17 20 13
-19.7074164385695 105.452088501711 2836.23514308146 17 20 13
-31.500342448862 105.334104629817 2837.56648371916 18 21 14
-46.9451512246501 105.451407416103 2842.42746047846 17 20 13
-32.934030620428 103.707255796449 2819.22724154023 15 18 11
-38.8281924138021 103.217888874352 2814.95195912863 17 20 13
-45.453965059207 102.775561777093 2811.38159129224 23 26 17
-46.9779375281192 102.003174333086 2802.86240457944 22 25 14
-25.2911581901012 99.7122385590533 2771.63708406519 22 25 14
-22.5965200263427 98.6442315928195 2758.76345765222 20 23 12
-48.8270741091636 99.4819844456398 2774.33628850396 20 23 12
-46.1521622668259 98.4125735947761 2761.44835494865 17 20 9
-11.2497113186754 95.1735368937674 2716.33138616298 16 19 10
-12.3578514271911 94.3287267904144 2706.87794726128 24 27 18
111.336535060185 102.952386543035 2863.2870179408 0 3 0
78.3155740920853 104.073657158538 2882.58461935874 9 14 7
76.2601031928556 103.349260910042 2874.91512332812 4 9 3
61.123477793628 103.415929844787 2878.76421569441 13 18 12
46.038552437031 103.4869364191 2882.65080849594 13 18 12
29.4779324156131 103.656299521809 2887.93821019565 14 17 10
12.2162212474941 103.877963331638 2893.95297198072 9 12 5
9.44693767679317 103.204946334133 2887.00131478626 12 15 6
4.38745844357369 102.673110748733 2882.09585983418 16 19 12
-5.20706968689932 102.427320385019 2881.31510875842 17 20 11
-47.9011211610096 104.291966597853 2910.89564201839 17 20 11
-25.8341403734934 102.037377322466 2881.18145285718 17 20 11
-20.3946419294416 100.831615900886 2866.59182659854 16 19 10
-12.0373230708317 99.426446057124 2849.17564511396 16 19 10
-6.74047442180115 98.2089388214482 2834.48225500272 16 19 10
-18.5709699440197 98.1092054926402 2835.78674761908 15 18 9
-48.1161571451434 99.1889243733553 2853.89810230802 19 22 13
-38.4425318623132 97.6725305840205 2834.96550281212 19 22 13
-42.0948924026439 97.0374298753049 2828.60920743629 14 17 8
-36.9663634371786 95.806431650067 2813.79402493681 14 17 8
-34.0969902288057 94.7191983144086 2801.04697030135 21 22 14
-29.0958763003339 93.4777482041938 2786.13907450451 22 23 15
-32.8780230099452 92.8323125997955 2779.6886420165 22 23 15
-30.8814470162524 91.7833802491067 2767.54440316197 20 21 13
-39.7632430905304 91.4877258171451 2766.04474308664 20 21 13
-19.8395818272328 89.1668577370923 2736.01151677561 25 26 18
-30.9290968362546 89.0194396508367 2736.61788381739 22 23 15
-20.5293409355454 87.343627336565 2715.74049668111 15 16 8
61.7132964296609 97.8107636964499 2897.69041836255 12 17 10
48.9204098923142 97.7648896121999 2899.53226815346 21 26 20
40.7755989692333 97.4260062591267 2897.33160875007 11 16 10
24.9822006287586 97.5837598546095 2901.94009038598 13 18 12
33.6890083720562 96.154611733871 2884.77713939768 14 17 10
30.124340550894 95.5172008849155 2878.48469712113 10 13 6
-19.78275034122 97.9349680661918 2913.95535893372 12 15 6
-3.55229034549209 95.9990170473572 2889.89264724625 16 19 10
-16.898646122397 96.0207483446822 2892.56894891459 16 19 10
-12.1328088683939 94.8304418850577 2878.72608619426 16 19 10
-29.1996002848918 95.1092390886885 2884.88243885897 16 19 10
-28.2375813226277 94.1690540208135 2874.45885161864 15 18 9
-0.449619062547146 91.382296604642 2839.00805201748 15 18 9
1.09603035331984 90.3775125385647 2827.77218711239 15 18 9
-9.2736675606131 90.1941720298762 2827.66485186769 16 19 10
-13.7004572674164 89.5990278841867 2821.98239527901 18 21 12
-33.6245259928492 90.0938077342431 2831.00898163365 19 22 13
-43.1719242452944 89.865860276873 2830.26248639011 16 19 10
-29.2395366467533 87.9661650351208 2807.00440435671 15 18 9
-25.6594196425046 86.7913529945301 2793.5371028343 20 21 13
-37.4399913854979 86.7178485175723 2794.87762464092 21 22 14
-50.6393940765046 86.7529931850563 2797.66052367873 22 23 15
-43.5160904608332 85.3068710001943 2780.5849018839 21 22 14
-37.4288969091781 82.9823924162965 2754.1075929082 24 25 17
-41.287444154509 82.3223735104273 2747.60170217408 26 27 19
-25.8428336748542 80.2096555947595 2721.73337941317 22 23 15
-20.5171397106936 78.841292729319 2705.82509914375 26 27 19
67.9636547558387 91.0193008493592 2902.18703640422 28 31 20
64.4242675823761 90.3750556998719 2895.9125915146 12 14 3
46.2291316068142 90.7160699752039 2902.48633489931 4 7 0
34.2507304273796 90.646135079021 2903.6834640062 16 19 12
39.9295313407722 89.3765412692471 2889.26669541389 14 17 10
35.6088800225169 88.7835236711477 2883.66148605658 13 16 9
7.6619115873493 89.821820944814 2899.22610394044 10 13 4
21.6211417451744 87.9649502598331 2877.22273419513 14 17 8
-1.64917319195834 88.6962777799077 2888.76519441288 16 19 10
-2.91759704768246 87.8932324559937 2880.43081057824 15 18 9
-17.7681669177638 88.0488828912174 2884.48772141118 15 18 9
-16.799264673401 87.0840136840379 2874.0689989789 15 18 9
-9.88195245704659 85.6858559864161 2858.07932920142 15 18 9
-2.29387007875803 84.227519492531 2841.34027910558 14 17 8
-1.48422580804075 83.2496141898065 2830.80604113908 14 17 8
7.44708769395874 81.6711375376077 2812.5700461588 18 21 12
-2.20672213592943 81.4473846040878 2811.74643213793 16 19 10
-11.1018131315186 81.1708166728585 2810.23723096731 18 21 12
-17.0386124754467 80.676337742787 2805.93101379205 21 24 15
-19.3104554879731 79.9067320400979 2798.10473048112 19 22 13
-21.6051497069865 79.13529464837 2790.26157808804 16 17 9
-29.7536906151659 78.8052349926765 2788.05825943262 18 19 11
-48.7894365598234 79.3100497281352 2796.49352965125 21 22 14
-54.7073253001393 78.8177300779128 2792.2010321133 24 25 17
-38.9595774677602 76.6469887799493 2766.55216618878 23 24 16
-35.5854635577222 75.4195522864772 2752.93526207383 22 23 15
-35.1410789309845 74.412649739674 2742.13638719665 18 19 11
-35.452812244277 73.4590060864825 2732.02439820735 22 23 15
74.8652813543123 82.3788566404339 2887.38434880782 14 14 2
55.8685791284361 82.8152669180669 2894.61253954017 14 15 7
39.2512870054533 83.0934028378532 2899.85940937978 19 20 12
41.8535478815571 82.0013530105872 2888.15402602394 14 15 9
55.8691224529291 80.0773393372891 2866.19116145399 12 15 8
34.7186734378506 80.6910818874441 2875.56435776315 10 13 6
44.046181095557 79.0897221344093 2857.61545647413 13 18 11
19.9512867374878 79.9337441620373 2869.79576892134 14 20 10
-1.0176418094241 80.5628490764549 2879.30063110512 16 19 10
-5.32974499275163 79.9648184382652 2873.70159308121 16 19 10
-1.39070572774713 78.7468080231813 2860.49426315712 15 18 9
-16.9783651484849 78.9924433933385 2865.25233446515 15 18 9
-19.8177389077294 78.2795897825569 2858.24966561692 15 18 9
0.399984700115041 75.8030484413928 2829.66415396552 15 18 9
10.8144185725503 74.0550690812949 2810.03207829307 17 20 11
3.37116499628642 73.6721329855233 2807.10473301734 16 19 10
-26.1977105594606 75.0117899873244 2825.20023215031 17 20 11
-27.6748619148266 74.1752369858975 2816.71466205074 21 24 15
-26.2457327120975 73.105391991141 2805.39399961006 20 23 14
-15.3564217342146 71.2786413913748 2784.87073686467 19 22 13
-27.1677205182466 71.2455288047699 2786.18918857639 18 19 11
-37.4913748787684 71.0987326278948 2786.11541639041 20 21 13
-57.2091095424416 71.7146749629677 2795.29219242169 24 25 17
-41.4480023769981 69.4622557999739 2769.65259724832 24 25 17
-33.7419842222959 67.8463905602209 2751.76320677032 21 22 14
-40.4799851319242 67.4045755402468 2748.11148486389 22 23 15
-30.7521961534851 65.6008507984229 2727.98136329271 27 28 20
111.595151103684 72.3678486435124 2855.90876878657 22 20 7
80.9291742798268 73.7021006755763 2873.20922289677 17 17 7
46.5593152198158 75.3357783309401 2894.00164800205 26 26 16
57.5750394095156 73.5764630804757 2874.80569757127 13 14 6
58.5572856367405 72.561997193487 2864.39639725998 11 14 7
60.2609140482686 71.4861159354055 2853.274694579 10 13 6
55.0803162718525 70.931115654558 2848.2813208764 14 19 12
34.7399948045926 71.5451978145832 2857.00646654792 15 20 13
15.2373631116784 72.1075958928613 2865.10386747181 15 18 9
19.1662244684276 70.8525113938331 2851.88897157727 15 18 9
18.5301174942705 69.9467814413601 2842.7774109973 15 18 9
-1.61015287660282 70.5779167430157 2851.64795883244 15 18 9
-11.2134930699996 70.3844994613053 2850.86079050718 14 17 8
-14.8396696720363 69.7163607083621 2844.52330908279 14 17 8
-2.14887339702208 67.7324366383171 2822.83511210189 14 17 8
-14.733450990007 67.7773708729892 2824.82842945414 16 19 10
-29.4934279151047 68.006018799975 2828.95138279293 17 20 11
-38.3157176567881 67.7566024444697 2827.49509433301 19 22 13
-19.9807784376482 65.2704155281462 2800.01473649928 21 24 15
-12.0308081826077 63.6216190841518 2782.30202530197 23 26 17
-2.70746460672022 61.8441762818328 2763.11417685662 20 21 15
-57.4467995230534 65.4309963011694 2806.2039764278 18 19 13
-45.9425617306213 63.4706985825861 2784.89077418179 20 21 15
-54.7754839259089 63.2211527414985 2783.42677737347 22 23 17
-37.6607665781252 60.7556961936528 2756.297290774 22 23 17
-32.8957158474694 59.3287955502659 2741.21732838371 18 19 13
-33.2093982606534 58.3301964952286 2731.10399321935 24 25 19
-19.9988538674263 56.1479443663631 2707.32090595816 21 22 16
108.311685292081 64.2345487670783 2849.78220769219 23 21 8
95.38767403299 64.2743442121597 2851.52943630703 9 9 0
61.802230699628 65.9499765563694 2871.65567699239 13 14 6
52.8367864802512 65.6979993437145 2870.09559982527 11 14 7
49.2235475899245 65.0216587567275 2863.76775015732 10 13 6
50.9167774995953 63.9170347423331 2852.6383637927 15 20 13
34.3761610266462 64.2775556092543 2857.94123474336 15 20 13
18.6516713411287 64.58182723432 2862.60041187654 14 17 8
24.0808171360141 63.1669050266998 2848.00192684394 14 17 8
14.4171128121986 62.9815723434995 2847.1713346994 14 17 8
13.0144809306745 62.1167230703132 2838.73934755353 14 17 8
4.86234382457074 61.8087610772254 2836.5335338665 13 16 7
-12.2136873494496 62.249586359522 2842.68371466094 13 16 7
-6.95044735972128 60.8212492257808 2827.96518749735 12 15 6
-7.67652550929587 59.888828800728 2818.78826969973 17 20 11
-23.9340109257304 60.2738248440355 2824.29651236717 17 20 11
-23.9415511713246 59.277119543218 2814.40482130872 18 21 12
-9.31197482201185 57.0129999076869 2790.41526376889 21 24 15
9.58211966179157 54.3581589216448 2762.10435862418 24 27 18
-14.7015303541818 55.4428115481261 2775.38409353736 21 22 16
-37.4221501589718 56.4091785949916 2787.32623000917 17 18 12
-76.7144499466386 58.85511576661 2815.67060012932 18 19 13
-52.9332713767858 55.7374742423058 2782.25425699972 21 22 16
-32.2154816433267 52.8621680285051 2751.55857191958 23 24 18
-36.8011080175537 52.2312400106541 2745.76108446559 22 23 17
-23.4951604483999 49.9822562957442 2722.04711347101 28 29 23
101.169994751702 56.3983171409708 2847.03542500858 18 18 8
67.5638681430657 58.1703881897174 2867.14716042734 13 14 6
50.1717239609136 58.6247174783835 2873.06854703347 10 13 6
43.5184059718994 58.1946467762819 2869.47827307071 11 14 7
30.0264641611481 58.3386640384905 2872.04965571868 15 20 13
13.5453230497844 58.7420598832661 2877.39585879843 15 20 13
8.46202624480696 58.1888631330407 2872.47302978178 15 18 9
-7.93093206865358 58.5997612307803 2877.88319645404 15 18 9
-8.48356318981147 57.6617362341671 2868.83198572061 15 18 9
-7.56937440542038 56.5917214900865 2858.37306775068 15 18 9
-8.1899363884026 55.6481485282176 2849.27258438426 15 18 9
-8.09762312212592 54.6369746076476 2839.45350045815 15 18 9
-5.07085652237405 53.3619767122508 2826.81959258654 15 18 9
15.672331406857 50.5129140470065 2797.3777832355 15 18 9
-9.51420379637269 51.7170267305367 2811.23893360288 15 18 9
-13.2424578222841 51.023352605269 2804.82732473379 18 21 12
-25.0571289170654 51.0541420397786 2806.14394993883 20 23 14
-11.2306239398376 48.7730274877748 2782.80688489256 21 24 15
-5.54801150931672 47.2116261475593 2767.15665913552 22 25 18
-55.9325101182919 50.7653793279353 2805.99239626342 19 22 15
-74.8737664294321 51.4739234013738 2814.49749044018 17 20 13
-48.9222275317509 48.0429042250424 2778.94720166877 17 20 13
-33.2542826353641 45.5346127114304 2753.23877513448 21 24 17
-29.9324409213142 44.1584810419906 2739.58322461873 22 25 18
-35.2634351699967 43.5867564396657 2734.48074059179 25 28 21
77.7261170508314 50.9827179785852 2868.30210694406 21 22 14
67.1917352199287 50.8805256573192 2868.07550536796 13 14 8
43.6816095767596 51.9043333589281 2879.44560315688 11 14 7
37.0477144343475 51.4781764911807 2875.86972353148 12 15 8
11.4083579030386 52.714236304832 2889.40277587296 15 20 13
-5.77789467649148 53.2265924071693 2895.473417136 14 20 10
-22.1432915102102 53.6776606147898 2900.90376718265 15 18 9
-13.5738874013316 51.9219741533604 2883.63984986337 15 18 9
-29.8906704576729 52.3772195943656 2889.10546223321 15 18 9
-35.6557396766579 51.8941285434115 2884.92379357229 15 18 9
-40.6747099479901 51.3434544881176 2880.04760901062 15 18 9
-12.1751705489057 47.7430744831998 2843.87348907532 15 18 9
-0.220004160578213 45.6205887220742 2822.88605860033 15 18 9
9.40664142335557 43.693712903178 2803.9173233457 15 18 9
-3.94969187686445 43.8769150478598 2806.58720997614 15 18 9
-23.152361703267 44.6118124937581 2814.90263892485 18 21 12
-45.2128924146058 45.6281946335614 2826.08850477461 19 22 13
-30.5890837322038 43.2091998623216 2802.09398165685 23 26 19
-19.0076570350954 41.056183106929 2780.83546465819 23 26 19
-8.98807080749586 39.0328755472756 2760.91605538695 23 26 19
-37.4997528401277 40.6808329340035 2778.54446163949 19 22 15
-40.5725005157869 39.9040817629152 2771.37258588209 19 22 15
-34.5584221794746 37.1568474325695 2744.84013278523 17 20 13
-54.2005999890041 37.9864308575348 2754.07276372678 31 34 27
91.1991982053819 42.4504789574377 2857.02842397154 15 18 11
61.4489138010761 44.0772367803731 2873.75912802882 14 17 10
24.1849137898775 46.4037431677469 2897.39747890249 12 15 8
27.5232528997322 45.0874418686762 2884.98952185987 15 18 9
27.0054987089052 44.1126769507669 2875.9634080626 16 19 10
-5.39304942902241 46.0495583734738 2895.7160465766 15 18 9
-18.735903474409 46.2600202791765 2898.39584268259 15 18 9
-13.1880873103942 44.7303503660047 2883.88309759039 15 18 9
-11.4657023489011 43.5448202935291 2872.7744365399 15 18 9
-60.0060161009646 47.0539074967239 2908.00639539163 15 18 9
-48.5110514490001 44.959355339171 2887.9208274522 15 18 9
-30.412116318054 42.2218942736992 2861.50314909446 15 18 9
3.14633207239723 37.9884582178099 2820.34728833733 15 18 9
-1.30640547265903 37.349431567493 2814.64609381042 14 17 8
-22.016312325472 38.2727136587482 2824.34021641345 14 17 8
-38.9575062589556 38.8472208655437 2830.58882072642 16 19 10
-47.7584422414985 38.641773280014 2829.14823477269 17 20 11
-33.1216077718945 36.1466746054837 2805.16276884479 22 25 18
-19.3387696596286 33.7130915775323 2781.79357095035 23 25 20
-12.2233888822891 31.9173087636271 2764.71014014389 25 27 22
-5.9137190735532 30.1871279051514 2748.27829565462 23 25 20
-42.3433248740099 32.7185703264501 2773.75788584615 21 23 18
-35.334622889112 30.9143693799484 2756.59707866691 20 22 17
-26.2503537921153 28.8854840284878 2737.23464642363 28 30 25
-43.7698476915869 29.5458382044478 2744.29979468776 17 19 14
110.062721393406 33.327764740864 2841.01384571212 16 19 12
34.9879172928649 39.2453336165175 2897.78173920446 15 18 11
27.6316779914794 38.8987957966354 2894.917656798 13 16 9
27.1489001691227 37.9072833192103 2885.91681328698 15 18 9
19.0278094093657 37.6324700676555 2883.73367366389 16 19 10
-5.76696674119415 38.9452051913757 2896.64403761696 14 17 8
-21.3778197525611 39.3996033784462 2901.38635282099 15 18 9
2.27856574122276 36.0897073128036 2870.34893845559 15 18 9
0.199316235022451 35.2360706617796 2862.6615501772 15 18 9
16.0889966742617 32.6321635511959 2838.34841678734 15 18 9
-20.4726264425252 35.1301394241568 2862.49709866501 15 18 9
-17.3556516871825 33.7625428004366 2849.9281155797 15 18 9
-6.86176119178405 31.6564734245245 2830.35182591241 14 17 8
-1.65201491361922 30.0574460501631 2815.59365543597 14 17 8
-38.6132371592809 32.6581101113 2840.68821614237 14 17 8
-37.0943490612716 31.4283883291248 2829.43181203298 15 18 9
-11.3895497229117 27.7482573093795 2794.93643131794 17 20 11
-4.90896358019688 25.9848743256048 2778.6283195514 17 20 11
-8.72233231232955 25.2584806957898 2772.1548434846 23 25 20
-19.8266989247093 25.2780084318929 2772.75128989565 24 26 21
-30.9011126548873 25.3001913023821 2773.369168762 23 25 20
-34.7131821428943 24.5743510044448 2766.89663734773 22 24 19
-51.5183065229505 25.2019559444084 2773.24415033434 21 23 18
-28.0032001951935 21.6108872549606 2739.63252775625 22 24 19
-24.0190945137775 20.046479429158 2725.2210762388 19 21 16
116.619353283667 25.2574980809623 2835.84512861554 18 23 17
113.648835572574 24.4529031824438 2828.74692603016 16 21 15
12.7144847946772 33.1555659455209 2908.77727395564 13 16 9
28.2997183540443 30.5842942634002 2885.47893693645 15 18 9
20.9370305073535 30.2423168413003 2882.60990846418 16 19 10
5.99594200986031 30.6495191453959 2886.60247457215 15 18 9
-1.32934958965492 30.3108952497789 2883.76086690082 15 18 9
9.45434331986883 28.1679170401734 2864.3944742377 15 18 9
11.1161696750166 26.9215608341945 2853.24160486472 15 18 9
8.98397458524558 26.0494309083732 2845.5157415308 15 18 9
-0.647483114276648 25.9331307479059 2844.70887531573 15 18 9
-9.51251249994711 25.7427440352833 2843.22190297254 15 18 9
-3.49657655808722 24.0311500385303 2827.81225530991 14 17 8
-7.18535173817658 23.3058285598436 2821.42910519859 13 16 7
-26.4035314144802 24.1860762798359 2829.73432143093 13 16 7
-11.6591353718722 21.5452879794903 2805.82579675908 15 18 9
-5.11764624803623 19.7398054978852 2789.56162162103 16 19 10
-3.04534772295462 18.3904769369194 2777.47075407947 17 20 11
-14.1626374094925 18.4275277280414 2778.05762655899 22 24 19
-4.14371651914114 16.2218028503511 2758.13651651388 24 26 21
-32.6798097247012 18.121465257517 2775.74879599877 23 25 20
-55.2930680615029 19.4102744261044 2787.77039432284 22 24 19
-49.6793339293444 17.6664261882668 2772.06901861085 22 24 19
-57.7980199655512 17.4018745789978 2769.88767420043 23 25 20
-40.100154730331 14.3179593504469 2741.94246022818 33 35 30
134.006064980987 14.9439074695032 2811.34313743684 20 22 17
99.5813551018219 17.279179068798 2832.09935372438 15 18 11
3.50352599034442 25.881206116685 2908.23897938018 18 21 12
16.7586863366376 23.461008242935 2886.95739766883 16 19 10
20.7979334046184 21.9623888545677 2873.82128917988 14 16 5
17.2135580293364 21.2364438644607 2867.51381755687 13 16 7
14.3693370763582 20.431516114939 2860.50746297782 14 17 10
14.6248430962186 18.1907112778528 2840.91927617382 15 18 11
3.48195481481595 18.2432828508814 2841.48767030144 15 18 11
-3.15796863867979 17.8264057364907 2837.90746762847 14 17 10
-7.56423110381488 17.1733599425553 2832.23959839208 15 18 11
-11.2392411174418 16.4405206145701 2825.86638886431 15 18 11
-9.01684552231097 15.0727926287374 2813.88423669535 15 18 11
-14.2112833057499 14.4951978289878 2808.88042115359 15 18 11
-25.2879235104462 14.5541024944693 2809.4971664812 14 17 10
-37.7991444501544 14.775204501592 2811.54455396142 20 21 15
-23.2563201979996 12.0408183716521 2787.48972598247 22 23 17
-13.9332636503626 9.85717363087765 2768.29931749429 23 26 19
-75.827441061971 15.5393559406226 2818.56457667192 23 26 19
-49.8340055971174 11.5063915819876 2783.04161064516 23 26 17
-61.5455096638775 11.6541828242467 2784.43361646772 25 28 19
-44.4571346409885 8.5692639894947 2757.28160157914 26 29 22
-40.4156919576808 6.93202830793435 2742.91134599055 26 31 24
138.977222893934 8.03558549152761 2817.38191714333 3 5 0
144.390748620284 6.3279629760683 2802.77092068196 19 22 15
62.472036648149 13.7051477205137 2865.70112563794 17 20 13
45.1036802040314 14.4052231686281 2871.64070675875 17 20 13
17.9058103346619 16.1522974076944 2886.51691564537 16 19 10
31.0517011019216 13.6540342695326 2865.15572666829 14 16 5
37.2763757023651 11.8708399698365 2849.89703544432 13 16 9
18.531259751164 12.7436725345379 2857.30981700122 13 16 9
23.9333452783637 11.0356609296995 2842.69052532452 14 17 10
48.771480140875 7.21509061345821 2810.03653741809 15 18 11
6.86446984390665 10.6080718391167 2838.96061278963 14 17 10
-0.530000211611981 10.2741793970917 2836.06888014496 14 17 10
-8.66002333465099 10.0226296662945 2833.87938309542 14 17 10
-8.62348729887197 8.87266752093932 2824.01886759784 15 18 11
-4.1885971358453 7.22805378650576 2809.93379311259 15 18 11
-11.6068999119672 6.89267870693572 2807.02477611028 15 18 11
-43.2624462145221 9.27496474891049 2827.31828857339 14 17 10
-56.4524492441774 9.60736451264055 2830.10950728198 19 20 14
-52.8025292649332 8.04144861479328 2816.69082640767 21 22 16
-41.2018249343127 5.55905305682133 2795.4449102854 24 27 20
-73.9874186172127 8.13512816582684 2817.39057660134 25 28 19
-7.46519903045462 -0.681011607374327 2742.05680051768 25 28 19
-22.1913086417869 -0.188684359842706 2746.2053461057 26 29 20
-77.8649113564005 5.07479443813028 2791.09673535434 21 24 15
-42.8831744338818 -0.196188573392153 2746.02695045488 22 27 20
204.942635467455 -5.33191163857785 2770.02935006136 15 20 13
172.492260855756 -3.06961645368622 2788.51103011415 12 15 8
58.8002938655357 7.9270198159633 2879.06678766666 21 24 17
59.0359399897964 6.77045528663323 2869.35057787906 22 25 16
40.1495133415377 7.67721553657028 2876.66109214636 15 18 9
17.5304869108546 9.00444136908865 2887.44366701485 14 17 8
26.1279845415099 6.9359315565265 2870.19823630009 16 17 9
5.88086581936498 8.02221712341883 2878.99363291096 14 17 10
12.1289680415129 6.19682978674063 2863.75171115388 14 17 10
49.15603521978 0.938836144473432 2820.16469560004 15 18 11
34.1642577753727 1.43937424114948 2824.12098897283 15 18 11
31.9412065927627 0.517286618319623 2816.32900907266 15 18 11
-8.34337964502097 3.88415879977225 2843.95871428607 15 18 11
-15.7059532577672 3.55807790916035 2841.09014362051 13 16 9
0.665707917234304 0.528699170423114 2815.88921662511 13 16 9
-0.0981741886589838 -0.563980132842867 2806.68378771295 13 16 9
-20.0574932485849 0.547621834131429 2815.68794467347 14 17 10
-21.5628423609768 -0.460196303781441 2807.18077144936 14 17 10
-39.9465639424918 0.490455085093627 2814.85592966507 16 17 11
-51.6824558011431 0.678569265385759 2816.23046050046 19 20 14
-55.3733848884539 -0.0719892342803674 2809.84562114535 25 28 21
-32.9410301668571 -3.91240614732008 2777.91789908139 27 30 21
-49.7688851655251 -3.12393493786192 2784.25004345385 27 30 21
-28.2848004741583 -6.89688170524033 2752.87027858668 28 31 22
-63.8044875626962 -3.86172889055011 2777.77700303435 34 37 30
180.643639920618 -9.20830246306756 2801.7998538317 24 29 22
213.081000288361 -13.9620939208571 2763.53406110363 4 10 0
21.1379978725121 3.69733406336878 2903.61823350654 24 27 18
0.831670091788528 4.83005335772602 2912.37094340324 14 17 8
28.5751591139638 0.579305061025576 2878.11581990661 14 17 8
27.2752961028404 -0.429311605074562 2869.7576038979 16 17 9
25.1911534821327 -1.35424562562345 2862.06630736115 15 18 11
-3.33387455883205 0.733212429280317 2878.45252281278 15 18 11
5.14929858767799 -1.39722311457319 2861.12390217361 16 19 12
-11.0587189404645 -1.86530973304216 2856.78280214947 16 19 12
7.71145653565153 -5.22464236866596 2829.61353371162 16 19 12
10.7157931359794 -6.76819854304525 2816.96200555411 13 16 9
7.7333967929154 -7.6183441428922 2809.85525564865 13 16 9
-23.3645937377651 -5.14803295778324 2829.31836142513 12 15 8
-23.3517626627573 -6.34438438136015 2819.44072120178 13 16 9
-18.230114700502 -8.15816881798315 2804.61730411215 13 16 9
-18.305176584801 -9.36158080765889 2794.67591264371 14 15 9
-19.1470735780161 -10.4797475931446 2785.41409445271 17 18 12
-38.9587335310906 -9.303499905151 2794.52532561728 24 27 20
-62.3189279162846 -7.67749654251504 2807.24249312076 26 29 20
-31.2753601773188 -12.6959995479559 2766.72963844868 27 30 21
-53.1476775795339 -11.2437287642795 2778.05415200481 29 32 23
-61.2520160593122 -11.4757525584929 2775.88337320403 30 33 26
146.965206985473 -13.0462477259951 2831.71163900032 15 21 9
117.848999588594 -12.1488200050127 2837.78209171754 14 17 8
94.1445459389634 -10.6412370003068 2849.01376740469 19 22 13
78.9651410865315 -10.0922119091656 2852.83429126142 23 26 17
37.1072494347802 -6.45519064230965 2880.55987879182 13 16 9
39.6234973462479 -7.92146864689972 2868.79024726282 15 18 11
29.9412255024949 -7.97625216117903 2867.94656190708 17 18 12
16.494224743389 -7.58586998741531 2870.55177116933 13 16 9
9.88466621260553 -7.99139573434041 2866.99334369674 14 17 10
-29.0894080685404 -4.56817249877303 2893.10327916603 15 18 11
-7.82758513196269 -8.26595542110509 2864.03314046461 15 18 11
21.5065604531226 -12.9604657193714 2827.22346575009 15 18 11
23.7562190709202 -15.66877291272 2805.37311036544 15 18 11
8.12757674206255 -15.0040837777147 2810.10359487869 12 15 8
2.16915644382754 -15.5063483715432 2805.78166477633 11 14 7
-13.3756734614427 -14.8342720573726 2810.5729441216 11 14 7
-18.5722121161882 -15.4245533804106 2805.56754135365 11 14 7
-6.1838178024276 -18.1919309381032 2783.65615839109 12 13 7
-8.52108904787618 -19.1508135586453 2775.78119155587 14 15 9
-21.8095500143001 -18.7453475005185 2778.50140610009 16 19 10
-24.1600267859758 -19.7049609665966 2770.61715707223 21 24 15
-46.085034291951 -18.1973642132864 2781.90375468462 23 26 17
-54.1973312832211 -18.4224556295342 2779.72694722586 28 31 22
-40.7058235244757 -21.4006804133806 2756.14379902298 30 33 26
165.188407052692 -22.6670375963354 2816.46539062327 17 23 11
128.147693187573 -19.5825844134495 2839.03440891015 9 15 3
125.181779802804 -20.4552324921134 2831.93949387343 7 10 1
44.8859516352984 -13.4127614363045 2883.69321681956 22 25 16
50.4800077801204 -15.2710402392662 2869.21232760745 15 18 9
34.6804422960183 -14.5865321461638 2873.81900666471 16 19 12
14.380196505769 -13.3500035727508 2882.57635686355 17 18 12
17.6380305578197 -14.9393587748511 2870.10865691462 12 15 8
4.23049966548694 -14.5185956657854 2872.74263261104 13 16 9
-9.69404162031617 -15.2289017190618 2866.35024199296 14 17 10
18.9052132148966 -19.9593084050665 2830.24268409742 13 16 9
23.4200087441865 -21.7526932174815 2816.21478116261 13 16 9
17.4549856264021 -22.2562395110202 2811.88805804338 16 19 12
5.55387263304619 -22.0182517433255 2813.14277469476 13 16 9
16.6172132824567 -24.6562199978927 2792.7415607949 11 14 7
-5.6086269305351 -23.1151321638185 2803.81024799681 10 13 6
-20.3856370024889 -22.4982103714221 2807.92252585059 10 13 6
-10.9191279690464 -24.9599212625121 2788.83499514795 12 13 7
1.37753140314389 -27.8037747103616 2766.85642972604 14 15 9
-0.282047154293696 -28.874620062615 2758.23742751755 15 18 9
-22.3102647934286 -27.3160393591059 2769.44916966854 19 22 13
-38.4484038599877 -26.5025707859676 2775.04609934982 22 25 16
-45.8611272653191 -26.8160458446264 2772.14123788039 28 31 22
11.5224109686571 -35.6373501334993 2705.00393347714 21 24 17
176.442943661304 -31.5787830372471 2807.28721393012 16 22 10
150.957600893877 -29.780508019487 2819.6997252375 0 6 0
57.5320966247586 -22.1827346306496 2873.05419710904 18 21 12
41.7008909377437 -21.4657798711417 2877.63810385673 13 16 9
42.685811085422 -22.8062946930986 2867.22938490234 14 17 10
20.0821529512574 -21.2384706199767 2878.02402477746 16 17 11
3.63333661822374 -20.4153293675598 2883.39608134913 14 17 10
1.59465797626446 -21.3786698166047 2875.73754808469 14 17 10
-3.47925671365923 -21.9658475394132 2870.82134824314 15 18 11
-0.299269328528862 -23.5947968531443 2858.29672055502 15 18 11
-1.66481744751179 -24.6590091660071 2849.89060640692 16 19 12
6.64579880607219 -26.9609876967912 2832.4363211715 16 19 12
-47.6436613019768 -21.2708845603622 2873.39253040024 16 19 12
-28.1869154064673 -25.0024320755879 2845.4840495406 16 19 12
11.0949813581351 -31.3277773123171 2798.58546625726 16 19 12
-13.3292389296127 -29.4382223401759 2811.7676702466 13 16 9
-56.7657374106407 -25.0440727330064 2843.29346247247 12 15 8
-8.32457074282988 -32.6503831265574 2786.97148698173 13 14 8
12.7415527046741 -36.7194749983252 2756.52256416202 14 15 9
8.13486900568616 -37.423767023067 2750.70914572375 13 16 7
-21.9135857961865 -34.7437556766888 2769.6991078917 15 18 9
-34.4315849150418 -34.3769096877924 2771.74261442422 18 21 12
-28.1332416274258 -36.53083003687 2755.30041277402 25 28 21
58.1545696997683 -27.0665970523017 2892.00772522245 10 13 4
62.2816024208683 -28.8102237238669 2878.9340134167 23 26 17
66.3507259769691 -30.5587209150642 2865.81829735125 17 20 11
52.9796288000037 -31.3691993426409 2858.59156615672 14 17 8
70.6119924938866 -34.8667812156303 2833.06684667459 16 17 9
8.56203912320153 -28.2078991140985 2879.51872334744 14 17 10
-10.1072475998807 -27.051831721383 2886.98790977032 14 17 10
-4.60115145847206 -29.0001411675364 2872.4425059746 15 18 11
9.8496487920321 -32.1227203222878 2849.55403818796 15 18 11
-4.27288117565494 -31.5472023638388 2852.90581076587 16 19 12
-22.080634141082 -30.4787558479855 2859.76376647248 16 19 12
-19.7209410392289 -32.0490349596258 2847.88011823482 15 18 11
-48.5820294939434 -29.5015619398319 2865.25978853931 16 19 12
-21.0694696496547 -34.4151254267592 2829.59886563454 17 20 13
-12.9379737432491 -36.7840801313882 2812.01409851229 14 17 10
-23.2806551418834 -36.6926209723153 2811.92774003058 12 15 8
-12.3298790865944 -39.4664845902018 2791.44423731738 12 13 5
-6.59962213003285 -41.5552934914876 2775.82558419375 13 14 6
-11.8755246490778 -42.1611346179723 2770.76286453042 12 15 6
-16.4298834106307 -42.8666841702353 2764.98737118634 14 17 8
-37.6591980211578 -41.2814495018941 2775.54335357059 17 20 11
-27.735383471537 -43.9802274500899 2755.55109597543 24 27 20
-9.98765308131411 -47.7870060444259 2727.63836887276 29 31 26
92.234937012027 -37.3832698450947 2872.19649691817 10 13 6
27.7049415594459 -30.4053298271343 2919.32222750878 5 8 0
24.2348247300783 -31.1910227073224 2913.09728170926 22 25 16
46.045153232658 -35.2387992296036 2884.42299361175 16 19 10
50.1174660063204 -37.0229739634497 2871.30940876439 12 15 6
76.9949339488116 -41.7876175332645 2837.65892175362 14 17 8
38.3301236398133 -38.0220009588431 2862.75945245988 16 17 9
-8.48164945923746 -33.1451004430189 2895.54628567636 14 17 10
11.4287227709826 -37.0260115088512 2867.96559719477 14 17 10
-14.0106301784459 -34.923430388877 2881.64802550229 14 17 10
21.5040686568289 -40.9209479386189 2839.43128376211 15 18 11
5.10047123723645 -40.017741468663 2844.83623155825 15 18 11
0.705051134271439 -40.7171363962552 2839.17598741409 15 18 11
14.9129031044106 -43.9342261996817 2816.11092251918 14 17 10
10.4429570277795 -44.6397183060934 2810.39662202283 15 18 11
3.68732217049583 -46.3563618251149 2796.84477764611 13 16 9
25.6672619305411 -50.7156319616406 2765.82179333385 12 15 8
-0.19982952374642 -48.4843535602706 2780.42983337711 11 12 4
-11.3226751456668 -48.2787973525106 2781.01353175365 12 13 5
-6.37518157168349 -50.3142000205042 2766.06303836831 11 14 5
-29.8443933016115 -48.3705088150279 2778.70249154658 13 16 7
-31.4674650235396 -49.4883827662553 2770.10942123611 15 18 9
-38.1755015837726 -49.8906246226603 2766.4796215719 22 25 18
-14.6273082135198 -54.6067520842041 2732.88628585255 28 30 25
-30.0382970933797 -53.780866204581 2737.77536848922 18 22 21
134.236745176167 -48.8892205483627 2845.77041648921 24 29 25
64.78943738388 -41.1214061489786 2896.74629202283 15 17 12
41.1924827563701 -39.2921166768219 2908.05752555194 17 19 14
-8.44496658624849 -34.008156569262 2942.50313748122 18 21 14
-6.46772570832077 -35.5062914714184 2931.57764351835 15 18 9
24.0309708802657 -42.0807894793835 2885.72177218299 14 17 8
59.9994265383952 -48.191246153377 2843.83310191141 15 16 8
14.6342028543778 -43.3773752672108 2875.19788267682 14 17 10
-7.07785280025108 -41.7208414366468 2885.4042769203 14 17 10
28.5647553060504 -47.8585915535217 2843.27925455779 14 17 10
59.4569395491544 -53.3997506774727 2805.12437913802 14 17 10
15.2259074422871 -48.6558528998778 2836.07596852576 14 17 10
3.33370340301808 -48.3313512889295 2837.33758167776 14 17 10
13.815516993243 -51.1059063176196 2817.74944566957 16 19 12
27.9122270766305 -54.4066302369157 2794.60309354877 13 16 9
21.9017648898889 -54.9153511971707 2790.24340446803 11 14 7
29.1753848131817 -57.2952647185511 2773.27202033529 11 14 7
20.179867934115 -57.3905505002543 2771.69093652836 13 16 9
0.77560456113579 -57.367318112639 2769.97573930148 13 14 6
-27.1265595814947 -54.7350911670649 2786.8159469704 12 15 6
-14.9093112146914 -57.8607266778146 2764.77868201129 11 14 5
-39.0459283788029 -55.7415577378258 2778.1702442057 13 16 7
-23.327400806648 -59.402585920121 2752.49264729408 18 21 14
-48.807800964964 -57.0639273345325 2767.38155201198 14 16 11
110.803953840106 -54.5148180212665 2857.16289501964 20 22 19
18.0743558128897 -44.6044069949975 2919.67969797833 17 20 13
46.8161708269101 -49.785821925946 2884.90823718232 15 18 11
21.0731346261426 -47.5678926490129 2898.37110328117 15 18 9
70.9207973590722 -55.6995302318657 2844.30139702459 15 18 9
36.0644212985179 -52.2227634322657 2865.98580228949 15 17 6
8.19637152738739 -49.6769601245259 2881.61497133536 14 17 10
20.5123550805784 -52.6957714338954 2860.88485933481 14 17 10
35.7363096593302 -56.1451060609437 2837.32017591057 14 17 10
39.5651453928996 -58.0212354229389 2824.02962359247 14 17 10
-13.6041885061189 -51.8646494055744 2863.33012578417 14 17 10
-8.23045479765772 -53.9480981800837 2848.68808512871 14 17 10
25.3792761206681 -60.0701086524694 2807.55983416871 16 19 12
9.7422111147929 -59.1948477177128 2812.28527949132 14 17 10
18.5951493228731 -61.8293276678635 2793.98711972298 13 16 9
22.9297498327874 -63.8309997352956 2779.82753455706 13 16 9
16.1616818742423 -64.2347292788946 2776.15420931565 14 17 10
5.72783088420659 -64.1026218460625 2776.001965943 14 15 7
-6.14364911993559 -63.7537387073746 2777.27872588758 14 15 7
-0.475178393910536 -65.9801543802141 2761.61458560142 13 16 7
-29.0569969377472 -63.1542538800067 2779.19840939132 11 14 5
-19.0778784108745 -66.0304818649172 2759.24504953307 12 15 6
-37.3859363692319 -64.7029905054695 2766.97696669269 17 20 13
134.403023392934 -65.142403884173 2837.16278418083 12 18 14
83.6076691044649 -59.4735300331126 2872.00628687416 10 15 8
69.9844816144952 -58.9096760101955 2874.4846532843 15 21 11
44.9003253759845 -56.7372358887223 2887.18959401123 14 20 10
71.1624934218231 -61.7362948493969 2854.32691224326 11 17 7
43.0986572781742 -59.1282270245612 2869.81476142848 12 15 6
35.6906379984108 -59.4131816596312 2866.91345454163 13 16 7
23.7417405191036 -59.0509742284326 2868.13416039646 16 19 10
37.529286345467 -62.355186616864 2845.99900194428 15 18 9
33.1114158393691 -63.0743429355724 2840.32267740545 14 17 8
15.9076298709189 -61.9533033925254 2846.38369144232 14 17 8
23.4973977577275 -64.4065112891304 2829.6411184648 14 17 8
30.259937331194 -66.7576794997131 2813.53442350935 14 17 8
-12.2204786662128 -61.9306895102842 2843.28512501785 15 18 9
0.477828276722825 -65.154476325694 2821.59579805415 15 18 9
-50.6229418034407 -58.9938509515598 2859.92579350522 13 16 7
-3.25446925724915 -67.362615676157 2805.29270490721 13 16 7
9.93287833775902 -70.7164664597877 2782.72219852 13 16 7
-4.88544973448635 -69.9079776891395 2786.80549439811 12 13 5
-0.626430230143749 -71.9542476779105 2772.590893051 12 13 5
-5.18475416029074 -72.683677029767 2766.81269879272 12 13 5
-28.6638353634285 -70.5447360321326 2779.44598635792 11 12 4
-35.3597643820147 -70.9390070162594 2775.82500408308 11 12 4
-26.8704206950738 -73.6578467437065 2757.26283958797 11 14 7
-23.5153583379328 -75.6076954995501 2743.62846543521 10 15 11
145.513069229888 -72.7964725079396 2837.76711541237 19 25 23
134.026814455034 -72.5487834038204 2838.08758414985 10 17 10
122.570400003348 -72.2984976692903 2838.42969792685 11 16 9
80.570143858115 -69.0474293435665 2856.16924548234 14 20 10
51.6658673851538 -66.2569912051462 2872.28380190775 11 14 5
36.6206652203687 -65.4369397563769 2876.20298495871 12 15 6
15.5435175992977 -63.7302351943454 2885.63485508078 13 16 9
25.6431854553192 -66.5449096851209 2867.00452689069 16 19 10
42.4545236498703 -70.3631940753345 2842.11833518728 15 18 9
25.9616867976753 -69.3160053983925 2847.45932071252 14 17 8
-13.7733512746563 -64.821945547704 2874.25807791757 14 17 8
23.8872061203819 -71.7653320195765 2829.88642498806 14 17 8
22.4321559574521 -72.9378815314607 2821.41488014896 14 17 8
15.7339211855265 -73.331562637725 2817.79222937217 15 18 9
-19.1912829743319 -69.4776136499003 2840.66368681035 16 19 10
10.495322037483 -75.3490011709297 2802.86851971177 15 18 9
-3.60179385636439 -74.6219557218382 2806.23918853376 13 16 7
2.9649293246381 -77.0358861389435 2789.99022419353 14 17 8
-3.75792500154315 -77.4308149059777 2786.3497198568 13 14 6
-14.8687497440347 -77.1490674095954 2786.94251834927 13 14 6
-28.2710171295331 -77.9342602257111 2779.69331928198 12 13 5
-36.4175275029008 -78.0996209183984 2777.49230683729 12 13 5
-40.2132506609714 -78.9444012812947 2771.03102277156 12 15 8
-10.8622632971977 -85.0171504342221 2731.7562082349 1 6 0
180.831208579407 -85.3532712840044 2807.72561469968 14 18 17
158.411743365137 -83.5290100787262 2817.42033670576 9 14 8
138.398680793868 -82.0331480559101 2825.15214909468 6 11 4
101.536490865647 -78.0611363279504 2847.85507885231 11 17 7
81.7278058860387 -76.5477511815057 2855.73543215415 14 20 10
65.8224377673728 -75.5907495031724 2860.26679285741 12 18 8
27.8512372879107 -71.3574068060724 2884.63746862729 13 16 7
-13.7394413601344 -66.5434124076711 2912.56272616763 12 15 8
2.51661627750188 -70.3138295470226 2888.5092788245 14 17 8
21.6692653409614 -74.5484912330814 2861.6128399383 15 18 9
5.99001228183171 -73.5718573492845 2866.30821571474 15 18 9
15.177824877477 -76.3438626940887 2848.25211694328 15 18 9
3.28679253218445 -75.9332948127986 2849.51501542388 14 17 8
0.399242741471628 -76.889031057752 2842.47648697091 14 17 8
-0.271075509354457 -78.189138277806 2833.33812830777 15 18 9
48.8109206836622 -87.1626785607967 2777.47407300392 16 19 10
29.4086824914128 -85.6134496031849 2785.64895533487 16 19 10
33.7212013849904 -87.7331122483517 2771.47276508849 14 17 8
16.614351707398 -86.5213551130083 2777.6045098138 14 17 8
6.1805810679223 -86.341027912024 2777.45256893162 15 16 8
-2.76357390458015 -86.3892866190902 2775.90895666828 14 15 7
-8.77169539664169 -86.8983556513087 2771.55096264401 14 15 7
-22.0572594198882 -86.2492586053809 2774.27451128314 12 15 6
-33.1235461662165 -85.9442668329395 2774.90000853339 12 15 6
-35.4808717471711 -87.0306542969214 2767.00985804521 12 15 8
-21.9985994549805 -90.6785488833632 2743.41662284597 13 15 10
147.860725783969 -88.0860168371127 2836.92146393521 15 19 18
156.490904922888 -90.7808320974745 2819.69655238268 11 16 10
138.797192175744 -89.5801438164728 2825.40281147867 6 11 4
119.629268026035 -88.1439161758595 2832.51194405642 10 16 6
95.9307926043467 -86.0103609948568 2843.75112416107 16 19 10
72.3324351195136 -83.8682470658079 2855.06292524652 15 18 9
19.078182233657 -77.2117429289668 2893.06936340703 14 17 8
4.89503775159017 -76.4337646396401 2896.37822073137 12 15 8
-6.96481762306744 -75.9993724059169 2897.66384073837 14 17 8
-2.15008169253617 -78.1160183456857 2883.85173362012 14 17 8
25.9820687520156 -83.8426667001278 2848.63555225204 15 18 9
24.5879450368816 -85.0437967705925 2840.20802952902 15 18 9
17.9178647981115 -85.4305565416284 2836.60611810911 14 17 8
20.2225111759082 -87.219009037138 2824.68116575821 14 17 8
-15.5372236401763 -83.0430078969028 2848.18432200077 14 17 8
20.9675572168422 -90.2218970808205 2804.20896023191 16 19 10
29.0630974765165 -92.9607708505537 2786.59625438102 15 18 9
37.0738869924434 -95.7065896330432 2768.92237020648 13 16 7
20.6927255326477 -94.5728364036646 2774.34475007347 13 16 7
13.9193547469603 -94.9672871654321 2770.66762769836 14 17 8
29.8471677405758 -99.0238919384786 2745.1397425817 14 15 7
25.9322511436775 -99.8964605471141 2738.59191189551 12 15 6
14.7253409513355 -99.584828568266 2739.11520736562 11 14 5
-12.4145802480271 -96.6588456170377 2755.27443251406 11 14 5
-22.0666545699264 -96.5753448730563 2754.45363290042 11 14 7
-20.8799615954185 -98.2760987511709 2742.95402758618 14 16 11
-15.4243519728605 -100.696032674013 2727.13459953535 17 21 20
173.099585114604 -99.3689008967101 2815.6363847512 9 13 12
150.698552246939 -97.4289565214292 2825.34476023974 6 11 5
162.352414724718 -100.651563821751 2805.36866690359 11 16 9
109.249020729188 -93.9964095582442 2842.24942242661 10 13 4
94.7882887451206 -93.2126107422992 2845.35678565184 17 20 11
73.4870246786761 -91.3620070130499 2854.62691785742 16 19 10
47.6939668640726 -88.794386914937 2868.05529347385 15 18 9
28.8626336050357 -87.2830667343487 2875.40880832997 14 17 10
23.7620205366404 -87.900696020056 2870.47310002093 12 15 6
46.6478089173878 -92.9149593972951 2840.10317255867 13 16 7
30.140260957924 -91.7551102858776 2845.43435881264 16 19 10
22.7191001742337 -92.0203490400138 2842.52333075694 16 19 10
33.3231933111042 -96.6135927113643 2813.13344932051 14 17 8
-0.988509811278071 -92.5716755171093 2835.21556222035 14 17 8
-6.88724591337819 -93.073167604867 2830.93690237838 16 19 10
3.51816145413464 -96.2173742478063 2811.29121103344 16 19 10
25.6488447428262 -101.29472136076 2780.37357224365 14 17 8
25.5090915350586 -102.771175720697 2770.38390164081 13 16 7
12.1116445071223 -102.07811980992 2773.02656656246 15 18 11
45.626574056397 -109.117180141333 2730.58991039935 14 17 10
57.7290114502858 -112.665524308902 2708.46698093608 13 16 7
18.7651771394335 -107.735768739314 2735.82700709084 12 15 6
6.12493870900588 -107.160681315107 2737.78266004459 11 14 5
-0.688619713377747 -107.555061583512 2734.07669962808 11 14 7
-12.5478753221946 -107.096185541653 2735.36287843345 10 12 7
-23.6537298593162 -106.756293005822 2735.95957444996 14 16 13
220.863950480171 -114.300938956619 2774.84332938562 17 21 20
223.875758400582 -116.277022172521 2762.19532098977 7 12 6
182.055585858171 -111.284264925289 2788.72008234832 9 14 7
145.055519845933 -106.996892875836 2811.32466015242 10 13 4
71.3828091045827 -96.9055079368263 2866.6600289858 17 20 11
70.048813169576 -98.1356417297511 2858.27594726422 16 19 10
84.0425010721582 -103.268178509864 2826.39978831423 14 17 10
70.4364773184363 -102.567435060038 2828.89129045501 12 15 6
14.4998982576983 -95.0567063262506 2869.89802093748 13 16 7
21.4737176950992 -97.6245958042596 2853.94338952838 16 19 10
-5.48059519240596 -94.7126212838194 2869.00205851851 16 19 10
8.94164934622665 -98.5057483426277 2846.0894936296 15 18 9
3.05156430379805 -99.0071370362245 2841.81710564912 14 17 8
-11.041919737802 -98.1612357653471 2845.19100930648 15 18 9
3.16417449506901 -101.972291616205 2822.12166163519 17 20 11
7.61417172622636 -104.196342007879 2808.0443091481 17 20 11
20.1312632572801 -107.778983053572 2786.2220920746 15 18 9
-28.6234403569026 -101.143281073659 2822.54950868942 14 17 8
-43.3287443435648 -100.162644605375 2826.71590457827 16 19 12
5.0109499263451 -109.806811798073 2770.31034191135 15 18 11
46.4515655484949 -118.364581755878 2720.02491133204 14 17 8
27.9027721349498 -116.78066584259 2727.58361306356 12 15 6
14.5090346817613 -116.059468797009 2730.2291096755 12 15 6
21.4210157757462 -118.816029638206 2712.99365804472 12 15 8
14.5450188462179 -119.213058855885 2709.2421267274 14 16 11
2.6376553947971 -118.736542440414 2710.49352048297 7 9 4
219.720998333475 -121.841912708675 2776.44695019937 10 14 13
235.903558932268 -125.937584748133 2752.33857580409 8 13 7
213.348737834399 -123.896615557635 2761.93597863315 12 15 8
133.135443135361 -112.612362252751 2822.41715715073 8 11 2
65.6277536031413 -103.265393899965 2872.33673434525 16 19 10
28.3290255720305 -98.7055197387383 2895.96122258423 21 22 14
7.24095551117987 -96.7279552727344 2905.38654675542 17 18 10
34.9570703218136 -102.671730899631 2871.10300359145 16 17 11
21.4925153482923 -101.931955130192 2873.69725717648 14 17 8
18.6663015838837 -102.928008284892 2866.70298830486 14 17 8
4.50246472322657 -102.058830626586 2870.02600960177 16 19 10
-2.08978836505835 -102.431877297396 2866.48058620371 16 19 10
-10.1788799824503 -102.55486856958 2864.32111797305 14 17 8
13.9091851793047 -108.052133971731 2832.35022684833 14 17 8
14.6997558583601 -109.683125202258 2821.79914849623 17 20 11
-15.7822338129441 -106.051267188236 2840.47965327626 18 21 12
11.7111416870541 -112.201658302306 2804.79826397812 18 21 12
10.914992293658 -113.589895055137 2795.5682412409 17 20 11
-6.12725142982606 -112.209863245343 2801.74767254551 16 19 10
-19.4304276751369 -111.454743734195 2804.45899073369 15 20 13
20.0581471111083 -119.790870523885 2756.4653056018 15 20 13
41.0126190353677 -124.987451864905 2725.92943877667 14 20 10
26.1201896780694 -123.989593490689 2729.96027072325 14 17 8
15.6358150442104 -123.748394378579 2729.77195425382 13 16 7
23.9961403388795 -126.808577155101 2711.11453260293 11 14 5
13.8314656124368 -128.235599386563 2700.03331045527 10 12 7
208.479908176037 -127.742278805349 2786.79488487607 14 16 15
195.267481585281 -127.145874774269 2788.33614887113 16 18 13
194.451227041776 -128.557009066686 2779.09143550098 19 22 15
184.361522284566 -128.460389546807 2777.95345469447 9 12 3
108.250272920615 -117.521904983454 2835.23047545353 16 17 9
24.880143430468 -105.28689701306 2899.60349044368 20 21 13
22.8890012872167 -106.414864034412 2891.97858353558 17 18 10
-5.01101071710286 -103.239938435694 2907.58806358196 18 19 13
21.1155724492778 -109.056731892148 2874.62295145491 13 16 7
22.0769388201583 -110.698710322082 2864.19563089244 14 17 8
13.1862072617248 -110.690902992856 2862.6910303876 16 19 10
9.57998031270124 -111.572966350683 2856.36692732214 18 21 12
3.70866349256005 -112.073551534748 2852.10814889647 19 22 13
12.7997008158069 -115.128696256294 2833.980461508 19 22 13
6.88254285253542 -115.632875596557 2829.68843365426 20 23 14
10.633450978264 -117.802357123955 2816.33990406363 20 23 14
9.13526319356794 -119.078621514273 2807.83656250561 20 23 14
16.4821158178774 -121.898799053925 2790.91603629665 18 21 12
43.6524435764478 -128.199687517199 2754.99970049783 17 20 11
3.74174729434085 -122.791280413034 2782.91078729618 14 19 12
18.9901072910041 -127.043944452245 2758.12439575215 15 20 13
23.1512772179059 -129.36881070277 2743.83745001316 16 21 14
30.1634133731596 -132.216472830548 2726.6738470007 15 21 11
22.5719934305539 -132.478556745356 2723.6397049041 14 20 10
-8.17814041248277 -128.586421312135 2743.3621812372 13 16 7
