ply
format ascii 1.0
comment KinectMotionCapture
element vertex 801
property float x
property float y
property float z
property uchar red
property uchar green
property uchar blue
end_header
33.9471586048603 129.609122872353 2657.00006484985 17 18 10
40.7820157706738 128.29115986824 2630.00011444092 16 18 13
48.1075458228588 128.680273890495 2638.00001144409 16 18 13
55.3088374435902 128.679007291794 2638.00001144409 16 18 13
62.5335946679115 128.726348280907 2638.99993896484 17 19 14
70.0278133153915 129.261285066605 2650.00009536743 18 20 15
77.0861506462097 128.966808319092 2644.00005340576 19 22 15
84.1114297509193 128.672197461128 2638.00001144409 19 22 15
91.5881991386414 129.060238599777 2645.99990844727 18 21 14
99.332332611084 129.7407746315 2660.00008583069 18 21 14
106.912016868591 130.128428339958 2667.99998283386 17 20 13
114.064149558544 129.979431629181 2664.99996185303 17 20 13
121.017307043076 129.635170102119 2657.99999237061 15 18 11
128.414362668991 129.778459668159 2661.00001335144 15 18 11
137.509822845459 131.530955433846 2697.00002670288 15 18 11
144.974857568741 131.625071167946 2698.99988174438 13 16 9
151.434287428856 130.841210484505 2683.00008773804 13 16 9
159.580916166306 131.520196795464 2697.00002670288 16 19 12
166.132032871246 130.8823376894 2684.00001525879 16 19 12
171.448364853859 129.366636276245 2653.00011634827 16 19 12
179.82779443264 130.191370844841 2670.00007629395 15 18 11
187.388196587563 130.382016301155 2674.00002479553 15 18 11
195.406526327133 130.865037441254 2684.00001525879 15 18 11
202.874347567558 130.957826972008 2686.00010871887 19 22 15
-125.048354268074 129.24425303936 2806.99992179871 24 27 20
-115.464948117733 127.12898850441 2760.99991798401 17 20 13
-108.712114393711 128.052473068237 2780.99989891052 19 22 15
-100.795209407806 127.640500664711 2772.0000743866 16 17 9
-93.1287929415703 127.504587173462 2769.00005340576 13 14 6
-85.0457325577736 126.72384083271 2752.00009346008 12 13 5
-77.8439864516258 127.232268452644 2763.00001144409 12 13 5
-70.3274309635162 127.280011773109 2763.99993896484 12 13 5
-62.7142637968063 127.143412828445 2760.99991798401 12 13 5
-55.1172196865082 127.006620168686 2757.99989700317 13 14 6
-47.5535877048969 126.915723085403 2756.00004196167 13 14 6
-39.884477853775 126.45623087883 2746.00005149841 11 12 7
-32.2933942079544 126.088663935661 2737.99991607666 9 9 7
-24.6642772108316 125.306442379951 2720.99995613098 9 10 5
-17.1088818460703 124.38590079546 2700.99997520447 11 10 5
-9.71668213605881 124.155960977077 2696.00009918213 15 11 8
-2.35086958855391 123.87977540493 2690.00005722046 15 12 7
4.88752080127597 121.254779398441 2632.99989700317 14 11 6
12.3329181224108 123.833499848843 2688.99989128113 11 11 3
19.5133481174707 122.819982469082 2667.00005531311 11 11 3
27.0859524607658 124.154932796955 2696.00009918213 11 12 4
34.1012924909592 122.910842299461 2668.99991035461 12 13 5
41.015587747097 121.804736554623 2644.99998092651 14 16 11
48.2181236147881 121.757663786411 2644.00005340576 14 16 11
55.2682280540466 121.388040482998 2635.99991798401 13 15 10
62.7957507967949 122.03136831522 2650.00009536743 14 16 11
70.0294896960258 122.029848396778 2650.00009536743 14 16 11
77.525332570076 122.442558407784 2658.99991989136 14 17 10
84.8467946052551 122.532784938812 2661.00001335144 14 17 10
92.3172906041145 122.807018458843 2667.00005531311 17 20 13
99.9321863055229 123.219221830368 2676.00011825562 17 20 13
107.355356216431 123.354956507683 2678.99990081787 16 19 12
114.708878099918 123.398460447788 2680.0000667572 14 17 10
122.249491512775 123.625934123993 2684.99994277954 14 17 10
129.67212498188 123.71513992548 2687.00003623962 15 18 11
138.12492787838 124.724991619587 2709.00011062622 15 18 11
143.796548247337 123.248480260372 2677.00004577637 16 19 12
151.212051510811 123.337171971798 2678.99990081787 16 19 12
157.513648271561 122.551016509533 2661.99994087219 17 20 13
164.836049079895 122.593387961388 2663.00010681152 18 21 14
172.550991177559 122.911803424358 2670.00007629395 14 17 10
180.236086249352 123.184017837048 2676.00011825562 15 18 11
188.023284077644 123.50208312273 2683.00008773804 18 21 14
195.775061845779 123.77393245697 2688.99989128113 12 15 8
-124.739311635494 121.281549334526 2799.99995231628 25 30 23
-116.053029894829 120.201274752617 2775.00009536743 20 23 16
-107.737265527248 119.380690157413 2756.00004196167 19 22 15
-100.579291582108 119.81612443924 2766.00003242493 17 18 10
-92.8954556584358 119.644969701767 2762.00008392334 16 16 6
-85.5421051383018 119.906820356846 2767.99988746643 14 15 7
-77.3104131221771 118.868924677372 2743.99995803833 14 15 7
-69.9982270598412 119.173780083656 2750.99992752075 14 15 7
-62.7611055970192 119.695074856281 2763.00001144409 14 15 7
-55.1184639334679 119.47975307703 2757.99989700317 13 14 6
-47.1750497817993 118.44115704298 2733.99996757507 12 15 8
-39.9144291877747 119.048625230789 2747.99990653992 11 13 8
-32.5300171971321 119.482629001141 2757.99989700317 9 11 8
-25.0818058848381 119.87316608429 2766.99995994568 8 10 7
-17.3943173140287 118.963859975338 2746.00005149841 9 10 5
-9.81060974299908 117.924407124519 2721.99988365173 10 11 6
-2.36053625121713 117.014765739441 2700.99997520447 12 11 6
4.98044677078724 116.234943270683 2683.00008773804 12 11 6
12.2277047485113 115.498244762421 2665.99988937378 11 11 3
19.5211060345173 115.584559738636 2667.99998283386 12 12 4
26.9459076225758 116.190552711487 2681.99992179871 13 14 6
34.4214923679829 116.709761321545 2694.00000572205 14 15 7
41.3731820881367 115.582562983036 2667.99998283386 14 16 11
48.3651012182236 114.888422191143 2651.99995040894 14 16 11
55.709782987833 115.103892982006 2657.00006484985 14 16 11
62.8682598471642 114.929310977459 2653.00011634827 15 17 12
70.1367631554604 114.971175789833 2654.00004386902 15 17 12
77.4396061897278 115.056201815605 2655.99989891052 17 20 13
84.9762409925461 115.444302558899 2664.99996185303 17 20 13
92.2155156731606 115.399062633514 2664.00003433228 18 21 14
99.6356606483459 115.570247173309 2667.99998283386 18 21 14
107.357755303383 116.044476628304 2678.99990081787 18 21 14
115.139462053776 116.518549621105 2690.00005722046 17 20 13
123.162865638733 117.165684700012 2704.99992370605 14 17 10
128.661558032036 115.473702549934 2665.99988937378 15 18 11
135.629564523697 115.211002528667 2660.00008583069 16 19 12
142.45679974556 114.861488342285 2651.99995040894 17 20 13
150.368735194206 115.378074347973 2664.00003433228 18 21 14
157.576307654381 115.331463515759 2663.00010681152 19 22 15
164.46827352047 115.068152546883 2657.00006484985 19 22 15
179.431781172752 115.363948047161 2664.00003433228 14 17 10
186.906099319458 115.489974617958 2667.00005531311 18 21 14
-124.34097379446 113.275349140167 2790.99988937378 24 29 22
-116.222754120827 112.790755927563 2779.00004386902 21 24 17
-107.465885579586 111.575432121754 2749.00007247925 19 22 15
-100.799597799778 112.511083483696 2772.0000743866 17 18 10
-93.5700982809067 112.918958067894 2782.00006484985 17 17 7
-84.6476852893829 111.175432801247 2739.00008201599 18 18 8
-77.5938034057617 111.785933375359 2753.99994850159 17 17 7
-71.042962372303 113.329902291298 2792.00005531311 16 17 9
-63.3757561445236 113.250106573105 2789.99996185303 14 17 10
-55.1596023142338 112.033560872078 2759.99999046326 13 16 9
-47.2105592489243 111.060410737991 2736.00006103516 11 16 10
-39.900753647089 111.507818102837 2746.99997901917 10 15 9
-32.8845642507076 113.172881305218 2788.00010681152 8 13 9
-25.2636354416609 113.132871687412 2786.99994087219 6 11 7
-17.5847243517637 112.686797976494 2776.00002288818 7 9 4
-9.93696879595518 111.915796995163 2756.99996948242 7 9 4
-2.36058630980551 109.642691910267 2700.99997520447 10 13 6
4.98426472768188 108.993165194988 2684.99994277954 10 13 6
12.3059377074242 108.91180485487 2683.00008773804 12 13 7
19.3459149450064 107.328355312347 2644.00005340576 13 14 6
26.785722002387 108.220919966698 2665.99988937378 14 15 7
34.2177823185921 108.707413077354 2677.99997329712 15 16 10
41.482612490654 108.584851026535 2674.99995231628 13 16 9
48.5120341181755 107.975050806999 2660.00008583069 13 16 9
55.6270964443684 107.689842581749 2653.00011634827 14 17 10
62.9643797874451 107.850983738899 2657.00006484985 16 19 12
70.0061172246933 107.524886727333 2648.9999294281 17 20 13
77.2954523563385 107.604563236237 2651.00002288818 18 21 14
84.1808766126633 107.156425714493 2640.00010490417 18 21 12
91.6982218623161 107.519932091236 2648.9999294281 17 20 11
99.6751040220261 108.329743146896 2668.99991035461 17 20 11
107.720695436001 109.098806977272 2687.99996376038 18 21 12
115.355893969536 109.380625188351 2694.9999332428 18 21 12
121.84501439333 108.607098460197 2676.00011825562 17 20 13
128.615990281105 108.158111572266 2664.99996185303 18 21 14
134.714558720589 107.222005724907 2641.99995994568 18 21 14
141.654014587402 107.016302645206 2637.00008392334 19 22 15
149.863854050636 107.743836939335 2654.99997138977 19 22 15
157.224535942078 107.821904122829 2657.00006484985 15 18 11
163.171753287315 106.966502964497 2635.99991798401 14 17 10
171.33042216301 107.571832835674 2651.00002288818 11 14 7
178.290456533432 107.40602761507 2647.0000743866 11 14 7
187.470600008965 108.538493514061 2674.99995231628 13 16 9
-124.477073550224 105.772122740746 2793.99991035461 20 25 18
-115.681357681751 104.714408516884 2766.00003242493 20 23 16
-108.523517847061 105.095118284225 2776.00002288818 18 21 14
-100.947037339211 105.097100138664 2776.00002288818 16 18 7
-92.9328724741936 104.606777429581 2763.00001144409 17 17 7
-85.6074169278145 104.873508214951 2769.99998092651 17 17 7
-78.6378383636475 105.670154094696 2790.99988937378 17 17 7
-71.7568472027779 106.769576668739 2819.9999332428 15 16 8
-64.1947761178017 106.998041272163 2825.99997520447 13 16 9
-55.3205870091915 104.803182184696 2767.99988746643 11 16 9
-47.366801649332 103.933319449425 2744.99988555908 10 15 9
-40.3082557022572 105.070047080517 2775.00009536743 9 14 8
-32.6846912503242 104.919292032719 2770.99990844727 10 12 7
-25.0919051468372 104.806266725063 2767.99988746643 9 11 6
-17.4013692885637 104.011543095112 2746.99997901917 6 11 5
-9.89030953496695 103.898212313652 2743.99995803833 6 11 5
-2.37461715005338 102.876000106335 2717.00000762939 10 15 8
5.0233481451869 102.459482848644 2706.00008964539 10 15 8
12.3979169875383 102.34571993351 2703.00006866455 12 15 8
19.5219088345766 101.020179688931 2667.99998283386 12 15 8
26.7159249633551 100.678965449333 2658.99991989136 12 15 8
33.8990278542042 100.451208651066 2653.00011634827 12 15 8
41.0802289843559 100.299030542374 2648.9999294281 12 15 8
48.2941418886185 100.260317325592 2648.00000190735 12 15 8
55.5652938783169 100.335039198399 2650.00009536743 13 16 9
62.8471374511719 100.409634411335 2651.99995040894 15 18 9
70.1660662889481 100.521937012672 2654.99997138977 17 20 11
77.2969871759415 100.369080901146 2651.00002288818 18 21 12
84.8521664738655 100.746139883995 2661.00001335144 18 21 12
91.7346477508545 100.327990949154 2650.00009536743 17 20 9
100.013181567192 101.386219263077 2677.99997329712 17 20 9
107.883118093014 101.914271712303 2691.99991226196 17 20 9
114.159636199474 100.965715944767 2667.00005531311 18 21 12
121.437601745129 100.963488221169 2667.00005531311 19 22 15
128.425464034081 100.7339656353 2661.00001335144 19 22 15
135.431066155434 100.542195141315 2655.99989891052 18 21 14
142.193973064423 100.198894739151 2647.0000743866 18 21 14
150.318369269371 100.801795721054 2663.00010681152 17 20 13
156.517505645752 100.117564201355 2644.99998092651 12 15 8
167.87950694561 102.650515735149 2711.99989318848 12 15 8
181.122869253159 101.773463189602 2688.99989128113 13 16 9
188.8058334589 101.959258317947 2694.00000572205 12 15 8
-115.13976752758 96.7085435986519 2753.00002098084 20 23 16
-108.056381344795 97.0969349145889 2763.99993896484 18 21 12
-100.330695509911 96.9231426715851 2759.0000629425 17 19 8
-92.7327796816826 96.8545973300934 2756.99996948242 18 18 6
-85.2072238922119 96.8561768531799 2756.99996948242 16 16 6
-78.9773985743523 98.4736606478691 2802.99997329712 16 16 6
-71.8090757727623 99.1425141692162 2822.00002670288 15 16 8
-63.8324990868568 98.7221300601959 2809.99994277954 13 16 9
-55.4215386509895 97.4232852458954 2773.00000190735 11 16 9
-47.4194437265396 96.5458676218987 2747.99990653992 11 16 10
-40.4833145439625 97.9168564081192 2786.99994087219 12 14 9
-32.6263234019279 97.1797034144402 2766.00003242493 11 14 7
-24.7478932142258 95.915399491787 2730.00001907349 10 13 6
-17.2939989715815 95.9157794713974 2730.00001907349 7 10 3
-9.85084474086761 96.0214138031006 2733.00004005432 4 9 2
-2.38602329045534 95.9161296486855 2730.00001907349 8 13 6
5.03643602132797 95.3188240528107 2713.00005912781 9 14 7
12.5036453828216 95.775417983532 2726.0000705719 10 15 8
19.9247170239687 95.6697314977646 2723.00004959106 11 16 9
27.1384213119745 94.8963537812233 2700.99997520447 10 15 8
33.222422003746 91.3473069667816 2599.99990463257 10 15 8
41.0809926688671 93.0681824684143 2648.9999294281 13 16 7
47.8573180735111 92.1890735626221 2624.00007247925 13 16 7
55.8389090001583 93.5583189129829 2663.00010681152 13 16 7
62.848299741745 93.1708067655563 2651.99995040894 15 18 9
70.0087919831276 93.0642262101173 2648.9999294281 16 19 8
77.4441957473755 93.3088436722755 2655.99989891052 17 20 9
84.6624001860619 93.2722762227058 2654.99997138977 18 21 10
99.7909530997276 93.8662141561508 2671.99993133545 19 23 9
106.722891330719 93.5482308268547 2663.00010681152 18 22 8
113.476850092411 93.1247398257256 2651.00002288818 17 20 9
120.346985757351 92.8416475653648 2642.99988746643 17 20 13
127.703875303268 92.9448530077934 2645.99990844727 16 19 12
135.178595781326 93.1181684136391 2651.00002288818 15 18 11
143.002361059189 93.5021117329597 2661.99994087219 14 17 10
150.208190083504 93.4644117951393 2661.00001335144 13 16 9
166.644468903542 94.5476815104485 2691.99991226196 12 15 8
178.058460354805 96.7573225498199 2755.00011444092 13 16 9
183.551043272018 95.7005769014359 2724.99990463257 14 17 10
190.771594643593 95.5919772386551 2721.99988365173 11 14 7
199.139997363091 96.0451364517212 2734.99989509583 15 18 11
-122.209258377552 88.8685509562492 2743.00003051758 13 16 9
-115.267194807529 89.2916694283485 2756.00004196167 21 24 17
-108.683742582798 90.0710821151733 2779.99997138977 18 21 12
-100.659690797329 89.6839946508408 2767.99988746643 18 20 9
-92.2970920801163 88.9079496264458 2743.99995803833 17 19 8
-85.579551756382 89.7194445133209 2769.00005340576 15 15 5
-78.9787471294403 90.8224433660507 2802.99997329712 15 17 6
-71.3522583246231 90.8560752868652 2803.99990081787 15 16 8
-63.1748139858246 90.1119336485863 2780.99989891052 14 17 10
-55.0027750432491 89.1732200980186 2752.00009346008 12 17 10
-47.8344112634659 89.8221284151077 2772.0000743866 12 17 11
-40.0627516210079 89.3692076206207 2757.99989700317 13 16 9
-32.343789935112 88.8513475656509 2742.00010299683 11 14 7
-24.630468338728 88.0417004227638 2717.00000762939 10 13 6
-17.186600714922 87.9124328494072 2713.00005912781 6 9 2
-9.89066250622272 88.9171808958054 2743.99995803833 2 7 0
-2.41578067652881 89.5653814077377 2763.99993896484 6 11 4
5.03466604277492 87.8803282976151 2711.99989318848 7 12 5
12.4304695054889 87.8153815865517 2710.00003814697 10 15 8
19.7933483868837 87.6530930399895 2704.99992370605 11 16 9
26.8876943737268 86.7130011320114 2676.00011825562 11 16 9
34.1430157423019 86.5828767418861 2671.99993133545 11 16 9
40.7250039279461 85.091695189476 2625.99992752075 14 17 8
48.8065481185913 86.7111310362816 2676.00011825562 14 17 8
55.839866399765 86.2890258431435 2663.00010681152 14 17 8
63.1100609898567 86.2880423665047 2663.00010681152 16 19 10
70.2742785215378 86.1573442816734 2658.99991989136 17 20 11
77.6496380567551 86.2857326865196 2663.00010681152 16 19 8
85.0146189332008 86.3815993070602 2665.99988937378 17 20 9
92.7072092890739 86.7689549922943 2677.99997329712 19 22 11
99.4938611984253 86.313784122467 2664.00003433228 19 22 11
106.604479253292 86.1825123429298 2660.00008583069 17 21 7
113.735623657703 86.0835090279579 2657.00006484985 16 19 8
121.760614216328 86.6323634982109 2674.00002479553 15 18 9
128.285199403763 86.1119627952576 2657.99999237061 14 17 10
135.027900338173 85.7858583331108 2648.00000190735 14 17 10
143.756866455078 86.6906940937042 2676.00011825562 13 16 9
152.355790138245 87.4333828687668 2698.99988174438 13 16 9
158.830881118774 86.944967508316 2684.00001525879 12 15 8
168.566331267357 88.2056653499603 2723.00004959106 11 14 7
175.540789961815 87.9761576652527 2716.00008010864 11 14 7
183.621466159821 88.2971808314323 2726.0000705719 12 15 8
190.985023975372 88.261790573597 2724.99990463257 9 12 5
-124.527968466282 82.9243361949921 2795.00007629395 18 21 12
-119.200512766838 84.5579504966736 2849.99990463257 22 25 16
-110.210165381432 83.6399048566818 2819.00000572205 19 22 13
-100.624896585941 82.098625600338 2766.99995994568 16 19 10
-92.8030908107758 81.8627178668976 2759.0000629425 16 19 10
-86.1372202634811 82.6948583126068 2786.99994087219 15 18 9
-78.8109302520752 82.9928070306778 2796.99993133545 15 18 9
-70.58996707201 82.3114737868309 2773.9999294281 15 18 9
-62.7669021487236 81.9860771298409 2763.00001144409 14 17 8
-55.2234947681427 81.9869711995125 2763.00001144409 13 16 7
-47.8351637721062 82.2548046708107 2772.0000743866 12 15 6
-40.1650704443455 82.0477530360222 2765.00010490417 12 15 8
-32.3442965745926 81.3658088445663 2742.00010299683 9 12 5
-24.7940365225077 81.1585187911987 2734.99989509583 9 12 5
-17.3135753720999 81.0994952917099 2733.00004005432 9 12 5
-9.99174639582634 82.2569951415062 2772.0000743866 8 11 4
-2.4131964892149 81.9306597113609 2760.99991798401 8 11 4
5.08487038314343 81.2778100371361 2739.00008201599 10 13 6
12.3526882380247 79.9126699566841 2693.00007820129 14 17 10
19.6399930864573 79.6453505754471 2684.00001525879 15 18 11
27.0991232246161 80.030769109726 2697.00002670288 15 18 11
33.9774340391159 78.9026916027069 2658.99991989136 16 19 12
41.6716709733009 79.7329917550087 2687.00003623962 12 15 8
48.5154911875725 78.9311230182648 2660.00008583069 13 16 9
55.903647094965 79.108364880085 2665.99988937378 14 17 10
63.1584525108337 79.0778025984764 2664.99996185303 17 20 13
70.3282430768013 78.9581164717674 2661.00001335144 18 21 12
77.7674913406372 79.1350305080414 2667.00005531311 20 23 14
85.2072909474373 79.2821645736694 2671.99993133545 19 22 13
92.1893790364265 79.0137872099876 2663.00010681152 17 20 11
99.7568592429161 79.2497172951698 2671.0000038147 17 20 11
107.527926564217 79.6042084693909 2683.00008773804 17 20 9
115.578085184097 80.1069214940071 2700.00004768372 17 20 9
122.809842228889 80.0161361694336 2697.00002670288 14 17 8
128.721579909325 79.1242122650146 2667.00005531311 15 18 11
136.100858449936 79.181581735611 2668.99991035461 16 19 12
142.899557948112 78.9125114679337 2660.00008583069 15 18 11
151.962980628014 79.859621822834 2691.99991226196 14 17 10
160.963729023933 80.6879326701164 2720.00002861023 13 16 9
167.702242732048 80.359198153019 2709.00011062622 14 17 10
176.965400576591 81.2169015407562 2737.99991607666 9 12 5
-127.247542142868 76.9383460283279 2855.99994659424 17 20 11
-119.41135674715 76.9130885601044 2855.00001907349 21 24 15
-112.049251794815 77.2110000252724 2865.9999370575 18 21 12
-102.953806519508 76.2695446610451 2831.00008964539 16 19 10
-94.8562696576118 75.9745389223099 2819.9999332428 16 19 10
-85.613027215004 74.6286958456039 2769.99998092651 15 18 9
-78.4457549452782 75.0069990754128 2783.99991989136 15 18 9
-70.4637542366982 74.6038928627968 2769.00005340576 15 18 9
-62.6769363880157 74.3353664875031 2759.0000629425 13 16 7
-54.8645220696926 73.9589706063271 2744.99988555908 12 15 6
-47.7840788662434 74.6063143014908 2769.00005340576 10 13 4
-40.0784909725189 74.3374824523926 2759.0000629425 12 15 8
-32.6278693974018 74.5265856385231 2766.00003242493 10 13 6
-24.8487871140242 73.853388428688 2740.9999370575 10 13 6
-17.5165478140116 74.5003372430801 2765.00010490417 10 13 6
-10.0567722693086 75.1741230487823 2789.99996185303 9 12 5
-2.44382303208113 75.335867702961 2796.0000038147 8 11 4
5.03667443990707 73.0994865298271 2713.00005912781 8 11 4
12.4537795782089 73.1532573699951 2714.99991416931 14 17 10
19.6402762085199 72.3177716135979 2684.00001525879 15 18 11
26.7277359962463 71.670800447464 2660.00008583069 16 19 12
34.4251729547977 72.5864619016647 2694.00000572205 17 20 13
48.5891439020634 71.7770233750343 2664.00003433228 13 16 9
55.9044517576694 71.830190718174 2665.99988937378 14 17 10
63.2541626691818 71.9102025032043 2668.99991035461 17 20 13
70.910707116127 72.2864866256714 2683.00008773804 18 21 12
78.5267651081085 72.554886341095 2693.00007820129 18 21 12
85.017167031765 71.8263387680054 2665.99988937378 18 21 12
92.0522212982178 71.6365426778793 2658.99991989136 17 20 11
99.6088907122612 71.8507617712021 2667.00005531311 17 20 11
108.210794627666 72.7383866906166 2700.00004768372 17 20 11
115.922175347805 72.9523748159409 2707.99994468689 18 21 10
123.35804104805 72.9776993393898 2709.00011062622 18 21 14
129.881769418716 72.4910795688629 2690.99998474121 16 19 12
136.510744690895 72.112150490284 2677.00004577637 14 17 10
143.922284245491 72.1641182899475 2678.99990081787 12 15 8
152.529641985893 72.7816671133041 2701.99990272522 11 14 7
159.013107419014 72.3755434155464 2687.00003623962 9 12 5
168.447479605675 73.2891336083412 2720.99995613098 15 18 11
176.967889070511 73.7446993589401 2737.99991607666 10 13 6
183.626875281334 73.4190940856934 2726.0000705719 10 13 6
191.621407866478 73.6320465803146 2733.99996757507 9 12 5
-126.803636550903 68.9001604914665 2845.99995613098 15 18 9
-119.872964918613 69.3858563899994 2865.9999370575 19 22 13
-112.51986771822 69.6778148412704 2878.00002098084 18 21 12
-103.537015616894 68.928599357605 2846.99988365173 16 19 10
-94.6220308542252 68.1066289544106 2812.99996376038 16 19 10
-86.4486396312714 67.7203610539436 2796.99993133545 15 18 9
-77.9959335923195 67.0192241668701 2767.99988746643 15 18 9
-70.210188627243 66.8022260069847 2759.0000629425 14 17 8
-62.7231895923615 66.8514668941498 2760.99991798401 12 15 6
-55.2449934184551 66.9248327612877 2763.99993896484 11 14 5
-47.8192158043385 67.0949593186378 2770.99990844727 9 12 3
-40.2533300220966 67.0954957604408 2770.99990844727 12 15 8
-32.8524187207222 67.4349442124367 2785.00008583069 10 13 6
-25.3839883953333 67.7985027432442 2799.99995231628 9 12 5
-17.8018566220999 68.0409148335457 2809.99994277954 10 13 6
-10.0352754816413 67.4115195870399 2783.99991989136 9 12 5
-2.40277452394366 66.5641203522682 2749.00007247925 6 9 2
5.03859715536237 65.7166093587875 2713.99998664856 8 11 4
19.8600627481937 65.7163038849831 2713.99998664856 14 17 10
27.290778234601 65.7644346356392 2716.00008010864 14 17 10
34.2467240989208 64.8923739790916 2680.0000667572 16 19 12
41.4401777088642 64.698189496994 2671.99993133545 16 19 12
48.7539321184158 64.7218525409698 2673.00009727478 15 18 11
56.0729429125786 64.7454187273979 2674.00002479553 15 18 11
63.752681016922 65.1320815086365 2690.00005722046 15 18 11
71.1759328842163 65.2038902044296 2693.00007820129 15 18 9
78.4111395478249 65.1061236858368 2688.99989128113 17 20 11
85.8155190944672 65.1535391807556 2690.99998474121 17 20 11
92.5727039575577 64.7408440709114 2674.00002479553 18 21 12
99.8716205358505 64.7396668791771 2674.00002479553 18 21 12
107.530854642391 64.9562925100327 2683.00008773804 19 22 11
115.666829049587 65.4149204492569 2701.99990272522 19 22 11
122.312270104885 65.026119351387 2686.00010871887 18 21 14
129.207730293274 64.8067072033882 2677.00004577637 15 18 11
139.113202691078 66.0396888852119 2727.9999256134 13 16 9
146.287947893143 65.9169256687164 2723.00004959106 11 14 7
152.588039636612 65.4309689998627 2703.00006866455 11 14 7
160.435438156128 65.6227320432663 2710.99996566772 10 13 6
169.254437088966 66.1774724721909 2733.99996757507 14 17 10
175.677448511124 65.7881125807762 2717.99993515015 9 12 5
182.214573025703 65.4713064432144 2704.99992370605 13 16 9
193.095713853836 66.6792318224907 2755.00011444092 10 13 6
-126.003101468086 60.7444494962692 2828.00006866455 14 17 8
-110.722705721855 60.8329400420189 2832.00001716614 19 22 13
-102.447174489498 60.5118870735168 2816.99991226196 17 20 11
-93.5467258095741 59.7396306693554 2780.99989891052 16 19 10
-85.7696682214737 59.6117191016674 2775.00009536743 15 18 9
-78.8139998912811 60.0852146744728 2796.99993133545 14 17 8
-70.2110007405281 59.2697076499462 2759.0000629425 14 17 8
-63.4054467082024 59.9578730762005 2790.99988937378 13 16 7
-55.6453838944435 59.8081462085247 2783.99991989136 11 14 5
-48.0441190302372 59.8087161779404 2783.99991989136 10 13 4
-40.064949542284 59.2506378889084 2757.99989700317 13 16 9
-32.9471714794636 60.0029490888119 2792.99998283386 11 14 7
-25.4386775195599 60.2825582027435 2805.99999427795 11 14 7
-17.6690258085728 59.9175728857517 2789.00003433228 11 14 7
-9.98492725193501 59.5095343887806 2769.99998092651 10 13 6
-2.38182488828897 58.5428439080715 2724.99990463257 7 10 3
5.04979491233826 58.4354139864445 2720.00002861023 9 12 5
20.3871671110392 59.8530471324921 2786.00001335144 12 15 8
27.100183069706 57.9407587647438 2697.00002670288 11 14 7
34.5538109540939 58.090802282095 2703.9999961853 11 14 7
41.5182113647461 57.5103424489498 2677.00004577637 12 15 8
48.8457009196281 57.5313307344913 2677.99997329712 13 16 9
56.3252381980419 57.7026195824146 2686.00010871887 13 16 9
63.9904215931892 58.0027140676975 2700.00004768372 16 19 12
71.0446015000343 57.7441863715649 2687.99996376038 17 20 11
78.1204402446747 57.5500354170799 2678.99990081787 17 20 11
85.2743834257126 57.4417375028133 2674.00002479553 18 21 12
92.2968089580536 57.2689138352871 2665.99988937378 19 22 13
99.1631299257278 57.0315793156624 2654.99997138977 19 22 13
107.211455702782 57.4600733816624 2674.99995231628 18 21 10
115.240074694157 57.8240267932415 2691.99991226196 18 21 10
121.903836727142 57.5005486607552 2677.00004577637 14 17 10
127.906009554863 56.9192618131638 2650.00009536743 13 16 9
139.114812016487 58.5931576788425 2727.9999256134 12 15 8
143.603444099426 57.4103370308876 2673.00009727478 12 15 8
152.533337473869 58.0315850675106 2701.99990272522 12 15 8
163.455456495285 59.3185164034367 2762.00008392334 12 15 8
169.442072510719 58.7798170745373 2736.99998855591 10 13 6
176.002636551857 58.4773160517216 2723.00004959106 7 10 3
185.180604457855 59.0337328612804 2749.00007247925 9 12 5
-109.433621168137 52.4827390909195 2799.00002479553 20 23 14
-101.575389504433 52.3712337017059 2792.99998283386 18 21 12
-93.4804007411003 52.1096475422382 2779.00004386902 17 20 11
-85.3687450289726 51.7917275428772 2762.00008392334 14 17 8
-78.0821740627289 51.9612655043602 2770.99990844727 14 17 8
-71.2042078375816 52.4682849645615 2798.00009727478 14 17 8
-63.5878443717957 52.4876825511456 2799.00002479553 13 16 7
-55.6259676814079 52.1882101893425 2782.99999237061 12 15 6
-48.1654107570648 52.3387268185616 2790.99988937378 11 14 5
-40.2106307446957 51.9078373908997 2767.99988746643 13 16 9
-32.4520580470562 51.5893809497356 2750.99992752075 10 13 6
-25.0128414481878 51.7396852374077 2759.0000629425 10 13 6
-17.5171587616205 51.8524050712585 2765.00010490417 10 13 6
-9.83723718672991 51.1774271726608 2729.00009155273 9 12 5
-2.41156807169318 51.7400838434696 2759.0000629425 8 11 4
12.7340340986848 52.058782428503 2776.00002288818 12 15 8
19.9409928172827 51.1022172868252 2724.99990463257 13 16 9
27.3818112909794 51.1019863188267 2724.99990463257 12 15 8
35.1547710597515 51.5892654657364 2750.99992752075 12 15 8
41.6892394423485 50.4074729979038 2687.99996376038 11 14 7
49.0650795400143 50.4445470869541 2690.00005722046 11 14 7
55.9273846447468 50.0127375125885 2667.00005531311 12 15 8
63.5881647467613 50.3121949732304 2683.00008773804 16 19 12
70.9131732583046 50.311554223299 2683.00008773804 17 20 11
77.8588056564331 50.0670745968819 2670.00007629395 17 20 11
84.828794002533 49.8787872493267 2660.00008583069 18 21 12
92.2631397843361 49.9716959893703 2664.99996185303 18 21 12
99.5376482605934 49.9707870185375 2664.99996185303 17 20 11
107.533186674118 50.3073148429394 2683.00008773804 16 19 8
114.898793399334 50.3250136971474 2684.00001525879 15 18 7
119.94694173336 49.3864044547081 2634.0000629425 13 16 9
127.859026193619 49.6664755046368 2648.9999294281 13 16 9
135.954469442368 49.9839596450329 2665.99988937378 13 16 9
144.464492797852 50.4138581454754 2688.99989128113 11 14 7
149.091273546219 49.5125725865364 2641.00003242493 11 14 7
162.155121564865 51.3671077787876 2740.00000953674 10 13 6
171.177223324776 51.8342144787312 2765.00010490417 7 10 3
179.300829768181 52.0012974739075 2773.9999294281 9 12 5
-108.183450996876 44.3285182118416 2766.99995994568 23 26 17
-94.2212715744972 44.8748655617237 2801.00011825562 13 16 7
-86.1731246113777 44.6673296391964 2788.00010681152 12 15 6
-79.0409371256828 44.9403636157513 2805.0000667572 13 16 7
-62.7705454826355 44.2686080932617 2763.00001144409 12 15 6
-55.9262856841087 44.8298677802086 2798.00009727478 11 14 5
-48.2003502547741 44.7501763701439 2792.99998283386 10 13 4
-40.1528850197792 44.2858934402466 2763.99993896484 14 17 10
-32.2282165288925 43.7734723091125 2732.00011253357 11 14 7
-24.7954800724983 43.8217706978321 2734.99989509583 10 13 6
-17.4856390804052 44.2225113511086 2759.99999046326 10 13 6
-9.97070036828518 44.3187616765499 2766.00003242493 10 13 6
-2.42732279002666 44.4950610399246 2776.99995040894 10 13 6
5.16314245760441 44.5591360330582 2780.99989891052 12 15 8
12.5827686861157 43.9502038061619 2743.00003051758 12 15 8
20.094845443964 43.9981371164322 2746.00005149841 14 17 10
27.4323020130396 43.7415838241577 2730.00001907349 16 19 12
34.5928110182285 43.3728098869324 2707.00001716614 14 17 10
42.5271242856979 43.9332760870457 2742.00010299683 16 19 12
48.5000722110271 42.6030531525612 2658.99991989136 15 18 11
55.6762292981148 42.5385385751724 2654.99997138977 14 17 10
63.2806271314621 42.7783876657486 2670.00007629395 15 18 11
70.7287937402725 42.8739711642265 2676.00011825562 15 18 9
78.1802609562874 42.9534688591957 2680.99999427795 16 19 10
85.4035764932632 42.9047420620918 2677.99997329712 16 19 10
93.3718159794807 43.2084128260612 2697.00002670288 17 20 11
100.995190441608 43.3197654783726 2703.9999961853 16 19 10
107.814691960812 43.0946312844753 2690.00005722046 14 17 6
112.930573523045 42.2606915235519 2638.00001144409 14 17 6
121.359676122665 42.6922775804996 2664.99996185303 16 19 12
128.149777650833 42.5310768187046 2654.99997138977 15 18 11
135.853692889214 42.67418384552 2664.00003433228 13 16 9
143.767327070236 42.8652800619602 2676.00011825562 11 14 7
165.825769305229 44.8810644447804 2802.00004577637 11 14 7
179.625555872917 44.509906321764 2779.00004386902 8 11 4
186.261922121048 44.2842245101929 2765.00010490417 14 17 10
-119.459241628647 37.9561819136143 2855.99994659424 23 26 17
-111.077509820461 37.7576090395451 2841.00008010864 22 25 16
-102.231688797474 37.3596176505089 2811.00010871887 14 17 8
-94.255618751049 37.2406616806984 2802.00004577637 14 17 8
-86.1119329929352 37.0286144316196 2786.00001335144 12 15 6
-78.5906687378883 37.0690487325192 2789.00003433228 13 16 7
-71.1799114942551 37.1758826076984 2796.99993133545 13 16 7
-63.77062946558 37.309255450964 2806.99992179871 13 16 7
-55.586900562048 36.9640775024891 2780.99989891052 13 16 7
-48.1144264340401 37.0574742555618 2788.00010681152 14 17 8
-40.2548685669899 36.8318110704422 2770.99990844727 12 15 8
-32.2638489305973 36.3535508513451 2734.99989509583 12 15 8
-24.7684698551893 36.3138727843761 2732.00011253357 12 15 8
-17.5301171839237 36.77923604846 2766.99995994568 12 15 8
-10.0320558995008 36.9920022785664 2782.99999237061 11 14 7
-2.41073314100504 36.6597361862659 2757.99989700317 9 12 5
5.05549926310778 36.1945033073425 2723.00004959106 11 14 7
12.6700215041637 36.7128401994705 2762.00008392334 12 15 8
20.0876779854298 36.4867597818375 2744.99988555908 13 16 9
27.5128949433565 36.3935567438602 2737.99991607666 16 19 12
34.8869897425175 36.2870097160339 2730.00001907349 14 17 10
42.0466400682926 36.0342003405094 2710.99996566772 16 19 12
49.1753220558167 35.834513604641 2696.00009918213 15 18 11
56.1170279979706 35.5683267116547 2676.00011825562 15 18 11
63.5892078280449 35.6609560549259 2683.00008773804 15 18 11
71.0729137063026 35.7402488589287 2688.99989128113 15 18 9
78.6474123597145 35.8460731804371 2697.00002670288 16 19 10
85.7231169939041 35.725899040699 2687.99996376038 16 19 10
93.5109853744507 35.898070782423 2700.99997520447 17 20 11
101.817652583122 36.2296774983406 2726.0000705719 17 20 11
108.376622200012 35.9365865588188 2703.9999961853 16 19 10
112.845793366432 35.032119601965 2635.99991798401 14 17 6
121.178425848484 35.3635735809803 2661.00001335144 16 19 12
128.585129976273 35.4026071727276 2664.00003433228 15 18 11
135.293737053871 35.2555438876152 2653.00011634827 13 16 9
143.983289599419 35.6134064495564 2680.0000667572 11 14 7
168.845251202583 37.9101820290089 2852.9999256134 11 14 7
172.046676278114 36.9257666170597 2779.00004386902 10 13 6
180.854991078377 37.1770560741425 2798.00009727478 9 12 5
-119.083516299725 30.0637781620026 2846.99988365173 21 24 15
-110.452614724636 29.832074418664 2825.00004768372 20 23 14
-101.977713406086 29.6108797192574 2803.99990081787 16 19 10
-93.583419919014 29.379079118371 2782.00006484985 15 18 9
-86.0815495252609 29.4112432748079 2785.00008583069 16 19 10
-78.3375203609467 29.3588787317276 2779.99997138977 15 18 9
-71.256697177887 29.5704994350672 2799.99995231628 14 17 8
-63.725583255291 29.6236705034971 2805.0000667572 13 16 7
-56.0669638216496 29.6239946037531 2805.0000667572 13 16 7
-47.735046595335 29.2123854160309 2766.00003242493 12 15 6
-40.0081500411034 29.085885733366 2753.99994850159 13 16 9
-32.4645899236202 29.0649607777596 2752.00009346008 12 15 8
-24.7595552355051 28.8433246314526 2730.99994659424 13 16 9
-17.3528324812651 28.9279315620661 2739.00008201599 12 15 8
-9.90594923496246 29.0230568498373 2747.99990653992 10 13 6
-2.39676260389388 28.9597231894732 2742.00010299683 6 9 2
5.09451888501644 28.9808362722397 2743.99995803833 10 13 6
12.4957812950015 28.7695582956076 2723.99997711182 11 14 7
20.0219377875328 28.8962069898844 2736.00006103516 12 15 8
27.3321866989136 28.7270974367857 2720.00002861023 16 19 12
34.5805026590824 28.5790711641312 2706.00008964539 15 18 11
42.1554632484913 28.7055987864733 2717.99993515015 15 18 11
49.6498644351959 28.747595846653 2721.99988365173 15 18 11
56.7255169153214 28.5677704960108 2704.99992370605 15 18 11
64.0162155032158 28.5251997411251 2700.99997520447 16 19 12
71.7341303825378 28.6621265113354 2713.99998664856 17 20 11
79.0561512112617 28.6300368607044 2710.99996566772 17 20 11
86.0106572508812 28.4817479550838 2697.00002670288 17 20 11
93.3384522795677 28.4707061946392 2696.00009918213 19 22 13
99.988080561161 28.2695423811674 2677.00004577637 18 21 12
108.176857233047 28.5013038665056 2698.99988174438 17 20 9
115.072570741177 28.3845495432615 2687.99996376038 16 19 8
122.363172471523 28.3733569085598 2687.00003623962 17 20 13
130.516603589058 28.5521931946278 2703.9999961853 15 18 11
137.74237036705 28.5198017954826 2700.99997520447 14 17 10
172.666803002357 29.4456537812948 2789.00003433228 8 11 4
182.084158062935 29.7403316944838 2816.99991226196 14 17 10
-126.631557941437 22.2512222826481 2842.00000762939 27 30 23
-117.954716086388 22.0794584602118 2819.9999332428 19 22 13
-110.257625579834 22.0799092203379 2819.9999332428 18 21 12
-100.814394652843 21.704500541091 2772.0000743866 18 21 12
-93.5838520526886 21.7831861227751 2782.00006484985 15 18 9
-85.8656018972397 21.7522233724594 2778.00011634827 17 20 11
-78.6760449409485 21.8621734529734 2792.00005531311 16 19 10
-63.5668486356735 21.9097230583429 2798.00009727478 14 17 8
-55.5475279688835 21.7611808329821 2779.00004386902 14 17 8
-47.7870516479015 21.68308198452 2769.00005340576 12 15 6
-39.6451577544212 21.370030939579 2729.00009155273 15 18 11
-32.6416902244091 21.667743101716 2766.99995994568 12 15 8
-25.1404475420713 21.7148438096046 2773.00000190735 11 14 7
-17.327569425106 21.4173551648855 2734.99989509583 10 13 6
-9.90599673241377 21.5192139148712 2747.99990653992 9 12 5
-2.40988517180085 21.5897150337696 2756.99996948242 6 9 2
5.10939583182335 21.5505566447973 2752.00009346008 10 13 6
12.651807628572 21.5975027531385 2757.99989700317 12 15 8
19.6634512394667 21.0414510220289 2687.00003623962 12 15 8
27.0810965448618 21.1040023714304 2694.9999332428 15 18 11
34.401748329401 21.0803858935833 2691.99991226196 15 18 11
41.5507815778255 20.9784340113401 2678.99990081787 15 18 11
49.4676902890205 21.2366636842489 2711.99989318848 15 18 11
56.5999522805214 21.1346540600061 2698.99988174438 15 18 11
64.2535239458084 21.2283805012703 2710.99996566772 16 19 12
71.7080309987068 21.2437696754932 2713.00005912781 17 20 11
78.5024613142014 21.0790317505598 2691.99991226196 17 20 11
85.4370146989822 20.9769122302532 2678.99990081787 17 20 11
92.6810801029205 20.9608990699053 2677.00004577637 19 22 13
99.8764857649803 20.9370255470276 2674.00002479553 19 22 13
108.017042279243 21.1010370403528 2694.9999332428 18 21 10
115.758068859577 21.171061322093 2703.9999961853 17 20 9
122.864671051502 21.1236122995615 2697.99995422363 16 19 12
129.889726638794 21.0683085024357 2690.99998474121 15 18 11
157.450467348099 21.8338426202536 2789.00003433228 11 14 7
172.605693340302 21.8247193843126 2788.00010681152 7 10 3
180.986151099205 21.9179634004831 2799.99995231628 11 14 7
-117.536813020706 14.3291661515832 2809.99994277954 20 23 14
-109.710603952408 14.3090626224875 2805.99999427795 17 20 11
-101.469360291958 14.227744191885 2789.99996185303 17 20 11
-93.3823138475418 14.1566023230553 2776.00002288818 18 21 12
-86.6386070847511 14.2945274710655 2802.99997329712 16 19 10
-78.4226879477501 14.1927460208535 2782.99999237061 15 18 9
-70.8755329251289 14.2031405121088 2785.00008583069 17 20 11
-63.3171573281288 14.2135145142674 2786.99994087219 20 23 14
-55.4877482354641 14.1575708985329 2776.00002288818 20 23 14
-47.3730079829693 13.9996018260717 2744.99988555908 14 17 8
-40.052056312561 14.0609182417393 2756.99996948242 13 16 9
-32.6418019831181 14.1120133921504 2766.99995994568 11 14 7
-25.2311918884516 14.1936922445893 2782.99999237061 11 14 7
-17.5873842090368 14.1580468043685 2776.00002288818 11 14 7
-9.94928646832705 14.0764797106385 2759.99999046326 10 13 6
-2.4090192746371 14.0560958534479 2756.00004196167 8 11 4
5.13354875147343 14.1019942238927 2765.00010490417 13 16 9
12.8032322973013 14.2345745116472 2790.99988937378 15 18 11
19.4366555660963 13.5460095480084 2655.99989891052 12 15 8
34.6574522554874 13.8314748182893 2711.99989318848 15 18 11
41.5664277970791 13.6681739240885 2680.0000667572 16 19 12
48.7747229635715 13.6374570429325 2674.00002479553 16 19 12
56.7888841032982 13.8107184320688 2707.99994468689 16 19 12
64.2537325620651 13.8258608058095 2710.99996566772 16 19 12
71.5761110186577 13.8103840872645 2707.99994468689 17 20 11
78.6776766180992 13.7591911479831 2697.99995422363 16 19 10
85.8837813138962 13.7334791943431 2693.00007820129 16 19 10
93.0275991559029 13.7026496231556 2687.00003623962 18 21 12
100.250340998173 13.6871011927724 2684.00001525879 18 21 12
108.979344367981 13.8653116300702 2719.00010108948 18 21 12
116.614654660225 13.8905169442296 2723.99997711182 17 20 9
124.367855489254 13.9258997514844 2730.99994659424 16 19 12
129.310920834541 13.6604178696871 2678.99990081787 15 18 11
148.444518446922 14.0880160033703 2763.00001144409 12 15 8
156.096071004868 14.0978246927261 2765.00010490417 10 13 6
163.817062973976 14.1127090901136 2767.99988746643 10 13 6
172.172874212265 14.1785610467196 2780.99989891052 8 11 4
-127.790719270706 6.79437117651105 2868.00003051758 6 9 0
-119.419313967228 6.76372135058045 2855.00001907349 19 22 13
-110.258191823959 6.68094074353576 2819.9999332428 22 25 16
-101.796872913837 6.63131615146995 2799.00002479553 18 21 12
-94.0216407179832 6.62195729091764 2795.00007629395 19 22 13
-86.2060412764549 6.60785054787993 2789.00003433228 17 20 11
-78.6764472723007 6.6150575876236 2792.00005531311 16 19 10
-70.7738623023033 6.58908579498529 2780.99989891052 17 20 11
-63.2945597171783 6.60101370885968 2786.00001335144 19 22 13
-55.2280023694038 6.54659001156688 2763.00001144409 18 21 12
-47.7700345218182 6.55849883332849 2767.99988746643 10 13 4
-39.9649702012539 6.51827268302441 2750.99992752075 11 14 7
-32.830610871315 6.59413821995258 2782.99999237061 12 15 8
-25.267506018281 6.60365121439099 2786.99994087219 13 16 9
-17.6761150360107 6.61078561097384 2789.99996185303 14 17 10
-10.0394263863564 6.59895502030849 2785.00008583069 12 15 8
-2.42737983353436 6.58000679686666 2776.99995040894 9 12 5
5.22082019597292 6.66293734684587 2812.00003623962 14 17 10
12.6702236011624 6.54445309191942 2762.00008392334 16 19 12
20.0587268918753 6.49467343464494 2740.9999370575 12 15 8
27.2219236940145 6.41882326453924 2709.00011062622 14 17 10
35.2964848279953 6.54436554759741 2762.00008392334 15 18 11
41.9232361018658 6.40452280640602 2703.00006866455 17 20 13
49.4314692914486 6.42105285078287 2710.00003814697 16 19 12
56.851901113987 6.42335787415504 2710.99996566772 16 19 12
64.2775520682335 6.42565358430147 2711.99989318848 16 19 12
71.1797848343849 6.38055521994829 2693.00007820129 16 19 10
79.0860876441002 6.42548082396388 2711.99989318848 15 18 9
86.585558950901 6.43248856067657 2714.99991416931 16 19 10
93.23550760746 6.38025812804699 2693.00007820129 18 21 12
100.960202515125 6.40383269637823 2703.00006866455 18 21 12
108.658894896507 6.42265984788537 2710.99996566772 18 21 10
117.257036268711 6.48885918781161 2739.00008201599 17 20 9
123.821623623371 6.44133379682899 2719.00010108948 15 18 9
128.104463219643 6.28719851374626 2654.00004386902 15 18 11
135.397851467133 6.28941040486097 2654.99997138977 15 18 11
151.883259415627 6.69668335467577 2826.99990272522 14 17 10
157.846450805664 6.62306696176529 2796.0000038147 10 13 6
165.474489331245 6.62287417799234 2796.0000038147 9 12 5
-127.790778875351 -1.03589531499892 2868.00003051758 15 18 9
-118.959255516529 -1.02724926546216 2844.00010108948 25 28 17
-111.392118036747 -1.02907640393823 2848.99997711182 23 26 15
-102.887995541096 -1.02187180891633 2828.9999961853 19 22 11
-94.7953909635544 -1.01791671477258 2818.00007820129 19 22 11
-86.1442610621452 -1.00673525594175 2786.99994087219 22 25 14
-78.394703567028 -1.00494432263076 2782.00006484985 18 21 10
-70.7738995552063 -1.00459670647979 2780.99989891052 11 14 3
-63.3400306105614 -1.00713782012463 2788.00010681152 10 13 2
-55.7277426123619 -1.0071488795802 2788.00010681152 11 14 3
-47.9771606624126 -1.00426853168756 2779.99997138977 13 16 7
-40.328174829483 -1.00283161737025 2776.00002288818 13 16 9
-32.6772667467594 -1.0006707161665 2769.99998092651 13 16 9
-25.1587256789207 -1.00248248782009 2775.00009536743 13 16 9
-17.7394784986973 -1.01151783019304 2799.99995231628 12 15 8
-10.1079232990742 -1.01296545471996 2803.99990081787 11 14 7
-2.44835973717272 -1.01188290864229 2801.00011825562 11 14 7
5.13913063332438 -0.999961048364639 2767.99988746643 12 15 8
12.6381190493703 -0.995263108052313 2755.00011444092 14 17 10
19.934331998229 -0.984061160124838 2723.99997711182 12 15 8
27.6439785957336 -0.993810477666557 2750.99992752075 12 15 8
35.5393067002296 -1.00464222487062 2780.99989891052 15 18 11
49.7233420610428 -0.984757789410651 2726.0000705719 16 19 12
57.0406690239906 -0.982580473646522 2720.00002861023 16 19 12
64.0168786048889 -0.975705799646676 2700.99997520447 17 20 11
70.7569122314453 -0.967023661360145 2677.00004577637 17 20 11
79.3194323778152 -0.982542871497571 2720.00002861023 14 17 6
86.1710086464882 -0.976025476120412 2701.99990272522 15 18 7
93.5125276446342 -0.975647766608745 2700.99997520447 17 20 9
100.736141204834 -0.974185182712972 2697.00002670288 17 20 9
108.93952101469 -0.981751247309148 2717.99993515015 17 21 7
116.957426071167 -0.986787374131382 2732.00011253357 16 19 8
125.870957970619 -0.998323317617178 2763.99993896484 16 18 7
130.035266280174 -0.973017071373761 2694.00000572205 15 16 8
140.395656228065 -0.994301750324667 2753.00002098084 15 16 8
150.486469268799 -1.01161142811179 2801.00011825562 13 16 7
158.185258507729 -1.01194449234754 2802.00004577637 10 13 4
-125.78558921814 -8.72704479843378 2822.99995422363 19 22 13
-116.616785526276 -8.6190328001976 2788.00010681152 24 27 18
-110.688239336014 -8.75214673578739 2831.00008964539 22 25 16
-103.651657700539 -8.8110538199544 2849.99990463257 21 24 15
-95.3671783208847 -8.76483600586653 2835.00003814697 21 24 15
-86.2060114741325 -8.62276181578636 2789.00003433228 19 22 13
-78.3946290612221 -8.60124919563532 2782.00006484985 16 19 10
-70.6975013017654 -8.58900044113398 2778.00011634827 8 11 2
-63.9533773064613 -8.70350282639265 2815.00005722046 9 12 3
-56.627169251442 -8.75925179570913 2832.99994468689 12 15 6
-48.4775938093662 -8.68512969464064 2809.00001525879 16 19 10
-40.5315235257149 -8.62645357847214 2789.99996185303 14 17 10
-32.8070037066936 -8.59868433326483 2780.99989891052 13 16 9
-25.0952374190092 -8.55853501707315 2767.99988746643 13 16 9
-17.6317598670721 -8.60494747757912 2782.99999237061 11 14 7
-10.0862849503756 -8.65134969353676 2798.00009727478 10 13 6
-2.42912746034563 -8.59261211007833 2779.00004386902 9 12 5
5.13541325926781 -8.55241436511278 2766.00003242493 12 15 8
12.4133294448256 -8.36688186973333 2706.00008964539 14 17 10
20.0440846383572 -8.46889056265354 2739.00008201599 13 16 9
27.7343951165676 -8.53378418833017 2759.99999046326 12 15 8
34.9514298141003 -8.45643598586321 2734.99989509583 14 17 10
42.1558655798435 -8.40381160378456 2717.99993515015 18 21 14
49.7415401041508 -8.43156687915325 2726.99999809265 16 19 12
57.0196509361267 -8.40674806386232 2719.00010108948 16 19 12
63.9457181096077 -8.34172312170267 2697.99995422363 18 21 12
71.9198286533356 -8.41272715479136 2720.99995613098 17 20 11
78.7069573998451 -8.34458973258734 2698.99988174438 15 18 7
85.4055359959602 -8.27953591942787 2677.99997329712 16 19 8
92.6469191908836 -8.27321223914623 2676.00011825562 17 20 9
101.072207093239 -8.36580712348223 2706.00008964539 18 21 10
107.81717300415 -8.31617973744869 2690.00005722046 17 21 7
115.801431238651 -8.36237613111734 2704.99992370605 16 20 6
126.007467508316 -8.55385512113571 2766.99995994568 19 21 10
131.14532828331 -8.39908700436354 2717.00000762939 19 20 12
137.386694550514 -8.32777842879295 2694.00000572205 16 17 9
156.435027718544 -8.56534112244844 2770.99990844727 9 12 5
-127.433925867081 -16.6498105973005 2859.99989509583 24 27 18
-115.40350317955 -16.0621777176857 2759.0000629425 23 26 17
-108.342073857784 -16.1323696374893 2770.99990844727 21 24 15
-103.433214128017 -16.5576841682196 2844.00010108948 20 23 14
-95.5015122890472 -16.5288671851158 2838.99998664856 21 24 15
-86.205817759037 -16.2380300462246 2789.00003433228 13 16 7
-78.6198824644089 -16.2440966814756 2789.99996185303 12 15 6
-72.2242817282677 -16.5237914770842 2838.00005912781 12 15 6
-64.9755746126175 -16.6520867496729 2859.99989509583 15 18 9
-55.9874139726162 -16.30874350667 2801.00011825562 15 18 9
-48.7018376588821 -16.4311714470387 2822.00002670288 13 16 7
-40.8365055918694 -16.3672547787428 2811.00010871887 14 17 10
-32.9131036996841 -16.2450913339853 2789.99996185303 13 16 9
-25.0045191496611 -16.0588528960943 2757.99989700317 13 16 9
-17.4289830029011 -16.0181596875191 2750.99992752075 10 13 6
-10.0321900099516 -16.2045247852802 2782.99999237061 9 12 5
-2.46408581733704 -16.4141617715359 2819.00000572205 9 12 5
5.05185406655073 -15.8435329794884 2720.99995613098 12 15 8
12.4316504225135 -15.7794579863548 2710.00003814697 15 18 11
19.9708584696054 -15.8900395035744 2729.00009155273 13 16 9
