ply
format ascii 1.0
comment KinectMotionCapture
element vertex 798
property float x
property float y
property float z
property uchar red
property uchar green
property uchar blue
end_header
-65.4601669365724 127.414392019068 2757.47964670288 10 13 6
-54.3357796718675 126.020227206694 2735.89365580066 11 14 7
-61.0725466867359 125.560629231683 2732.24303277372 13 16 9
-78.4250860420364 125.670123701478 2739.42641973691 16 19 12
-77.3586940592086 124.794991997337 2727.84378760552 17 20 13
-58.0454537178259 122.921054503532 2697.3703179327 16 19 10
-81.6732185806801 123.380076721694 2711.1223490493 16 19 10
-80.7224355601606 122.495788505652 2699.45586313439 19 22 13
-69.2305105315081 120.170365312463 2665.78063594757 17 20 11
-107.053253242239 120.615617455379 2684.06397239675 18 21 12
195.647805427893 130.385102726239 2807.20798963012 0 3 0
163.063465412894 131.061663801469 2825.58481772423 12 15 8
169.356633934354 129.19827020041 2800.4941965154 13 16 9
155.488615606859 129.04191344955 2802.79143181692 13 16 9
157.781508655945 128.138878403917 2790.86273851817 13 16 9
142.42235329929 128.057711555926 2794.54976535191 11 14 7
127.115040393894 127.98083871795 2798.27410115793 10 13 6
143.818758210116 126.384789423809 2773.3211492044 10 13 6
122.452357152754 126.600603770979 2782.53578168467 11 14 7
67.1559514450846 127.679869857288 2812.85809224968 8 11 4
40.8223253798732 128.179512039835 2827.1191603183 10 13 6
-61.3301536194211 130.938895663212 2892.64977639014 13 16 9
-22.4509089771137 128.201007746262 2846.71280427512 13 16 9
11.7162990116189 125.668690665494 2804.77182621613 12 15 8
14.6088742178598 124.716729953792 2792.04227638659 10 13 6
17.4475770559566 123.760360171606 2779.27365099488 10 13 6
15.824816324447 123.030393556634 2770.68306543214 11 14 7
-17.3162289134476 123.959870353967 2792.36271698509 15 18 11
-32.0416974810553 123.932209493843 2796.50909343711 17 20 13
-43.0759658166489 123.713900181397 2797.15515089344 16 19 12
-54.0802265224212 123.498130950875 2797.82267991002 14 17 10
-70.8429872765726 123.599897358196 2804.1982397173 10 13 6
-95.4753927899563 124.142250880332 2818.45773858194 10 13 6
-60.3066848792726 121.395968497143 2773.53628104838 11 14 7
-51.1993571166527 120.066001760142 2754.19381020745 10 13 6
-55.0509012980323 119.45024820379 2747.69351483359 10 13 6
-75.3044056997192 119.759908772035 2757.71538519956 12 15 8
-96.1809653581289 120.117352899887 2768.52086817562 17 20 13
-87.9338042402635 118.815956478145 2749.79031999754 16 19 12
-93.1880514341179 118.283069366264 2744.74366826805 15 18 11
-73.1147320299983 116.273427973165 2713.58517765547 15 18 9
-27.2511968805143 112.726170220563 2655.41547644658 16 19 10
-27.8672533980338 111.882849208395 2645.08343587789 17 20 11
-66.1611827373241 113.280806132406 2674.1462378158 18 21 12
-73.6793431100156 112.858987460244 2671.16439405684 16 19 10
-77.03380393587 112.18644466929 2663.78882626079 16 19 10
173.484005183343 123.778242937261 2826.92622532655 0 2 0
145.617069821194 124.325916088255 2841.31133915593 13 16 9
134.131770066638 124.08760687926 2841.63003853073 14 17 10
150.470687635749 122.480489751411 2817.64761566129 14 17 10
149.743892377542 121.704764067674 2808.47097170608 14 17 10
140.541019499988 121.349448129989 2806.73825400665 13 16 9
131.35460826612 120.995540448797 2805.01747683713 11 14 7
106.155651086459 121.458277240051 2817.63083040444 10 13 6
117.597722333219 120.05793494212 2797.51043521657 11 14 7
108.44760209778 119.707161403929 2795.81598204136 12 15 8
126.555088236079 117.940557944381 2769.40942007651 11 14 7
6.75350599197122 121.790990796498 2849.32421811664 13 16 9
12.835085205376 120.661267747757 2833.96539843053 13 16 9
24.0407089713663 118.424728324247 2803.78818544985 12 15 8
28.4275873982791 117.358921469276 2789.67123800343 17 20 13
34.9689824177388 116.165521686772 2773.41009496665 18 21 14
20.064604578907 116.155180762016 2777.42686399874 18 21 14
-2.86990393466358 116.602357454541 2789.21131817944 15 18 11
-16.91433090438 116.56141816133 2792.61658680986 13 16 9
-28.7203114875338 116.399809255121 2793.9382429397 10 13 6
-31.7551682191819 115.740268231995 2786.79442882875 10 13 6
-26.8238613846117 114.618132094093 2771.83653272857 10 13 6
-45.8414256529092 114.879973350666 2780.28404700086 11 14 7
-73.438479442977 115.655868680182 2797.33603299012 11 14 7
-105.219968956944 116.697536535147 2818.76678714232 10 13 6
-56.5316914412253 112.975336795528 2760.17354810664 11 14 7
-66.7987608027625 112.737892993207 2760.14033644592 13 16 9
-84.8795693578086 112.975815164021 2768.03147266499 16 19 12
-90.8087472428043 112.4856129658 2763.73080211046 19 22 15
-110.903880730252 112.863067654278 2773.86782232255 17 20 13
-100.552053232714 111.374627493223 2752.95663994086 15 18 11
-72.0028939885027 108.74044800282 2713.1179801217 17 20 11
-3.67824203117451 103.584544462354 2631.69855681816 17 20 11
-60.169696021469 105.337520588283 2668.56847810588 18 21 12
-82.3007765940185 105.853278917303 2680.93570172654 19 22 13
-84.2400753718007 105.082424159199 2672.11514939528 27 30 21
130.818660371835 119.196992534396 2873.78690411563 201 206 200
129.118239196747 116.85028345316 2846.60480989758 14 17 10
160.149000632136 114.389175654222 2809.80102973825 14 17 10
158.626809642493 113.632615281393 2801.28321462504 13 16 9
146.327955444939 113.450390303994 2802.24747172888 12 15 8
144.781927916043 112.691888547275 2793.71207268915 12 15 8
144.735246402593 111.848058634953 2783.79307611132 11 14 7
135.517638581404 111.502048978025 2782.04972387494 11 14 7
129.352686946572 110.989789157792 2777.57802417129 12 15 8
128.484474402135 110.182816957957 2768.29870553753 11 14 7
84.5696938065252 111.783249127649 2798.22829901568 9 12 5
116.118257026717 109.155579509246 2759.32896749374 9 12 5
49.9136341399216 112.053601891754 2810.16050032563 10 13 6
-25.6648832595836 115.537573156281 2870.25631901072 11 14 7
15.5171803830503 112.345762299353 2822.28100595983 12 15 8
39.316982731243 110.124392036857 2790.11774002443 12 15 8
28.8329958510118 109.883714012035 2789.92726384319 17 20 13
-3.06396891007443 110.90843033981 2810.03918503236 18 21 14
-0.166499495809269 109.890072528153 2797.31284680427 17 20 13
-8.34573501711899 109.526190635411 2795.08710565243 13 16 9
-17.9779647909728 109.251615947304 2794.27858357549 11 14 7
-26.1285436808181 108.890309472513 2792.07362927237 8 11 4
-32.8105896920481 108.441178634398 2788.46272768688 9 12 5
-33.6806981648381 107.63516268138 2779.18174502076 11 14 7
-43.2690195263654 107.364678181113 2778.4053682836 13 16 9
-57.1660045910232 107.366157249856 2781.91744107791 12 15 8
-98.3537280619093 109.089358027422 2812.58952168206 11 14 7
-74.7767062296911 106.745857052719 2779.02910215092 11 14 7
-70.6868897829918 105.617718950791 2764.69649241537 16 19 12
-83.3029982116014 104.67829350951 2756.78108442852 18 21 14
-122.54981635683 106.353286173428 2786.38955680518 17 20 13
-95.9144670588388 103.739796556354 2748.86904447619 16 19 12
-66.6671950804698 100.923650456961 2708.30050315054 17 20 11
-81.8536224216135 101.029055794557 2713.34872586302 17 20 11
-15.1338470455356 95.6583814388119 2633.23487867784 17 20 11
-117.63608853666 101.630503709674 2729.40648915583 17 20 11
-109.695533103642 100.193877173573 2710.45299100633 21 24 15
162.055574578142 107.526630412386 2818.55919446468 14 17 10
162.10656727153 106.66829433346 2808.71093052727 14 17 10
159.811055516442 105.938163304213 2800.86739470971 13 16 9
151.348601772841 105.557476253937 2798.43625750292 10 13 6
162.712649238143 103.160882674072 2768.37337301398 13 16 9
153.443967329362 102.821041254575 2766.59302732486 12 15 8
132.803931346832 103.152297258528 2775.09976545482 12 15 8
122.087105088501 102.907707537133 2774.74047922584 10 13 6
159.702429628371 99.7846193347793 2730.35538659818 8 11 4
136.101451729588 100.300936577536 2741.6570531089 8 11 4
24.0537082300745 106.180018136987 2834.61385856498 8 11 4
0.912314601518638 106.734672091644 2846.2488817042 9 12 5
-4.97110675335954 106.245667442416 2841.98138710066 14 17 10
9.22693555567555 104.516718309278 2818.91674869895 15 18 11
26.2716186230549 102.593422974491 2792.97398106061 16 19 12
-1.92448999019268 103.482499754253 2809.59227271044 11 14 7
-29.2524975199573 104.336071890628 2825.60465289467 9 12 5
-3.53427551594709 101.841041544365 2791.12529980199 9 12 5
-20.5084941633706 102.046937935396 2797.34839118561 11 14 7
-31.5728697234219 101.882159198463 2797.97259993831 13 16 9
-22.9411436439877 100.445440686363 2779.52014567483 13 16 9
-45.624415383684 101.039074617363 2791.48746858935 13 16 9
-45.7639801645013 100.166470839842 2781.50069872646 13 16 9
-79.8635017729463 101.535337320685 2804.95812363428 13 16 9
-51.9088526443383 98.796059070999 2767.15832613433 12 15 8
-89.4429166559716 100.418391347039 2794.30273943456 11 14 7
-59.5586773056995 97.5165703570741 2754.19551539015 18 21 14
-109.200056223047 99.1041583285207 2783.67911483943 16 19 12
-96.6481864552342 97.3479651565144 2760.65602946429 16 19 12
-96.5364475870003 95.529811961527 2739.73072696863 16 19 10
-47.0524821606793 91.1337046144633 2678.00548124066 17 20 11
-83.2840523423428 92.7574704106627 2704.85907074669 15 18 9
156.940374579245 101.109270053177 2833.34559344943 13 16 9
172.538367140478 99.3109565342769 2810.06012641144 14 17 10
171.789571769508 98.4741528594749 2800.86722473292 13 16 9
151.750983437788 98.7962168579752 2808.57488191196 14 17 10
159.443010131945 97.445669913515 2791.91172924429 14 17 10
183.139313454971 95.1051593221865 2760.90786781672 14 17 10
189.861050579299 93.7845374441415 2744.77681421546 14 17 10
157.669073711862 94.8644058024362 2763.43982308255 13 16 9
134.73729281556 95.3881915862297 2773.99160598217 13 16 9
114.172440374463 95.7773063113738 2782.55313933164 10 13 6
123.13280555376 94.3114851878295 2764.3387751547 8 11 4
109.42187957935 94.2760208469197 2766.75050239937 8 11 4
37.211418192538 97.9964612129531 2823.11361690554 10 13 6
6.5457678173475 99.0932075616202 2841.64814128144 12 15 8
-9.79887686956671 99.2810379120472 2847.09220165053 13 16 9
1.44285556260648 97.6737338058897 2826.82552827816 14 17 10
-12.6368736119788 97.7184944880296 2830.20534519714 11 14 7
-0.838098197125436 95.1631212725426 2799.22176339701 10 13 6
-37.6840233368185 96.7411155990269 2824.39443093525 11 14 7
-12.7793274443631 94.1706113208922 2790.56028421866 13 16 9
-8.52108627896886 92.9778278072704 2776.34914723728 13 16 9
-30.5530312590572 93.5776319498769 2787.55362544399 13 16 9
-27.0674263177075 92.4313681301699 2774.01795471256 13 16 9
-38.846798815422 92.3366920072453 2775.35923863912 13 16 9
-40.4852709390788 91.5382109302915 2766.75691651366 12 15 8
-76.6975953002116 93.1696100835344 2792.38916528396 11 14 7
-50.3020405738213 90.3924028845012 2755.92932259693 13 16 9
-62.0173436147777 90.3035742840641 2757.31708145886 18 21 14
-114.188172741192 90.3921250867211 2768.90278146398 18 19 13
-67.9634817360493 86.0599810805644 2710.99091423871 16 17 11
-98.5923690116532 87.3830167192306 2732.02330842832 16 17 11
-72.3785943430477 84.481598064656 2694.1957292363 18 19 11
-81.9496488976887 84.2407114490823 2693.43201949506 17 18 10
-90.804028835078 83.9490703444179 2691.95225429075 18 19 11
192.316405010215 91.3460173294892 2803.36020907863 13 16 9
169.076953371992 91.9036363941874 2813.68912626365 14 17 10
149.023922675312 92.2732112510652 2821.38626003896 13 16 9
140.605584358044 91.9115268825851 2818.98719929852 14 17 10
115.297544263094 92.6370221250396 2831.52280725595 14 17 10
179.728790384146 87.5738562204293 2764.57313142358 14 17 10
160.371586258197 86.9808255301126 2761.65389032598 13 16 9
123.759409694101 88.4654341017947 2784.52546091945 13 16 9
118.370688941309 87.9028832156002 2779.38088170739 10 13 6
94.0991157691533 88.6017039481982 2791.4326749156 8 11 4
92.5187706278665 87.7896995830561 2782.87212730501 8 11 4
48.1216701496092 89.8731241362063 2813.68955988786 9 12 5
3.94755124244295 91.9752204799052 2844.66902562357 12 15 8
-18.3607807560489 92.6111532586467 2855.67332798091 13 16 9
-13.7858359396812 91.4052077288118 2841.6917095667 14 17 10
13.7249344668082 88.5955420249771 2806.04014611733 11 14 7
7.75047376765148 88.0982212084739 2801.70661302723 10 13 6
-12.2372395946679 88.5876854152422 2810.68674062455 10 13 6
-40.9660470296229 89.7095092904316 2828.15537754632 12 15 8
-4.31441573552593 86.1879152349697 2783.06966460786 13 16 9
-0.0783553476946253 84.9543922218695 2768.84253643088 14 17 10
-22.1377039869193 85.6118247293412 2780.02744103929 13 16 9
-44.1010233101413 86.2773250430574 2791.28170573624 13 16 9
-26.1332856208312 84.0340465442564 2763.53638605609 13 16 9
-42.2496633603504 84.2799447631165 2769.14651060903 12 15 8
-26.6307730550086 82.1813799064376 2743.40430422409 12 15 8
-41.287444154509 82.3223735104273 2747.60170217408 15 18 11
-45.875646409449 81.7151090492578 2741.80217279276 18 21 14
-80.430663397294 83.3730422824842 2766.16619466561 17 20 13
-92.2111721459635 80.4731364840842 2736.6141743121 16 17 11
-82.7413236355632 78.7706125324389 2716.2978732699 16 17 11
-67.7694631565244 76.6197608899548 2690.08665078971 19 20 12
-41.7660259175552 73.574332014591 2652.10586406596 17 18 10
-58.3982166871175 73.8923291946689 2658.57717209306 18 19 11
202.040502186319 83.9614334328614 2805.43156927701 7 13 3
147.013743170059 85.7612637168705 2833.48263454746 13 16 9
152.524255382401 84.4775288230733 2818.94379825693 15 18 11
143.326257897912 84.1746596455855 2817.21488048716 13 16 9
137.986835769539 83.6127522665354 2812.10633663654 14 17 10
186.885543682299 78.3953168080127 2748.71762842896 13 16 9
156.980116095068 79.5026144804973 2765.33294023692 13 16 9
136.325278911317 79.9872734798489 2773.82972567666 13 16 9
119.540086876259 80.2137657599599 2778.95461970163 10 13 6
102.059998819021 80.4985719883178 2784.81139524818 9 12 5
60.5477200715656 82.497112709769 2812.77922572167 8 11 4
50.7763025822485 82.2630900241242 2811.87000890326 9 12 5
23.8068808330234 83.2671465682917 2826.9080611764 12 15 8
-3.04027476415047 84.2814412028865 2842.03450417337 13 16 9
15.6094888657519 81.0738509936164 2804.89783323615 10 13 6
31.08614129378 78.995671182157 2780.28794993893 11 14 7
-39.1321797218795 83.2481235489114 2836.86286763099 12 15 8
-36.8954134609081 82.1572670960163 2824.89224099626 13 16 9
7.08605634850956 77.9255539750437 2772.76553228496 14 17 10
14.2155242495439 76.4297061309955 2755.69383276485 15 18 11
-18.8211493755706 77.9742470205104 2777.45226094819 13 16 9
-41.5231545044601 78.7542277649389 2789.40694751244 12 15 8
-37.3211679016989 77.4793648265855 2775.15490912663 11 14 7
-30.2930342622609 75.9756168546892 2758.01000469903 13 16 9
-33.4253936968529 75.2511561312192 2750.7948854898 16 19 12
-49.497331508439 75.5389652013425 2756.43743778162 19 22 15
-64.0771238728823 75.7189459645042 2760.69046976796 18 21 14
-70.0442984970671 75.2232310461886 2756.36222664328 15 18 11
-96.6372577454031 76.3766548515113 2772.90897782124 13 16 9
-61.0941788101793 71.5616421716963 2715.897181583 17 20 13
-60.8080378970608 70.5425071990807 2704.98323602406 16 17 11
-75.3125158309675 70.7297198259582 2709.29119615622 16 17 11
-61.0581754225488 68.5523996216682 2683.79473062492 19 20 12
-52.5166110447524 66.8282439129105 2664.0404236645 19 20 12
-37.1111604864407 64.5150598909183 2636.90736653432 19 20 12
155.947524319306 77.6064770944299 2826.33103672769 13 16 9
151.387627385421 76.987297010297 2820.5522605997 16 19 12
146.818097667805 76.3673112689231 2814.76620290338 12 15 8
135.321607093359 76.240010580523 2815.07735209406 15 18 11
153.7432027271 73.9697921377132 2788.89594389671 13 16 9
133.050382059777 74.5027238604498 2797.36543880946 12 15 8
133.775425404914 73.491991315602 2786.76970555008 13 16 9
142.817277122114 71.866773319878 2768.61360532688 13 16 9
118.436538745166 72.6869322267483 2780.58687695021 11 14 7
88.1174770534852 73.9633214809404 2798.13822967987 9 12 5
97.1033811933397 72.3336159153677 2779.94154913345 8 11 4
54.1823150841267 74.5809420007864 2809.35974746572 8 11 4
69.8809979647952 72.4408865871858 2784.91050536986 12 15 8
35.429624010801 74.0865904636942 2806.87923061028 13 16 9
28.6868180311517 73.6429075200348 2803.22401594465 12 15 8
33.8221738251101 72.2871646276264 2788.4131505025 11 14 7
5.59114187392229 73.5004946797669 2805.00776788611 12 15 8
-33.5757441676867 75.5857675586937 2832.20618964231 13 16 9
-39.4442566500894 75.0965219068866 2827.94950157788 14 17 10
-6.4442479102047 71.5457692332923 2786.39197944925 14 17 10
-6.58217962445318 70.583274181257 2776.40623259116 14 17 10
-14.7751264806304 70.2573091647525 2774.17074385652 13 16 9
-27.3165438498395 70.2823455776623 2776.1955426667 12 15 8
-27.5015322764642 69.3162819599706 2766.17537084105 11 14 7
-27.0004573728344 68.2886302218048 2755.41719237965 13 16 9
-48.8653968109645 69.0825393572294 2766.74371964786 17 20 13
-54.8391734294373 68.5855278701053 2762.41068402925 19 22 15
-71.5504244833434 68.9770379966435 2768.82534640359 16 19 12
-72.4983474827112 68.0669876758823 2759.48772184894 14 17 10
-45.7356425167181 64.8301425123831 2722.05637494285 13 16 9
-55.3429923365338 64.6253179284978 2721.26624217359 15 18 11
-44.4283680565984 62.6834660230327 2699.52570994107 17 20 13
-44.8961331747608 61.6952560733547 2689.30043508144 17 18 12
-43.2928235970444 60.5232210153864 2676.87048546976 16 17 9
-36.1364753485771 58.8631251022109 2658.58240350911 17 18 10
-19.9897883411673 56.4071155172081 2630.75121890784 20 21 13
-38.0842862861876 56.922618656686 2638.63383739831 20 21 13
262.237074691086 65.2284541083224 2764.9857883078 23 26 9
134.788141624071 70.6522247968946 2835.65942343555 17 20 13
139.517889109015 69.3418818497599 2821.78979046296 12 15 8
131.117291594943 69.0047406047156 2819.40371472513 15 18 11
92.8346761217456 70.9204850253715 2843.53690002795 12 15 8
105.944992329233 68.9708201732215 2822.15270105176 12 15 8
129.613999218988 66.1984804913271 2791.1268645577 13 16 9
122.713545637734 65.7433361201591 2787.35760420393 13 16 9
104.450828622258 66.1656431107635 2793.88247393716 11 14 7
93.8124497914483 66.0072411789202 2793.58049248068 10 13 6
83.1993872548562 65.8510395087819 2793.29687449092 9 12 5
85.3809008859883 64.6935987032051 2781.28615125981 8 11 4
84.5172355921209 63.7689709744652 2772.00953307659 13 16 9
53.752316818473 65.217407923015 2790.47387705417 14 17 10
51.4239162907732 64.4141297704273 2782.60612895887 10 13 6
28.2869338599143 65.282288288626 2794.24593783186 13 16 9
-11.0328658971435 67.4776632083584 2821.33406686093 14 17 10
-27.2796155029331 67.8256364572713 2826.84990461887 15 18 11
-25.0726268312038 66.6710211477324 2814.85766310005 14 17 10
-13.3789591924474 64.7259544492295 2793.68156526337 13 16 9
6.25230798635901 62.1046705377385 2764.6701856813 13 16 9
-15.8318413912086 62.9396987532424 2775.83801126248 12 15 8
-25.4622423910789 62.7450152735525 2775.03121956755 12 15 8
-45.9425617306213 63.4706985825861 2784.89077418179 13 16 9
-61.2781839113825 63.7738676251695 2789.83184408322 15 18 11
-62.1513433565397 62.8499494237193 2780.548346981 18 21 14
-83.3226299713128 62.6676092614205 2781.25655999512 13 16 9
-35.7002961211776 57.5151731620711 2723.11838784797 13 16 9
-42.4832914851185 57.0723716892813 2719.4340435048 13 16 9
-51.3909498743297 56.8175584109786 2717.91613663096 15 18 11
-41.8976965539892 54.934178756858 2697.61559168816 15 18 11
-50.1245016261511 54.6148356902926 2695.35559195166 17 18 10
-38.6642440310763 52.5309002504075 2672.77455016634 17 18 10
-53.9329458453581 52.8412679674948 2677.76416853229 16 17 9
-33.5344254209629 49.9215928108606 2645.60207142684 22 23 15
-32.7938913042143 48.7692733852711 2633.78181396373 21 22 14
272.045318142672 56.6278153775062 2757.23110639193 35 38 19
225.856566110884 58.1204766525308 2776.86585820778 9 12 5
109.853875540304 64.1143554563187 2848.42919777686 12 15 8
116.915544521841 62.586433848166 2832.5435180194 15 18 11
100.901807787622 62.8661978478385 2836.99288965818 12 15 8
97.1755883001366 62.1803058793102 2830.58279508758 12 15 8
107.918251500303 60.3374127711276 2811.18817910272 13 16 9
106.402080633747 59.4627083919639 2802.6738352055 13 16 9
101.069107747271 58.8917793989542 2797.56992085171 11 14 7
96.4864521131785 58.2590802679988 2791.77428350259 10 13 6
88.8798735594869 57.87190447179 2788.72851899028 9 12 5
80.5297502152218 57.5472462034387 2786.37909628405 8 11 4
75.1880946287793 56.9759125339756 2781.26888560599 13 16 9
72.8286181401114 56.1557036865651 2773.37852412608 14 17 10
42.8927109914543 57.6390139461546 2791.2089763336 10 13 6
39.0834597324723 56.9469182365213 2784.73865883669 14 17 10
-6.1958802385691 59.7634853649302 2817.39061843039 15 18 11
-18.7674752101508 59.8338272997905 2819.39377033399 15 18 11
-16.5827716016687 58.646702908166 2807.3849147553 14 17 10
-22.5181029275749 58.1510434759457 2803.07975579817 13 16 9
0.0729297488439862 55.1824732441407 2771.27177332235 12 15 8
-6.67958082380249 54.7432914478643 2767.60954638934 12 15 8
-24.3349498961625 55.2612167620265 2774.57547441067 12 15 8
-45.5451322525855 56.1048331031805 2785.14156973118 14 17 10
-72.4451786107854 57.4693525619296 2801.46677615074 15 18 11
-73.2818467539174 56.5288393993842 2792.20964831538 18 21 14
-54.0392244295877 53.7795145566608 2762.91558875463 14 17 10
-49.2730345868946 52.3112692806398 2747.83653718927 12 15 8
-57.4231846466118 52.0054099344632 2745.6321746049 12 15 8
-68.4076723342713 51.9609896538404 2746.31490542049 14 17 10
-41.052708459693 48.3959424323829 2708.07590612232 15 18 11
-42.9028355648096 47.4963599451874 2699.31963868529 15 18 11
-46.8952748989093 46.791500056076 2692.71645959021 17 18 10
-55.1189097462919 46.4803896124014 2690.45879971717 17 18 10
-32.5034329675153 43.2673917911846 2656.19663700644 16 17 9
-110.639775676225 49.5669680752176 2726.80374485576 23 24 16
-95.7286424614483 47.0803654704477 2700.54679924091 15 16 8
220.065331775357 52.8528447143362 2802.28392769257 28 29 13
195.118331547989 53.8208838664378 2813.84715858148 16 18 4
209.135204048577 50.6617218132538 2781.99809665042 9 12 5
196.695532095993 50.6387322993986 2782.86107851746 17 20 13
99.7698184617786 55.5162365400071 2838.60513069339 12 15 8
96.8130922094677 54.7586375759481 2831.5174583515 13 16 9
102.98674791265 53.2367967553584 2816.223106247 13 16 9
109.849260024298 51.645304630421 2800.19273142713 13 16 9
115.878059868291 50.1114749585438 2784.79330949303 12 15 8
105.2073524716 49.9822377620083 2784.46804009435 12 15 8
98.3301277955202 49.5336995301924 2780.71535785405 7 10 3
76.4274986127762 50.3752237873851 2790.77976757282 8 11 4
82.3378147923299 48.8317508094595 2775.29440545656 13 16 9
109.840499230647 45.4017568424675 2739.63354375433 13 16 9
55.9576242004542 49.0439965797175 2779.63938019894 14 17 10
17.9505534611892 51.3402067767859 2805.20927752317 14 17 10
53.4340672550573 47.1773701215588 2761.74389099516 14 17 10
28.1353205099926 48.3721086356594 2775.52364933913 14 17 10
-39.7394004914662 53.3911071038639 2830.09567656188 13 16 9
-28.7261581652243 51.3839181066477 2809.66134033969 12 15 8
-34.6426240123521 50.8894882695262 2805.36986359887 13 16 9
-11.3832858397758 47.7422020140999 2772.81011370145 13 16 9
-34.1159815398693 48.7701724251862 2784.74380813222 12 15 8
-37.8978985662346 48.0726737567978 2778.29327843682 16 19 12
-58.3187925987461 48.912278320927 2788.19648875794 17 20 13
-49.8282615304821 47.0769516439132 2769.63966018868 15 18 11
-57.9502066571829 46.7809348044833 2767.45579381641 14 17 10
-71.0733402361381 46.9580707485081 2770.29470117502 14 17 10
-79.8694091000807 46.7333318667586 2768.85754578521 14 17 10
-50.2122861397252 42.8492052020132 2728.58070465095 14 17 10
-47.0313156196671 41.4620497296184 2714.82297776259 15 18 11
-48.1529965915652 40.4791202251745 2705.35902319805 15 18 11
-45.7806253554511 39.152005164526 2692.25046617812 14 17 8
-57.5216728468428 39.1912084284068 2693.62050532217 18 21 12
-92.3531478456479 41.5009234835931 2719.02216043857 19 22 13
-77.4077037412497 38.9341909639944 2692.78968164602 21 24 15
175.24667948337 47.8315634849683 2831.52474500463 12 15 6
173.868071728137 45.891966992831 2813.22384766642 7 10 3
177.772522919838 44.5259920231071 2799.99069464021 17 20 13
113.107009701735 47.9588028633334 2837.11934674467 11 14 7
120.111488279182 46.3319322239849 2821.19141276941 13 16 9
117.09825203963 45.5581948925022 2814.06269338777 13 16 9
111.778690531146 44.9817656150529 2808.96847336807 13 16 9
139.149454931494 41.5465857870197 2774.44728485382 13 16 9
126.901230084858 41.5613900668922 2775.44924224666 12 15 8
119.978827310061 41.1112530668639 2771.66380134037 12 15 8
93.461746088503 42.4041580520037 2785.79589688351 7 10 3
79.0873197730022 42.6316195785799 2788.96330144871 8 11 4
81.995986016612 41.3130600063981 2776.24355946006 13 16 9
106.518700483624 38.0302719122842 2743.36393502753 13 16 9
14.643927826532 45.3035727562621 2818.83831137999 14 17 10
47.317573913511 41.2719295041146 2778.27709729998 14 17 10
36.0673168043268 41.2409440042449 2778.76723423993 13 16 9
19.6783396714757 41.6907740625816 2784.18048415303 13 16 9
-19.4715760879864 44.2693224260112 2811.39370656649 12 15 8
-45.946816320936 45.696868503705 2826.79185214809 12 15 8
-49.6151016029431 44.9998032914107 2820.42399320175 12 15 8
-43.0834045262296 43.3349307969692 2804.15313734006 12 15 8
-19.1711240263044 40.0021978572924 2770.83074331699 13 16 9
-50.5527631648126 41.9304359698212 2791.32081156353 17 20 13
-34.7887294784568 39.3472329212053 2765.68136792501 17 20 13
-40.7807173604171 38.8467895086933 2761.33511318948 14 17 10
-53.9592735693293 39.0461410869921 2764.13395602742 13 16 9
-51.3352371024167 37.705803243066 2751.20806400512 13 16 9
-53.0498367843386 36.7831655274647 2742.54963203317 13 16 9
-39.1292745020551 34.3068311337199 2718.04472567843 14 17 10
-46.6253075473195 33.9416199722906 2715.07920921954 15 18 11
-60.481153248394 34.2152640206976 2718.62248338575 15 18 11
-51.7193838555956 32.2185774961599 2699.02642731781 14 17 8
-73.2850753767322 33.2785421421622 2710.57123341092 18 21 12
-75.1292086662874 32.3462471731554 2701.81885084651 18 21 12
-51.7367844268732 27.6747055696739 2655.76127639602 25 28 21
242.021532127457 35.5557848615113 2784.76448807358 24 25 17
215.447687846679 36.7838006164574 2797.62006955777 18 21 12
185.139837549349 37.2989167127752 2804.05977505099 7 10 3
217.641937898115 33.3748690145961 2765.84482205548 15 18 11
140.371843407743 39.1280512265944 2823.49083777897 19 22 15
111.200678241329 40.6704129166528 2839.40589361856 12 15 8
102.105167281544 40.438861079703 2837.75163175411 13 16 9
144.274574063728 35.5969746278856 2790.48370685783 14 17 10
159.471615470485 33.1474278359388 2766.90428314633 13 16 9
137.279648762206 34.0783881072091 2776.75910445209 13 16 9
146.269527499745 32.1723010483088 2758.5639052496 11 14 7
109.047494259674 34.5025909693928 2782.23299237265 11 14 7
134.579765523753 31.0583515248842 2748.84906831818 9 12 5
77.9890121301086 35.2220143196349 2790.59965694632 9 12 5
85.4009239169624 33.4498609121329 2773.73160196157 15 18 11
41.167573372384 36.5223467696485 2804.67275015643 14 17 10
38.884146028014 35.6660702320861 2796.83763011125 15 18 11
31.3772720025156 35.3027439818085 2793.86426434188 14 17 10
38.6926400780503 33.5228935222106 2776.92588929633 12 15 8
17.1254720499885 34.5072624778922 2787.23391102477 11 14 7
-10.9774620246172 36.1404792902872 2803.9238105791 11 14 7
-21.3301659163483 36.0708533730131 2803.82907617356 11 14 7
-36.0492425670689 36.4330711314306 2807.98235555163 11 14 7
-52.9056367162499 37.0151305427667 2814.29276576839 13 16 9
-52.9640585207769 35.9474947468887 2804.36383030506 17 20 13
-8.08965932742201 30.403586772934 2750.40741089919 17 20 13
-44.5126700160374 32.9355784077966 2775.89178480991 16 19 12
-42.5436389718974 31.6395740959663 2763.72603208839 14 17 10
-31.9998625158917 29.4671137372213 2742.95053290594 13 16 9
-69.5636343366401 32.1698316783924 2770.07917722476 13 16 9
-79.7914195959448 32.1120684924948 2770.07535356586 13 16 9
-46.5565533752561 27.587918820226 2726.21308093107 14 17 10
-46.9294922922532 26.4953562609338 2716.05601904182 16 19 12
-64.3230238702082 27.166975242428 2723.21253713945 16 19 12
-93.6398074578975 29.0993153411279 2742.72911628293 16 19 10
-70.7708731129066 25.5685016704457 2708.64937504809 18 21 12
-76.8269282403946 25.0639136133135 2704.25665560557 18 21 12
-56.3277692408435 21.7337859040939 2672.16514005087 23 26 17
240.055034928128 26.8639024072949 2777.11913408843 18 21 14
239.872916246144 24.6744528523049 2757.21396392332 9 12 5
170.870573834892 28.7925245997712 2797.37799907478 18 21 14
146.995789221615 29.9106099149959 2808.48422532876 14 17 10
99.436466086416 33.2498042238621 2840.72106030841 14 17 10
178.193754824458 23.7018303794026 2750.78557726106 13 16 9
174.201663420986 22.9588970584129 2744.18245753887 13 16 9
138.34009581747 25.2435740163011 2766.36717646156 11 14 7
62.6038083712377 30.2910498616426 2815.24033063788 8 11 4
121.24966841771 23.5365626385094 2751.49894682711 9 12 5
73.8132729644874 27.0225484355406 2785.06096934089 15 18 11
57.2640693484576 27.5343021701413 2790.35838131256 14 17 10
26.615141097059 29.4424845234807 2808.9091379962 15 18 11
33.2638364227273 27.6925559628405 2792.72296031332 13 16 9
31.687097528398 26.7458675294454 2784.16434474675 12 15 8
40.4242740960523 24.7641652351464 2765.78557334231 12 15 8
22.5595203473028 25.43765325772 2772.60050189902 11 14 7
4.76414939369763 26.1171055874166 2779.46575773502 11 14 7
-56.8855304276841 31.2622181250206 2828.67020696315 13 16 9
-39.3765437393818 28.3880359874875 2801.82416987003 14 17 10
-56.2096081075898 29.0128800127632 2808.1517090554 16 19 12
-46.1356138682465 26.8727047415715 2788.27085487798 15 18 11
-69.4292144743214 28.1775328907695 2801.03437634033 14 17 10
-76.7550798498202 27.835740898555 2798.19233667951 14 17 10
-43.817857857819 23.2704564392604 2755.34941814173 13 16 9
-51.9679210323729 22.9956157494129 2753.14498118085 13 16 9
-44.3885608416708 21.0543515352805 2735.1624199088 14 17 10
-44.0160864356602 19.8660409633575 2724.31020243354 15 18 11
-48.654459089176 19.2077086937841 2718.47404479108 17 20 13
-84.4469336574236 21.908446230358 2744.41636252303 17 20 13
-69.2507806531015 19.1138481193271 2718.36447377828 17 20 11
-65.4425436968125 17.5359397631353 2703.82546288592 18 21 12
-58.1910290541754 15.5684346359783 2685.60481198708 18 21 12
-40.5395915799267 12.4377483501989 2656.39066800627 24 27 18
217.026516682976 22.3352839012219 2807.3372570479 26 28 23
231.106713546634 19.9144033954522 2785.41872182827 18 20 15
235.731359311703 18.3620223992445 2771.47167240553 14 17 10
184.423342200041 20.9783206043101 2796.04689651545 11 14 7
188.260125436751 19.4983690071871 2782.76411223047 16 19 12
138.167875783739 23.1878145959101 2816.87195317843 14 17 10
135.135649914803 22.3780517753487 2809.72928533299 14 17 10
184.883321651185 16.4409786570846 2755.59820937076 14 17 10
196.922584413938 14.1260152086272 2734.67076721487 13 16 9
161.685353285942 16.4308813739781 2756.07314660578 13 16 9
144.06197454788 17.0283987599408 2761.82763162348 11 14 7
162.054711407476 14.1052537819009 2735.33202734684 10 13 6
93.9258027923704 19.7442895252315 2787.25285589645 7 10 3
73.5330883104006 20.6637450114222 2795.94186200661 8 11 4
89.9638116851351 17.8867488532337 2770.78473435075 14 17 10
47.9474260963215 21.0083850084147 2799.62814682277 13 16 9
50.8661332426632 19.5908218820999 2786.91518222627 14 17 10
37.3802372395464 19.843749010773 2789.49149925916 13 16 9
32.8293286919372 19.1846115480234 2783.71903661221 13 16 9
37.873359914149 17.5302088893803 2768.84016079143 13 16 9
25.1714724616794 17.7108723543146 2770.74941969535 12 15 8
6.63297193871282 18.5098415772038 2778.31160705318 11 14 7
-11.8317429492378 19.315176594209 2785.9273154365 14 17 10
-33.8727994957404 20.5130847299072 2797.1282179889 16 19 12
-6.32713642510785 16.4540853320765 2760.26028974873 17 20 13
-30.5029841053142 17.8886186931294 2773.62023956765 14 17 10
-61.0801900067484 20.0326343250068 2793.45922048465 13 16 9
-78.648661227096 19.6686703459635 2790.60249920561 13 16 9
-41.5336279125875 14.4746707278695 2743.37417195895 14 17 10
-28.9798796039664 11.9287268860456 2720.3484481353 14 17 10
-32.9265275792188 11.1839188147284 2713.77826182806 15 18 11
-53.2213488883697 12.2528172457652 2723.77402637552 18 21 14
-70.5971804068495 13.0128869963022 2730.94382364459 18 21 14
-72.3766150823892 12.0350212217485 2722.2381116611 17 20 11
-53.7805503736988 8.75088211628283 2692.4729342239 19 22 13
-69.0045012920695 9.27662217201267 2697.49608437267 17 20 11
-47.8166841999552 5.65647696626032 2664.66728614097 25 28 19
193.952056940729 16.880573032645 2827.63620873063 11 14 7
215.908894591226 13.6366891432742 2799.07220011577 15 20 13
237.706878413303 10.3794583716915 2770.392967366 16 19 12
201.121972316427 12.8155363551202 2792.05408965408 11 14 7
181.725883987485 12.4551793852322 2789.10783910617 14 17 10
127.796570710377 16.6844094826679 2826.612322484 14 17 10
121.725627715086 16.1731487831193 2822.20877671014 14 17 10
168.462156740121 10.3479614211774 2770.83586685272 14 17 10
178.263659692612 8.2027280704684 2751.99278341225 14 17 10
140.032188696591 10.9248855864732 2776.16712907937 13 16 9
157.373108014682 8.00005623202035 2750.43403645391 12 15 8
155.662726934166 7.00760151761307 2741.7786034763 12 15 8
147.890292895922 6.6364179840418 2738.61239331064 8 11 4
91.9874037735067 11.2658926596534 2779.62895222855 8 11 4
57.3724231253196 13.727153581556 2801.48320644203 14 17 10
54.3294772460543 12.9057684338703 2794.33270856295 16 19 12
40.0846056592425 13.263098058638 2797.5943934463 14 17 10
37.7808434869746 12.36270089821 2789.74401429374 15 18 11
24.3365341032651 12.6462103146625 2792.35063325986 13 16 9
24.236418239608 11.5073232833737 2782.39140645874 12 15 8
8.62817157042572 12.0332667285683 2787.13597344668 13 16 9
-10.5966009593519 12.9620644756613 2795.43636181727 13 16 9
9.07157215107457 9.66885941193749 2766.44833271955 13 16 9
8.14030613532113 8.60203154975106 2757.12198905865 18 21 14
-5.1979548788279 8.89529707121942 2759.80553416764 15 18 11
-31.5566568766805 10.6385308423064 2775.28975982331 13 16 9
-41.1515764336072 10.5400818248111 2774.50947130712 13 16 9
-29.8063204139627 8.1029090464978 2753.07830983796 14 17 10
-53.0868722748454 9.54000206612077 2765.85225503884 15 18 11
-49.0189785764055 7.90499882749907 2751.50118566338 16 19 12
-40.7252391671149 5.77735951991956 2732.79992352266 17 20 13
-25.3956471607888 2.82794666453654 2706.84398339099 18 21 14
-36.4811583379669 2.88800425411664 2707.4540093241 18 21 14
-67.3640769636708 5.24169317899062 2728.30776570583 19 22 15
-73.38668306475 4.73829139874432 2723.93930018512 18 20 9
-90.3452963694764 4.30858216453739 2720.28930828224 20 21 13
-67.6847010439956 0.422173149575711 2686.05673648546 25 26 18
236.644214836364 5.01614955642021 2791.8275853549 25 30 23
246.775066131981 2.84036251954689 2773.22309879657 13 18 11
236.567628788817 2.70119455883733 2771.99857681589 16 19 12
192.216982888157 6.03160281345114 2800.38592827331 11 14 7
210.796115519566 2.98112215743795 2774.31476982564 11 14 7
185.225719457903 4.43222565201515 2786.66357121567 14 17 10
148.229259842041 5.93017694161638 2799.37575241977 14 17 10
123.711093642404 7.32590644093528 2811.25202058308 14 17 10
134.408560305325 5.05400123934691 2791.82276211002 13 16 9
151.097167006228 2.13301393501941 2766.85214471429 13 16 9
130.46717840521 3.13533939319866 2775.36927102759 12 15 8
125.810054970756 2.45463293217554 2769.5197016912 12 15 8
105.298718235862 3.4671484393754 2778.12318736604 9 12 5
90.8883150760684 3.83995429531672 2781.26495326968 8 11 4
6.01537197129076 11.8341381265588 2849.46750698245 14 17 10
9.10817679170606 10.36439309048 2836.88048519365 15 18 11
51.6695598353909 4.57576289997963 2787.42154907542 14 17 10
38.9244639883302 4.80081067095553 2789.29971010725 13 16 9
29.1830695787176 4.70211572891366 2788.41323759877 14 17 10
0.246055865021688 6.73630258072236 2805.73526816706 13 16 9
-16.7652123848354 7.46770626591758 2811.93416330125 11 14 7
-21.2213579133005 6.80503334082011 2806.23008400438 13 16 9
-19.8273606413506 5.48156760359572 2794.88266903826 17 20 13
1.23961984720156 1.92159233906219 2764.43694628189 16 19 12
-8.43734755250103 1.82918173362998 2763.59691564221 15 18 11
-28.2560125136659 2.90169472738511 2772.70283776727 13 16 9
-23.3863280210707 1.15060208667633 2757.69708452763 13 16 9
-10.6476215971698 -1.52373288318419 2734.80508493959 15 18 11
-33.269388414662 -0.109941881163755 2746.82114834205 16 19 12
-72.2835824840598 3.24003001237566 2775.37170234655 17 20 13
-72.4925342895226 2.07137549042546 2765.33313279331 17 20 13
-48.5070359153543 -1.96214027705671 2730.82493526043 18 21 14
-40.3380441350265 -4.15507846066851 2712.03320462657 17 20 13
-70.5044883617689 -1.78962798382307 2732.17137153581 17 20 11
-79.340059830328 -1.95353658315908 2730.70588798227 17 19 8
-79.0089673670815 -3.2196851555423 2719.82327758874 20 21 13
-50.6529023480553 -7.8931200679403 2679.83431041417 19 20 12
-51.8903580613466 -9.00246675155672 2670.2857879409 24 25 17
230.010577881891 -2.0399015870696 2798.09919316153 67 76 71
242.507203620514 -4.51516686893713 2777.50278570409 6 13 6
214.400026591364 -2.76896917025971 2791.71951950814 19 22 15
193.399722819496 -2.923287218975 2790.08175031317 12 15 8
163.242899757366 -0.908728101052636 2806.51941563442 13 16 9
154.781705327664 -1.18140086666627 2804.0897384448 15 18 11
133.279702880864 -0.0542467253625001 2813.21068669971 14 17 10
131.005236499545 -0.981355479629603 2805.38170386874 13 16 9
129.471373121214 -1.9930070583711 2796.85384062759 13 16 9
130.193891295626 -3.25537601644879 2786.25500223002 13 16 9
131.634775394131 -4.60410876391679 2774.9414485427 12 15 8
116.380091455478 -4.12603402968761 2778.70704160575 12 15 8
95.8948319235504 -3.05976780836897 2787.32940898248 9 12 5
92.0455452746882 -3.8251162240989 2780.82999241466 9 12 5
85.1812968781798 -4.25650227435942 2777.08680383553 13 16 9
56.6268774618139 -2.25301578666809 2793.45099304232 15 18 11
32.6785139767178 -0.743167323068672 2805.74090138864 14 17 10
44.5299511401807 -3.27174559163795 2784.67651292327 13 16 9
25.1338201889961 -2.25995519138711 2792.85310029137 13 16 9
10.251304345311 -1.74960978548946 2796.88864940623 12 15 8
-17.8463295630922 0.292972456095636 2813.58417020373 12 15 8
-21.5628423609768 -0.460196303781441 2807.18077144936 16 19 12
-28.9569378089107 -0.788203504525437 2804.28934017563 14 17 10
-22.4646176742485 -2.73860488264185 2787.98878734523 14 17 10
-29.1565866473247 -3.15412257620332 2784.37056817312 14 17 10
-24.2286342494293 -4.94200645994258 2769.40716270365 15 18 11
-4.89086452067578 -8.45499063570324 2740.17820944184 16 19 12
-21.7900209454354 -7.67242548294206 2746.45834149652 17 20 13
-38.6243215276196 -6.88414784664837 2752.78581234746 17 20 13
-69.0206828891364 -4.44595541486806 2772.75738139435 17 20 13
-78.5326064075535 -4.51010905693428 2772.03743219054 18 21 14
-72.3414230553581 -6.48427856274408 2755.5184584897 17 20 13
-55.5669101974978 -9.7710472194186 2728.13789581039 16 19 12
-72.2298487372113 -8.96736387931341 2734.58966869589 16 19 12
-102.951371633908 -6.40877306824594 2755.56116767736 17 19 8
-89.1679468749749 -9.35890768512176 2730.95474199078 19 20 12
-30.5945301768014 -17.9405107416241 2659.74077901967 18 19 11
-29.7937400093928 -19.3384993800809 2647.96295809061 23 24 18
236.675100882835 -11.6696141589369 2783.11961326795 9 15 11
231.949633284456 -12.3684632044395 2777.22040789282 22 25 18
179.055917637168 -7.84368437210148 2813.00704184747 17 20 13
152.064282135427 -7.27584964774711 2816.91056825397 13 16 9
150.567221370318 -8.30142730408279 2808.40931347423 14 17 10
135.987354838502 -7.88412952327922 2811.42845712334 14 17 10
136.7701924298 -9.16666410798417 2800.8735378925 13 16 9
121.477429598671 -8.65960211833192 2804.61137910289 13 16 9
129.077859854555 -10.7150083359899 2787.87855044819 12 15 8
133.561588676302 -12.4340897102208 2773.82820847862 12 15 8
106.188976501021 -10.5491534089565 2788.57844123703 11 14 7
100.072738188267 -11.0651290511331 2784.14203603877 10 13 6
96.9657973409279 -11.9263797896446 2776.94494491453 9 12 5
106.597036750523 -14.2593907343802 2757.97718819067 13 16 9
63.7610612142252 -10.5328895898451 2787.46456280845 15 18 11
14.4254664360117 -6.00638331123077 2823.36049000661 14 17 10
19.6413965429478 -7.81276881793094 2808.60545753278 15 18 11
39.6221175232654 -11.3692763897575 2779.84266737693 11 14 7
15.8234657033178 -9.78113333632283 2792.24150148186 11 14 7
-4.92177648054759 -8.53445282618504 2801.91164682606 16 19 12
-28.5200255679645 -6.9291488873249 2814.45584407187 17 20 13
-24.1674486283872 -8.65782902342357 2800.3106731614 14 17 10
-42.5259070087476 -7.65871008910682 2808.00439070844 15 18 11
-34.5885452870267 -9.83353131849907 2790.28016937402 16 19 12
-41.9855969389089 -10.1562919321108 2787.38632718293 17 20 13
-24.759456878936 -13.4944465165958 2760.33289842078 18 21 14
-26.4417947205609 -14.5329621623968 2751.69756127782 18 21 14
-51.8974855495946 -12.6338385117535 2766.60215198475 16 19 12
-62.8876836525314 -12.5100198015472 2767.2815953621 17 20 13
-78.8542014261493 -11.7572680148814 2773.00262943872 17 20 13
-65.5285068223332 -14.6744249759325 2749.29958906177 17 20 13
-58.7195724704832 -16.7930355180726 2731.99237351549 17 20 13
-66.1622494631944 -17.1179584674552 2729.06574006551 17 20 13
-82.779576746397 -16.2695062339562 2735.55080428751 17 18 10
-49.3375430731255 -21.832197063564 2690.59841471538 19 20 12
-25.9706718184716 -26.1475150421712 2655.64033379765 19 20 12
231.621402602797 -18.8663695047745 2788.06547190729 3 8 4
205.876228881678 -17.2261362602182 2800.28882569854 22 25 18
174.801469311593 -14.967754910545 2817.29762536932 20 23 16
138.443333694652 -12.0873027149921 2839.12538926083 16 19 12
181.823986992005 -18.1906593954713 2791.49380211105 14 17 10
171.724527009942 -19.5022010382197 2780.4604404553 13 16 9
104.315194563686 -14.2082960981374 2820.54990724762 12 15 8
106.638126353044 -15.6908920465084 2808.64005408252 11 14 7
122.579771624563 -18.7701231587951 2784.36218349879 11 14 7
96.7024950617388 -18.2086681919829 2787.83816906075 11 14 7
83.7383853874441 -19.1503912488749 2779.67077038334 12 15 8
49.1953676501438 -16.2683602185918 2801.57902885321 14 17 10
26.0105478564059 -14.7160523485683 2813.1876247523 14 17 10
30.4517579971275 -16.4767142777676 2799.10654394677 14 17 10
28.1546311398082 -17.4329617068507 2791.26098646002 12 15 8
10.956624239121 -17.8151514191078 2787.43769372627 17 20 13
-11.9560698771699 -16.2391852513688 2799.24367917032 16 19 12
-50.8930900388527 -12.6592105890362 2826.61601209064 14 17 10
-42.1350573158834 -14.9700696147447 2808.25069251454 15 18 11
-36.380250426894 -16.9239298370034 2792.65051970251 18 21 14
-19.8020018167087 -20.2525072641298 2766.36280021813 19 22 15
-49.7056157388103 -17.740172868203 2785.45691131407 19 22 15
-42.6466401348431 -19.8884926234139 2768.3311000016 17 20 13
-34.2282720015605 -22.226998114942 2749.71911580382 17 20 13
-62.4928041282877 -19.8809161687247 2767.53051691313 18 21 14
-58.4324056990508 -21.6714721924444 2753.17322615154 18 21 14
-42.3117251208915 -25.0373371948393 2726.55332248982 17 20 13
-44.1014811956593 -26.1006662320588 2717.83969541549 16 19 12
-58.6753396455868 -25.4968497228102 2722.09947031173 16 19 12
-38.5790039802618 -29.4416152239207 2690.94815737001 16 17 9
-27.8024297984634 -32.1895525464324 2669.10317221664 19 20 12
-22.7497269513794 -34.199802717274 2652.99403805181 20 21 13
-14.9689089272891 -36.5897374160777 2633.91991415182 23 26 19
219.532367855293 -25.2202188452446 2799.0317475788 11 13 8
188.364033164827 -22.8826402323341 2815.97311379759 20 23 16
141.017337310032 -18.6492206871714 2847.13357962841 19 22 15
152.790838922344 -21.228612467037 2827.24747326753 17 20 13
196.141099877463 -27.5101274682876 2779.59324613027 16 19 12
189.129791967908 -27.9477811886235 2775.74341922474 15 18 11
146.772840937612 -25.4682844932277 2793.22048288338 13 16 9
129.922652893157 -24.7172793335108 2798.3009166752 12 15 8
122.27299432835 -25.0532346922989 2795.22418198507 11 14 7
129.82075982802 -27.2124508970328 2778.4523552296 11 14 7
121.385503600262 -27.4592742124788 2776.04161212868 11 14 7
105.411622971707 -26.789246052986 2780.52185307394 11 14 7
84.9764878236381 -25.5638138949539 2789.18165737011 9 12 5
88.6458721607273 -27.2734797931998 2775.7763585021 12 15 8
83.2751576474573 -27.8824014748203 2770.64489199714 14 17 10
60.7345543897462 -26.3684363990931 2781.48496889142 14 17 10
23.4077916654893 -22.9962505035164 2806.31844941406 12 15 8
7.77956250057255 -22.296308918568 2811.04941199928 15 18 11
31.4109743427524 -26.5136354140503 2778.75396628062 16 19 12
20.9409482421954 -26.4651724629324 2778.57507512255 15 18 11
-7.88579888906393 -24.0833352279821 2795.97880120738 15 18 11
-32.9116878555378 -22.1570791932644 2809.96006525858 13 16 9
-26.3961307900635 -24.2464441651568 2793.67565349723 15 18 11
-17.0417286146103 -26.7172369619951 2774.50680813911 16 19 12
-39.7459011809995 -25.0603925971439 2786.46436496877 19 22 15
-51.4854662517184 -24.8074954597186 2787.83626667578 18 21 14
-32.8638958412981 -28.5144271808133 2759.32247396733 16 19 12
-47.5069354740456 -27.8850093338425 2763.53193314654 19 22 15
-39.8505620965226 -30.1874843787344 2745.60307629607 18 21 14
-36.5718554851606 -31.9273851916921 2731.91470813842 18 21 14
-26.9319203583585 -34.5278909525852 2711.71686358236 17 20 13
-40.1437151771895 -34.0873578187599 2714.49283267475 15 18 11
-54.7301780670086 -33.4520617742465 2718.74362979357 15 18 11
-20.5062867127273 -39.4121474812322 2673.12068155045 15 16 8
-1.3280400380693 -43.3805566504803 2642.53874317576 19 20 12
-10.3987289660878 -43.5212735087958 2640.90293542894 20 21 13
-23.6531185735522 -43.0830455370146 2643.64830945095 22 25 18
177.944089949333 -30.5022116527082 2815.7916886859 21 24 17
182.642793724745 -32.3197703013203 2801.89698231825 22 25 18
164.868076225751 -31.4510987418728 2807.54283761075 22 25 18
163.323127978482 -33.7971953571937 2789.11929749672 16 19 12
168.632876452581 -35.7211438226906 2774.43168047987 12 15 8
142.551004625398 -33.8149549548953 2787.64733837539 11 14 7
126.486047176274 -33.1177133645896 2792.06169363114 11 14 7
127.851136354475 -35.8496567538327 2770.80530636631 13 16 9
121.675814667629 -36.3720020193301 2766.32603810588 11 14 7
109.47527032263 -36.1384067119204 2767.3636683316 10 13 6
90.5513782184251 -35.0498043456272 2774.64794415649 13 16 9
84.4279741945155 -35.56737613518 2770.2063362965 15 18 11
47.6996835514658 -32.1882385580615 2794.23866058526 15 18 11
29.7565589594613 -31.1744807680125 2800.99849997864 12 15 8
2.23639885009774 -28.9143482926326 2816.87870916259 16 19 12
9.61525056230439 -31.136566917373 2799.98411407811 17 20 13
10.2750826611024 -32.5033382394287 2789.33930438799 16 19 12
2.80437170671854 -32.8176574601763 2786.39240223089 15 18 11
7.80657674230678 -34.7658333201401 2771.48171769562 14 17 10
9.08650871738459 -36.2378024517182 2760.05086216256 16 19 12
-9.35694562599032 -35.1071128465981 2767.68363075349 16 19 12
-27.187372091706 -35.3459004803707 2764.63794104657 17 20 13
-33.188735583439 -35.85125561699 2760.28486485257 16 19 12
-36.3110600814607 -36.7455363124526 2753.07645448841 17 20 13
-30.8381946167426 -38.8106577808631 2737.27133276085 14 17 10
6.76551318792651 -45.2753604365093 2689.15548861333 14 17 10
-13.6863660197333 -43.838706959755 2699.03926129018 13 16 9
-12.7151702527466 -45.3347611381773 2687.3844742956 15 18 11
-44.8339133013547 -43.6152935415143 2698.69329736487 15 18 9
-30.5050515551608 -46.985859096588 2673.24480991874 13 16 9
-21.2216860007415 -49.675741582304 2652.78802775935 15 18 11
-15.5124911133999 -53.2951949783741 2624.79510355308 17 19 14
171.247663369449 -36.0020291221098 2831.90654357107 18 21 14
162.025537734819 -36.1394209067655 2830.16097296596 18 21 14
