ply
format ascii 1.0
comment KinectMotionCapture
element vertex 799
property float x
property float y
property float z
property uchar red
property uchar green
property uchar blue
end_header
149.460016557566 308.506623695887 2852.54215559576 27 32 25
142.639889472836 309.121602592703 2856.38959252109 29 32 25
148.228856719903 309.902398601922 2869.14543661378 30 33 26
167.14372167889 310.849114036492 2891.31618276043 28 31 24
134.612733431072 311.128770557278 2876.81721597059 29 32 25
109.456488062453 311.516558972593 2867.73189817964 32 35 28
115.120797456925 312.287665258307 2880.4143585431 29 32 25
104.088206871054 312.856013044462 2881.36684162392 21 24 17
93.8687035103047 313.437051720067 2882.92695068036 32 35 28
89.5160043140031 314.086143113343 2888.57055706227 30 33 26
80.9517556560841 314.689059704216 2891.31755881875 27 30 23
85.8955831490893 315.435476399451 2903.30220815401 31 34 27
92.5807596204016 316.193241787093 2916.38981351561 30 33 26
74.6996201441652 316.700944993934 2912.81601990132 31 34 27
58.4630630265437 317.231930503435 2910.43950921481 32 35 28
61.7936484470762 317.950832148742 2921.19604201107 28 31 24
55.7607462953511 318.580451935772 2925.67683618314 27 30 23
57.4355719506951 319.277257530723 2935.24667221202 28 31 24
49.6966133173697 319.89100403003 2938.58979527803 30 33 26
17.8496289258798 320.311163540609 2926.22499274432 36 39 32
10.897610006348 320.940838269809 2930.20122817373 33 36 29
24.6865648746768 321.72689729984 2947.56678285368 26 29 22
44.6262482404691 322.54606921768 2968.73872004884 28 31 24
50.785155785658 323.255251071648 2980.9391895411 31 36 30
46.4145119776318 277.465902800608 2513.09680201556 141 143 140
43.7035858968433 278.269273932412 2521.33802889907 113 118 114
37.9080608220193 278.989542926149 2526.98661552926 101 106 100
34.4448975192444 279.769352999905 2534.56139809068 115 120 114
33.3316761586495 280.606561604929 2544.04523588229 120 125 119
43.9588488371609 281.732702145194 2563.08297595806 80 85 78
140.802681248852 284.964300410072 2652.06662424699 30 32 27
140.819253478415 285.777030827614 2661.84908748529 27 28 23
169.9801222126 287.279925898287 2695.01818844583 20 21 15
180.380263027381 288.31700423014 2712.87796639822 22 23 17
183.741429880005 289.179706392591 2724.99978704442 25 26 20
176.840266458102 289.80242451661 2728.9265503961 23 24 18
181.058160046438 290.674838736427 2741.61344045087 30 31 23
181.340236434408 291.453464221231 2751.13729482916 31 32 24
183.247605655949 292.263053689677 2761.87678941165 35 35 27
174.783845359375 292.846139117788 2764.52727361902 32 34 23
175.132570886866 293.615979122172 2773.98624290668 28 28 20
174.705055700909 294.365564191931 2782.80211505052 29 29 19
181.558759788096 295.259130573995 2797.11920798831 29 29 17
175.538949150313 295.887512749462 2801.58718501195 26 26 16
171.136526010251 296.547824313057 2807.2781718268 31 32 24
162.678025332973 297.129288439153 2809.92367278218 22 23 18
164.788506673898 297.912432091855 2820.46538270759 22 23 18
160.406219041281 298.569807215218 2826.13680867047 22 24 19
152.756702267387 299.166853014935 2829.39358300397 22 24 19
157.395738095914 299.985099382618 2841.67027857349 24 27 20
159.61636553756 300.754046078539 2852.10437225465 26 29 22
152.810990421731 301.362390484628 2855.93847867361 25 30 23
155.907793908479 302.138847960942 2866.91865365937 28 31 24
160.699555286769 302.937691720005 2879.04622035536 29 32 25
143.968327349499 303.380330916969 2875.75707333403 25 28 21
137.162701573434 303.988220429945 2879.59149589532 26 29 22
105.344630193216 304.207057192107 2865.81049056859 27 30 23
106.821568380275 304.951144089767 2875.5698436229 24 27 20
106.514060347882 306.378120764193 2892.66856029618 27 30 23
91.2537561204498 306.870298388978 2890.74526116417 28 31 24
72.5751839270909 307.320818978706 2886.55453443233 25 28 21
79.1896862945278 308.125619010724 2899.70570636592 26 29 22
75.6941987852606 308.787689655648 2905.91274201868 27 30 23
72.2075525277428 309.448617940191 2912.11150486012 25 28 21
69.5804383580194 310.119271473763 2918.87221156231 26 29 22
67.8186386090633 310.798921301416 2926.18922792237 30 33 26
69.4923269466217 311.517983583276 2935.75690379602 32 35 28
62.6307379725692 312.131763512253 2939.64602803929 28 31 24
51.4687759985066 312.696887193745 2940.7274553423 27 30 23
17.0442157213548 313.00450441524 2926.68745383067 23 26 19
3.19014492208414 313.554141534727 2926.19340810575 28 31 24
29.9283150882421 314.539883948208 2951.92601642927 37 40 33
42.0813352714586 315.355893826027 2968.07749523544 33 36 29
47.3656366226667 316.092645095366 2979.72513970012 24 29 23
24.8489561246941 316.552622904303 2973.67633836669 31 38 31
37.2249046271347 269.120559452147 2506.45139288369 148 150 145
37.5836233314541 270.030620170108 2517.29696139853 146 148 143
35.6483901474394 270.867745447763 2526.17983423839 142 144 139
33.7335856205923 271.702105424196 2535.04316767201 136 139 132
34.1762625511781 272.600975738926 2545.80668052174 145 146 138
69.7990143334244 274.493892962791 2585.25458837291 25 26 18
129.90238296215 277.041041510832 2644.22375397073 21 22 16
152.655276307667 278.50572224269 2672.42576705635 21 22 17
154.302467618033 279.373362966541 2683.41470435858 21 22 17
165.451926602808 280.490965680543 2701.93540614041 22 23 17
164.030945130282 281.262524248511 2710.31731015979 22 23 17
165.801351260501 282.114338646681 2721.18657029047 21 22 16
176.349002659203 283.18693786179 2738.89428023939 21 22 16
185.382166175938 284.209092487509 2755.27953609619 20 23 16
183.305996264055 284.942157632525 2762.9008319147 22 25 18
181.246218061388 285.673008920074 2770.50617773081 23 26 19
188.832351362408 286.636036234937 2785.50293849614 24 27 20
189.241934307369 287.417472258917 2794.89976158199 23 24 16
185.647943224974 288.100041277915 2801.20192093027 23 25 14
174.787801354385 288.612106469004 2801.99114058854 29 30 22
171.19368568232 289.294366865965 2808.29346927041 33 34 28
171.668855376454 290.067092371881 2817.62645115554 36 38 33
169.729790913691 290.781900210883 2825.11429765814 35 37 32
169.439331975636 291.530261425869 2833.79425180695 34 36 31
160.993195909632 292.09939024321 2836.4292976738 35 37 32
153.352338683906 292.68756048419 2839.67878475167 35 38 31
143.23508816422 293.225546009703 2841.14371846215 34 37 30
155.338404572532 294.222206955587 2858.73510086231 25 28 19
152.66054357144 294.908855110097 2865.54383592023 25 28 21
153.305936481402 295.659487360038 2874.71104900927 25 28 21
148.172090824251 296.293333739374 2879.71535142096 25 28 21
139.712699934701 296.863262043346 2882.36310351777 25 28 21
124.571087997484 297.309313298508 2880.32909648626 26 29 22
109.383753600527 297.760891016617 2878.33933788237 26 29 22
110.898306674163 298.522306747755 2888.05911544623 26 29 22
105.730303599429 299.159899008465 2893.09678303889 35 38 31
95.5157221716076 299.708827842878 2894.65675036367 40 43 36
83.5924189248201 300.23145758686 2895.0832342309 27 30 23
76.709868480191 300.843280473803 2898.99346277427 27 30 23
83.3731311201835 301.680217304992 2912.09112738953 28 31 24
79.0547323652588 302.331115636277 2917.70006801945 29 32 25
72.1884673369604 302.940738065661 2921.59445013033 33 36 29
74.696503884927 303.697482073778 2931.74494587215 32 35 28
66.1281925001265 304.279934380205 2934.49934443078 29 32 25
60.9721846479561 304.91542476425 2939.52541124656 24 27 20
49.8064792447397 305.462607348398 2940.61320751642 21 24 17
23.984739906787 305.803014207156 2932.19607589019 28 31 24
18.7714214886561 306.445449396741 2937.27802650594 28 31 24
19.6100198864455 307.170899461463 2946.25710560544 35 38 31
30.0065857267664 308.020937981119 2961.31358364345 31 34 27
-17.7028834385369 308.098397722479 2939.24505692807 20 25 18
-6.42478666515034 308.958130237603 2954.84163826755 18 25 18
33.0107093265397 261.799548945095 2514.55234974758 151 152 147
33.3891299352604 262.72888371763 2525.37516744125 150 151 146
32.2452897214847 263.603254960367 2534.88391758508 141 142 136
37.358396080748 264.675417579586 2549.48614403388 139 139 131
139.360586126481 269.68205798268 2652.92319830087 25 26 20
161.351041807334 271.217177321801 2680.45500314529 26 27 21
167.740785319238 272.251894563225 2695.21229159955 26 27 21
176.556004861381 273.350805982363 2711.80228658239 24 27 20
167.254289963068 273.896117161205 2713.87320795436 25 28 21
162.690486437018 274.584190320909 2719.72068256834 26 29 22
174.819023334047 275.758613814283 2738.67731889922 26 29 22
175.881720514622 276.600801824128 2748.83385793703 24 27 20
183.364626774721 277.620567932544 2763.92473871106 20 25 18
194.11254807536 278.722244975752 2781.42927999653 19 24 17
198.519431707967 279.636155010797 2793.92202923819 19 24 17
187.690851492048 280.126139628388 2794.68350904791 22 25 16
180.061130701738 280.706257209548 2797.92312766039 22 25 16
170.804217425481 281.244565853349 2799.95093317299 24 27 20
172.061248576288 282.061516163779 2809.91788798454 27 29 24
173.350399120773 282.874389534163 2819.8538881753 32 34 31
171.415058481542 283.59997622969 2827.3364437558 33 35 32
167.864174787363 284.282314876393 2833.59583087926 36 38 35
161.04998242081 284.882186698436 2837.43960736077 38 40 35
155.868764172375 285.52293390464 2842.48993151669 40 43 36
146.579188741827 286.064296988796 2844.54938174439 39 42 35
143.861517107256 286.764543870474 2851.39563946394 37 40 31
141.156388975564 287.46310624886 2858.22969026855 37 40 33
140.946799596874 288.217356318346 2866.82846937931 36 39 32
134.124681388321 288.817550881502 2870.68040648009 33 36 29
138.105553748367 289.660685362723 2882.18974249123 31 34 27
125.460453814482 290.13050097134 2881.92387772728 28 31 24
121.971144248854 290.80406000851 2888.12341845332 27 30 23
100.906014641806 291.100268451956 2882.07431998575 24 27 20
99.0717695761121 291.811901583154 2889.45854849797 30 33 26
89.6830528650345 292.364526359952 2891.61512085155 34 37 30
90.3937508123964 293.125692701302 2900.71592813896 29 32 25
91.1323825300725 293.883337547055 2909.78951725502 32 35 28
92.7459730369651 294.654187993039 2919.40921689489 26 29 22
100.3343940738 295.536407118821 2932.99874000208 25 28 21
90.1127737210157 296.070183800766 2934.56793656493 22 25 18
63.6650852111336 296.302556021051 2925.37110203232 22 25 18
55.926586285997 296.893558015144 2928.71746807124 23 26 19
45.6071378655625 297.439239955449 2930.38204975944 24 27 20
31.8308433322683 297.926501431988 2929.81999014545 24 27 20
40.3914172382107 298.809688042088 2943.86091740652 30 33 26
39.5271177845329 299.522168877852 2951.69875961493 33 36 29
38.6831806543797 300.232172876729 2959.51708565247 25 28 21
-16.7212176358387 300.036429229537 2932.37658142416 24 27 20
-1.14916326114223 301.024261685202 2950.77548854649 24 29 22
-54.2307265640303 300.905596189848 2925.56838635791 31 38 31
-1.12177034667971 302.474931179718 2967.53814184033 28 35 28
39.1355644768949 303.811509458997 3001.04915755506 25 30 24
30.3551320437694 254.54466324235 2523.9296212974 152 147 143
32.3117295482112 255.548907119802 2536.00837094832 143 138 132
42.8778551514353 256.854180734691 2555.08025588209 129 125 116
191.407628444387 265.570903644919 2715.20853416556 24 25 17
187.659760207087 266.28562162873 2721.65840635843 20 23 14
179.966833261791 266.867206036911 2724.96057282078 20 23 16
163.543465085478 267.162384556526 2721.38751112952 22 25 18
166.932360444382 268.111577529382 2733.46901365508 25 30 23
171.958156405746 269.106502311662 2746.75244702053 27 32 25
194.602955290215 270.654115330135 2773.63263283044 31 36 29
198.97382117115 271.605501768964 2786.15594707783 31 36 29
194.565503566362 272.276507412965 2791.85120660287 23 28 21
186.944588441721 272.848025859088 2795.08335200757 29 32 23
179.312918496469 273.420678988137 2798.32600940248 28 31 22
169.245690917187 273.921930412717 2799.74669887774 26 29 22
165.637650814732 274.617592548608 2806.06087395366 26 28 23
170.15947910213 275.54937283135 2818.43717808111 26 28 25
170.658318535093 276.357709487522 2827.74139225323 26 28 25
177.713221750801 277.348419259527 2841.84433373151 30 32 29
164.378789694551 277.75637467713 2840.85521954677 32 34 29
158.385451407773 278.373842097922 2845.2985223305 34 37 30
148.279925296434 278.878889706543 2846.7566817399 34 37 30
144.74232159127 279.564935105036 2853.00233378166 35 38 29
144.516061361979 280.33803394685 2861.6148814532 40 43 36
141.003313269179 281.020752547483 2867.83600536173 40 43 36
133.351461407625 281.594446222683 2871.0985499056 37 40 33
129.846556490466 282.276030348634 2877.31239094163 35 38 31
120.516035634386 282.808741806672 2879.41377928873 32 35 28
114.50880218117 283.427091143788 2883.8707498313 31 34 27
101.799807166904 283.880784523682 2883.67071668508 28 31 24
99.9673295971402 284.603502106411 2891.05155177061 38 41 34
98.1515164355011 285.324091095593 2898.41649129973 42 45 38
103.096867009008 286.20178507667 2910.37988762603 28 31 24
92.878616732639 286.719659294281 2911.94842587246 27 30 23
98.7307893242892 287.609239833109 2924.42648701912 21 24 17
97.8429725313514 288.338957563467 2932.28547252957 21 24 17
104.633086035431 289.236621270912 2945.2481969558 19 22 15
79.0717384442403 289.416666783065 2936.59619381273 20 23 16
60.2562033099461 289.755754263956 2932.55794307075 22 25 18
44.8064321280155 290.175196786673 2930.83353764171 25 28 21
44.7661280771325 290.924042076112 2939.2650127436 27 30 23
51.6343431425397 291.811846802859 2952.15197615991 39 42 35
43.8953222419611 292.395173237479 2955.4996571305 38 41 34
28.3659621783996 292.824295390381 2953.85285399235 27 30 23
12.7909824200154 293.259035950823 2952.25052148736 25 28 21
-14.9850985110906 293.464233938013 2942.95990728835 24 29 22
-19.3653733753298 294.12880183858 2948.62860929514 26 33 26
8.52763512251586 295.396567122724 2974.58933470224 26 33 26
34.8201780373589 296.613964861991 2999.3129717582 27 32 26
26.5463029001114 246.307000642536 2521.84414560402 143 138 134
28.4927862879441 247.339910584994 2533.92870189035 50 43 35
187.24563606243 256.2687152044 2693.79300942684 27 27 17
194.439898677423 257.412747724303 2709.15215108605 26 27 19
189.107737249218 258.075649064509 2714.34908967951 23 24 16
201.129544548048 259.38351433928 2733.39198744214 20 23 14
190.306712681981 259.836921239534 2734.15316522613 19 22 15
181.042948222938 260.351135027979 2736.19133527361 20 23 16
170.965800232867 260.838865386934 2737.62387427102 20 25 18
193.525292917034 262.492187160255 2764.57314669108 23 28 21
209.034901531853 263.875224335055 2785.80947092663 28 33 26
203.834891631169 264.520566600811 2790.87777632324 28 33 26
200.240653558271 265.220901631452 2797.17755512798 26 33 25
192.633307636094 265.783043516555 2800.39761196567 28 33 26
180.983897770178 266.210570625187 2800.56650962676 31 36 29
170.112418349186 266.668650844262 2801.37530443746 32 37 30
162.455311213831 267.236505717108 2804.64393051834 32 37 31
164.532471925056 268.122827435578 2815.20314080656 33 35 32
164.203546265853 268.926014072418 2823.9131898047 34 36 33
171.242702951128 269.959664499073 2838.02575905247 31 33 30
167.70778764468 270.651561004675 2844.2675388415 30 32 27
154.343306329305 271.036562246045 2843.3116566325 26 29 22
149.980908153305 271.703726691989 2848.96222305533 27 30 23
152.212983616185 272.570135647146 2859.37054380281 34 37 28
147.049893279688 273.209216714688 2864.40311292877 30 33 26
141.060172059914 273.823559807313 2868.84328568584 29 32 25
137.556211771972 274.510995441422 2875.05532384074 28 31 24
123.251248624413 274.884798903342 2873.61776186118 27 30 23
113.905473972458 275.40643242278 2875.73627260955 25 28 21
109.553225050781 276.071622805944 2881.37671459643 25 28 21
106.880555582565 276.782737205325 2888.17667828516 23 26 19
107.577250377588 277.584558807593 2897.28538208003 31 34 27
98.2080310153881 278.108764607906 2899.42679359027 31 34 27
86.2908750653251 278.56737532106 2899.85663508577 14 17 10
81.1041538072126 279.208491940527 2904.91236921253 17 20 13
80.1532846728534 279.960060321225 2912.83073711352 20 23 16
82.6184200428854 280.796574098981 2923.0123822641 21 24 17
88.5223512936619 281.71520258099 2935.4347530238 26 29 22
89.3611790227573 282.499034061782 2944.40531348812 28 31 24
75.6975672044171 282.919534125046 2943.74122558015 30 33 26
58.5694008965643 283.260986450907 2940.860861762 31 34 27
45.6812081562168 283.712387411029 2940.83945126744 32 35 28
46.5271829683216 284.495139277669 2949.80273629718 32 35 28
37.9141331041213 285.052064851198 2952.6049958252 26 29 22
24.1002279922267 285.490981052739 2952.08742948228 23 26 19
15.4464877028855 286.052920067545 2954.92969206154 26 29 22
4.17342288057609 286.558162088829 2956.13029661849 25 30 23
-3.64524592798876 287.143671811675 2959.55674645008 30 37 30
-1.88129484699839 287.939662562461 2969.02375793306 32 39 32
24.2884924596285 238.109018507874 2521.04711497411 150 141 136
27.7827967816711 239.237100262619 2534.41441447493 115 104 98
39.1151728725734 240.691498483629 2554.12060795522 102 89 81
183.392534823095 248.645501681318 2691.66068127372 31 28 19
193.715999229994 249.9645331447 2709.55458964092 27 28 20
194.676450505092 250.88626039168 2719.80090450983 22 25 16
191.724894144151 251.643692765632 2726.87096122933 23 26 17
208.55339452355 253.194223641497 2749.60700742741 23 26 17
189.029872011478 253.279576299447 2743.47548187812 23 26 17
177.382903925476 253.686449633489 2743.64466959253 21 27 17
178.450546331408 254.594074046967 2753.78662647658 22 29 21
201.108919578253 256.329897944965 2780.62517741619 25 32 24
195.089037688019 256.947468323277 2785.09482317347 26 33 25
195.485009750676 257.808031542201 2794.4934671018 28 35 27
191.083351131244 258.484346919749 2800.18166722163 33 38 31
181.848693670971 258.980766570268 2802.19322571288 33 38 32
168.554663821253 259.331220103238 2801.17249029323 31 36 30
161.703676971407 259.921312576466 2805.05424962405 28 33 29
162.966798994409 260.803527083424 2815.00584793172 27 32 28
158.563554625486 261.479377266297 2820.69535363782 28 33 29
162.324740228488 262.441062973322 2832.40532002687 30 32 29
162.858110486108 263.283584302776 2841.67052994186 30 32 27
156.860606917109 263.897049261847 2846.11822263252 27 30 23
155.790958094617 264.678437111631 2854.1501332152 27 30 23
157.212675188694 265.54027318824 2863.94691835393 34 37 28
153.712528360864 266.233316606443 2870.15434085853 36 39 32
150.220846109316 266.92517328836 2876.35319547086 36 39 32
150.88589535919 267.750725833381 2885.4901541789 32 35 28
132.45484060705 267.957784625837 2881.08962251626 29 32 25
121.463498440045 268.410778625518 2882.01819454665 25 28 21
119.634724853745 269.155761744885 2889.39206068526 24 27 20
126.195142790012 270.158835311897 2902.56729667465 20 23 16
114.348029358821 270.587875472199 2902.93229327028 23 26 19
96.5825553439119 270.84177371867 2899.28081656335 24 27 20
76.2309483106316 271.026772597707 2893.956863517 16 19 12
69.3307652216646 271.621165293918 2897.88683986944 21 24 17
76.822359644452 272.638290338612 2911.55257419984 27 30 23
71.6393336092009 273.279353898309 2916.60464675789 28 31 24
84.3246214751403 274.431430695053 2933.59481466063 30 33 26
84.3006778724451 275.211752010102 2942.00539145277 31 34 27
84.3007988444042 275.989054345353 2950.39251797044 34 37 30
57.7693590758987 276.030960013067 2941.30700054901 34 37 30
49.1721304618755 276.575764874971 2944.0956786196 41 44 37
45.7231023398834 277.261212371647 2950.25312432552 35 38 31
41.4205300954373 277.922692326358 2955.84512287925 43 46 39
31.0720057107803 278.42484995056 2957.54501030466 35 38 31
24.1662571826735 279.019472508194 2961.48047924702 33 36 29
23.3314183642972 279.770271098139 2969.28374110373 32 37 31
11.204429882095 280.233191741727 2969.9213123997 32 39 32
-13.1615781060481 280.395812658037 2962.91905118553 28 35 28
-7.89535751582893 281.298997765305 2974.56005126459 44 49 43
21.2556404975337 229.8576485366 2519.61001772962 148 137 131
20.8565493379451 230.838565219759 2529.78038300138 105 87 83
29.8337384793199 232.247223812155 2547.5810064406 90 72 68
172.493916482789 240.675416140809 2683.82306374299 27 24 17
176.510899987278 241.770512189049 2696.67654820402 23 26 19
181.362077960851 242.894537732144 2710.11429877661 21 24 17
201.25059238124 244.672043401063 2735.44613413424 20 23 16
204.660276498734 245.709355606622 2747.49430697309 18 21 14
193.846138917209 246.124471866861 2748.25251054388 17 20 13
177.443443185929 246.304589039913 2744.67558898389 20 23 16
182.493307994548 247.403109942041 2757.91981016694 21 24 17
194.780711079445 248.796906225755 2776.68660466418 29 32 25
193.54765946921 249.613886417431 2784.87551609803 29 34 27
187.520574731036 250.229901176372 2789.35220646767 38 41 34
189.533628695425 251.174238127014 2799.96683891918 41 42 37
186.745036106441 251.918600626878 2806.87700192576 40 41 36
171.038233514538 252.14403738254 2804.01959713637 40 42 37
166.623415177935 252.824693128844 2809.7198857033 38 43 37
162.213526784148 253.504670112994 2815.41571692687 36 43 36
156.994300476031 254.152287490177 2820.50276823965 36 43 36
152.591900110249 254.831053425401 2826.19100489123 43 50 43
151.465747962021 255.633597293601 2834.27555941937 45 50 44
155.279058598444 256.618802359939 2845.93062657064 30 35 28
158.314089024669 257.567850439872 2856.94663430283 30 35 28
160.564972008045 258.481466449095 2867.32930172246 26 31 24
149.641714431978 258.907980265431 2868.19417850711 38 41 34
152.760951293754 259.846280106318 2879.12815658903 36 39 32
153.43149928005 260.690554934361 2888.25688782525 35 38 31
147.478238322782 261.295729843219 2892.66187221424 35 38 31
136.521821270613 261.725996414408 2893.55912219331 35 38 31
133.892509519206 262.449011204059 2900.31427215582 36 39 32
127.089284267453 263.026802388926 2904.15042163874 31 34 27
110.208980281433 263.263622730492 2901.03972927451 31 34 27
89.9109569591765 263.393983844243 2895.67064224885 37 40 33
71.2301729576761 263.588814333986 2891.5199027603 30 33 26
61.7833475807683 264.096487062448 2893.74048392918 26 29 22
82.808203049868 265.597134121088 2916.56826393319 27 30 23
82.7319811530582 266.400719381466 2925.02731544325 27 30 23
75.0225443735952 266.957893371277 2928.34948426416 26 29 22
79.2407313699739 267.89159862652 2939.60977701242 26 29 22
81.7932115092037 268.766723475751 2949.69898081649 30 33 26
61.2527245967112 268.926646803292 2944.56595659592 31 34 27
38.926507054772 269.042884753112 2938.37882733265 31 34 27
39.7567369921124 269.866349288183 2947.35172994118 28 31 24
39.7525400969188 270.660751457231 2955.74061681679 51 54 47
23.3499148305434 270.970148454488 2953.56176494227 36 39 32
25.0896953454269 271.813368682426 2963.0457976586 27 30 23
16.4425654018889 272.353922017785 2965.88431901884 23 28 22
0.82002867103359 272.699100611241 2964.34278635214 34 39 33
-0.0231404603461272 273.464864308256 2972.15177065452 23 28 22
5.27190063448746 274.397396153485 2983.76015195339 17 22 16
19.7737225208434 221.662230364401 2519.45904477856 152 139 133
17.8162814829244 222.585153918181 2528.35128939791 108 89 85
17.4371471808459 223.582719590956 2538.49937650175 89 70 66
163.161888341468 232.705245604618 2677.26363018397 25 24 19
168.724819890967 233.911997188579 2691.39961922101 24 27 20
182.99730026658 235.52626989102 2712.41334425848 24 27 20
198.945575146157 237.203058698836 2734.58823504707 23 26 19
211.836878197476 238.717707012137 2754.15439539089 20 23 16
183.60290959725 238.298924639515 2741.15962864567 19 22 15
179.887954089847 239.032284902196 2747.57406269054 15 18 11
183.350364028292 240.092714695413 2759.56646124039 16 19 12
199.631191030606 241.727401413346 2781.41700768359 22 25 18
183.2023078661 241.872948903947 2777.87153785788 24 27 20
173.94065511195 242.346825456545 2779.91323493503 30 33 26
171.898972039238 243.142457863359 2787.49103739846 36 37 32
186.804150428201 244.676661046018 2807.88865603774 38 39 34
192.109498206005 245.778178649832 2820.87873594445 39 41 36
172.353221470027 245.79473310225 2814.98816928298 38 43 37
161.460439504089 246.199788046781 2815.82595494814 39 46 39
161.937016487001 247.088268854447 2825.14043079166 39 46 39
164.073573774211 248.041301920957 2835.63113733577 34 41 34
164.610143269472 248.92213126596 2844.88717061052 29 36 28
170.913417718465 250.034414009669 2858.30161281543 23 30 22
163.30261105339 250.572949341704 2861.5289331022 32 37 30
153.209862626174 251.013392671324 2862.9839525666 36 39 32
150.525324811094 251.752273876605 2869.79159777742 35 38 31
142.888014651624 252.293780135769 2873.0444594822 35 38 31
142.705534490744 253.127920867213 2881.60451093398 33 36 29
135.895634339989 253.701865507454 2885.4478572079 33 36 29
137.412550336309 254.595602541101 2895.14539348189 34 37 30
133.949820695825 255.295339396229 2901.31467087927 34 37 30
122.960474072916 255.711137856078 2902.24675878942 30 33 26
106.070774533966 255.911815389218 2899.15073823944 30 33 26
89.127592616125 256.119056615241 2896.10651852938 35 38 31
80.5618398548487 256.639829302565 2898.8674925578 30 33 26
76.2062754876216 257.314651529458 2904.50980324882 25 28 21
84.5594141605188 258.442158562464 2918.72060631094 26 29 22
74.3006271039683 258.902206900961 2920.33760697702 26 29 22
74.2289723482195 259.721889836327 2928.78974401916 27 30 23
69.0651126641391 260.361510158554 2933.82299741703 27 30 23
73.3035146273173 261.322860739484 2945.05946827936 29 32 25
56.1703310864306 261.553229125523 2942.20050480557 30 33 26
40.7012700136615 261.847703000169 2940.5140626769 28 31 24
33.7910179481655 262.433222412706 2944.45534913934 19 22 15
38.9475377106501 263.415856318348 2956.1938791063 23 26 19
35.5078832125035 264.111915886094 2962.3404482057 25 28 21
1.75811845231966 263.832993065594 2949.13430229217 23 26 19
1.74092951737981 264.645662296754 2957.53339059151 22 25 18
4.35810758172561 265.537353625018 2967.55589988116 28 29 24
3.52250562116785 266.316227425029 2975.35543220356 27 29 24
10.5731216856508 267.334415525286 2988.04199812574 27 32 26
9.76622570482455 212.994949826455 2512.25648483488 153 142 136
16.3305571314392 214.392662806305 2528.20366361505 90 75 70
27.6316406061263 216.030534846732 2547.91347593346 79 64 59
155.3751850406 223.784674300324 2662.22525060216 33 20 14
166.356575876708 225.323627131455 2680.85057117681 33 32 27
172.711468836168 226.608297070142 2695.60518600334 31 34 27
179.912387546395 227.925846561177 2710.93207232904 30 33 26
201.372766392988 229.958160190324 2737.49951904722 29 32 25
202.409827576265 230.936068235863 2747.66145564731 28 31 24
190.004698709684 231.235492262332 2747.18247986753 27 30 23
190.277943752393 232.169862083769 2756.69208495728 24 27 20
204.119379104589 233.766757878453 2776.71984089868 24 27 20
202.884905874789 234.611837322906 2784.9056731225 26 29 22
186.463953301573 234.719013542681 2781.35799935947 25 28 21
178.814795689995 235.255733181411 2784.62333321974 30 33 26
180.001483651974 236.214083806015 2794.63924095297 33 34 29
190.08832085528 237.58606381717 2811.34338854137 35 37 32
185.703396752595 238.269422748995 2817.01359216246 35 37 32
179.703246763526 238.877090277708 2821.46510748704 33 38 32
168.016051174628 239.224259376087 2821.68340380845 34 39 33
172.577602819255 240.315243633717 2833.99639393499 34 39 33
173.107234514078 241.216392569235 2843.25631332154 33 38 31
174.482933803689 242.150489493029 2853.08845254071 34 39 32
171.791618760665 242.89907039955 2859.90139402747 48 51 44
161.717401572561 243.32156557522 2861.3406644268 50 51 45
152.444420898846 243.782584993858 2863.39551057432 25 26 20
147.281079485754 244.423584716042 2868.42804544673 26 29 22
147.91147734689 245.311693108731 2877.59016776906 25 28 21
127.832992158887 245.319126851073 2872.02090690053 25 28 21
110.180127454989 245.439536672928 2868.27767485595 26 29 22
129.136909350864 247.089476557438 2890.30252275604 28 31 24
133.172248415576 248.106795388894 2901.73236599538 28 31 24
123.855438883339 248.572647247849 2903.83002061476 26 29 22
101.9329069471 248.53252846661 2897.26513503402 28 31 24
90.8681141377516 248.939159741264 2898.27349702857 32 35 28
89.0503855476013 249.716377436669 2905.63163106647 28 31 24
84.714136732988 250.392022658907 2911.25463948986 24 27 20
73.6076370186463 250.80364639191 2912.30367917444 25 28 21
72.6610186271115 251.61065505747 2920.20963197507 26 29 22
66.6300385978973 252.220440137818 2924.69144901206 28 31 24
75.9445786298016 253.410211865942 2939.35527293554 29 32 25
69.9423008037647 254.016317904397 2943.80879417927 27 30 23
65.6504811759881 254.686216403913 2949.38887096844 27 30 23
56.2121864147103 255.166557842739 2951.60502066256 27 30 23
39.0116971790442 255.367997164943 2948.81750628365 22 25 18
49.3535130792631 256.568136354607 2963.8766070954 21 24 17
32.9726062407727 256.805816614162 2961.68678820344 20 23 16
11.3451347936331 256.866443152667 2956.23126024068 23 26 19
1.79918955969427 257.360031315522 2958.5523505855 26 29 22
3.54609199934153 258.246550847128 2968.02291150708 27 29 24
-3.39570440394832 258.831019832206 2971.99567721598 26 28 23
-30.445199275932 258.736236862161 2963.44479869153 29 34 28
46.6398025770927 262.143532145051 3019.59392885435 109 116 109
13.7104219978696 205.058676774501 2516.59770173169 152 141 137
24.1690546996489 206.720465976717 2535.72397369951 80 67 61
149.972894675248 215.88572199411 2658.83822558869 26 17 10
171.116740752651 218.050240563961 2685.70045419338 36 37 31
175.913394748552 219.287755359069 2699.17557421992 34 37 30
188.628703020569 220.949751944947 2718.89472197093 30 33 26
191.970363108886 222.086053613443 2730.99581307694 29 32 25
198.517890177161 223.387230647602 2745.55669964427 30 33 26
195.613963611923 224.172418182159 2752.57535707192 31 34 27
199.078670229293 225.293001489646 2764.55658432251 27 30 23
202.586875558014 226.407981451452 2776.49510703975 25 28 21
205.340319942434 227.475777166957 2787.77318302538 26 29 22
180.922081450962 227.130718025943 2778.06366588645 25 28 21
171.654651616917 227.579140712299 2780.11486175965 29 32 25
181.670182431541 229.01188465641 2796.88083676336 31 33 28
187.729471644726 230.231806223382 2810.52165094312 34 36 31
189.803562354252 231.242572337351 2821.06585480309 34 36 31
181.38292275951 231.726195922013 2823.68821993312 32 34 29
182.691393458311 232.690982878977 2833.5822443213 30 35 29
175.078663539287 233.214839850335 2836.81330604098 31 36 30
174.798063427098 234.09521300931 2845.46395892229 33 36 29
172.088259564922 234.85476365834 2852.29363875663 36 39 32
171.030368617805 235.690614210935 2860.30548618956 44 43 38
166.706239024295 236.368905361556 2865.91640682217 39 38 33
148.385094180677 236.391835777184 2861.43394708929 15 14 9
143.211969514056 237.034540584536 2866.47594486624 25 26 20
143.832265574733 237.943262540473 2875.64471390811 23 26 19
132.86850693919 238.319392493173 2876.55725555657 22 25 18
123.541163715998 238.773776055901 2878.66706529596 23 26 19
123.36203631203 239.640752537198 2887.21893430108 25 28 21
120.70136721438 240.393430826936 2894.0008383196 26 29 22
115.541617962311 241.034036668972 2899.02986433832 25 28 21
89.4045735575819 240.759876791689 2889.59975868194 25 28 21
105.224884957973 242.314693326958 2909.0852522262 29 32 25
103.439917926783 243.099191375221 2916.40977751878 27 30 23
99.1367145815047 243.773989391765 2922.00043436124 24 27 20
89.7568256754155 244.234392742266 2924.16153301851 24 27 20
76.1146156279757 244.520119343138 2923.49611229454 25 28 21
75.1958028419195 245.337657251017 2931.37289750047 29 32 25
76.8551756920108 246.257322883808 2940.92513977714 29 32 25
70.8550407936364 246.861008114312 2945.37722869837 25 28 21
68.2780276971902 247.602756938486 2952.07767644127 23 26 19
63.1380960162975 248.240363225762 2957.08746665174 22 25 18
67.463491280535 249.251203003879 2968.2298995564 24 27 20
64.0713435539477 249.953304933118 2974.32873851297 26 29 22
45.9949661331334 250.085412597662 2971.00399407892 29 32 25
33.0587120489065 250.42396011095 2971.04665105747 27 30 23
11.4074268272293 250.436831336727 2965.62182873923 27 30 23
7.9547392780337 251.146342435147 2971.77935172064 28 31 24
-11.1853241522386 251.269709531445 2968.0952457526 25 30 23
-15.5292542193055 251.949125821159 2973.72566225309 31 36 29
10.679541985267 196.723530569248 2515.17136624499 143 134 129
172.745889043932 210.623609162413 2688.01449521213 20 21 15
198.73446403151 213.139601756887 2718.51602027372 20 23 16
171.38376487403 212.521015552081 2706.09093199357 21 24 17
192.032427786352 214.695258588289 2732.02653821175 21 24 17
195.417205115691 215.856138071831 2744.08084282771 21 24 17
190.12769188098 216.515608900869 2749.23593816262 20 23 16
195.961733884431 217.802551039004 2763.09052054026 19 22 15
205.833358115532 219.305447199504 2779.98902844179 18 21 14
191.828549483329 219.468354356287 2778.28491681517 19 22 15
172.979914802986 219.371694522065 2772.92702835687 18 21 14
170.111225901149 220.160415323028 2779.91017204863 22 25 18
172.080139293226 221.209220654092 2790.55285851796 24 26 21
189.401850588641 223.077762928019 2812.75247488168 30 32 27
193.095626452008 224.199128032711 2824.50577959345 31 33 28
200.073331480494 225.486528619001 2838.64186708206 29 31 26
183.562850862399 225.52934730491 2835.19227016447 32 35 28
182.463394178686 226.384695297154 2843.24284911723 34 37 30
174.857388738807 226.899979624799 2846.46850036271 33 34 28
168.876309603133 227.500378041234 2850.90215241957 30 31 25
168.630358864877 228.392909109689 2859.51660102664 30 27 22
166.765159343397 229.199448183351 2866.9175407142 29 24 20
164.09292781855 229.962650557828 2873.70937093872 23 20 15
148.224412517781 230.068658682365 2871.03020075932 25 26 20
144.718622486444 230.791689834088 2877.23845703251 23 26 19
137.904112502702 231.351607794561 2881.08879191786 22 25 18
131.913815249848 231.952562166368 2885.5311776894 23 26 19
125.087572147068 232.513782366447 2889.39297126496 24 27 20
114.078299536275 232.876956960921 2890.35262375995 25 28 21
104.716978585016 233.322370712404 2892.49749961978 25 28 21
104.567653330146 234.202145657305 2901.01788304295 25 28 21
112.852927867971 235.469310486327 2915.27543483316 28 31 24
116.143208231394 236.495788562142 2926.02653148485 27 30 23
112.7138866205 237.20875383474 2932.16067906066 22 25 18
99.9775884140028 237.49906640573 2932.01190600014 25 28 21
100.788144870385 238.402849946629 2940.9924735521 26 29 22
88.015070941021 238.69762177535 2940.87956025169 27 30 23
83.7346313735763 239.372614730676 2946.44724567239 27 30 23
77.7499494538296 239.972243732139 2950.88458906629 24 27 20
68.3362497642044 240.423716898509 2953.08092005073 23 26 19
83.7992025954781 241.94703002956 2971.50902280852 22 25 18
72.6838144376369 242.322786095689 2972.57219007439 21 24 17
49.4695687351401 242.192119756418 2965.88613108842 21 24 17
45.1889154772407 242.866979190845 2971.45438628322 30 33 26
29.652363538732 243.074238509622 2969.8475160132 30 33 26
12.3342316214332 243.215765573547 2967.18567756183 27 30 23
-12.8676278810822 243.044869065721 2959.64547582751 25 28 21
4.56950249405086 244.609916274521 2978.94117929951 25 30 23
-12.8484576819234 244.763807143559 2976.37664441974 28 33 26
-18.0579499850113 245.41046275446 2981.45417187027 25 30 23
16.9490478938719 188.965787450926 2521.42819546808 144 137 131
177.431453192345 202.385416557899 2683.16235269883 21 21 13
208.817896844877 205.36326188233 2718.1544936572 17 18 12
196.442946659212 205.587647064162 2717.65664070961 21 24 17
169.873540265034 204.942941206784 2705.87648695684 24 27 20
177.110870314913 206.38676703807 2721.14855269606 25 28 21
181.249019161729 207.630477380667 2733.85975305321 23 26 19
188.60471770937 209.059299899876 2749.01649460732 22 25 18
192.05108366691 210.242400806496 2761.0063564884 22 25 18
181.205885178114 210.568549514823 2761.8085533646 21 24 17
168.737554813982 210.803748508471 2761.40183003798 22 25 18
161.036906158956 211.323983682369 2764.72073166227 21 24 17
171.77688758168 212.916663136987 2782.1605874219 25 28 21
168.120394960959 213.665453750699 2788.51502419891 24 26 21
178.17658339337 215.196599302054 2805.22608187255 30 32 27
195.579851697661 217.130964956504 2827.33464441193 30 32 27
197.702895330464 218.185056735391 2837.82383378107 28 30 25
192.55422454444 218.826293014162 2842.84176554097 30 33 26
180.895205483577 219.106362027543 2843.04166167479 32 35 28
186.33858417213 220.332593513655 2855.87624218932 34 33 28
173.024649818028 220.525640239361 2854.89853689414 34 31 26
171.148717547203 221.344861732401 2862.30825990441 37 30 24
166.002644009826 221.98536517603 2867.32372087072 36 29 23
159.210519198102 222.537817334799 2871.15293039158 38 31 25
140.85399502415 222.479629367739 2866.71759211826 31 31 23
134.848429183863 223.080439011866 2871.1754990555 27 30 21
132.157541598413 223.854322625955 2877.98427634144 26 29 20
133.635810306365 224.841303921965 2887.70640848284 26 29 20
125.146832239582 225.311731562187 2890.39858508066 27 30 21
109.961432197794 225.444162010485 2888.45407546059 27 30 21
106.450762860269 226.173397276888 2894.66659783351 26 29 20
123.086870887445 227.909171459889 2914.73249496609 25 28 19
126.368183818466 228.964311093908 2925.48826024493 28 31 22
114.515766945357 229.267367835962 2925.87680568899 29 32 23
105.16821150224 229.69789788241 2928.01054984284 23 26 17
101.72982552797 230.417842071563 2934.15232914266 29 32 25
99.1489971638 231.177460303565 2940.85392441214 27 30 23
97.4315512598558 231.976018263504 2948.1096600204 24 27 20
87.2038636844721 232.369491640114 2949.70561819223 23 26 19
72.6810263823845 232.565358436252 2948.51070743038 24 27 20
63.255880565825 233.005294055864 2950.72010983245 25 28 21
46.9445826661485 233.130856134234 2948.47773925345 22 25 18
55.5346448217637 234.403455705852 2962.43182918102 27 30 23
48.6659812296226 234.964375713217 2966.33545345597 26 29 22
33.148086822762 235.137513498408 2964.71509912898 30 33 26
16.7188887594865 235.277667739231 2962.58798628207 29 32 25
-9.30905752623534 235.001713757996 2954.46638122426 26 29 22
-22.3782124735235 235.309326202661 2954.64592075609 22 25 18
-16.2985799468918 236.454984894466 2966.86026258567 29 34 27
4.68863169541622 238.234570005465 2988.26728722613 26 33 25
-22.3777819787787 237.941389053717 2979.76253245743 31 38 30
175.153044327518 194.711638232258 2682.30796167277 20 21 13
202.618757932205 197.55929778718 2714.12780249698 20 23 16
213.769683379311 199.305572233802 2732.55379281051 23 26 19
191.963625811586 198.890155669401 2724.51180599076 25 28 21
188.214388538602 199.657189426729 2730.95530540783 26 29 22
197.12270346079 201.234824870329 2747.38243794232 24 27 20
216.404129045453 203.459897738379 2771.83406193397 24 27 20
181.785314354947 202.252732242212 2753.96011419738 21 24 17
168.525757760867 202.413500851923 2752.93318167409 24 27 20
162.413185600011 203.026775759659 2757.49550510899 20 23 16
183.506664105596 205.324067904044 2782.97121626302 22 25 18
184.673923206044 206.373166291907 2792.99300466318 24 27 20
177.831604859684 206.927794507799 2796.87139764365 27 29 24
187.10457158792 208.459083870899 2812.94327547465 28 31 24
185.135611317419 209.301723591303 2820.44191546003 29 32 25
183.183127117308 210.142212530206 2827.92451234851 30 33 26
175.56363298942 210.644079188412 2831.16554118627 31 34 27
193.163270167859 212.629856740902 2853.07184571667 25 26 20
192.108863585327 213.507393889395 2861.0740718634 43 42 37
178.808691880108 213.67218438482 2860.08687631292 34 31 24
169.569133167485 214.07711431341 2862.11716180314 38 31 25
162.775779786287 214.624862091504 2865.94794877506 70 61 56
159.270111763966 215.35984286702 2872.15465558431 41 34 28
138.437376439391 215.119762461798 2865.95404941646 32 32 24
131.598383585691 215.67296897645 2869.82935026038 30 33 24
126.411449986105 216.318741417813 2874.88460711692 29 32 23
133.695319999504 217.649135785532 2888.71031378744 28 31 22
128.539339695944 218.290917618864 2893.73542337358 26 29 20
124.219445720171 218.977702699826 2899.34054473397 25 28 19
122.415988762519 219.798617383115 2906.6783862761 25 28 19
127.341160803788 220.97495240877 2918.61768116724 25 28 19
120.540008728172 221.523051125624 2922.4564983314 26 29 20
109.517046359541 221.850902662061 2923.43462784886 28 31 22
109.45147225198 222.753547397604 2931.86846499962 22 25 16
103.482432025308 223.347054583956 2936.29118076267 24 27 20
100.056701839915 224.071346123393 2942.42008798258 24 27 20
96.6393931751419 224.794515323221 2948.54046054733 25 28 21
89.8205990384406 225.344558000269 2952.39650922248 25 28 21
83.849224704017 225.938166085007 2956.8211900343 25 28 21
53.8935804171903 225.341484573629 2945.56236611193 25 28 21
67.6058317200234 226.915019499242 2962.88769997285 25 28 21
37.5262948691204 226.333691254418 2951.74963399198 25 28 21
32.3417065116764 226.978423559311 2956.80271572012 25 28 21
30.6149753937195 227.789267691804 2964.06585579222 29 32 25
9.84918947427049 227.68900010223 2959.19501292001 32 35 28
-8.38077227787348 227.720491767812 2956.03798884006 19 24 17
-35.3680903678035 227.350660560348 2947.46601986127 28 33 26
-33.6772641256613 228.332560872125 2956.97783019629 32 37 30
-28.4590664431725 229.471957064016 2968.63194367947 30 37 29
137.872983097187 182.412790166044 2633.29058125166 107 102 96
154.926815248642 184.696798556268 2657.11170917248 25 25 17
191.614143403441 188.332904763785 2696.6617436956 19 22 13
203.464805745693 190.201278131423 2715.79208592074 20 23 16
197.354097082246 190.812784926212 2720.35282020149 23 26 19
192.026836208542 191.478510778902 2725.54447501017 25 28 21
186.700384103156 192.144031478048 2730.73535702156 25 28 21
196.394634372755 193.824706453748 2747.7833864157 24 27 20
199.031491691202 195.01716194059 2759.15881042155 23 26 19
175.49246041717 194.456998354542 2750.02492917938 21 24 17
169.384797451893 195.0674946469 2754.58278838864 24 27 20
172.05533064513 196.255454137125 2765.92543625933 20 23 16
178.7670085441 197.699474353159 2780.30254430728 22 25 18
177.515744231675 198.616157971279 2788.49446725876 24 27 20
174.676668727058 199.426730632575 2795.4449747139 23 26 19
187.971647476526 201.265656255153 2814.56235107734 24 27 20
177.11633299915 201.555494988799 2815.37995987814 25 28 21
172.714386747073 202.256641314251 2821.06443777619 28 31 24
165.881680169329 202.80480392162 2824.93457958444 29 32 25
182.643373423587 204.819145808556 2846.25150586277 35 36 28
186.458284884607 206.01556534636 2857.87342812293 34 34 26
173.144707770612 206.155480350235 2856.90322092832 28 25 18
166.350609124861 206.698517825706 2860.73578198163 44 37 31
160.371083343999 207.291856215606 2865.16859716104 129 122 116
161.800729113311 208.329416662875 2874.93187486481 38 31 25
150.054409917003 208.57762090862 2875.22317092239 31 31 23
137.450853910962 208.780681574986 2874.95581652992 30 33 24
121.495788907575 208.793505943812 2872.37636400306 30 33 24
128.767446418186 210.166399408354 2886.20757867943 31 34 25
133.598628298767 211.387548665505 2898.23392150772 31 34 25
135.136485234403 212.411200311839 2907.89146179639 30 33 24
128.335355317394 212.954541873613 2911.73096006217 25 28 19
116.492973726976 213.214296106652 2912.11594041409 23 26 17
108.825472060254 213.713524347134 2915.40503140458 23 26 17
107.047997060243 214.542367668857 2922.71590062938 26 29 20
101.062312619487 215.135789571983 2927.15481910589 21 24 15
101.848059802508 216.100954545451 2936.15095048412 20 23 16
100.115908358136 216.924054628411 2943.41766159635 21 24 17
90.7439765599158 217.33154017842 2945.57867995567 25 28 21
89.0270071329371 218.152636169319 2952.83027346214 25 28 21
76.2178047393109 218.38062673148 2952.76344434484 22 25 18
66.8002960326763 218.793695810709 2954.96889600479 21 24 17
42.7716993912979 218.444350246915 2947.70691091561 23 26 19
27.262418517692 218.552850210933 2946.08789450649 24 27 20
34.9883499566133 219.868541568625 2959.47646290307 25 28 21
40.1807366573328 221.044118363374 2971.1508595954 29 32 25
21.1688853568859 220.981204590207 2967.36696931828 32 35 28
-3.98014337445263 220.619392454787 2959.80252309358 38 44 34
-41.3969371452398 219.658989698561 2944.67053852024 25 31 21
-35.3601341999714 220.88122481749 2956.91643063676 24 32 21
-41.5247180694247 222.407418414566 2969.89726723188 25 32 24
13.7759543094025 226.000086974458 3012.22572482584 139 149 140
132.501176909161 174.312191287579 2629.90308827479 151 146 142
157.328872914619 177.252910359893 2660.07769962091 22 22 14
183.870628853149 180.289131923618 2691.36992752395 17 20 11
190.22225397861 181.820034453289 2706.09173213053 20 23 16
173.092904833361 181.637080847569 2701.87314053735 22 25 18
160.625712789491 181.801027304228 2701.47581793573 26 29 22
173.358189992346 183.773674355844 2721.13200268145 26 29 22
194.876624429258 186.352601902311 2747.56134788395 24 27 20
187.999889438866 186.902148613011 2751.47466814496 23 26 19
177.938661605849 187.229850270447 2752.91505036327 20 23 16
178.207571535939 188.280701018869 2762.41208229579 23 26 19
180.100812069232 189.438305393348 2773.11383258145 19 22 15
182.030126158859 190.591326971647 2783.78077646967 21 24 17
176.775699795538 191.247583403981 2788.90150510904 23 26 19
166.697554645148 191.576923894156 2790.35844425482 22 25 18
176.748306171347 193.264145082807 2807.05183294567 23 26 19
177.985742424906 194.348343043386 2816.99874669387 24 27 20
171.965902760244 194.9449889073 2821.47144315463 27 30 23
161.07172804031 195.2210555873 2822.32967625426 28 31 24
168.055231641147 196.671509382662 2836.43556863971 28 31 24
175.913778661216 198.167511586023 2851.08304509926 28 29 21
169.116854534441 198.706040330087 2854.91907828552 42 42 34
161.493272250373 199.19283985294 2858.16639363882 45 40 34
157.145297339651 199.889968510296 2863.79787100666 92 85 79
163.507944213303 201.262779732841 2877.1148495208 32 27 21
163.322141840065 202.214377660298 2885.66083985629 25 26 18
154.886653611903 202.647442493293 2888.30542246023 26 29 20
132.337940582822 202.210166374547 2881.00413432466 27 30 21
127.996622299271 202.906161014145 2886.62916917065 28 31 22
131.159111047631 204.058851423707 2897.48851065739 29 32 23
136.031637858828 205.307707842793 2909.46970225195 29 32 23
130.906494865267 205.946575128851 2914.46462070221 26 29 20
114.035889646253 205.883950984714 2911.38821724119 23 26 17
108.885556450467 206.525861216159 2916.40770018865 23 26 17
107.107892753413 207.36607982524 2923.7170755299 25 28 19
107.03597886554 208.302913184524 2932.15181727058 22 25 16
105.295007741821 209.138476627302 2939.42544437564 19 22 15
102.721638443049 209.923056582623 2946.1159433511 21 24 17
96.7580835204007 210.511433150754 2950.53363258731 25 28 21
80.5609097507389 210.519294685185 2948.19533114913 25 28 21
66.8779017047596 210.677779506577 2947.58922972026 22 25 18
58.2958008786743 211.128472139135 2950.37679542019 20 23 16
41.1154201564372 211.104127857758 2947.60268370819 22 25 18
39.3671835408989 211.940347538311 2954.88309072038 24 27 20
41.0841778446795 212.963315620949 2964.36284598476 25 28 21
48.8823078711231 214.311037660262 2977.67532383787 28 31 24
30.756179990866 214.249807683086 2974.42855756451 31 34 27
3.02496478064196 213.684407720462 2965.20762292386 23 29 19
-16.9765473460588 213.547524547798 2961.00016596232 24 30 20
4.80813947216596 215.626676580255 2982.9879194218 20 28 17
-28.337496684363 214.808022913957 2970.67854617519 31 39 28
-28.3272260851488 215.734342523913 2979.03356927484 36 44 33
22.6124219798476 219.28373796942 3018.61376195505 72 82 71
170.634266918572 170.669253318275 2671.92745593185 16 16 8
182.373949899295 172.671390455509 2691.14823207684 21 24 15
176.197894778425 173.286497081289 2695.77298646036 20 23 16
166.095650890648 173.603978600435 2697.25560875935 23 26 19
156.757563652047 173.983537968608 2699.38748429013 27 30 23
179.730640091276 176.78839047522 2727.17277550577 25 28 21
187.825517100054 178.457243751646 2742.97693479753 23 26 19
175.384290183161 178.593717559314 2742.55788888651 24 27 20
171.647074312339 179.376449058413 2748.98746859614 20 23 16
176.677923829415 180.797398332594 2762.20291747221 23 26 19
