ply
format ascii 1.0
comment KinectMotionCapture
element vertex 800
property float x
property float y
property float z
property uchar red
property uchar green
property uchar blue
end_header
106.518462300301 107.881188392639 2657.99999237061 14 17 10
114.970669150352 109.015360474586 2686.00010871887 14 17 10
121.435217559338 108.241826295853 2667.00005531311 13 16 7
130.11209666729 109.416238963604 2696.00009918213 15 18 9
138.028889894485 109.859943389893 2707.00001716614 17 20 11
143.211826682091 108.193188905716 2665.99988937378 19 22 13
152.008801698685 109.285935759544 2693.00007820129 19 22 13
158.881396055222 108.958147466183 2684.99994277954 18 21 12
166.452512145042 109.117195010185 2688.99989128113 19 22 13
173.592433333397 108.99206250906 2686.00010871887 20 23 14
183.409497141838 110.489837825298 2723.00004959106 21 24 15
190.694406628609 110.404953360558 2720.99995613098 21 24 15
199.715077877045 111.293695867062 2743.00003051758 21 24 15
207.495257258415 111.451931297779 2746.99997901917 20 23 16
218.035638332367 113.030016422272 2786.00001335144 18 21 14
-148.930102586746 106.90002143383 2823.99988174438 20 23 14
-134.974047541618 102.170869708061 2698.99988174438 14 17 8
-127.042263746262 101.719096302986 2687.00003623962 26 29 20
-119.264543056488 101.342871785164 2677.00004577637 15 18 9
-111.457273364067 100.890778005123 2664.99996185303 16 19 10
-104.105956852436 100.817114114761 2663.00010681152 17 20 11
-96.5106040239334 100.478284060955 2654.00004386902 18 21 12
-89.2666801810265 100.480049848557 2654.00004386902 19 22 13
-82.0533186197281 100.519552826881 2654.99997138977 21 24 15
-75.5667090415955 101.543299853802 2681.99992179871 21 24 15
-68.9832717180252 102.6426628232 2710.99996566772 20 23 14
-61.7641918361187 102.946810424328 2719.00010108948 17 20 11
-54.4811859726906 103.212967514992 2726.0000705719 12 15 6
-47.1769906580448 103.516831994057 2733.99996757507 11 14 5
-39.0445366501808 101.775959134102 2687.99996376038 9 12 5
-31.6349156200886 101.549454033375 2681.99992179871 8 11 4
-23.7502846866846 99.202461540699 2619.99988555908 8 10 5
-17.1416476368904 102.459140121937 2706.00008964539 8 10 5
-9.8686832934618 103.671029210091 2737.99991607666 9 11 6
-2.38685286603868 103.406094014645 2730.99994659424 7 9 4
5.1161665469408 104.352667927742 2756.00004196167 8 10 5
12.5217577442527 103.368036448956 2730.00001907349 5 7 4
19.7999570518732 102.458998560905 2706.00008964539 5 7 4
27.2383876144886 102.647870779037 2710.99996566772 8 10 7
33.847913146019 100.299745798111 2648.9999294281 8 10 5
41.1577709019184 100.488349795341 2654.00004386902 10 13 6
48.4947562217712 100.67680478096 2658.99991989136 10 13 6
55.0410896539688 99.3884801864624 2625 12 15 8
62.7049505710602 100.182458758354 2645.99990844727 12 15 8
69.5846527814865 99.6889844536781 2632.99989700317 13 16 9
77.2969871759415 100.369080901146 2651.00002288818 14 17 10
84.5332965254784 100.367538630962 2651.00002288818 14 17 10
91.838501393795 100.441575050354 2653.00011634827 15 18 11
98.6687168478966 100.023299455643 2641.99995994568 15 18 11
106.680855154991 100.77852755785 2661.99994087219 14 17 10
114.416465163231 101.192861795425 2673.00009727478 13 16 9
121.346525847912 100.887767970562 2664.99996185303 12 15 6
128.039374947548 100.431129336357 2653.00011634827 15 18 9
135.68602502346 100.7314696908 2661.00001335144 16 19 10
144.718766212463 101.97801887989 2694.00000572205 18 21 12
151.729539036751 101.748108863831 2687.99996376038 18 21 12
159.002855420113 101.707339286804 2687.00003623962 18 21 12
165.341511368752 101.098656654358 2671.0000038147 18 21 12
174.048200249672 101.928189396858 2693.00007820129 19 22 13
181.324943900108 101.887010037899 2691.99991226196 20 23 14
189.436584711075 102.299883961678 2703.00006866455 20 23 14
209.161058068275 104.790262877941 2769.00005340576 19 22 15
-142.340540885925 94.802625477314 2698.99988174438 19 22 13
-135.476633906364 95.156341791153 2709.00011062622 24 27 18
-126.382663846016 93.8940867781639 2673.00009727478 11 14 5
-118.910290300846 93.755729496479 2668.99991035461 17 20 11
-112.170301377773 94.2144244909287 2681.99992179871 16 19 10
-104.616098105907 94.0055772662163 2676.00011825562 16 19 10
-97.3124131560326 94.0073728561401 2676.00011825562 16 19 10
-90.0755822658539 94.0792933106422 2677.99997329712 16 19 10
-83.0129161477089 94.3618789315224 2686.00010871887 17 20 11
-75.5681023001671 94.2227467894554 2681.99992179871 17 20 11
-68.1702718138695 94.118632376194 2678.99990081787 14 17 8
-60.9702616930008 94.2954421043396 2684.00001525879 11 14 5
-54.2023815214634 95.2801778912544 2711.99989318848 9 12 3
-46.6084145009518 94.8946177959442 2700.99997520447 10 13 4
-39.1178913414478 94.6143195033073 2693.00007820129 11 14 7
-31.4585715532303 93.7014743685722 2667.00005531311 12 15 8
-24.0680053830147 93.2803601026535 2654.99997138977 13 15 10
-16.9709231704474 94.123937189579 2678.99990081787 12 14 9
-9.65981092303991 94.1593125462532 2680.0000667572 12 14 9
-2.35368520952761 94.616174697876 2693.00007820129 10 12 7
5.07542071864009 96.0566401481628 2733.99996757507 11 13 8
12.5128179788589 95.8456769585609 2727.9999256134 8 10 7
19.7417866438627 94.7913751006126 2697.99995422363 7 9 6
26.9274227321148 94.1585525870323 2680.0000667572 9 11 8
34.1296531260014 93.8417986035347 2671.0000038147 8 10 5
40.8793874084949 92.6114469766617 2635.99991798401 9 12 5
48.4227016568184 93.2781919836998 2654.99997138977 9 12 5
55.4824434220791 92.9610580205917 2645.99990844727 14 17 10
61.7107786238194 91.4844647049904 2604.00009155273 15 18 11
69.7709396481514 92.7480459213257 2640.00010490417 15 18 11
77.210932970047 93.0277928709984 2648.00000190735 12 15 8
84.9493965506554 93.5884565114975 2664.00003433228 13 16 9
92.1171233057976 93.4814885258675 2661.00001335144 15 18 11
99.3427932262421 93.4446677565575 2660.00008583069 16 19 12
106.161817908287 93.0564180016518 2648.9999294281 14 17 10
114.033319056034 93.5814008116722 2664.00003433228 13 16 9
120.255924761295 92.7713960409164 2641.00003242493 15 18 9
126.979932188988 92.4179628491402 2631.00004196167 15 18 9
134.362727403641 92.5561562180519 2634.99999046326 15 18 9
142.894923686981 93.4318676590919 2660.00008583069 17 20 11
152.127414941788 94.6586132049561 2694.9999332428 18 21 12
159.301608800888 94.5505350828171 2691.99991226196 21 24 15
166.273072361946 94.3369567394257 2686.00010871887 20 23 14
174.180582165718 94.6500822901726 2694.9999332428 19 22 13
182.810097932816 95.3142642974854 2713.99998664856 17 20 11
186.636596918106 93.5200080275536 2663.00010681152 16 19 10
213.923707604408 99.4478762149811 2832.00001716614 17 20 13
-143.766924738884 88.3113220334053 2726.0000705719 26 29 20
-135.078817605972 87.5036641955376 2700.99997520447 15 18 9
-127.330437302589 87.2466266155243 2693.00007820129 24 27 18
-118.956886231899 86.5034759044647 2670.00007629395 19 22 13
-112.632282078266 87.2505381703377 2693.00007820129 17 20 11
-104.96973246336 86.9931131601334 2684.99994277954 15 18 9
-97.8959202766418 87.2215703129768 2691.99991226196 15 18 9
-90.648926794529 87.3203128576279 2694.9999332428 14 17 8
-83.2306742668152 87.2569382190704 2693.00007820129 16 19 10
-75.9638622403145 87.355449795723 2696.00009918213 16 19 10
-68.0187568068504 86.61138266325 2673.00009727478 14 17 8
-59.7900487482548 85.2839276194572 2631.99996948242 12 15 6
-52.4445064365864 85.0256308913231 2624.00007247925 13 16 7
-45.5220676958561 85.4800790548325 2638.00001144409 15 18 9
-38.610152900219 86.1288458108902 2657.99999237061 14 17 10
-31.5652750432491 86.7126956582069 2676.00011825562 15 18 11
-24.8027108609676 88.6573791503906 2736.00006103516 15 18 11
-16.9522110372782 86.7134779691696 2676.00011825562 13 15 10
-9.71764884889126 87.3617827892303 2696.00009918213 12 14 9
-2.36508785746992 87.6859351992607 2706.00008964539 11 13 8
5.09221572428942 88.8848602771759 2743.00003051758 12 14 9
12.5405546277761 88.5930806398392 2733.99996757507 9 11 8
19.9323762208223 88.2687717676163 2723.99997711182 8 10 7
27.2293165326118 87.8147333860397 2710.00003814697 9 11 8
34.4880223274231 87.4577760696411 2698.99988174438 7 9 4
41.314322501421 86.3230302929878 2664.00003433228 7 10 3
48.4417714178562 86.0630571842194 2655.99989891052 8 11 4
55.7559877634048 86.1594080924988 2658.99991989136 11 14 7
63.1337612867355 86.3204374909401 2664.00003433228 16 19 12
69.6399882435799 85.3796973824501 2634.99999046326 15 18 11
77.2122517228127 85.7997015118599 2648.00000190735 12 15 8
84.9508419632912 86.3168016076088 2664.00003433228 13 16 9
92.6379784941673 86.7041572928429 2676.00011825562 15 18 11
99.9420285224915 86.7025852203369 2676.00011825562 16 19 12
105.802945792675 85.5345204472542 2640.00010490417 14 17 10
113.692812621593 86.0511064529419 2655.99989891052 14 17 10
120.940983295441 86.0491916537285 2655.99989891052 17 20 11
127.416461706161 85.5288133025169 2640.00010490417 16 19 10
134.263008832932 85.2999091148376 2632.99989700317 15 18 9
143.165931105614 86.3343328237534 2664.99996185303 17 20 11
152.186453342438 87.3362049460411 2696.00009918213 19 22 13
160.487830638885 87.8519862890244 2711.99989318848 22 25 16
167.513951659203 87.6549929380417 2706.00008964539 21 24 15
173.21403324604 86.8100523948669 2680.0000667572 17 20 11
182.476371526718 87.7465382218361 2709.00011062622 16 19 10
191.055119037628 88.2941856980324 2726.0000705719 16 19 10
199.143320322037 88.5825678706169 2734.99989509583 17 20 11
212.643086910248 91.1703258752823 2815.00005722046 19 22 15
-135.781094431877 80.546997487545 2714.99991416931 17 18 12
-127.143278717995 79.7775909304619 2688.99989128113 17 18 12
-120.518118143082 80.2541375160217 2704.99992370605 18 21 12
-112.34126240015 79.6921700239182 2686.00010871887 16 19 10
-104.463130235672 79.278402030468 2671.99993133545 17 20 11
-98.5156744718552 80.3777351975441 2709.00011062622 17 20 11
-91.0876244306564 80.3494825959206 2707.99994468689 17 20 11
-83.1701681017876 79.8463821411133 2690.99998474121 17 20 11
-75.7396444678307 79.7585546970367 2687.99996376038 16 19 10
-68.5796588659287 79.9673423171043 2694.9999332428 14 17 8
-60.4724921286106 78.9891183376312 2661.99994087219 14 17 8
-53.0649200081825 78.7822678685188 2654.99997138977 14 17 8
-45.7643754780293 78.6939859390259 2651.99995040894 14 17 8
-38.5962352156639 78.8429975509644 2657.00006484985 15 18 11
-31.4006246626377 78.9918899536133 2661.99994087219 15 18 11
-24.204783141613 79.2297124862671 2670.00007629395 15 18 11
-17.0284993946552 79.7641575336456 2687.99996376038 14 17 10
-9.70698893070221 79.9127295613289 2693.00007820129 13 15 10
-2.3747393861413 80.6249976158142 2717.00000762939 12 14 9
5.07373129948974 81.0997635126114 2733.00004005432 10 12 7
12.5912092626095 81.45572245121 2744.99988555908 6 8 3
20.1375801116228 81.6631987690926 2752.00009346008 6 8 3
27.4106059223413 80.9506550431252 2727.9999256134 10 12 7
34.4885662198067 80.0896435976028 2698.99988174438 7 9 4
41.3459874689579 79.1098400950432 2665.99988937378 8 11 4
48.8073155283928 79.4059038162231 2676.00011825562 9 12 5
56.2181882560253 79.5534625649452 2680.99999427795 9 12 5
63.2058531045914 79.1371464729309 2667.00005531311 12 15 8
70.0375288724899 78.6317214369774 2650.00009536743 14 17 10
77.6800140738487 79.0460109710693 2664.00003433228 13 16 9
84.4419598579407 78.5700529813766 2648.00000190735 14 17 10
92.8471237421036 79.5775279402733 2681.99992179871 16 19 12
99.943608045578 79.3980732560158 2676.00011825562 16 19 12
106.40574991703 78.7734463810921 2654.99997138977 15 18 11
114.079840481281 79.0684968233109 2664.99996185303 13 16 9
122.718766331673 79.9567922949791 2694.9999332428 13 16 7
129.590332508087 79.6582251787186 2684.99994277954 17 20 11
136.712774634361 79.5375928282738 2680.99999427795 18 21 12
143.812820315361 79.4168412685394 2677.00004577637 17 20 11
149.817898869514 78.7323340773582 2654.00004386902 17 20 11
159.83934700489 80.1243036985397 2700.99997520447 18 21 12
166.773661971092 79.9142420291901 2694.00000572205 16 19 10
174.573987722397 80.1193788647652 2700.99997520447 16 19 12
190.917864441872 80.7962343096733 2723.99997711182 20 23 16
206.42776787281 84.0856209397316 2835.00003814697 18 21 14
211.059972643852 82.8665494918823 2793.99991035461 14 15 10
-136.283129453659 73.4058246016502 2724.99990463257 15 16 10
-128.421753644943 73.1651708483696 2716.00008010864 25 26 20
-121.321812272072 73.3554363250732 2723.00004959106 18 21 12
-112.593822181225 72.5219026207924 2691.99991226196 17 20 11
-104.699201881886 72.1462145447731 2677.99997329712 17 20 11
-99.2807820439339 73.5485181212425 2730.00001907349 18 21 12
-91.5934890508652 73.3612328767776 2723.00004959106 17 20 11
-82.5223103165627 71.9345211982727 2670.00007629395 17 20 11
-74.8954117298126 71.6122910380363 2657.99999237061 16 19 10
-68.8096731901169 72.8526264429092 2703.9999961853 14 17 8
-61.4047683775425 72.8265643119812 2703.00006866455 13 16 7
-54.0450550615788 72.8543028235435 2703.9999961853 13 16 7
-46.6623865067959 72.8549882769585 2703.9999961853 13 16 7
-38.8873182237148 72.1281096339226 2677.00004577637 14 17 10
-31.1769526451826 71.2124928832054 2642.99988746643 15 18 11
-23.9875540137291 71.2937116622925 2645.99990844727 16 19 12
-16.8703682720661 71.7520415782928 2663.00010681152 16 19 12
-9.64945554733276 72.1294358372688 2677.00004577637 15 18 11
-2.3398119956255 72.1295103430748 2677.00004577637 12 14 9
5.03667443990707 73.0994865298271 2713.00005912781 10 12 7
12.536346912384 73.6382529139519 2733.00004005432 5 7 2
20.1232340186834 74.0960761904716 2750 6 8 3
27.3607615381479 73.3682662248611 2723.00004959106 10 12 7
34.0162590146065 71.7242658138275 2661.99994087219 8 10 5
41.1139540374279 71.4273750782013 2651.00002288818 9 12 5
48.6985817551613 71.9386860728264 2670.00007629395 9 12 5
56.3238449394703 72.3690539598465 2686.00010871887 9 12 5
63.5148584842682 72.2065791487694 2680.0000667572 12 15 8
70.8314180374146 72.205662727356 2680.0000667572 13 16 9
77.8560936450958 71.9352215528488 2670.00007629395 14 17 10
84.9533975124359 71.7724561691284 2664.00003433228 15 18 11
92.502273619175 71.9867795705795 2671.99993133545 17 20 13
100.318521261215 72.3626390099525 2686.00010871887 17 20 13
107.5294688344 72.2804069519043 2683.00008773804 16 19 12
115.194454789162 72.4944025278091 2690.99998474121 15 18 9
122.81160056591 72.6544335484505 2697.00002670288 14 17 8
130.557477474213 72.8682205080986 2704.99992370605 16 19 10
137.785583734512 72.7855861186981 2701.99990272522 16 19 10
143.976017832756 72.191059589386 2680.0000667572 16 19 10
151.174828410149 72.1352025866508 2677.99997329712 17 20 11
159.190639853477 72.4563524127007 2690.00005722046 16 19 10
167.085543274879 72.6965740323067 2698.99988174438 18 21 12
172.443524003029 71.8593373894691 2667.99998283386 21 24 17
182.010188698769 72.7726966142654 2701.99990272522 20 23 16
196.807950735092 75.625017285347 2808.00008773804 18 21 14
203.882098197937 75.406901538372 2799.99995231628 17 20 13
-129.416361451149 66.2597939372063 2736.99998855591 16 19 12
-121.501587331295 66.0192370414734 2726.99999809265 16 19 10
-113.139003515244 65.4880478978157 2704.99992370605 15 18 9
-105.63886910677 65.4167607426643 2701.99990272522 16 19 10
-98.4092652797699 65.514862537384 2706.00008964539 16 19 10
-91.5946662425995 65.9276023507118 2723.00004959106 16 19 10
-83.2960605621338 65.2507618069649 2694.9999332428 17 20 11
-76.108030974865 65.3970092535019 2700.99997520447 16 19 10
-68.4797465801239 65.1557743549347 2690.99998474121 13 16 7
-61.1784011125565 65.2050003409386 2693.00007820129 13 16 7
-53.9258308708668 65.3267726302147 2697.99995422363 13 16 7
-46.6975122690201 65.5210986733437 2706.00008964539 13 16 7
-38.9023534953594 64.8436471819878 2677.99997329712 16 19 12
-31.4014852046967 64.4566640257835 2661.99994087219 17 20 13
-24.1329204291105 64.457006752491 2661.99994087219 17 20 13
-16.9339384883642 64.7236183285713 2673.00009727478 15 18 11
-9.7541157156229 65.5228346586227 2706.00008964539 12 15 8
-2.33896868303418 64.7964999079704 2676.00011825562 10 12 7
4.97361877933145 64.8691207170486 2678.99990081787 11 13 8
12.4631160870194 65.7891407608986 2717.00000762939 6 8 3
20.1234985142946 66.5879994630814 2750 7 9 4
27.1802470088005 65.4980838298798 2704.99992370605 10 12 7
33.863365650177 64.1659647226334 2650.00009536743 8 10 5
41.3316152989864 64.5286962389946 2664.99996185303 10 13 6
48.2979454100132 64.1165226697922 2648.00000190735 10 13 6
56.5971843898296 65.3507336974144 2698.99988174438 9 12 5
63.4682849049568 64.8415312170982 2677.99997329712 11 14 7
70.8059072494507 64.864918589592 2678.99990081787 12 15 8
78.6152631044388 65.2756094932556 2696.00009918213 14 17 10
85.847407579422 65.177746117115 2691.99991226196 14 17 10
92.3303663730621 64.5713657140732 2667.00005531311 16 19 12
100.50655156374 65.1512444019318 2690.99998474121 16 19 12
109.334386885166 66.0457536578178 2727.9999256134 16 19 12
116.137720644474 65.6812340021133 2713.00005912781 15 18 9
123.177468776703 65.4860883951187 2704.99992370605 15 18 9
130.173042416573 65.2908831834793 2697.00002670288 16 19 10
137.634366750717 65.3376579284668 2698.99988174438 16 19 10
145.106047391891 65.3843656182289 2700.99997520447 16 19 10
151.854172348976 65.1162788271904 2690.00005722046 18 21 12
159.843653440475 65.3806701302528 2700.99997520447 20 23 14
167.335316538811 65.4271095991135 2703.00006866455 21 24 15
174.707934260368 65.4250457882881 2703.00006866455 22 25 18
183.494463562965 65.9311786293983 2723.99997711182 18 21 14
210.612311959267 67.4730762839317 2788.00010681152 9 10 5
-138.236969709396 59.3669191002846 2763.99993896484 15 18 11
-130.647256970406 59.3468993902206 2763.00001144409 18 21 14
-120.834656059742 58.2528077065945 2711.99989318848 16 19 10
-112.596563994884 57.8244738280773 2691.99991226196 15 18 9
-105.444610118866 57.9330660402775 2697.00002670288 15 18 9
-98.6649617552757 58.2778677344322 2713.00005912781 16 19 10
-91.2929996848106 58.3003833889961 2713.99998664856 15 18 9
-84.5642611384392 58.773934841156 2736.00006103516 16 19 10
-76.5315815806389 58.3451762795448 2716.00008010864 15 18 9
-68.4041902422905 57.744462043047 2687.99996376038 13 16 7
-60.8156211674213 57.508859783411 2677.00004577637 13 16 7
-53.6266416311264 57.6383881270885 2683.00008773804 14 17 8
-46.421941369772 57.7893182635307 2690.00005722046 14 17 8
-38.8301722705364 57.424571365118 2673.00009727478 18 21 14
-31.5316133201122 57.4249550700188 2673.00009727478 18 21 14
-24.2782533168793 57.5326755642891 2677.99997329712 15 18 11
-17.1178579330444 58.0485053360462 2701.99990272522 13 16 9
-9.8984157666564 58.9939318597317 2746.00005149841 11 14 7
-2.39318772219121 58.8221326470375 2737.99991607666 10 12 7
5.03679923713207 58.2850277423859 2713.00005912781 11 13 8
12.421976774931 58.177512139082 2707.99994468689 8 10 5
20.1237294822931 59.0796396136284 2750 7 9 4
27.7231764048338 59.2727288603783 2759.0000629425 10 12 7
34.8988361656666 58.6708523333073 2730.99994659424 9 11 6
42.6969118416309 59.1430589556694 2753.00002098084 11 14 7
63.0661100149155 57.1648962795734 2661.00001335144 11 14 7
70.8595886826515 57.5938113033772 2680.99999427795 12 15 8
78.5870105028152 57.8937493264675 2694.9999332428 12 15 8
85.497610270977 57.5921088457108 2680.99999427795 12 15 8
92.5045311450958 57.3978014290333 2671.99993133545 13 16 9
100.61976313591 57.8693337738514 2694.00000572205 13 16 9
109.536044299603 58.7059408426285 2733.00004005432 13 16 9
117.337688803673 58.8765442371368 2740.9999370575 13 16 7
123.133346438408 58.0804944038391 2703.9999961853 15 18 9
130.174532532692 57.9287707805634 2697.00002670288 17 20 11
138.349890708923 58.270987123251 2713.00005912781 17 20 11
143.388539552689 57.3244206607342 2668.99991035461 17 20 11
152.194634079933 57.9027235507965 2696.00009918213 19 22 13
159.135296940804 57.7507168054581 2688.99989128113 18 21 12
167.089566588402 57.9637289047241 2698.99988174438 18 21 12
175.808727741241 58.4128871560097 2720.00002861023 17 20 13
185.382694005966 59.098158031702 2752.00009346008 16 19 12
197.093024849892 60.3845752775669 2812.00003623962 17 20 13
-130.554005503654 51.7668277025223 2760.99991798401 17 20 13
-120.479442179203 50.6992936134338 2703.9999961853 17 20 11
-112.848676741123 50.5878925323486 2697.99995422363 16 19 10
-105.993047356606 50.8326888084412 2710.99996566772 16 19 10
-99.1387441754341 51.1149242520332 2726.0000705719 17 20 11
-91.8657630681992 51.2095876038074 2730.99994659424 16 19 10
-84.0396881103516 50.9854108095169 2719.00010108948 16 19 10
-76.5323713421822 50.9299226105213 2716.00008010864 15 18 9
-68.2267546653748 50.2742901444435 2680.99999427795 14 17 8
-60.7480891048908 50.1436442136765 2674.00002479553 14 17 8
-53.7671074271202 50.4442267119884 2690.00005722046 15 18 9
-46.7157922685146 50.7635027170181 2707.00001716614 16 19 10
-39.1356348991394 50.5201295018196 2694.00000572205 18 21 12
-31.7914560437202 50.5392178893089 2694.9999332428 17 20 11
-24.6048755943775 50.8957989513874 2713.99998664856 16 19 10
-17.1623807400465 50.8022308349609 2709.00011062622 12 15 8
-9.77956131100655 50.8773736655712 2713.00005912781 10 13 6
-2.37310864031315 50.9149394929409 2714.99991416931 10 13 6
5.04056410863996 50.9149245917797 2714.99991416931 11 14 7
12.4771511182189 51.0086044669151 2720.00002861023 8 10 5
19.794637337327 50.727155059576 2704.99992370605 8 10 5
27.7536027133465 51.7958551645279 2762.00008392334 9 11 6
35.563699901104 52.1893575787544 2782.99999237061 9 11 6
42.3716530203819 51.2325949966908 2732.00011253357 10 13 6
48.5361218452454 49.9007217586041 2661.00001335144 9 12 5
63.374862074852 50.1434244215488 2674.00002479553 11 14 7
71.3624954223633 50.6303384900093 2700.00004768372 13 16 9
78.2962068915367 50.3483451902866 2684.99994277954 12 15 8
84.8606824874878 49.8975403606892 2661.00001335144 12 15 8
93.0247902870178 50.3842197358608 2687.00003623962 12 15 8
101.405143737793 50.9083233773708 2714.99991416931 12 15 8
109.537154436111 51.2448325753212 2733.00004005432 12 15 8
115.969017148018 50.7937632501125 2709.00011062622 13 16 7
122.724749147892 50.5301244556904 2694.9999332428 14 17 8
130.899846553802 50.8476719260216 2711.99989318848 16 19 10
137.331366539001 50.49017816782 2693.00007820129 17 20 11
143.604904413223 50.1138903200626 2673.00009727478 16 19 10
150.841295719147 50.0937514007092 2671.99993133545 17 20 11
157.834932208061 49.9985665082932 2667.00005531311 16 19 10
166.534081101418 50.4282228648663 2690.00005722046 16 19 10
179.688662290573 52.1137751638889 2779.99997138977 17 20 13
187.270730733871 52.1120615303516 2779.99997138977 18 21 14
194.711923599243 52.0727969706059 2778.00011634827 18 21 14
-140.890344977379 45.1254807412624 2816.99991226196 51 53 48
-131.358996033669 44.5018298923969 2778.00011634827 25 28 21
-120.926059782505 43.4775985777378 2713.99998664856 19 22 13
-112.807847559452 43.206200003624 2697.00002670288 17 20 11
-105.83758354187 43.3672964572906 2707.00001716614 18 21 12
-98.5213667154312 43.400164693594 2709.00011062622 18 21 12
-91.1938101053238 43.4329695999622 2710.99996566772 18 21 12
-84.1022431850433 43.5939021408558 2720.99995613098 16 19 10
-76.1667191982269 43.3061681687832 2703.00006866455 16 19 10
-68.4563964605331 43.0984757840633 2690.00005722046 14 17 8
-60.9303675591946 42.9708287119865 2681.99992179871 14 17 8
-53.7475943565369 43.0834516882896 2688.99989128113 15 18 9
-45.9913834929466 42.6993258297443 2664.99996185303 16 19 10
-39.2376780509949 43.276485055685 2700.99997520447 16 19 10
-31.8861156702042 43.3088168501854 2703.00006866455 14 17 8
-24.7138869017363 43.6775684356689 2726.0000705719 12 15 6
-17.3082482069731 43.7738783657551 2732.00011253357 11 14 5
-9.86976735293865 43.8701212406158 2737.99991607666 12 15 8
-2.36963341012597 43.4375628829002 2710.99996566772 10 13 6
5.04432152956724 43.5336828231812 2717.00000762939 10 13 6
12.3534081503749 43.1490689516068 2693.00007820129 7 10 3
27.9447715729475 44.5587299764156 2780.99989891052 7 10 3
34.7461588680744 43.5650832951069 2719.00010108948 12 14 9
41.5190011262894 42.8918227553368 2677.00004577637 10 13 6
48.5547930002213 42.6511205732822 2661.99994087219 10 13 6
56.5569847822189 43.211467564106 2697.00002670288 8 11 4
63.2332265377045 42.7463427186012 2667.99998283386 10 13 6
71.9181746244431 43.5949452221394 2720.99995613098 13 16 9
77.7428448200226 42.7131466567516 2665.99988937378 14 17 10
85.3079035878181 42.8566783666611 2674.99995231628 16 19 12
93.5449153184891 43.2885140180588 2701.99990272522 17 20 13
101.406045258045 43.4959940612316 2714.99991416931 17 20 13
108.576208353043 43.3990210294724 2709.00011062622 16 19 12
115.456312894821 43.2058684527874 2697.00002670288 18 21 12
123.636588454247 43.4932559728622 2714.99991416931 16 19 10
130.997538566589 43.4762127697468 2713.99998664856 16 19 10
139.066442847252 43.6833687126637 2726.99999809265 16 19 10
145.862579345703 43.4899963438511 2714.99991416931 16 19 10
151.745870709419 43.0563129484653 2687.99996376038 15 18 9
160.736188292503 43.5035564005375 2716.00008010864 20 23 14
168.702334165573 43.6463877558708 2724.99990463257 19 22 13
181.693941354752 45.0224354863167 2811.00010871887 21 24 17
184.510454535484 43.8678078353405 2739.00008201599 12 15 8
-129.610389471054 36.4261940121651 2740.9999370575 15 18 11
-121.149741113186 36.1346676945686 2719.00010108948 19 22 13
-114.021673798561 36.2284854054451 2726.0000705719 17 20 11
-105.994760990143 36.0298752784729 2710.99996566772 18 21 12
-98.4493717551231 35.9774045646191 2707.00001716614 18 21 12
-91.1608636379242 36.0179133713245 2710.00003814697 18 21 12
-83.6083218455315 35.9520465135574 2704.99992370605 16 19 10
-76.3645470142365 36.0190495848656 2710.00003814697 16 19 10
-68.7877461314201 35.9264984726906 2703.00006866455 14 17 8
-61.5215077996254 35.9933935105801 2707.99994468689 14 17 8
-53.6880381405354 35.7013717293739 2686.00010871887 15 18 9
-46.2851077318192 35.6485433876514 2681.99992179871 16 19 10
-39.1362756490707 35.8083359897137 2694.00000572205 14 17 8
-32.429002225399 36.5396402776241 2749.00007247925 13 16 7
-24.7956663370132 36.3537445664406 2734.99989509583 12 15 6
-17.3400547355413 36.380473524332 2736.99998855591 12 15 6
-9.86984092742205 36.3938547670841 2737.99991607666 12 15 8
-2.39325128495693 36.3938957452774 2737.99991607666 11 14 7
5.04807289689779 36.1413359642029 2719.00010108948 11 14 7
20.2706251293421 36.8190631270409 2769.99998092651 7 10 3
27.6334788650274 36.5530624985695 2750 8 11 4
34.7464196383953 36.1407995223999 2719.00010108948 14 16 11
41.813999414444 35.8348228037357 2696.00009918213 11 14 7
49.4854003190994 36.0604748129845 2713.00005912781 10 13 6
56.4735271036625 35.7942841947079 2693.00007820129 9 12 5
64.8453459143639 36.3654047250748 2736.00006103516 10 13 6
70.9143355488777 35.6605015695095 2683.00008773804 12 15 8
78.1225115060806 35.6068313121796 2678.99990081787 14 17 10
85.4042023420334 35.5929881334305 2677.99997329712 16 19 12
93.4417471289635 35.8714871108532 2698.99988174438 17 20 13
100.995935499668 35.9372869133949 2703.9999961853 16 19 12
108.055986464024 35.8302667737007 2696.00009918213 16 19 12
116.227738559246 36.0820218920708 2714.99991416931 17 20 11
123.819671571255 36.1343733966351 2719.00010108948 14 17 8
132.639601826668 36.5189053118229 2747.99990653992 15 18 9
139.628425240517 36.3851003348827 2737.99991607666 16 19 10
148.227572441101 36.6632044315338 2759.0000629425 16 19 10
154.230952262878 36.3034121692181 2732.00011253357 17 20 11
162.098556756973 36.3953746855259 2739.00008201599 17 20 11
169.570297002792 36.3942682743073 2739.00008201599 12 15 6
177.42919921875 36.4728420972824 2744.99988555908 16 19 12
191.000118851662 36.2046733498573 2724.99990463257 21 24 17
-130.887895822525 29.2282365262508 2767.99988746643 24 29 22
-121.150471270084 28.7114940583706 2719.00010108948 19 22 13
-113.729573786259 28.7121254950762 2719.00010108948 18 21 12
-98.3408465981483 28.5548586398363 2703.9999961853 18 21 12
-90.9932181239128 28.565926477313 2704.99992370605 17 20 11
-83.4851935505867 28.5241529345512 2700.99997520447 16 19 10
-75.9986713528633 28.4823384135962 2697.00002670288 15 18 9
-69.0935403108597 28.6728218197823 2714.99991416931 15 18 9
-61.3855682313442 28.5358820110559 2701.99990272522 14 17 8
-54.1281029582024 28.5995621234179 2707.99994468689 14 17 8
-46.1991019546986 28.2724350690842 2677.00004577637 14 17 8
-39.0348248183727 28.3782780170441 2687.00003623962 12 15 6
-32.0399068295956 28.6847501993179 2716.00008010864 13 16 7
-24.6598292142153 28.7271495908499 2720.00002861023 13 16 7
-17.2451287508011 28.7483837455511 2721.99988365173 13 16 7
-9.87350661307573 28.9280042052269 2739.00008201599 12 15 6
-2.37928074784577 28.7484899163246 2721.99988365173 11 14 7
5.05367387086153 28.748482465744 2721.99988365173 12 15 8
12.6379877328873 29.0969666093588 2755.00011444092 9 12 5
20.2341601252556 29.2024910449982 2765.00010490417 5 8 1
27.6838894933462 29.0967486798763 2755.00011444092 5 8 1
34.759409725666 28.7269297987223 2720.00002861023 13 16 9
41.3334481418133 28.1458497047424 2664.99996185303 14 17 10
49.0296967327595 28.3885151147842 2687.99996376038 13 16 9
56.6206648945808 28.5149663686752 2700.00004768372 12 15 8
64.2769187688828 28.6413691937923 2711.99989318848 10 13 6
71.5226829051971 28.5776406526566 2706.00008964539 11 14 7
78.7645354866982 28.5244304686785 2700.99997520447 14 17 10
85.8511999249458 28.4289438277483 2691.99991226196 15 18 11
93.1307226419449 28.4073427319527 2690.00005722046 16 19 12
100.585699081421 28.4385047852993 2693.00007820129 14 17 10
108.818143606186 28.6702625453472 2714.99991416931 13 16 9
116.099998354912 28.637982904911 2711.99989318848 14 17 8
124.594584107399 28.8907736539841 2736.00006103516 14 17 8
132.012903690338 28.8795288652182 2734.99989509583 15 18 9
140.39421081543 29.0688686072826 2753.00002098084 16 19 10
147.100210189819 28.909720480442 2737.99991607666 18 21 12
154.909297823906 28.9722736924887 2743.99995803833 20 23 14
161.744430661201 28.8552939891815 2733.00004005432 20 23 14
170.004680752754 28.9916694164276 2746.00005149841 7 10 1
175.167948007584 28.6106858402491 2710.00003814697 15 18 11
184.243381023407 28.8736708462238 2734.99989509583 10 13 6
-130.888506770134 21.6713417321444 2767.99988746643 22 27 20
-120.170764625072 21.1159568279982 2697.00002670288 20 23 14
-112.893536686897 21.1320761591196 2698.99988174438 18 21 12
-106.074094772339 21.2421268224716 2713.00005912781 18 21 12
-98.0503633618355 21.1094282567501 2696.00009918213 18 21 12
-90.4890596866608 21.0628211498261 2690.00005722046 17 20 11
-83.7946832180023 21.2276000529528 2710.99996566772 15 18 9
-76.3371810317039 21.2122593075037 2709.00011062622 15 18 9
-68.508543074131 21.0794303566217 2691.99991226196 15 18 9
-61.6130419075489 21.2362986057997 2711.99989318848 14 17 8
-54.3282404541969 21.2835147976875 2717.99993515015 13 16 7
-46.7688366770744 21.2210733443499 2710.00003814697 13 16 7
-38.9623716473579 21.0019871592522 2681.99992179871 13 16 5
-31.6979475319386 21.0412815213203 2687.00003623962 14 17 6
-24.6962066739798 21.3311333209276 2723.99997711182 14 17 6
-17.1818528324366 21.2372466921806 2711.99989318848 12 15 6
-9.85552929341793 21.4095823466778 2733.99996757507 12 15 6
-2.38278834149241 21.3469583541155 2726.0000705719 12 15 6
5.0518405623734 21.3077981024981 2720.99995613098 13 16 7
12.5141888856888 21.3625784963369 2727.9999256134 9 12 5
20.2196203172207 21.6365940868855 2763.00001144409 6 9 2
27.4127013981342 21.3624183088541 2727.9999256134 9 12 5
34.414529800415 21.0882183164358 2693.00007820129 12 15 8
42.016077786684 21.2133564054966 2709.00011062622 14 17 10
49.4129732251167 21.2131720036268 2709.00011062622 14 17 10
56.5370470285416 21.1111642420292 2696.00009918213 13 16 9
63.9454126358032 21.1265850812197 2697.99995422363 10 13 6
71.5494453907013 21.196786314249 2707.00001716614 10 13 6
78.9107233285904 21.1886577308178 2706.00008964539 14 17 10
86.0429480671883 21.1256854236126 2697.99995422363 15 18 11
93.4773683547974 21.1409889161587 2700.00004768372 16 19 12
100.847616791725 21.1406014859676 2700.00004768372 14 17 10
108.898818492889 21.2732907384634 2717.00000762939 13 16 9
116.443030536175 21.2963353842497 2720.00002861023 14 17 8
123.638831079006 21.2567113339901 2714.99991416931 16 19 10
131.289511919022 21.295353770256 2720.00002861023 16 19 10
137.590020895004 21.1225841194391 2697.99995422363 16 19 10
145.435407757759 21.1924854665995 2707.00001716614 18 21 12
155.361667275429 21.544186398387 2752.00009346008 19 22 13
162.86963224411 21.5435586869717 2752.00009346008 20 23 14
170.315012335777 21.5350780636072 2750.99992752075 23 26 17
175.233379006386 21.2212856858969 2710.99996566772 21 24 17
-132.165670394897 14.2520349472761 2795.00007629395 13 18 11
-119.725592434406 13.7016484513879 2687.00003623962 22 25 16
-112.015508115292 13.6560518294573 2677.99997329712 21 24 15
-105.566158890724 13.7685211375356 2700.00004768372 20 23 14
-97.1778258681297 13.6259971186519 2671.99993133545 20 23 14
-90.1529565453529 13.6670377105474 2680.0000667572 18 21 12
-83.8876813650131 13.8406520709395 2713.99998664856 15 18 9
-76.4783248305321 13.8408597558737 2713.99998664856 15 18 9
-68.9159482717514 13.8104492798448 2707.99994468689 15 18 9
-61.2043142318726 13.7392207980156 2694.00000572205 14 17 8
-54.6882152557373 13.9535712078214 2736.00006103516 12 15 6
-47.1141412854195 13.9231020584702 2730.00001907349 11 14 5
-38.9479734003544 13.6733129620552 2680.99999427795 14 17 6
-31.7216478288174 13.7142045423388 2688.99989128113 14 17 6
-24.3971031159163 13.724478892982 2690.99998474121 13 16 7
-17.0235242694616 13.7041322886944 2687.00003623962 14 17 8
-9.70776379108429 13.7347690761089 2693.00007820129 15 18 9
-2.3758034221828 13.862288556993 2717.99993515015 18 21 12
5.07970713078976 13.9540890231729 2736.00006103516 15 18 9
12.6656126230955 14.0815693885088 2760.99991798401 11 14 5
20.2635936439037 14.1223277896643 2769.00005340576 9 12 5
27.4429395794868 13.9284590259194 2730.99994659424 10 13 6
34.5935560762882 13.8059752061963 2707.00001716614 10 13 6
41.8921336531639 13.7752750888467 2700.99997520447 15 18 11
49.3036955595016 13.7853575870395 2703.00006866455 16 19 12
56.4952939748764 13.7393185868859 2694.00000572205 15 18 11
63.8982206583023 13.7493629008532 2696.00009918213 11 14 7
71.1532086133957 13.7287862598896 2691.99991226196 11 14 7
78.7651613354683 13.7744899839163 2700.99997520447 13 16 9
85.6605395674706 13.6977816000581 2686.00010871887 14 17 10
93.1314677000046 13.7179484590888 2690.00005722046 16 19 12
100.997358560562 13.7890912592411 2703.9999961853 15 18 11
108.538456261158 13.8092180714011 2707.99994468689 14 17 10
115.929692983627 13.8089274987578 2707.99994468689 14 17 8
122.956141829491 13.7678254395723 2700.00004768372 18 21 12
129.890143871307 13.7216066941619 2690.99998474121 17 20 11
137.029498815536 13.7008680030704 2687.00003623962 17 20 11
145.167246460915 13.7769877910614 2701.99990272522 18 21 12
153.612062335014 13.8734830543399 2720.99995613098 19 22 13
161.508947610855 13.9138670638204 2729.00009155273 16 19 10
167.529597878456 13.7961842119694 2706.00008964539 20 23 14
-129.328727722168 6.47913990542293 2734.99989509583 26 31 25
-120.527856051922 6.40821922570467 2704.99992370605 23 26 17
-112.894117832184 6.39414461329579 2698.99988174438 21 24 15
-105.683654546738 6.4037530682981 2703.00006866455 20 23 14
-98.0144888162613 6.38492219150066 2694.9999332428 20 23 14
-90.9604653716087 6.40635844320059 2703.9999961853 19 22 13
-83.7642028927803 6.42067939043045 2710.00003814697 15 18 9
-76.9575089216232 6.47053075954318 2730.99994659424 15 18 9
-69.3996176123619 6.46114256232977 2726.99999809265 15 18 9
-61.8859902024269 6.45411387085915 2723.99997711182 14 17 8
-47.0106825232506 6.45424518734217 2723.99997711182 11 14 5
-39.2385981976986 6.3998019322753 2700.99997520447 14 17 6
-31.8042896687984 6.38799788430333 2696.00009918213 13 16 7
-24.6419385075569 6.44015893340111 2717.99993515015 13 16 7
-17.0995816588402 6.395164411515 2698.99988174438 15 18 9
-9.68254916369915 6.36437861248851 2686.00010871887 16 19 10
-2.37231166101992 6.43073068931699 2713.99998664856 18 21 12
5.08528668433428 6.48996653035283 2739.00008201599 14 17 8
12.679398059845 6.54919166117907 2763.99993896484 9 12 5
20.219724625349 6.5468018874526 2763.00001144409 8 11 4
27.7344062924385 6.53966423124075 2759.99999046326 9 12 5
35.0409001111984 6.49697706103325 2742.00010299683 7 10 3
42.0007817447186 6.41636922955513 2707.99994468689 13 16 9
49.5226681232452 6.43289973959327 2714.99991416931 16 19 12
56.8309314548969 6.42098858952522 2710.00003814697 16 19 12
63.6850222945213 6.36642053723335 2687.00003623962 12 15 8
70.9947645664215 6.36397022753954 2686.00010871887 11 14 7
78.7069872021675 6.3946801237762 2698.99988174438 13 16 9
85.7244879007339 6.36851927265525 2687.99996376038 14 17 8
92.8200483322144 6.35182717815042 2680.99999427795 16 19 10
100.922845304012 6.40146341174841 2701.99990272522 15 18 11
108.218014240265 6.39659957960248 2700.00004768372 15 18 11
115.373380482197 6.3846199773252 2694.9999332428 16 19 10
122.592054307461 6.37737009674311 2691.99991226196 18 21 10
129.697322845459 6.36537373065948 2687.00003623962 17 20 9
138.202697038651 6.41969963908196 2710.00003814697 17 20 11
146.027132868767 6.43848069012165 2717.99993515015 19 22 13
153.217181563377 6.42882799729705 2713.99998664856 20 23 14
162.752091884613 6.51391409337521 2750 21 24 15
-141.393825411797 -1.02103769313544 2826.99990272522 202 207 203
-130.416378378868 -0.996141228824854 2757.99989700317 21 26 20
-121.419064700603 -0.984244979918003 2724.99990463257 23 26 17
-113.228797912598 -0.97776495385915 2707.00001716614 22 25 16
-106.231093406677 -0.981397228315473 2717.00000762939 19 22 13
-99.4693040847778 -0.987917766906321 2734.99989509583 17 20 11
-91.1959931254387 -0.979266129434109 2710.99996566772 18 21 12
-83.8878825306892 -0.980365788564086 2713.99998664856 18 21 12
-76.5630528330803 -0.981464283540845 2717.00000762939 17 20 11
-69.27240639925 -0.983283855021 2721.99988365173 12 15 6
-61.6588331758976 -0.980405951850116 2713.99998664856 12 15 6
-54.3685257434845 -0.98258419893682 2720.00002861023 14 17 8
-46.8036159873009 -0.979703618213534 2711.99989318848 15 18 9
-39.558220654726 -0.983685371465981 2723.00004959106 14 17 10
-32.1817994117737 -0.985498074442148 2727.9999256134 15 18 11
-24.7235465794802 -0.985142192803323 2726.99999809265 17 20 13
-17.2643139958382 -0.984423561021686 2724.99990463257 19 22 15
-9.7762793302536 -0.979729695245624 2711.99989318848 17 20 13
-2.36619403585792 -0.977924559265375 2707.00001716614 13 15 10
5.03515964373946 -0.979730626568198 2711.99989318848 10 13 6
12.5004975125194 -0.984425307251513 2724.99990463257 5 7 2
20.4685479402542 -1.01043283939362 2796.99993133545 5 7 2
28.055977076292 -1.0086219990626 2792.00005531311 7 9 4
34.9259003996849 -0.9873021626845 2733.00004005432 12 15 8
42.5281450152397 -0.990546424873173 2742.00010299683 13 14 8
49.1578876972198 -0.973559101112187 2694.9999332428 19 20 12
56.7470788955688 -0.977523159235716 2706.00008964539 20 21 13
63.9931783080101 -0.975344562903047 2700.00004768372 14 15 7
71.6291442513466 -0.978944357484579 2710.00003814697 12 13 5
79.5527249574661 -0.985432649031281 2727.9999256134 12 15 6
86.1710086464882 -0.976025476120412 2701.99990272522 13 16 5
93.7895029783249 -0.978537602350116 2709.00011062622 16 19 8
100.960254669189 -0.976352428551763 2703.00006866455 15 18 9
108.699038624763 -0.979584059678018 2711.99989318848 16 19 8
115.75873196125 -0.976673909462988 2703.9999961853 17 20 9
123.502902686596 -0.979541451670229 2711.99989318848 19 25 13
131.000623106956 -0.980240642093122 2713.99998664856 14 20 6
137.743785977364 -0.975520873907954 2700.99997520447 14 20 8
146.295830607414 -0.983440782874823 2723.00004959106 17 23 11
153.104349970818 -0.979440868832171 2711.99989318848 19 25 15
161.686882376671 -0.986635335721076 2732.00011253357 21 27 17
-132.355019450188 -8.65264981985092 2799.00002479553 12 17 11
-121.998205780983 -8.46427492797375 2737.99991607666 22 25 16
-112.935908138752 -8.3469832316041 2700.00004768372 22 25 16
-106.152787804604 -8.39352793991566 2714.99991416931 19 22 13
-98.9964231848717 -8.41532927006483 2721.99988365173 18 21 12
-92.7096754312515 -8.52059572935104 2756.00004196167 18 21 12
-83.7332680821419 -8.37542582303286 2709.00011062622 16 19 10
-76.4220803976059 -8.38482659310102 2711.99989318848 15 18 9
-68.6615705490112 -8.3416560664773 2697.99995422363 13 16 7
-61.4315904676914 -8.36030952632427 2703.9999961853 13 16 7
-53.9487227797508 -8.34494177252054 2698.99988174438 14 17 8
-46.8726083636284 -8.39758291840553 2716.00008010864 15 18 9
-39.6453514695168 -8.43784678727388 2729.00009155273 14 17 10
-32.4059128761292 -8.49355850368738 2746.99997901917 16 19 12
-24.7960537672043 -8.45650024712086 2734.99989509583 18 21 14
-17.2769706696272 -8.43179784715176 2726.99999809265 19 22 15
-9.85557679086924 -8.45346320420504 2733.99996757507 16 19 12
-2.3897928185761 -8.45347251743078 2733.99996757507 14 16 11
5.07785798981786 -8.45656264573336 2734.99989509583 12 14 9
12.5188380479813 -8.4379967302084 2729.00009155273 6 8 3
20.2928967773914 -8.57401732355356 2773.00000190735 6 8 3
27.3123495280743 -8.40392149984837 2717.99993515015 10 12 7
35.0281074643135 -8.47498700022697 2740.9999370575 12 15 8
42.0783199369907 -8.38835258036852 2713.00005912781 15 16 10
49.522653222084 -8.39446391910315 2714.99991416931 16 17 9
56.5582923591137 -8.33872705698013 2697.00002670288 17 18 10
64.6093487739563 -8.42829421162605 2726.0000705719 16 17 9
72.3163038492203 -8.45910422503948 2736.00006103516 14 15 7
79.3193578720093 -8.40951595455408 2720.00002861023 12 15 4
86.2347111105919 -8.35991930216551 2703.9999961853 14 17 6
93.096986413002 -8.31340253353119 2688.99989128113 16 19 8
101.258955895901 -8.3812652155757 2710.99996566772 16 19 8
108.538627624512 -8.37182719260454 2707.99994468689 17 20 9
116.40077829361 -8.40565655380487 2719.00010108948 18 21 10
123.776040971279 -8.40237736701965 2717.99993515015 17 23 9
131.82108104229 -8.44236556440592 2730.99994659424 15 21 9
138.865619897842 -8.41742381453514 2723.00004959106 15 21 9
146.24197781086 -8.41411110013723 2721.99988365173 18 24 12
156.15276992321 -8.5498858243227 2766.00003242493 18 24 14
162.633657455444 -8.49399901926517 2747.99990653992 17 23 13
-133.300453424454 -16.4107419550419 2819.00000572205 13 18 11
-114.065006375313 -15.8758815377951 2726.99999809265 22 25 16
-103.415660560131 -15.3988152742386 2644.99998092651 20 23 14
-98.5234156250954 -15.7717186957598 2709.00011062622 18 21 12
-91.4984494447708 -15.8360414206982 2720.00002861023 18 21 12
-84.289439022541 -15.8770550042391 2726.99999809265 15 18 9
-76.0274007916451 -15.7084483653307 2697.99995422363 15 18 9
-68.8650086522102 -15.7552435994148 2706.00008964539 15 18 9
-61.2497068941593 -15.6972128897905 2696.00009918213 15 18 9
-54.1284941136837 -15.7672520726919 2707.99994468689 15 18 9
-46.4928261935711 -15.6858880072832 2694.00000572205 15 18 9
-39.5726189017296 -15.8606916666031 2723.99997711182 17 20 13
-32.1109183132648 -15.8491525799036 2721.99988365173 18 21 14
-24.7144028544426 -15.8725287765265 2726.0000705719 19 22 15
-17.2896031290293 -15.8900618553162 2729.00009155273 16 19 12
-9.78345796465874 -15.8027596771717 2713.99998664856 14 17 10
-2.39765434525907 -15.9716363996267 2743.00003051758 14 16 11
5.10198250412941 -16.0007458180189 2747.99990653992 12 14 9
12.518810108304 -15.8900897949934 2729.00009155273 6 8 3
19.8684055358171 -15.8085208386183 2714.99991416931 6 8 3
27.4127759039402 -15.8841460943222 2727.9999256134 10 12 7
34.8874554038048 -15.8956982195377 2730.00001907349 12 14 9
42.838204652071 -16.0819049924612 2762.00008392334 14 15 9
49.5590232312679 -15.8197544515133 2717.00000762939 13 14 6
56.7888431251049 -15.7671943306923 2707.99994468689 15 16 8
64.7040084004402 -15.8951058983803 2730.00001907349 18 19 11
72.7654695510864 -16.0288158804178 2753.00002098084 16 17 9
79.8732489347458 -15.9470792859793 2739.00008201599 12 15 4
84.9907547235489 -15.5159924179316 2664.99996185303 14 17 6
92.7505642175674 -15.5972372740507 2678.99990081787 16 19 8
100.437000393867 -15.6551711261272 2688.99989128113 16 19 8
108.899101614952 -15.8178750425577 2717.00000762939 16 19 8
116.058044135571 -15.7826133072376 2710.99996566772 18 21 10
123.775757849216 -15.8230103552341 2717.99993515015 18 21 10
131.627708673477 -15.8750284463167 2726.99999809265 18 21 10
139.834254980087 -15.9619525074959 2742.00010299683 17 23 11
148.713037371635 -16.1128789186478 2767.99988746643 19 25 13
156.886324286461 -16.1764658987522 2779.00004386902 18 24 14
-132.732525467873 -24.0043234080076 2806.99992179871 15 20 13
-124.849140644073 -23.9621214568615 2802.00004577637 22 25 16
-111.596755683422 -22.8166803717613 2667.99998283386 24 27 18
-106.582261621952 -23.3131740242243 2726.0000705719 20 23 14
-98.813995718956 -23.2366472482681 2717.00000762939 18 21 12
-91.3972109556198 -23.2370644807816 2717.00000762939 17 20 11
-84.6600458025932 -23.4256014227867 2739.00008201599 16 19 10
-76.9852101802826 -23.3660824596882 2732.00011253357 16 19 10
-69.5264264941216 -23.3664028346539 2732.00011253357 17 20 11
-62.1127858757973 -23.3837943524122 2733.99996757507 17 20 11
-54.1882626712322 -23.1873318552971 2710.99996566772 17 20 11
-46.8895807862282 -23.238867521286 2717.00000762939 17 20 11
-39.4272059202194 -23.2134014368057 2713.99998664856 20 23 16
-32.0282243192196 -23.2221074402332 2714.99991416931 19 22 15
-24.7143115848303 -23.3163200318813 2726.0000705719 15 18 11
-17.3275507986546 -23.3933925628662 2734.99989509583 9 12 5
-9.93842724710703 -23.581625893712 2756.99996948242 12 15 8
-2.38453387282789 -23.333603516221 2727.9999256134 12 14 9
5.10010728612542 -23.4961118549109 2746.99997901917 10 12 7
12.4820638448 -23.2736859470606 2720.99995613098 5 7 2
19.6780636906624 -22.9999087750912 2688.99989128113 5 7 2
27.0911194384098 -23.05968105793 2696.00009918213 10 12 7
35.0151173770428 -23.4358869493008 2740.00000953674 12 14 9
43.0551841855049 -23.7436331808567 2776.00002288818 14 15 9
49.7594848275185 -23.332878947258 2727.9999256134 12 13 5
57.0193119347095 -23.2556685805321 2719.00010108948 13 14 6
64.4430592656136 -23.2554040849209 2719.00010108948 16 17 9
72.3423063755035 -23.4090574085712 2736.99998855591 17 18 10
80.3103670477867 -23.5541183501482 2753.99994850159 13 16 7
86.9676992297173 -23.3228355646133 2726.99999809265 14 17 8
92.888705432415 -22.946136072278 2683.00008773804 17 20 9
100.660741329193 -23.0483412742615 2694.9999332428 17 20 9
108.457811176777 -23.1419652700424 2706.00008964539 18 21 10
115.415461361408 -23.0559594929218 2696.00009918213 18 21 10
122.31807410717 -22.9699276387692 2686.00010871887 20 21 13
130.854949355125 -23.1831688433886 2710.99996566772 20 21 13
139.527767896652 -23.3963746577501 2736.00006103516 21 22 14
148.658782243729 -23.6608404666185 2766.99995994568 21 24 15
157.111555337906 -23.796996101737 2782.99999237061 21 24 17
-131.738871335983 -31.4307473599911 2786.00001335144 7 10 3
-122.977130115032 -31.1381444334984 2759.99999046326 25 28 19
-115.193374454975 -31.0711339116097 2753.99994850159 26 29 20
-106.699027121067 -30.7897124439478 2729.00009155273 22 25 16
-99.3954017758369 -30.8354292064905 2733.00004005432 19 22 13
-91.9013321399689 -30.8246966451406 2732.00011253357 18 21 12
-84.4741687178612 -30.8364853262901 2733.00004005432 19 22 13
-77.4920433759689 -31.0287624597549 2750 18 21 12
-69.8314607143402 -30.961487442255 2743.99995803833 17 20 11
-61.6126656532288 -30.6007955223322 2711.99989318848 17 20 11
-54.4078536331654 -30.7139623910189 2721.99988365173 18 21 12
-47.0446683466434 -30.7593941688538 2726.0000705719 18 21 12
-39.6158583462238 -30.7709258049726 2726.99999809265 16 19 12
-32.1106389164925 -30.714713037014 2721.99988365173 14 17 10
