ply
format ascii 1.0
comment KinectMotionCapture
element vertex 795
property float x
property float y
property float z
property uchar red
property uchar green
property uchar blue
end_header
-79.2782396468927 236.619489811788 2719.60787244176 22 24 19
-98.6312746938189 236.076928177085 2729.04315895729 21 24 17
-110.910595752963 235.566886154533 2731.25495222127 21 24 17
-81.3392685774001 235.203793436337 2689.69871399352 24 27 20
-81.8644118931031 234.727011623366 2679.43443493832 24 27 20
-92.8126949839339 234.216748206929 2680.14105165148 25 28 21
-22.423437371675 233.428434897024 2582.94873703675 1 4 0
153.0958288509 246.901378057242 2863.41037414893 24 29 23
145.501037773998 246.396708440103 2860.37226502371 31 34 27
114.809191129178 245.266984793888 2867.76060303839 41 44 35
89.4779400111969 244.631275639043 2880.27219558423 36 39 30
73.5178446848437 244.073520155141 2884.75621082305 24 27 18
52.2260344221874 243.481285558793 2894.02082283504 22 25 16
48.6731869427164 243.020308186125 2887.73754856976 20 23 14
31.3308839617261 242.464221451966 2893.68994816992 19 22 13
28.5521659110253 242.009206228059 2886.73285041855 19 22 13
-6.96371858411604 241.343613377665 2909.15321870553 18 21 12
-21.8241867789426 240.818354125581 2913.1992106128 18 21 12
-47.9806195553958 240.229760161305 2927.58321774731 19 22 13
-11.412147854363 240.009738329827 2884.92431149475 20 23 14
-4.42303744934325 239.607893532276 2868.99173627773 20 21 15
-17.7572976439904 239.092775946337 2871.67408704636 22 23 17
-25.06702920433 238.61147480067 2868.8430364911 25 26 20
-33.114495063973 238.127212193458 2866.71220822706 23 24 18
-19.5938369090061 237.743395894611 2844.39836958816 20 21 13
-18.0464556184083 237.298189481179 2833.16659452715 20 21 13
-32.0611378148681 236.784842984679 2836.59073846586 16 19 10
-48.238705917889 236.266691231394 2842.15234027767 20 23 14
-48.1966636401789 235.813163618532 2832.2996384276 20 23 14
-57.7107677269755 235.323771860554 2831.57566009133 22 25 16
-71.5847004324948 234.821991094406 2835.10218939948 20 23 12
-59.2066767393358 234.402344693484 2813.19488579685 22 25 16
-65.0824090566098 233.923805735606 2808.93301815156 21 24 15
-85.4290682289727 233.408896917851 2818.88318202974 20 23 14
-94.1481008561556 232.927278756737 2817.50086518483 21 24 15
-91.3450964027025 232.470328069464 2804.70889092842 23 26 17
-72.8248200236383 232.037089934182 2776.13824991832 27 30 23
-80.8982807847398 231.550998608782 2773.98827365562 19 22 15
-88.9597506628972 231.065922642899 2771.84728945987 20 23 16
-99.8500570050984 230.578917646259 2772.59605256388 22 25 18
-70.3513186789984 230.126187271667 2732.22177572684 24 26 21
-89.7779819199802 229.629318795326 2741.60391903805 22 24 19
-85.1980251024136 229.145982280027 2726.39485193541 20 22 17
-111.548255282521 228.656362973753 2743.10894578073 21 24 17
-141.967016176567 228.178072525875 2764.28483547393 23 26 19
-131.805034777503 227.692586043583 2743.24110976205 24 27 20
-108.544141886282 227.188903814445 2708.2255095535 22 25 18
-63.9991944137031 226.648387697301 2650.35020236592 23 26 19
-8.73152557086154 226.0675084085 2580.48576183414 25 28 21
175.433823687555 239.504876575319 2844.98252267347 25 30 24
146.695504647132 238.898976136298 2859.96514542976 37 40 33
109.784466591833 237.806119228573 2872.72612759181 36 39 30
90.6585838668592 237.26496517067 2879.85572106743 34 37 28
70.8342943260138 236.726783831471 2887.71407622409 26 29 20
50.3181490267157 236.192138681994 2896.30623939424 23 26 17
46.0045574655212 235.720259755997 2890.70676139673 20 23 14
31.7306528483927 235.215228895809 2893.94303159095 19 22 13
-3.10349144560385 234.651676649621 2915.62279364835 20 23 14
3.32458235783362 234.216771972421 2900.51867467715 20 23 14
-2.46015973402591 233.744820099979 2896.32280115298 20 23 14
-9.75913971417319 233.269252448762 2893.49927921191 21 24 15
-21.5772762729907 232.784769455074 2894.81078227168 22 25 16
-3.27095141662737 232.359653349371 2868.5551576349 21 22 16
-31.6100019805712 231.846422504967 2885.06272464957 22 23 17
-26.912432881145 231.390329749204 2871.17409182423 23 24 18
-26.0057250054149 230.924764456459 2860.7128124396 21 22 16
-36.2916762941459 230.445456574891 2860.66468777765 19 22 13
-36.9159091258575 229.974947683075 2851.56393949742 19 22 13
-48.6577969589428 229.496799357624 2852.93045449503 19 22 13
-43.4181024535918 229.025092015994 2838.19970422582 22 25 16
-49.9997653607482 228.548281489181 2834.66113781466 22 25 16
-60.2404913548751 228.072771784427 2834.64581717244 23 26 17
-67.5347664839461 227.597827987866 2831.82570903827 20 23 12
-79.9177719118034 227.12745689884 2833.96283470875 20 23 14
-77.7453103669041 226.645470741657 2821.94897073811 22 25 16
-87.9242732844578 226.175102692479 2821.97844951169 20 23 14
-91.5848607362237 225.696943430655 2815.61698521155 18 21 12
-85.1903698397987 225.19974972105 2799.25258018489 18 21 12
-86.7594473505218 224.712431454517 2790.70213979628 25 28 21
-103.367178068791 224.257297647211 2797.18726337569 27 30 23
-103.519686632952 223.765694931491 2787.19333461053 22 25 18
-71.0293722301594 223.179278715079 2744.04630249889 22 25 18
-80.5627551152244 222.701860023978 2743.30870367329 24 26 21
-61.8349515145944 222.131898802721 2713.65247993935 22 24 19
-84.0828679200458 221.696446633411 2725.93018870263 20 22 17
-119.560433027813 221.320845005288 2752.08520875863 19 22 15
-131.074533160903 220.86181840783 2753.61694877651 20 23 16
-153.709268474357 220.454852790257 2766.84971965448 23 26 19
-142.880586775975 219.900172550308 2745.05361763143 20 23 16
-82.9736380311836 219.092831775836 2671.14062878342 19 22 15
-17.2723619764996 218.218727267846 2590.31122571706 19 22 15
141.642284614516 231.387756888694 2864.90975793921 42 45 38
85.0058507486273 230.841889276701 2904.13330385978 46 47 41
107.863383654662 230.38617324301 2875.00131444811 33 36 27
91.8389945969618 229.893270075124 2879.43905027874 33 36 27
61.1994728911345 229.399298578295 2896.74912747896 29 32 23
39.939026174538 228.918148089194 2906.03703825773 25 28 19
47.1734512904147 228.441829832894 2890.28191968714 20 23 14
13.7558771191935 227.972091733764 2910.5189855864 19 22 13
12.5580610416254 227.497562260808 2902.23745083454 21 24 15
21.2282608357697 227.013021893181 2885.05304106416 21 24 15
-5.85886591690921 226.558185044312 2899.99808240867 21 24 15
-7.09279258341011 226.080756348855 2891.69035563512 22 25 16
-15.1456281588245 225.611334481528 2889.55570992079 24 27 18
-34.4725456764858 225.162685085154 2897.77536864547 21 22 16
-36.4662725290763 224.68601124421 2890.15188695477 22 23 17
-24.2711327813208 224.175612049294 2869.34687830261 21 22 16
-21.1321218618241 223.678807998502 2856.79828043903 20 21 15
-35.1502900221776 223.224440387145 2860.22049054481 18 21 12
-41.706795159381 222.751814963624 2856.70018273636 19 22 13
-40.1287831977939 222.253139893217 2845.49034167315 21 24 15
-41.5438851934382 221.761101187367 2837.05120303445 24 27 18
-54.0086229403354 221.308166956574 2839.12916752373 23 26 17
-64.9696106800866 220.852536887705 2839.82685109444 24 27 18
-81.0135590819308 220.421166613425 2845.48575624452 21 24 13
-83.161283974535 219.932191867675 2837.75087025864 21 24 15
-88.2358817660163 219.455257934422 2832.8344391517 23 26 17
-83.9067875342148 218.930413913365 2818.67834279247 21 24 15
-80.3619981171815 218.404313460696 2805.18871740024 17 20 11
-73.9980906118105 217.857443697749 2788.80218467874 17 20 11
-97.8316899800134 217.480501683775 2802.40076764605 26 29 22
-110.831718616799 217.04691622544 2805.32611745714 23 26 19
-95.9904068816053 216.439318838137 2780.26311092274 18 21 14
-77.725207081988 215.79757547587 2751.50620885949 19 22 15
-75.1951945303797 215.251629089347 2738.51618064376 22 24 19
-74.8374817822088 214.716604951985 2727.65657115229 23 25 20
-80.856117316618 214.225749910104 2723.29104753179 22 24 19
-95.9983426964339 213.805741955872 2728.36865186745 18 21 14
-111.783667220265 213.396010153842 2734.21514858914 18 21 14
-126.113719159255 212.979654458305 2738.64649665491 22 25 18
-31.9734243153906 211.067192868735 2617.90667375814 19 22 15
-14.0757396905924 210.333241736346 2587.64814289879 19 22 15
165.081865554218 224.867959468509 2864.57689561168 33 38 32
86.189634124104 224.516172267819 2922.25110340499 38 41 34
88.1579200179026 224.021116292985 2911.32419857554 43 46 39
117.343361429799 223.456131146777 2876.89771514977 32 33 27
109.047947209444 222.974417395129 2874.58715673803 26 29 20
89.921268678077 222.525244573715 2881.71693369673 27 30 21
70.8682933490108 222.082088185099 2888.89987567708 22 25 16
40.3370926580475 221.684144006605 2906.28896348996 22 25 16
36.8230157860721 221.199923123142 2900.03367713249 22 25 16
40.9520397673289 220.684853240439 2886.96792619308 19 22 13
38.151303699546 220.193388806419 2879.99438801179 17 20 11
35.3317466157677 219.700421220548 2873.0074929376 19 22 13
29.4570384106549 219.219986213298 2868.74635808921 21 24 15
-1.39822105353371 218.861232509996 2887.13605839532 27 30 21
-13.240674489984 218.417537479766 2888.43014023063 27 30 21
-25.0488559101734 217.976664516515 2889.74878639922 24 27 20
-32.3209372355584 217.513218723969 2886.94511974366 21 24 17
-14.8957989436833 216.904960216826 2861.28481313766 21 24 17
-11.7815573473632 216.372666056606 2848.71837417573 21 24 17
-27.3149591770778 215.955187561148 2853.51212468992 22 25 16
-33.8937274471545 215.4829533172 2849.97597431975 25 28 19
-34.5542457374526 214.969999300775 2840.8487069433 25 28 19
-39.6695761782291 214.486307895361 2835.90271364168 25 26 18
-60.2245116374585 214.117447759639 2845.70263336004 25 26 18
-74.0978010622375 213.704718721101 2849.23008006069 21 22 14
-81.3485010596251 213.243263543366 2846.44162879193 19 21 10
-96.6034245213105 212.848788402435 2851.43766521168 19 22 13
-99.4576925325359 212.353408381098 2844.42559522596 22 25 16
-82.0600846042223 211.677685017415 2817.50995291989 19 22 13
-61.1959394970922 210.957562417483 2786.93157488041 17 20 11
-83.668138536525 210.628921180945 2799.04723739433 17 20 11
-98.1494261785709 210.232310253856 2803.36905148256 19 22 15
-116.869458545885 209.88264130633 2812.02886108276 23 26 19
-103.429776067894 209.211437459416 2788.41982914372 24 27 20
-94.3746135135046 208.575286917923 2769.04335142292 24 27 20
-93.9151491994461 208.023308838107 2758.25741793798 22 24 19
-99.8531867872212 207.538505178235 2753.95035214049 21 23 18
-100.863673117494 206.997603118371 2744.56924390082 20 22 17
-94.1851387610069 206.364077795814 2727.17502086445 22 25 18
-96.6831729254729 205.832826187274 2719.18597407079 15 18 11
-88.0445477524394 205.162954720052 2699.50707423274 25 28 21
6.57327337124425 202.802550852522 2577.876409259 22 25 18
-2.58808009369904 202.316955269698 2576.17312997575 16 19 12
142.711613542258 217.464576104126 2884.14143546707 33 38 32
142.213678515611 216.944827508998 2875.13199375226 30 35 29
94.8088968638898 216.689058668784 2906.22761332508 28 31 24
136.448554607184 215.925299016873 2861.06639181973 21 22 16
123.438834618844 215.475685341867 2862.74930387097 18 21 12
98.8475637837176 215.103961095416 2874.56362442221 20 23 14
68.1807467832538 214.782083846541 2891.85508084915 19 22 13
56.1403040432329 214.343439885034 2893.00536712063 19 22 13
52.5828549453489 213.846867016911 2886.71857674576 23 26 17
47.4793064827956 213.360548344619 2881.78140562099 22 25 16
49.2436597937274 212.820873293169 2870.70643970566 18 21 12
38.7791172260581 212.374504243656 2870.52901725596 19 22 13
16.1909191234475 212.030071389265 2881.32547295658 21 24 15
6.56927674912922 211.584344486678 2880.5237589918 26 29 20
-3.78641744882291 211.146950196538 2880.42528850717 26 29 20
-6.58974261274992 210.643845434624 2873.4501089513 23 26 19
-16.1661335565468 210.201881486267 2872.68121777432 22 25 18
-23.4769079671926 209.740241189016 2869.8495108207 23 26 19
-24.0649331766862 209.213373515809 2860.77472475018 23 26 19
-29.1480852313768 208.728928328927 2855.8520544293 22 25 16
-32.011741691327 208.221025674924 2848.83311512713 24 27 18
-35.6335753873216 207.719490847531 2842.49962584975 25 26 18
-37.7952200813338 207.200737549255 2834.75449826854 23 24 16
-76.000088018114 207.082943461019 2861.40381740467 24 25 17
-78.0999681913452 206.569305797397 2853.70349015439 23 24 16
-78.761357104399 206.036656251117 2844.57519740616 20 22 11
-91.8394079247693 205.650381401884 2847.44422690886 18 21 12
-88.895715349421 205.070949599613 2834.75362008345 21 24 15
-65.7314003844773 204.231747701171 2802.13667673721 22 25 16
-67.2887080311084 203.69434761435 2793.59422042295 17 20 11
-73.9112903296368 203.221115103167 2790.02600879508 18 21 12
-89.1403907242116 202.864148799104 2795.04095489692 20 23 16
-100.73694260763 202.462625374212 2796.51350962331 19 22 15
-111.586085997543 202.053918587883 2797.29250922577 22 25 18
-108.188070029984 201.443637832559 2783.69605823789 24 27 20
-108.391676912918 200.880561413031 2773.66443070553 22 24 19
-100.860845830977 200.198372456986 2755.65306711128 21 23 18
-95.5274887170638 199.541514581141 2739.7539459357 20 22 17
-97.2861582851747 198.988115588058 2731.06543702967 21 24 17
-80.176978851823 198.13268985938 2702.70475989513 15 18 11
-61.1216214023917 197.231490237716 2672.04927251953 19 22 15
-50.5713443766629 196.454864021618 2650.05051928472 22 25 18
-4.08122025890223 195.063961113547 2589.87530594097 21 24 17
149.101273444119 210.512440602122 2888.73822235513 36 43 36
156.478611372019 209.906233991005 2873.08604642176 26 31 25
156.728199976652 209.356750603671 2863.3830188214 22 27 21
123.341182149205 209.11268899087 2882.40834213306 15 18 11
126.729746337075 208.535623642724 2870.04024422016 15 16 10
123.071492970922 208.021945336323 2863.68029203753 12 15 6
70.5852318737636 207.992916055801 2899.73923255522 15 18 9
92.5336159889589 207.227872493815 2871.18165160717 16 19 10
66.5560263628238 206.950187680449 2884.46184414499 14 17 8
60.6657866786411 206.46726970197 2880.18943761922 15 18 9
49.4122896152924 206.04329576051 2880.67523528332 19 22 13
45.8267318323395 205.535673792963 2874.36830683392 22 25 16
28.5175566427363 205.185139215411 2880.34546816222 21 24 15
25.7026437433909 204.669490481596 2873.36182487195 19 22 13
10.7529853210573 204.298746426499 2877.34423800684 16 19 10
23.7922726605366 203.587014444775 2855.91481906244 15 18 9
5.85331154257052 203.256186626938 2862.67086605582 17 22 15
-12.0163731146197 202.93106059074 2869.47716191469 17 22 15
-29.0681356318991 202.601767645192 2875.64103477566 19 24 17
-32.6224152927841 202.09688576731 2869.35649990654 23 26 19
-36.1909954128725 201.59086779668 2863.06159257481 22 25 16
-37.5483868796054 201.052474757538 2854.66434921331 19 22 13
-35.9745224748096 200.469504958488 2843.45107452825 19 20 12
-41.820298387385 199.990599780113 2839.21092106505 18 19 11
-53.5492320105973 199.599274338806 2840.58726662087 20 21 13
-63.0449283925625 199.177397350384 2839.87726887531 22 23 15
-73.2503330314003 198.768582445457 2839.88759678262 19 19 9
-81.973336316941 198.338899785085 2838.50266458628 16 19 10
-78.3300086581262 197.712145368979 2825.08396183626 20 23 14
-68.22680198291 196.973954989404 2805.23138570689 19 22 13
-58.9437603408858 196.239824499578 2786.01960611214 17 20 11
-74.2286317149841 195.913436725223 2790.99398304998 18 21 12
-87.3046947860676 195.554521277717 2793.86459209532 19 22 15
-103.914611771146 195.262075732622 2800.34895485139 17 20 13
-99.0628842782029 194.592260959844 2785.33595556207 17 20 13
-92.8561811269479 193.891134838382 2768.83438623347 16 19 12
-99.4842906898978 193.419989091709 2765.26247282055 16 18 13
-92.6833877915136 192.696485326737 2747.95650159313 17 19 14
-84.5543160476063 191.93949687511 2729.14310544141 17 19 14
-75.1101033267745 191.147957975805 2708.81254031012 19 22 15
-86.0637110119835 190.749842116007 2709.51615963769 16 19 12
-70.4717613040076 189.821408504287 2682.52531375501 21 24 17
-55.0179121218584 188.881790100234 2655.4345936778 21 24 17
-4.3407955443775 187.197439255488 2590.88261989908 21 24 17
192.856625741564 202.555830819959 2852.48508850853 22 29 22
158.461152957336 202.398380716275 2872.01483663409 24 29 23
161.058670615503 201.796973584552 2860.30850002033 19 24 18
147.976046108735 201.389507371445 2861.93848103847 18 21 14
127.138183296664 201.086015309886 2870.29859515378 15 16 10
114.931459610926 200.676441224174 2871.32878254077 12 15 6
113.608627346532 200.1234968651 2862.95622370024 13 16 7
82.3693129176721 199.410527643941 2871.18454373024 14 17 8
61.0674094690151 199.143049307858 2880.44348393078 12 15 6
63.6042152058875 198.536731301409 2868.69311107507 16 19 10
52.3399154994872 198.130507359773 2869.17116757992 18 21 12
31.201887043431 197.876528764983 2878.54897263872 18 21 12
32.9386639093174 197.278654695062 2867.45372118036 17 20 11
30.0859696324616 196.748384820079 2860.44261530428 14 17 8
22.6834724128571 196.288999918419 2857.54442795301 14 17 8
3.99355632025467 196.013913303994 2864.99141062848 15 20 13
-10.1177226109153 195.67036722525 2868.3463896053 16 21 14
-24.1817271741973 195.330733045271 2871.73565859483 17 22 15
-29.987940123432 194.854390662132 2867.52419814913 21 24 17
-42.4932044715547 194.494678256153 2869.57325622722 21 24 15
-42.3457024354768 193.914687973458 2859.79636384827 17 20 11
-51.8519222144145 193.505002137764 2859.07850474123 17 18 10
-40.6843019311043 192.718906986187 2838.76226547577 17 18 10
-45.0625852348745 192.211874326109 2833.11571299289 18 19 11
-44.3181872827887 191.607018521614 2822.53606614684 19 20 12
-59.6966240851422 191.307899374711 2827.44304810695 17 17 7
-61.9003732782062 190.757346471855 2819.66694252753 17 18 10
-64.8539816759024 190.219356974249 2812.58264275023 20 23 14
-65.6530729833753 189.636109034739 2803.35456478375 22 25 16
-68.6506652077619 189.094608632488 2796.2383624084 17 20 11
-59.4270269325001 188.297479909048 2776.98290646985 17 20 11
-90.4931037819909 188.34009237417 2797.69218148849 18 21 14
-86.3425451766573 187.645029116087 2783.4057986495 19 22 15
-73.6941978415984 186.75897152754 2760.45705933006 17 20 13
-85.3412777463454 186.396382361909 2761.89288794814 17 20 13
-86.3197977996528 185.798860072132 2752.53466595222 17 19 14
-77.4357295439583 184.97430742826 2733.03320402916 18 20 15
-72.1680165039136 184.223210449411 2717.08601872389 19 21 16
-78.911738832022 183.745063237686 2713.42996520939 18 21 14
-66.0484490711828 182.803125845595 2689.40172257008 18 21 14
-96.5767749127142 182.890362592252 2710.50105080134 18 21 14
-5.2943717637377 179.35375050697 2592.62169557588 22 25 18
186.384728371811 194.474959791158 2848.9875774124 24 29 23
177.148849244228 194.02334395274 2847.23044499995 21 26 19
149.95016566255 193.863574322464 2860.86136883984 22 25 18
116.633102822843 193.815924019387 2879.93810440001 8 11 4
111.451779465841 193.313208008506 2874.9444695387 8 11 4
99.2891744420081 192.928585953897 2876.00647139518 8 11 2
87.1604650713782 192.546779927404 2877.09335367479 16 19 10
38.8415969579508 192.80371041272 2909.99929712254 17 20 11
49.1720472979913 192.038398860986 2891.54635403054 13 16 7
61.7080491759845 191.22377374651 2870.98690264669 15 18 9
58.8548406347589 190.681856974277 2863.97536497556 17 20 11
35.4103895899156 190.523248132831 2875.38708250947 17 20 11
27.2610294119437 190.084216600028 2873.18261798385 15 18 9
14.5785246410464 189.733883551324 2875.10294372825 11 14 5
11.7541001098247 189.194425560517 2868.11228465447 12 15 6
-6.15224340304454 188.952958280208 2874.89242947461 15 20 13
-11.9738759926036 188.474731956202 2870.66978146004 16 21 14
-19.2941348448581 188.027132311598 2867.83127015095 15 20 13
-21.3805950206585 187.471585784024 2860.14016458952 20 23 16
-28.7008098536945 187.024064385237 2857.30168558724 23 26 17
-45.6612147796052 186.783618179501 2863.53223554212 17 20 11
-57.3772220689617 186.436141781404 2864.91846825429 18 19 11
-43.2372158462371 185.523159105035 2841.815596809 19 20 12
-38.0440918202927 184.797412193361 2827.0497998449 18 19 11
-38.784888231965 184.199014504006 2817.863904356 16 17 9
-46.1378348327799 183.749055147924 2815.00139057096 17 17 9
-44.7357460253441 183.096264334725 2803.66323843231 17 20 11
-49.9195905526619 182.594098346599 2798.66777870681 21 24 15
-73.2224674750515 182.524627359553 2811.41761447343 20 23 14
-89.1973918250659 182.288762346194 2817.12784138144 17 20 11
-59.7428243991969 180.943777398896 2777.95206130005 17 20 11
-59.9406005798522 180.313550800457 2767.92432043932 16 19 12
-43.7130501112364 179.265340246967 2741.39392289562 14 17 10
-41.893808095991 178.570444634749 2729.12292412149 15 18 11
-62.8861818345436 178.460607526945 2739.84208412768 20 23 16
-66.0593416030721 177.8936448904 2732.59848012154 21 23 18
-64.3026529702093 177.193813289778 2720.28181558679 20 22 17
-77.3943606347434 176.887949629293 2723.14105777321 20 22 17
-82.0131753058295 176.356136450359 2717.32001345076 18 21 14
-82.439927343082 175.707718716815 2707.1261909633 22 25 18
-110.826222727098 175.836128006576 2726.07312696884 15 18 11
7.62407174729418 171.124207586429 2579.71273500226 24 27 20
213.531949523273 186.375756808053 2826.63196315267 24 29 22
184.619657208967 186.30775810614 2841.49119354829 24 29 22
144.887783466004 186.465152224188 2865.79991084092 16 22 12
130.292642623457 186.140777641885 2868.80422509947 25 31 21
96.3081078135728 186.213257396764 2888.63303557255 11 14 7
91.9407270569055 185.694516955538 2882.99432727652 11 14 7
92.9753094817549 185.062424426537 2872.62490338825 13 16 9
71.6137323720716 184.898546882986 2881.84110963685 15 18 11
30.3531149103637 185.169286983048 2908.74758646712 15 18 11
42.947666437203 184.293096876205 2888.23026713441 15 18 11
43.2072873366356 183.677005321187 2878.53417477514 14 17 10
25.9022712450547 183.448553526768 2884.51526397274 13 16 7
21.5806620643946 182.933697434703 2878.90946166694 14 17 8
21.7952705752089 182.313984668545 2869.18101500144 15 18 9
28.0177698016875 181.551135586492 2853.92591505213 15 18 9
8.55651837354587 181.384431331014 2862.04932588897 16 19 12
4.94645563281093 180.8485713594 2855.72419576464 16 19 12
-12.9071150307998 180.65485036195 2862.54283859377 16 19 12
-21.7307689302366 180.247898541419 2861.08476327859 18 21 14
-26.8155502070373 179.750203024365 2856.16113926132 18 21 14
-29.6787314052192 179.196268922375 2849.14231132819 18 21 14
-41.4419031252729 178.866334670907 2850.49414791541 16 19 12
-44.3161382606796 178.31158722447 2843.46730262754 17 20 13
-35.4376605337339 177.448937425725 2825.19663167049 18 21 14
-21.51380799067 176.443677396375 2801.9368928839 17 20 13
-28.1863588282845 175.974992517673 2798.33248103032 16 17 11
-60.3742664110833 176.195983901333 2819.46445716292 17 20 13
-56.0597460739509 175.436177949437 2805.29660574791 14 19 12
-70.6498920056726 175.192751953323 2809.53998757367 15 20 13
-64.2360819984402 174.366739165541 2793.18821632628 17 22 15
-52.8563103323056 173.391630519941 2771.78977610596 17 22 15
-53.7908241012173 172.758003336684 2762.46327232633 15 18 11
-31.1332945045943 171.436067613832 2729.47650430927 16 19 12
-23.6403287801141 170.539830435769 2711.43631263584 14 17 10
-60.3432085532942 170.947573050309 2737.94208036359 14 17 10
-68.487067294416 170.517903959662 2735.74165136957 17 20 13
-51.8717547604353 169.336641968389 2708.25634578432 21 22 16
-62.1830643051657 168.967859537035 2708.19039821462 21 22 16
-68.9556114700283 168.491910254048 2704.51346009375 21 23 18
-73.623641084084 167.950195478168 2698.6566886553 23 25 20
3.89617110499563 163.338660144671 2584.38167366588 20 22 17
242.99436603219 178.693770175976 2812.13227432236 0 2 0
204.514972677594 178.906592940232 2834.87914887639 17 22 15
180.329939917507 178.811852585498 2845.7543264266 20 25 18
193.780968054061 177.857250670657 2824.6221569889 18 24 14
129.9203672516 178.701865154576 2869.73171180857 25 31 21
110.707182300663 178.521704508609 2876.80014101728 11 13 8
97.7712980927281 178.198580208077 2878.53692441806 10 12 7
102.657923229278 177.446063606046 2864.78384090347 11 13 8
108.252980185453 176.669408166403 2850.30915583644 13 16 9
73.8018953495678 176.884109561066 2871.03551124885 13 16 9
26.4794472273007 177.441090957335 2903.42996952363 12 15 8
19.9083926361987 176.982363867559 2899.89947938037 11 14 7
38.4951096031676 175.873424823389 2873.84365327044 12 15 6
23.4979539606215 175.628167965267 2877.79197579712 13 16 7
33.5615241046869 174.7247385921 2859.14516043858 16 19 10
28.4185872749019 174.218769601704 2854.17933631308 17 20 11
31.5583231557075 173.487578348081 2841.63007677203 17 20 13
16.6139279600577 173.246815136288 2845.61696371086 16 19 12
-7.26737183428261 173.259927889451 2857.94790669637 16 19 12
-32.5379475038785 173.323638272535 2871.74235797369 17 20 13
-34.6107032963381 172.740756428838 2864.06104855345 18 21 14
-24.0848187873073 171.793205151591 2844.51411462901 17 20 13
-21.7995450589648 171.074412265766 2832.58053666789 17 20 13
-36.5393278171249 170.850770105626 2836.7158382508 17 20 13
-16.6417908888814 169.602862493381 2807.90414523727 17 20 13
-30.6478736787248 169.357277857009 2811.33617381298 16 19 12
-45.3378675978473 169.137897764977 2815.50729549905 14 17 10
-65.0809674606236 169.079831610613 2824.6622697703 18 23 16
-75.2898054874682 168.734712143485 2824.67072584834 17 22 15
-69.5265733070443 167.89034233389 2809.08228049755 17 22 15
-58.053896445371 166.856384666557 2787.75089115427 19 24 17
-76.3683822634662 166.092398574022 2785.58667288793 18 21 14
-40.7456370782087 164.243099958493 2739.76356895775 16 19 12
-61.0579694479543 164.221128924359 2749.74111389477 13 16 9
-67.7623813269714 163.752708245177 2746.11360663055 14 17 10
-63.8223606503439 162.923782440204 2731.67392231374 16 19 12
-64.8955647409803 162.259443310416 2722.24672339803 20 21 15
-43.4407613810173 160.811091942714 2689.6224697736 19 20 14
-60.1099363041069 160.677150985031 2696.06497251979 23 25 20
-83.7195976224578 160.796487671489 2709.82840670796 22 24 19
-84.1736473791992 160.101061015216 2699.61485188865 23 25 20
-33.8438060649668 157.567071482263 2636.04186390212 17 19 14
200.037834337766 172.048554272065 2848.89052914598 135 140 134
202.573008196216 171.319058787474 2837.13805491153 0 2 0
216.03950930139 170.296634459734 2816.01705310212 13 18 11
196.545230720519 170.139283735489 2822.8815325994 14 20 10
152.165891686183 170.659818950942 2851.23385123098 14 20 10
112.667161460298 171.070953231487 2875.71286447861 13 15 10
105.154305182224 170.6219700755 2872.73472817756 12 14 9
103.063055916392 170.022878139724 2865.03993033649 9 11 6
103.262249882495 169.356750299251 2855.30007423705 11 14 7
95.7355215385891 168.906662864757 2852.31158170903 12 15 8
26.8734019099455 170.223661272719 2903.67899797626 14 17 10
57.0027480926703 168.698569186422 2867.46183487346 12 15 8
46.5177251318023 168.345854785819 2867.27004012892 13 16 7
39.0988777081485 167.904745884248 2864.35979826031 15 18 9
13.4956408109859 168.011646236992 2877.91331508014 17 20 11
27.3074302060659 166.932629506819 2855.807002363 17 20 11
19.1492345007731 166.515988118292 2853.59624618556 17 20 13
26.0314014157474 165.633425151597 2837.58371041803 16 19 12
-0.876788834519804 165.803497073184 2852.66192641497 15 18 11
-24.6747071970517 165.888836405694 2865.05368022172 16 19 12
-29.0030780068378 165.361618206808 2859.44291365016 16 19 12
-34.8265571923354 164.881808436372 2855.21891897831 15 18 11
-31.0258215815691 164.086632700266 2841.91347152473 17 20 13
-22.1159660218677 163.115662738841 2823.6649983653 19 22 15
-37.583433645314 162.949796280025 2828.50811493432 19 22 15
-28.7791836470284 161.970241218472 2810.18304256446 15 18 11
-45.6702473068529 161.857718376682 2816.46480191702 14 17 10
-69.06079027086 161.97707530451 2829.1520431498 17 22 15
-78.5300810447307 161.623600823853 2828.46153386526 17 22 15
-45.9284494442533 159.791517022905 2786.62392504316 17 22 15
-48.9784579811892 159.199767577076 2779.4694704429 17 22 15
-57.0912093935019 158.787771052109 2777.29168133043 17 22 15
-67.3470180978495 158.455051946142 2777.26615017222 18 21 14
-51.0788677843568 157.153276835401 2750.76389996805 18 21 14
-56.3674891034656 156.633165409481 2745.69209993592 17 20 13
-73.0500399853626 156.5385052651 2752.12510512917 17 20 13
-91.0865032338371 156.502868341618 2760.04700257661 17 20 13
-80.7547974343417 155.394396782209 2739.12315816248 17 18 12
-72.6411804285734 154.359064509572 2720.29714867494 17 18 12
-77.2696515139417 153.808572890339 2714.46871512469 24 26 21
-76.3022362908568 153.037203643065 2702.8148582052 19 21 16
-73.9830145852509 152.206849678152 2689.67058262625 19 21 16
-41.7760450207343 150.173237279676 2645.0757808313 35 37 32
221.869822708173 163.122308432614 2821.44226896924 0 2 0
231.365168939154 162.143566459903 2803.61819112564 22 27 20
214.173637512266 161.957939254643 2808.44643358732 0 2 0
193.141935625267 161.895888914827 2816.6672525704 12 17 10
127.073624123527 163.227114444916 2863.8845544118 16 18 13
110.988187138256 163.04468692037 2868.27960791725 13 15 10
107.33520979001 162.478644901559 2861.92321520007 8 10 5
105.982079719105 161.838111145617 2853.52824917546 9 12 5
81.5276796092546 161.934194017557 2865.4441597717 14 17 10
55.6435337989898 162.08855153436 2878.79428010542 15 18 11
54.3444147559771 161.452542633563 2870.43849074685 15 18 11
55.3055221105758 160.738779986674 2860.01538953687 16 19 10
52.4242891553342 160.148478167017 2852.98329129015 17 20 11
33.6032671702267 160.092911157264 2860.33634441628 17 20 11
14.8556621259521 160.043473860334 2867.74294457484 17 20 11
8.99578299169512 159.559878874692 2863.49254363046 17 20 13
4.63804970100679 159.024068630613 2857.86044804946 16 19 12
-1.22833361823949 158.540028881197 2853.60532982977 15 18 11
-7.09587531853262 158.055947565836 2849.34937166438 16 19 12
-27.1187052969646 158.077688263497 2858.3019678425 16 19 12
-41.1168161702944 157.891840652072 2861.73978353341 15 18 11
-39.5159611598739 157.143229548231 2850.54523590851 14 17 10
-39.4369953724818 156.4453014807 2840.71806276211 20 23 16
-43.0749423709218 155.881186545652 2834.37257562733 22 25 18
-42.3234061626676 155.150767421711 2823.79746745255 17 20 13
-48.1984816723882 154.666493990473 2819.53604689483 15 18 11
-66.4769151218585 154.656398702538 2827.2826643531 16 21 14
-89.0456195282887 154.820928685291 2839.3308660764 16 21 14
-52.777309966423 152.704918414606 2793.97439459273 16 21 14
-22.5493260875353 150.795366569736 2754.12138433182 15 20 13
-41.5528993682099 150.813839688661 2762.57780826203 15 20 13
-59.04106766439 150.781261303157 2769.66215528448 18 21 14
-22.7352369796248 148.580711884928 2723.09741882689 19 22 15
-52.389838527825 149.041930859375 2742.36165500288 20 23 16
-101.833560155537 150.336847790146 2781.86793999076 20 23 16
-88.5548367336639 149.055442627836 2758.13913460694 17 20 13
-88.8388739047723 148.328719646448 2748.04866701715 18 19 13
-85.6327122371441 147.449664924538 2734.31177535974 17 18 12
-88.8126494849546 146.83655087924 2727.06272997123 19 22 15
-87.8060685949242 146.040483997989 2715.43713998116 24 27 20
-64.4871881684803 144.266860531182 2680.4574381487 26 29 22
247.45683692258 153.131431320646 2780.6543549851 0 2 0
207.604165036241 153.747849159719 2804.87782817127 5 10 3
141.485180437222 155.285309750746 2852.05914614726 13 15 10
117.599730085597 155.402673467102 2863.15257172771 12 14 9
123.987413475308 154.475505634143 2848.01638499667 11 13 8
119.503085574819 153.922923161414 2842.29272780374 12 15 8
113.470422182088 153.424277739148 2837.91699562957 12 15 8
92.0951187192842 153.476344956487 2847.12434515465 10 13 6
62.3928008239925 153.840566188638 2863.88313168421 18 21 14
48.8421912998924 153.630023205853 2866.4101889372 19 22 13
36.0948232303362 153.394979012111 2868.28437232995 19 22 13
28.6942519085032 152.965283087884 2865.38743700657 17 20 11
16.7645656503348 152.706967256949 2866.61922088996 16 19 10
1.85346463613145 152.56602975271 2870.63074912834 16 19 12
1.27662450086818 151.881983169854 2861.56298073765 16 19 12
8.16284662494127 150.90544310804 2845.55290866522 16 19 12
-0.720161790388474 150.535346752902 2844.05199267497 17 20 13
-10.3318906733709 150.196030505401 2843.2582986796 18 21 14
-30.3232976800991 150.272017618283 2852.23394880929 17 20 13
-36.1587326439889 149.790216183628 2848.00127705036 14 17 10
-48.6418574257716 149.577512140233 2850.06712919891 20 23 16
-52.2507252667086 149.007052748155 2843.74269003006 19 22 15
-47.0645057079686 148.072319839959 2828.97053483804 14 17 10
-49.2646094616225 147.43657174921 2821.19693486205 14 17 10
-67.5410930132445 147.47281639389 2828.94520056377 16 22 12
-88.6536523559256 147.638437481603 2839.5786307107 16 22 12
-77.7619896813473 146.44810421944 2819.06029633972 16 22 12
-64.0803053000312 145.124715895641 2795.62339330203 14 20 10
-60.6111302076162 144.230472191242 2782.07708875405 14 20 10
-47.8574364657953 142.921553682945 2759.20257541915 20 23 14
-20.8899759087013 140.968820788957 2721.92616449255 15 18 9
-28.4115034021597 140.530553704499 2718.94179652143 18 21 12
-87.4424585147555 141.656504327387 2757.6730076068 19 22 13
-67.9130256762428 139.998841042066 2727.35735596043 19 20 12
-90.1648827491197 140.253054690399 2739.63570134313 19 20 12
-93.3288265704455 139.629835580686 2732.39849322367 18 21 14
-44.634972855599 136.563971068401 2671.34225322563 13 16 9
-64.0725353089522 136.687394750809 2680.71963736727 17 20 13
242.361864279807 144.743251084166 2775.68308169144 8 13 6
169.909195760713 146.717106923395 2828.15636391888 9 14 7
176.206038176848 145.737966264493 2812.95406137484 10 12 7
160.764480671864 145.585227204259 2816.58099060534 12 14 9
137.658416302338 145.735833753748 2827.00454146944 14 17 10
136.961512519475 145.021814991074 2817.84958456332 12 15 8
119.3534106957 144.971139770367 2823.61186091887 6 9 2
80.3891925851712 145.778467273695 2848.48036020277 17 20 13
53.8183264833054 146.111248464201 2862.56860272204 18 21 12
23.5616517994388 146.607862555927 2880.16152588716 19 22 13
-3.52159764324456 146.992086124303 2895.11392245988 17 20 11
8.84238257421499 145.765180558684 2874.4273861444 16 19 10
-0.767992790834615 145.438945837104 2873.63473960357 16 19 12
9.94278643555679 144.262884284749 2854.22038787898 16 19 12
6.31232568340767 143.681519886373 2847.88024031197 16 19 12
1.17256101516183 143.162836000566 2842.91665135061 18 21 14
-18.1323491306464 143.253418183832 2851.15470052603 18 21 14
-26.9565784324648 142.898750753824 2849.69676739715 18 21 14
-46.8769004217524 143.032284075276 2858.72394557888 18 21 14
-59.3282873886483 142.846369797921 2860.81294084221 19 22 15
-71.0046624279892 142.630911719622 2862.22857251702 12 15 8
-31.2491399870722 140.10859306353 2814.45755704429 11 14 7
-43.7431244283304 139.919366916852 2816.51536123709 13 16 9
-58.3883159850425 139.833487324501 2820.71993179517 15 21 11
-68.6157515549506 139.550712451466 2820.71522190502 16 22 12
-83.8959493590838 139.506181696104 2825.69470895185 15 21 11
-89.7177665663853 139.025617875187 2821.47191526405 13 19 9
-75.3515984316557 137.590587151603 2797.29531250983 13 19 9
-63.266596357487 136.248195627003 2775.17121187326 19 22 13
-46.99292430613 134.689996414786 2748.67137117906 14 17 8
-71.8363781243285 134.325064484528 2752.89239905623 21 24 15
-77.0999008248236 133.797569207753 2747.83875614771 20 23 14
-68.9207202461719 132.601311149931 2729.05945997252 19 20 12
-74.2372549200054 132.069681030025 2723.96766108643 20 21 13
-61.9744309765775 130.649147187976 2700.73674040533 24 27 20
-20.3779065316323 127.718763239726 2646.88772539088 20 23 16
-60.1633671844441 128.92880081255 2677.33840585859 16 19 12
209.240422355081 137.503554011603 2794.86549236989 2 7 1
187.488058913128 137.632838072192 2803.79989418776 9 11 6
141.928209990225 138.01096516598 2823.88490595334 15 18 11
93.8007964231646 137.790214308569 2837.16516088512 9 12 5
68.7144890503459 138.126339042364 2849.85953538644 12 15 6
33.0861144188774 138.9410959346 2872.20556095921 15 18 9
2.17945609486847 139.567670353615 2890.56299201613 18 21 12
-11.1859959994218 139.42633723189 2893.22462440303 18 21 12
13.2014484363516 137.584090962564 2861.48927309559 19 22 15
6.5797056148531 137.1324221863 2857.92207372412 19 22 15
0.711293020702275 136.646604959975 2853.66547543647 20 23 16
-6.6532509421835 136.230021442079 2850.79472353137 19 22 15
-11.7740647249753 135.709721303088 2845.84486428467 18 21 14
-30.2778896609199 135.819009073338 2853.42869534302 17 20 13
-50.9310699499304 136.040012763485 2863.16038306419 13 16 9
-64.8481205854949 135.95000702158 2866.65774098635 12 15 8
-75.0345903719833 135.686253098884 2866.68252993469 12 15 8
-82.9926145324551 135.317514463847 2864.61712501886 11 14 7
-55.0607032194328 133.190226370593 2828.03898087113 13 16 9
-25.1424258052784 130.937883986742 2789.19475811202 18 21 14
-49.2979614256286 131.352055276572 2802.56426424155 15 21 11
-61.7349465406063 131.192026713373 2804.66383083093 13 19 9
-74.8566473178487 131.071918826146 2807.50227125948 13 19 9
-81.4446318296906 130.624049879743 2803.95926877698 15 21 11
-80.120575033422 129.769537987837 2792.56352781111 20 23 14
-63.0725422413738 128.093321374793 2765.38940333291 17 20 11
-52.5978079394376 126.741778706921 2744.56801212949 17 20 11
-67.8707167070702 126.733654862014 2749.55296756262 18 21 12
-78.8263960714393 126.503913053336 2750.25564345649 18 21 12
-70.6375121654141 125.253073492516 2731.48310496432 20 21 13
-51.9518749610166 123.423559360961 2701.79022850309 20 21 13
-49.6029214152383 122.46173269441 2688.66654575742 17 20 13
-56.4253146606184 121.995531208357 2684.95352252352 19 22 15
-56.2532353850684 121.143350840428 2673.95803138432 24 27 20
180.918615861509 130.256682277019 2810.11641613136 19 21 16
232.810856733855 127.106598349913 2755.08373301744 12 14 9
153.94905408138 129.113001196726 2804.1460986201 15 18 11
124.054369349062 128.91954025496 2810.8817275664 11 14 7
109.562885702609 128.810948780047 2813.96227812254 8 11 2
57.0713809705046 130.520029495027 2851.26155239336 10 13 4
22.2979197817756 131.412812393819 2872.99297603046 18 21 12
19.4656791972005 130.780563490188 2865.99588645151 19 22 13
12.8428073072415 130.330939088179 2862.42787894937 20 23 16
3.21484127516536 130.029645862425 2861.62231241518 20 23 16
-7.89208014265608 129.804514452556 2862.21537306942 19 22 15
9.44514064967317 128.161961123255 2836.48638876159 18 21 14
-16.5970038663494 128.685933487763 2850.95888126291 15 18 11
-23.194190355277 128.238737994204 2847.40921148202 15 18 11
-34.9763090826398 128.05726603026 2848.74835944707 14 17 10
-67.4148830181798 128.945392853354 2869.7020013636 11 14 7
-72.4360517749032 128.430316883149 2864.82410890725 11 14 7
-42.9391058028876 126.107238633154 2826.90942680918 11 14 7
-97.8744280184534 128.210574675326 2869.84963686578 13 16 9
-87.5329133697282 126.882925716807 2850.16712402526 15 21 11
-39.4361583877656 123.518858518766 2793.61696495147 15 21 11
-43.9197275809868 122.949464459572 2787.89347813061 14 20 10
-69.3960209145812 123.521169368965 2802.77670448171 14 20 10
-74.5567368633231 122.99517685473 2797.79759599333 15 21 11
-71.0934859768351 121.99201073103 2784.24644514852 20 23 14
-66.2548362279385 120.904303916536 2769.22184881787 20 23 14
-82.2101183559982 120.974063527329 2774.94756836371 17 20 11
-85.992012018218 120.364151184769 2768.49749924748 15 18 9
-85.5262677095436 119.510374415689 2757.7145895948 16 19 10
-78.7284765515122 118.287536559277 2740.40412785179 19 20 12
-54.3638151802925 116.037447185543 2704.9447904443 20 21 13
-59.04099885139 115.45318967185 2699.08087307017 18 21 12
-83.3695217611625 116.021684541161 2713.56079533042 23 26 17
165.805021842846 123.345008894169 2823.82773974499 48 50 45
190.653042386562 121.320202250214 2792.42534518309 0 1 0
189.074114507858 120.575897890084 2783.86616789027 8 11 4
158.982461872083 121.245466572167 2800.34426400267 15 18 11
156.662173052662 120.541851418566 2792.48319554757 8 11 4
168.863275473553 119.102236464123 2771.67750822638 11 14 7
24.210517048826 124.056807418024 2871.87183125536 16 19 10
19.1042841661049 123.53084782771 2866.93251334806 17 20 11
13.2381008405189 123.044076064512 2862.67752626984 15 18 11
12.6371702699117 122.279104032021 2853.5918843051 15 18 11
24.0056240833386 120.872942682947 2833.41838727111 14 17 10
5.35609235676748 121.062252822139 2840.89699769647 13 16 9
-5.01691213020972 120.814663395663 2840.78664553594 13 16 9
4.70965323802952 119.4767563728 2821.89332750842 13 16 9
-13.8265205319534 119.675697849294 2829.45416232031 11 14 7
-70.722319665615 122.003857352624 2873.4446873309 10 13 6
-82.9521572807088 121.092344051919 2865.80973115771 13 16 9
-56.4690374435974 118.795654452401 2830.65054235673 15 18 11
-75.4592186012695 119.059490007013 2839.11791733181 15 21 11
-74.7125774898298 118.202913594657 2828.53862158534 15 21 11
-63.8442365335308 116.756167424546 2808.00208202114 15 21 11
-41.4992858163914 114.627350015951 2776.01966851797 15 21 11
-73.5718417425892 114.828884311659 2787.35428498654 17 20 11
-72.3073357976598 113.913687669458 2775.91506695744 18 21 12
-86.1001334321119 113.894407292304 2779.50256229269 18 21 12
-101.983407366862 114.008221475582 2785.28070525968 18 21 12
-81.57280306647 111.924021202155 2754.36663648802 16 19 10
-76.1996439663837 110.737375815854 2738.49368514345 16 17 9
-75.8404803862134 109.849887352715 2727.63334208976 16 17 9
-62.1492378994024 108.128011081248 2702.96631287751 18 21 12
-92.0834392413041 109.119517643658 2723.26558383647 19 22 13
174.808531343717 114.45265264519 2806.84207157217 0 1 0
215.748459182597 111.450104447775 2761.16255549781 18 21 14
149.386660796333 114.124633571784 2809.40864868301 7 10 3
202.379218366919 110.443856797943 2752.70084730327 13 16 9
186.12588709681 110.458021641718 2756.9751864377 12 15 8
156.950207994274 111.18324959673 2772.88253660818 13 16 9
12.4604655221749 117.444784318455 2883.08253539694 16 19 10
26.3107264810531 115.866050393425 2861.00158037132 16 19 10
21.9341931065933 115.292542252797 2855.35566526111 15 18 11
35.6065703752408 113.699143853829 2833.14568427375 14 17 10
34.1583460490558 112.949173043791 2824.68152255084 13 16 9
-0.979274618314596 114.124226984626 2847.38513112098 13 16 9
0.600212530239119 113.205989789028 2836.17423428741 13 16 9
8.82727481701728 111.895337567679 2818.66440026151 14 17 10
-21.5856255590783 112.833313103488 2837.38134430024 11 14 7
-63.6823614803306 114.480274879018 2867.39407621426 9 12 5
-104.090252482391 116.057637999921 2896.1603675856 10 13 6
-54.6410279021732 112.293422283364 2839.35357912638 15 18 11
-49.4816708170172 111.148208935582 2824.56088462906 16 19 12
-44.389688892184 109.997547806802 2809.71961532311 15 21 11
-69.9507251319123 110.709242471039 2824.54182433174 15 21 11
-41.6672141752579 108.126369263595 2786.98121801157 15 21 11
-36.0306811591431 106.916297048188 2771.2990733779 16 22 12
-8.09531229386318 104.304817177999 2733.48594652759 15 21 11
-64.5407730890186 106.964841811207 2779.03964900196 16 19 10
-69.7561682607162 106.428156927894 2774.02114269602 16 19 10
-76.4069397233786 105.982266244401 2770.43263463322 19 22 13
-89.46964413028 105.948517900765 2773.31428021778 20 23 14
-81.1711774707096 104.540497830755 2754.620384452 18 21 12
-45.334419274462 101.326727610386 2707.71047517387 17 18 10
-38.0067290005779 99.9433701630248 2689.54800443895 15 16 8
-97.6424632045478 102.968778769417 2740.20166910657 16 19 10
-87.4677612820183 101.402347362292 2719.16168957448 23 26 17
-69.0008532929252 99.2654607729503 2689.30869473507 34 37 28
214.725509514357 104.577742240288 2772.7374373061 3 5 0
212.31032448612 103.837617622206 2764.80709715939 5 8 1
177.459647558997 104.064399127929 2775.36295893764 16 19 12
183.484534360407 102.84069625566 2759.96227120884 15 18 11
97.8081694488173 106.924642862983 2826.32756455635 8 11 4
57.6443378967548 107.572145192896 2842.91482018021 21 24 15
45.6312022214291 107.435306237427 2844.0864306275 19 22 13
38.9355115003314 106.986294773854 2840.4656383053 13 16 9
18.6968033237789 107.351083028261 2849.26318289701 12 15 8
23.303377020929 106.225392044586 2835.30519391559 10 13 6
1.66062002008704 106.689108778085 2845.55578237836 10 13 6
6.21895024936148 105.559539407394 2831.56280103272 10 13 6
-9.36788384288056 105.664828736706 2836.32075975862 11 14 7
-18.2241839034869 105.359858569398 2834.83953510168 10 13 6
-42.5913756576461 106.028463799846 2848.05689594092 9 12 5
-58.0031607287006 106.148516554275 2852.94182621768 8 11 4
-52.778843887515 104.966969039855 2838.1960383941 17 20 13
-22.706890901683 102.187450438796 2799.46084256205 18 21 14
-30.8421590189314 101.835125708981 2797.26673838201 14 20 10
-42.6075726443869 101.719948571706 2798.61833202831 15 21 9
-38.3625850539349 100.565204056127 2784.39807439965 16 22 10
-12.4608438626796 97.9782589747402 2748.81596160982 16 22 10
-22.1213194689871 97.71514749507 2747.98731606657 15 21 9
-67.7393632900451 99.8506373119239 2782.86036547864 16 19 8
-72.2261054145092 99.263566310208 2777.13478347203 15 18 7
-67.4254309623754 98.0478782691257 2762.08171531116 18 21 10
-77.6641380126692 97.8448892388486 2762.06923861535 20 23 12
-56.6044090729783 95.5028670287869 2730.38939159959 20 23 12
-41.3814663002208 93.5377611821818 2704.36083039453 19 21 10
-51.0141201140661 93.2778893509291 2703.55236987184 18 20 9
-63.4422063794533 93.216755718105 2705.65888834952 23 26 17
169.471983400884 98.6129853108853 2802.89326304307 12 17 10
232.634259347198 93.9179334035918 2737.49591595525 15 20 13
197.080953071764 95.1601803264415 2758.66348887343 12 17 11
147.140688716542 97.3059659188125 2792.87398274211 11 16 10
112.724372287046 98.5323852172814 2813.63066706494 12 15 8
92.9387919000062 98.8756671842847 2821.5215480987 9 12 5
83.1024161316512 98.609642218727 2820.56537401671 19 22 13
80.1011966768193 97.9173981077478 2813.445778638 19 22 13
34.8049127748915 99.8970855670206 2844.84588514786 11 14 7
22.1038457682625 99.8351062479966 2846.75450977695 10 13 6
8.69085366882771 99.8244798634415 2849.38234145497 12 15 8
3.55240999564543 99.2863518294441 2844.41961162268 13 16 9
-4.57588100212769 98.9417271324559 2842.23089878466 13 16 9
-20.1315842593879 99.0847424496854 2847.01161600677 12 15 8
-8.18640897707956 97.4254625741979 2826.01928899494 10 13 6
4.39139939469113 95.7084315220122 2804.25053653745 11 14 7
-46.5532666456767 98.2137659800063 2842.67488589225 9 12 5
-28.1271572697315 96.0990735448359 2815.26250094365 16 19 12
-22.3075502243479 94.8150335445927 2799.71299039639 17 20 13
-25.3280843849146 94.1221553337575 2792.57909568643 15 18 9
-33.4671273748457 93.7773765312772 2790.38258771926 15 18 9
-40.1415101033567 93.3335115861563 2786.77726808375 16 19 10
-38.846798815422 92.3366920072453 2775.35923863912 17 20 11
-50.592212519522 92.2450013230069 2776.72544961874 17 20 11
-81.7358015180163 93.5242895787548 2797.38479843305 17 20 11
-86.1778809634224 92.9349416279614 2791.69128734543 15 18 9
-68.4552044154436 90.7628749540206 2763.768678316 17 20 11
-46.6004215390927 88.2714779705575 2731.42909514732 19 22 13
-44.8240597414724 87.2050792129331 2719.12512985165 22 25 16
-12.6231483311676 83.9166639162555 2675.75461717657 22 25 16
-35.0613974697571 84.594446691616 2687.89998843416 22 25 16
-22.7683992676093 81.7529313486313 2653.56782554888 17 20 13
-68.8793536495631 84.2200357457671 2690.55560100477 36 39 30
132.658895933576 94.1982608627421 2845.35136620268 4 10 0
194.610842893749 89.3819220891893 2781.54608471961 6 11 4
178.358345039357 89.501318499625 2785.82156103352 4 9 2
212.867721897262 86.3669108932997 2745.36061541202 23 28 22
126.117932027626 90.1364274716734 2802.3003220909 12 15 8
99.4372438607982 90.9744521877436 2816.31151140963 9 12 5
88.8231730044606 90.7701945488609 2816.02691905441 18 21 12
47.1857539017582 92.6298197122836 2843.90332897907 17 20 11
52.5694078566579 91.3775389397823 2829.27268975175 11 14 7
36.0520319297959 91.5886666324774 2834.59194604139 10 13 6
35.3597557147074 90.7373385547134 2825.43994273618 12 15 8
