ply
format ascii 1.0
comment KinectMotionCapture
element vertex 760
property float x
property float y
property float z
property uchar red
property uchar green
property uchar blue
end_header
60.3521838784218 652.671158313751 2559.00001525879 165 166 161
67.3573464155197 653.176069259644 2561.00010871887 161 162 157
74.2571353912354 652.660250663757 2559.00001525879 157 158 153
81.2410563230515 652.90892124176 2559.99994277954 154 155 150
88.195763528347 652.902126312256 2559.99994277954 151 152 147
95.1502323150635 652.894675731659 2559.99994277954 147 148 143
102.104477584362 652.886807918549 2559.99994277954 145 146 141
109.015844762325 652.623236179352 2559.00001525879 140 141 136
115.921519696712 652.359247207642 2558.00008773804 136 135 130
122.677341103554 651.329457759857 2553.99990081787 153 152 147
129.614144563675 651.319444179535 2553.99990081787 151 150 145
136.604085564613 651.563823223114 2555.0000667572 135 134 129
143.542930483818 651.552736759186 2555.0000667572 116 115 110
150.30474960804 650.776147842407 2552.00004577637 122 121 116
156.680181622505 648.468911647797 2542.99998283386 138 137 133
162.813395261765 645.396292209625 2530.99989891052 159 158 154
168.948113918304 642.578423023224 2519.99998092651 157 156 152
175.092428922653 640.015065670013 2509.99999046326 161 160 156
181.616827845573 638.981223106384 2506.00004196167 166 165 161
188.269451260567 638.45682144165 2503.99994850159 160 159 154
194.988682866096 638.187050819397 2503.00002098084 155 154 149
201.218336820602 636.38699054718 2496.00005149841 159 158 153
207.492783665657 634.841501712799 2490.00000953674 167 168 163
213.992387056351 634.060561656952 2486.99998855591 169 170 165
220.741450786591 634.043991565704 2486.99998855591 178 179 174
227.58150100708 634.281933307648 2487.99991607666 163 164 159
234.520599246025 634.774327278137 2490.00000953674 157 157 155
241.470038890839 635.266304016113 2492.00010299683 169 171 168
248.429775238037 635.757863521576 2493.99995803833 171 173 170
255.502134561539 636.503756046295 2496.99997901917 191 193 190
263.220429420471 638.778686523438 2506.00004196167 181 186 182
271.310180425644 641.817808151245 2517.99988746643 183 188 184
-436.217844486237 821.380198001862 3257.99989700317 209 208 204
-425.027549266815 816.87206029892 3240.00000953674 158 155 150
-414.576351642609 813.62372636795 3226.99999809265 172 165 157
-405.200868844986 812.391936779022 3221.99988365173 181 174 164
-396.466940641403 812.420427799225 3221.99988365173 107 97 87
-386.64910197258 810.179054737091 3213.00005912781 129 116 107
-377.584993839264 809.450030326843 3210.00003814697 184 170 159
-368.306547403336 808.216214179993 3204.99992370605 186 172 161
-359.278857707977 807.485997676849 3201.99990272522 90 77 68
-350.376129150391 807.007610797882 3200.00004768372 77 64 55
-340.949565172195 805.267691612244 3193.00007820129 100 87 78
-331.664323806763 803.779363632202 3187.00003623962 100 89 83
-322.106778621674 801.533758640289 3177.99997329712 103 98 92
-312.498718500137 799.035310745239 3167.99998283386 186 185 181
-302.7523458004 796.031594276428 3155.99989891052 177 178 173
-293.256849050522 793.531835079193 3145.99990844727 132 134 131
-284.357964992523 792.544841766357 3141.99995994568 146 148 147
-275.919020175934 792.818427085876 3142.99988746643 146 148 147
-267.644166946411 793.595969676971 3145.99990844727 150 152 151
-258.611172437668 792.102575302124 3140.00010490417 147 149 148
-249.530479311943 790.35621881485 3132.99989700317 133 133 131
-240.487203001976 788.609385490417 3125.99992752075 134 134 132
-232.00087249279 788.627743721008 3125.99992752075 134 135 130
-223.013430833817 786.879539489746 3118.99995803833 140 140 138
-213.375583291054 782.607614994049 3101.99999809265 142 142 140
-204.820618033409 782.119452953339 3099.99990463257 146 146 144
-196.402758359909 782.135307788849 3099.99990463257 150 150 148
-188.044995069504 782.402753829956 3101.0000705719 156 156 154
-178.812459111214 778.884947299957 3086.99989318848 169 169 167
-169.986799359322 776.880323886871 3078.9999961853 174 174 172
-161.256656050682 775.127291679382 3072.00002670288 181 181 179
-152.862772345543 774.887561798096 3071.00009918213 191 191 189
-144.144520163536 772.880673408508 3062.99996376038 198 198 196
-108.50828140974 756.519556045532 2997.99990653992 212 217 213
-99.7606217861176 751.985847949982 2980.00001907349 206 211 207
-91.4488583803177 750.227153301239 2973.00004959106 194 196 193
-83.2870677113533 749.477207660675 2970.00002861023 177 179 176
-74.9640837311745 746.960163116455 2960.00003814697 159 161 158
-54.0845803916454 686.153471469879 2719.00010108948 205 205 203
-46.2670028209686 679.848670959473 2694.00000572205 199 199 197
-38.7297347187996 676.066696643829 2678.99990081787 193 195 192
-31.3325859606266 673.546016216278 2668.99991035461 193 195 192
-23.9896960556507 671.02462053299 2658.99991989136 192 194 191
-16.73892326653 670.016884803772 2654.99997138977 193 195 192
-9.49549581855536 667.999088764191 2647.0000743866 191 193 190
-2.29551992379129 665.980637073517 2638.99993896484 190 192 189
4.85174404457211 662.699818611145 2625.99992752075 190 192 189
11.9420373812318 660.175561904907 2615.9999370575 189 191 188
18.9852342009544 657.903075218201 2607.00011253357 186 188 185
25.9894672781229 655.882358551025 2598.99997711182 183 185 182
32.9247191548347 653.356373310089 2588.99998664856 175 177 174
39.8518443107605 651.586949825287 2582.00001716614 171 172 167
46.7045120894909 649.312198162079 2572.99995422363 168 169 164
53.5916276276112 648.046314716339 2568.00007820129 166 167 162
60.4750066995621 647.032201290131 2563.99989128113 156 157 152
67.3628151416779 646.270036697388 2561.00010871887 154 155 150
74.2341279983521 645.507216453552 2558.00008773804 154 155 150
81.215888261795 645.75320482254 2559.00001525879 153 154 149
88.2373452186584 646.251142024994 2561.00010871887 151 152 147
95.2694192528725 646.748304367065 2562.99996376038 148 149 144
102.192483842373 646.488130092621 2562.00003623962 147 148 143
109.195031225681 646.731853485107 2562.99996376038 146 147 142
116.066783666611 646.218240261078 2561.00010871887 145 144 139
122.927360236645 645.703971385956 2559.00001525879 133 132 127
129.776760935783 645.189225673676 2556.99992179871 131 130 125
136.8288397789 645.683228969574 2559.00001525879 143 142 137
143.666699528694 645.167350769043 2556.99992179871 138 137 132
150.552242994308 644.903361797333 2555.99999427795 116 115 110
157.000660896301 642.87281036377 2548.00009727478 119 118 114
163.276553153992 640.337109565735 2538.00010681152 152 151 147
169.229537248611 636.791825294495 2523.9999294281 160 159 155
175.245627760887 633.750855922699 2512.00008392334 165 164 160
181.703448295593 632.475435733795 2506.99996948242 168 167 163
188.359260559082 631.956577301025 2505.00011444092 159 158 153
195.159614086151 631.941735744476 2505.00011444092 155 154 149
201.556324958801 630.664944648743 2500 162 161 156
207.67542719841 628.631114959717 2492.00010299683 167 168 163
214.008748531342 627.353668212891 2486.99998855591 168 169 164
220.580726861954 626.832604408264 2484.99989509583 177 178 173
227.59872674942 627.572298049927 2487.99991607666 166 167 162
234.444096684456 627.807080745697 2489.00008201599 161 161 159
241.294339299202 628.041326999664 2490.00000953674 167 169 166
248.0498701334 628.022968769073 2490.00000953674 172 174 171
255.418807268143 629.517495632172 2496.00005149841 185 187 184
263.23989033699 632.02041387558 2506.00004196167 191 196 192
271.976679563522 636.540174484253 2523.9999294281 170 175 171
-435.043007135391 810.347199440002 3249.00007247925 198 198 196
-423.745334148407 805.638194084167 3230.00001907349 185 187 184
-417.046666145325 809.658527374268 3246.00005149841 199 200 195
-408.248066902161 809.687733650208 3246.00005149841 188 189 183
-399.940848350525 810.714185237885 3250 172 169 162
-391.009330749512 810.493052005768 3249.00007247925 186 181 175
-380.670785903931 807.277798652649 3236.00006103516 196 189 183
-371.091485023499 805.558741092682 3229.00009155273 90 83 75
-361.998200416565 804.836988449097 3226.0000705719 68 61 55
-352.372825145721 802.86717414856 3217.99993515015 156 149 143
-342.042654752731 799.150407314301 3203.00006866455 174 169 165
-332.521557807922 797.179281711578 3194.9999332428 173 168 164
-323.144435882568 795.457124710083 3187.99996376038 188 187 182
-314.29785490036 794.981956481934 3186.00010871887 210 211 206
-304.022371768951 790.763258934021 3168.99991035461 195 197 192
-294.304519891739 787.791430950165 3157.00006484985 181 186 182
-284.832119941711 785.318076610565 3147.0000743866 190 194 193
-276.466876268387 785.838544368744 3148.9999294281 190 194 193
-268.090099096298 786.358416080475 3151.00002288818 178 182 181
-259.372413158417 785.879611968994 3148.9999294281 176 180 179
-250.266641378403 784.152269363403 3141.99995994568 164 166 163
-241.813763976097 784.420907497406 3142.99988746643 167 169 166
-232.909619808197 783.191561698914 3138.00001144409 169 171 166
-223.388403654099 779.715180397034 3124.00007247925 169 171 168
-213.667511940002 775.239646434784 3105.99994659424 172 174 171
-205.299288034439 775.505721569061 3107.00011253357 176 178 175
-197.305291891098 777.268767356873 3114.00008201599 181 183 180
-188.666343688965 776.535272598267 3111.00006103516 187 189 186
-83.2657888531685 741.217374801636 2969.00010108948 204 206 203
-74.7675448656082 736.97966337204 2951.99990272522 194 196 193
-53.9696253836155 677.322268486023 2713.00005912781 201 201 199
-46.2535955011845 672.333180904388 2693.00007820129 197 197 195
-38.7328937649727 668.841361999512 2678.99990081787 193 195 192
-31.2999188899994 665.598630905151 2665.99988937378 193 195 192
-23.973610252142 663.35391998291 2657.00006484985 192 194 191
-16.7276822030544 662.357032299042 2653.00011634827 193 195 192
-9.49268229305744 660.610377788544 2645.99990844727 191 193 190
-2.29222746565938 657.864570617676 2634.99999046326 189 191 188
4.84474981203675 654.618859291077 2621.99997901917 190 192 189
11.9293155148625 652.371108531952 2612.99991607666 189 191 188
19.0013516694307 651.371240615845 2608.99996757507 185 187 184
26.0115899145603 649.372100830078 2601.0000705719 181 183 180
32.9401232302189 646.623432636261 2589.99991416931 173 175 172
39.8242175579071 644.123792648315 2579.99992370605 168 169 164
46.7446260154247 642.872035503387 2575.00004768372 165 166 161
53.6586008965969 641.869306564331 2571.00009918213 160 161 156
60.5271086096764 640.616357326508 2565.99998474121 145 146 141
67.3945844173431 639.6124958992 2562.00003623962 147 148 143
74.298195540905 639.107525348663 2559.99994277954 150 151 146
81.254206597805 639.101147651672 2559.99994277954 151 152 147
88.3134007453918 639.843225479126 2562.99996376038 151 152 147
95.2771157026291 639.835774898529 2562.99996376038 150 151 146
102.240592241287 639.827847480774 2562.99996376038 148 149 144
109.203808009624 639.819324016571 2562.99996376038 147 148 143
116.121411323547 639.560580253601 2562.00003623962 146 145 140
123.033285140991 639.301419258118 2561.00010871887 140 140 132
129.99016046524 639.291286468506 2561.00010871887 130 130 122
136.946707963943 639.280676841736 2561.00010871887 131 130 125
143.846690654755 639.019787311554 2559.99994277954 140 139 134
150.740906596184 638.758540153503 2559.00001525879 133 132 127
157.444432377815 637.747883796692 2555.0000667572 116 115 111
163.611114025116 634.739935398102 2542.99998283386 152 151 147
169.309914112091 630.234003067017 2525.00009536743 160 159 157
175.119802355766 626.476526260376 2509.99999046326 166 165 163
181.645169854164 625.464260578156 2506.00004196167 167 166 162
188.449129462242 625.44983625412 2506.00004196167 160 159 154
195.408448576927 625.93400478363 2507.99989700317 156 155 150
201.813787221909 624.67086315155 2503.00002098084 164 163 158
207.941383123398 622.658431529999 2494.99988555908 168 169 164
214.025110006332 620.645761489868 2486.99998855591 168 169 164
220.775082707405 620.629191398621 2486.99998855591 177 178 173
227.798983454704 621.360778808594 2490.00000953674 166 167 162
234.650194644928 621.59276008606 2490.9999370575 163 163 161
241.215586662292 621.075809001923 2489.00008201599 164 166 163
247.968792915344 621.057450771332 2489.00008201599 173 175 172
255.437821149826 622.785270214081 2496.00005149841 182 184 181
263.469457626343 625.760018825531 2507.99989700317 194 199 195
271.673411130905 628.983736038208 2520.99990844727 171 176 172
-420.159816741943 806.823194026947 3269.99998092651 208 210 207
-410.918384790421 806.112468242645 3266.99995994568 190 192 187
-403.292208909988 808.608889579773 3276.99995040894 187 188 182
-395.49058675766 810.858368873596 3286.00001335144 197 196 191
-384.110033512115 805.704474449158 3265.00010490417 193 190 183
-374.566435813904 804.251313209534 3259.0000629425 83 78 72
-363.932460546494 800.329804420471 3243.00003051758 111 106 102
-354.150921106339 798.135042190552 3233.99996757507 198 193 189
-343.242645263672 793.224692344666 3213.99998664856 186 182 179
-331.505417823792 786.092340946198 3184.99994277954 197 196 192
-312.742978334427 782.438278198242 3170.00007629395 212 213 208
-304.429084062576 783.201992511749 3173.00009727478 202 204 199
-294.886201620102 780.756294727325 3163.00010681152 201 206 202
-284.491747617722 775.841355323792 3142.99988746643 200 204 203
-275.873392820358 775.615870952606 3141.99995994568 206 212 210
-267.85546541214 777.117967605591 3148.00000190735 204 210 208
-258.733421564102 775.410175323486 3141.00003242493 203 209 207
-249.967396259308 774.689197540283 3138.00001144409 205 210 206
-61.84446439147 675.432443618774 2734.99989509583 218 220 217
-53.8944490253925 669.016242027283 2709.00011062622 202 202 200
-46.2058410048485 664.328038692474 2690.00005722046 196 196 194
-38.7360565364361 661.614894866943 2678.99990081787 193 195 192
-31.3024744391441 658.407151699066 2665.99988937378 192 194 191
-23.9755697548389 656.186759471893 2657.00006484985 192 194 191
-16.7101323604584 654.459774494171 2650.00009536743 191 193 190
-9.48269478976727 652.731955051422 2642.99988746643 187 189 186
-2.29241535998881 650.756776332855 2634.99999046326 185 187 184
4.846993368119 647.792994976044 2622.99990653992 185 187 184
11.9302915409207 645.322680473328 2612.99991607666 185 187 184
18.9810525625944 643.592715263367 2605.99994659424 182 184 181
26.023717597127 642.603039741516 2601.99999809265 177 179 176
32.9809710383415 640.377879142761 2592.99993515015 168 170 167
39.9200916290283 638.646185398102 2585.99996566772 165 166 161
46.8392036855221 637.160837650299 2579.99992370605 156 157 152
53.7464618682861 635.921955108643 2575.00004768372 155 156 151
60.5792142450809 634.188652038574 2568.00007820129 141 142 137
67.4526765942574 633.195579051971 2563.99989128113 138 139 134
74.3913054466248 632.942795753479 2562.99996376038 141 142 137
81.4195200800896 633.430421352386 2565.00005722046 146 147 142
88.3894637227058 633.423507213593 2565.00005722046 147 148 143
95.3219905495644 633.169114589691 2563.99989128113 144 145 140
102.288737893105 633.161127567291 2563.99989128113 143 144 139
109.255217015743 633.152663707733 2563.99989128113 146 147 141
116.312064230442 633.637428283691 2565.99998474121 145 144 139
123.235329985619 633.380949497223 2565.00005722046 142 142 134
130.254372954369 633.617699146271 2565.99998474121 141 141 133
137.118056416512 633.113145828247 2563.99989128113 134 133 128
144.082903862 633.101880550385 2563.99989128113 127 126 121
151.04740858078 633.090198040009 2563.99989128113 133 132 127
157.826647162437 632.337212562561 2561.00010871887 114 113 109
163.881376385689 628.867745399475 2546.99993133545 151 150 146
169.390276074409 623.669683933258 2526.00002288818 161 160 158
175.063803792 619.458973407745 2509.0000629425 167 166 164
181.804329156876 619.197964668274 2507.99989700317 163 162 158
188.614204525948 619.183599948883 2507.99989700317 160 159 155
195.501536130905 619.415521621704 2509.0000629425 157 156 151
201.748728752136 617.672026157379 2502.00009346008 166 165 160
207.707360386848 615.187525749207 2492.00010299683 168 169 164
214.041545987129 613.937020301819 2486.99998855591 167 168 163
220.969498157501 614.414095878601 2489.00008201599 177 178 173
228.273749351501 615.878045558929 2494.99988555908 165 166 161
234.856367111206 615.366816520691 2493.00003051758 163 163 161
241.621404886246 615.348815917969 2493.00003051758 161 163 160
248.28627705574 615.083575248718 2492.00010299683 173 175 172
255.66154718399 616.545617580414 2497.99990653992 178 180 177
263.173848390579 618.254065513611 2505.00011444092 190 195 191
271.15461230278 620.94908952713 2516.00003242493 176 181 177
-388.843983411789 806.658267974854 3305.0000667572 162 161 156
-375.972986221313 798.387348651886 3270.99990844727 107 106 101
-61.578132212162 665.12256860733 2723.00004959106 208 208 206
-53.7993535399437 660.486280918121 2703.9999961853 202 202 200
-46.1580753326416 656.337857246399 2687.00003623962 197 197 195
-38.7681424617767 654.875814914703 2680.99999427795 193 195 192
-31.3402600586414 651.947438716888 2668.99991035461 192 194 191
-24.013627320528 649.995565414429 2661.00001335144 191 193 190
-16.692578792572 646.577537059784 2647.0000743866 190 192 189
-9.47629474103451 645.112991333008 2641.00003242493 186 188 185
-2.28912243619561 642.670750617981 2631.00004196167 183 185 182
4.84739057719707 640.71649312973 2622.99990653992 183 185 182
11.9267031550407 638.028860092163 2611.99998855591 183 185 182
18.9826041460037 636.561989784241 2605.99994659424 180 182 179
26.0158404707909 635.33878326416 2601.0000705719 176 178 175
32.983660697937 633.382201194763 2592.99993515015 166 168 165
39.96966406703 632.402241230011 2588.99998664856 162 163 158
46.8793399631977 630.688786506653 2582.00001716614 151 152 147
53.792592138052 629.46343421936 2576.99990272522 154 155 150
60.6549233198166 627.993226051331 2571.00009918213 146 147 142
67.6160231232643 627.743661403656 2569.9999332428 140 141 136
74.571505188942 627.493619918823 2569.00000572205 140 141 136
81.5530940890312 627.487301826477 2569.00000572205 144 145 140
88.4310901165009 626.747727394104 2565.99998474121 144 145 140
95.4040661454201 626.740276813507 2565.99998474121 140 141 136
102.336890995502 626.487970352173 2565.00005722046 140 141 136
109.306626021862 626.47944688797 2565.00005722046 145 146 141
116.366729140282 626.958847045898 2566.99991226196 142 141 136
123.341307044029 626.949191093445 2566.99991226196 145 144 139
130.518615245819 627.916038036346 2571.00009918213 137 136 131
137.449890375137 627.660989761353 2569.9999332428 135 134 129
144.375398755074 627.405643463135 2569.00000572205 134 133 128
151.295095682144 627.149701118469 2568.00007820129 124 123 118
158.147305250168 626.648962497711 2565.99998474121 100 99 95
164.344772696495 623.705685138702 2553.99990081787 142 141 137
169.806003570557 618.319988250732 2532.00006484985 164 163 161
175.356641411781 613.666594028473 2513.00001144409 172 172 170
181.963548064232 612.920045852661 2509.99999046326 160 160 158
188.704133033752 612.661421298981 2509.0000629425 158 157 153
195.360854268074 612.158060073853 2506.99996948242 156 155 151
201.441779732704 609.945118427277 2497.99990653992 166 167 162
207.556664943695 607.975959777832 2490.00000953674 167 168 163
214.144021272659 607.471406459808 2487.99991607666 165 166 161
221.163973212242 608.187198638916 2490.9999370575 176 177 172
228.291109204292 609.146595001221 2494.99988555908 165 166 161
234.779953956604 608.396708965302 2492.00010299683 165 165 163
241.445764899254 608.13444852829 2490.9999370575 160 162 159
248.205274343491 608.116090297699 2490.9999370575 175 177 174
255.680650472641 609.806060791016 2497.99990653992 176 178 175
263.193428516388 611.495614051819 2505.00011444092 179 184 180
271.066874265671 613.91681432724 2515.00010490417 186 191 187
-400.362521409988 802.780210971832 3325.99997520447 173 175 172
-61.5379177033901 657.291889190674 2720.99995613098 205 207 204
-53.7838451564312 652.948439121246 2703.00006866455 200 202 199
-46.0931248962879 648.121237754822 2683.00008773804 195 197 194
-38.6845357716084 646.192133426666 2674.99995231628 195 197 196
-31.319335103035 644.262433052063 2667.00005531311 193 195 194
-23.9975396543741 642.332136631012 2658.99991989136 189 191 188
-16.6813302785158 638.951897621155 2644.99998092651 189 191 188
-9.45553928613663 636.537194252014 2634.99999046326 186 188 185
-2.28756945580244 635.088264942169 2628.99994850159 185 187 184
4.84963553026319 633.880376815796 2624.00007247925 184 186 183
11.9459433481097 631.947100162506 2615.9999370575 182 184 179
18.9914423972368 629.771709442139 2607.00011253357 177 179 174
26.0179676115513 628.320455551147 2601.0000705719 175 177 172
33.0118015408516 626.868605613709 2595.00002861023 165 167 162
40.0038100779057 625.899374485016 2591.00008010864 161 162 157
46.9557978212833 624.687969684601 2585.99996566772 150 149 145
53.9013519883156 623.717546463013 2582.00001716614 149 148 144
60.7778243720531 622.263550758362 2575.99997520447 151 150 146
67.7793845534325 622.258305549622 2575.99997520447 144 143 139
74.6936798095703 621.527910232544 2572.99995422363 137 136 132
81.6867053508759 621.521532535553 2572.99995422363 143 142 138
88.5761007666588 620.789885520935 2569.9999332428 143 142 138
95.5976918339729 621.024072170258 2571.00009918213 140 139 135
102.504752576351 620.532929897308 2569.00000572205 144 143 139
109.485894441605 620.524346828461 2569.00000572205 138 137 133
116.466768085957 620.5153465271 2569.00000572205 143 144 139
123.495355248451 620.747208595276 2569.9999332428 140 139 135
130.579844117165 621.220111846924 2572.00002670288 139 138 133
137.514382600784 620.967924594879 2571.00009918213 139 136 131
144.4993019104 620.956659317017 2571.00009918213 135 132 125
151.424929499626 620.703339576721 2569.9999332428 133 130 123
158.344730734825 620.449542999268 2569.00000572205 113 110 105
164.679512381554 618.021607398987 2559.00001525879 122 121 116
170.154690742493 612.695276737213 2536.99994087219 161 162 157
175.719320774078 608.09314250946 2517.99988746643 172 174 169
182.122796773911 606.630206108093 2512.00008392334 159 161 158
188.794061541557 606.132745742798 2509.99999046326 159 159 157
195.376038551331 605.393350124359 2506.99996948242 155 155 153
201.376706361771 602.963149547577 2496.99997901917 181 183 180
207.489296793938 601.015627384186 2489.00008201599 164 166 163
213.988333940506 600.274980068207 2486.00006103516 168 170 167
221.092075109482 601.22412443161 2490.00000953674 165 167 164
228.125497698784 601.93133354187 2493.00003051758 175 177 174
234.797745943069 601.672351360321 2492.00010299683 159 161 158
241.560950875282 601.654291152954 2492.00010299683 163 165 162
248.323559761047 601.635873317719 2492.00010299683 168 170 167
255.802154541016 603.307008743286 2499.00007247925 181 183 180
263.42311501503 605.218946933746 2506.99996948242 175 180 176
271.625876426697 608.33740234375 2519.99998092651 185 190 186
-398.706018924713 790.462613105774 3312.00003623962 170 172 169
-70.0033754110336 659.975409507751 2763.00001144409 213 215 212
-61.4976957440376 649.470806121826 2719.00010108948 205 207 204
-53.7484288215637 645.175874233246 2700.99997520447 200 202 199
-46.0968837141991 640.880405902863 2683.00008773804 196 198 195
-38.716621696949 639.45060968399 2677.00004577637 195 197 196
-31.3453823328018 637.542545795441 2668.99991035461 193 195 194
-24.0085255354643 635.394930839539 2660.00008583069 189 191 188
-16.6700799018145 631.335854530334 2642.99988746643 188 190 187
-9.44195780903101 628.470480442047 2631.00004196167 186 188 185
-2.28253519162536 626.559913158417 2622.99990653992 184 186 183
4.84263803809881 625.843226909637 2619.99988555908 184 186 183
11.9469203054905 624.887108802795 2615.9999370575 182 184 179
19.0294217318296 623.930335044861 2611.99998855591 176 178 173
26.0501056909561 622.017562389374 2604.00009155273 173 175 170
33.0399423837662 620.342969894409 2596.99988365173 160 162 157
40.0070697069168 618.906795978546 2591.00008010864 160 159 155
46.9777807593346 617.94775724411 2586.99989318848 151 150 146
53.9475046098232 617.227137088776 2584.00011062622 144 143 139
60.9007552266121 616.505801677704 2581.00008964539 154 153 149
67.8112134337425 615.545094013214 2576.99990272522 154 153 149
74.7868418693542 615.300476551056 2575.99997520447 147 146 142
81.7568227648735 615.05526304245 2575.00004768372 139 138 134
88.7556299567223 615.048408508301 2575.00004768372 140 139 135
95.7541614770889 615.040898323059 2575.00004768372 142 141 137
102.752462029457 615.032970905304 2575.00004768372 140 139 135
109.75044965744 615.024328231812 2575.00004768372 142 141 137
116.702817380428 614.776313304901 2573.99988174438 137 137 135
123.745553195477 615.005552768707 2575.00004768372 138 137 133
130.742609500885 614.995360374451 2575.00004768372 138 137 133
137.79279589653 615.223407745361 2575.99997520447 139 136 131
144.735634326935 614.973425865173 2575.00004768372 132 129 122
151.731610298157 614.961624145508 2575.00004768372 129 126 119
158.727139234543 614.949285984039 2575.00004768372 119 116 109
165.207386016846 613.025963306427 2566.99991226196 104 103 98
170.36934196949 606.564879417419 2539.99996185303 167 168 163
175.872683525085 601.775228977203 2519.99998092651 172 174 169
182.137027382851 599.85089302063 2512.00008392334 160 162 159
188.883975148201 599.597632884979 2510.99991798401 157 159 156
195.391237735748 598.627507686615 2506.99996948242 157 159 156
201.472952961922 596.463024616241 2497.99990653992 182 184 181
207.588672637939 594.537138938904 2490.00000953674 163 165 162
214.004769921303 593.565881252289 2486.00006103516 167 169 166
220.931380987167 594.026684761047 2487.99991607666 167 169 166
227.776810526848 594.248354434967 2489.00008201599 171 173 170
234.532862901688 594.230771064758 2489.00008201599 160 162 159
241.385295987129 594.451546669006 2490.00000953674 161 163 160
248.242542147636 594.671785831451 2490.9999370575 162 164 161
255.514144897461 595.846593379974 2496.00005149841 188 190 187
263.442724943161 598.453104496002 2506.99996948242 175 180 176
272.508352994919 603.446125984192 2528.00011634827 178 183 179
-61.6836585104465 644.020915031433 2726.99999809265 205 207 204
-53.872212767601 639.302253723145 2707.00001716614 201 203 200
-46.2209172546864 635.291457176209 2690.00005722046 197 199 196
-38.7776307761669 633.169412612915 2680.99999427795 195 197 196
-31.3596874475479 630.574405193329 2670.00007629395 193 195 194
-23.9834096282721 627.50655412674 2657.00006484985 189 191 188
-16.6714396327734 624.201714992523 2642.99988746643 188 190 187
-9.44631733000278 621.604859828949 2631.99996948242 185 187 184
-2.28272192180157 619.479835033417 2622.99990653992 184 186 183
4.83564008027315 617.826521396637 2615.9999370575 184 186 183
11.9387619197369 617.353498935699 2614.00008201599 182 184 179
19.0236903727055 616.643786430359 2611.00006103516 174 176 171
26.0622370988131 615.224897861481 2605.00001907349 172 174 169
33.0553613603115 613.569259643555 2598.00004959106 157 159 154
40.0257743895054 612.149238586426 2592.00000762939 158 157 153
47.0179319381714 611.437261104584 2588.99998664856 152 151 147
54.035410284996 611.196935176849 2588.00005912781 142 141 137
60.9764978289604 610.247552394867 2584.00011062622 154 153 149
67.8693577647209 609.061539173126 2578.9999961853 157 156 152
74.8509839177132 608.819603919983 2578.00006866455 153 152 148
81.8904563784599 609.049379825592 2578.9999961853 138 137 133
88.9696255326271 609.514772891998 2581.00008964539 139 138 134
95.9850326180458 609.507322311401 2581.00008964539 143 142 138
103.040091693401 609.735429286957 2582.00001716614 139 138 134
110.015049576759 609.490752220154 2581.00008964539 143 142 138
116.938918828964 609.009265899658 2578.9999961853 138 138 136
123.947717249393 608.999669551849 2578.9999961853 138 137 133
130.854621529579 608.517110347748 2576.99990272522 137 136 132
137.803807854652 608.270287513733 2575.99997520447 139 136 131
144.747167825699 608.022928237915 2575.00004768372 133 130 123
151.861488819122 608.48343372345 2576.99990272522 131 128 121
158.986285328865 608.943283557892 2578.9999961853 119 116 109
165.477886795998 607.041537761688 2571.00009918213 96 95 90
170.65104842186 600.653350353241 2543.99991035461 173 174 169
175.956293940544 595.209419727325 2520.99990844727 172 174 169
182.151287794113 593.070566654205 2512.00008392334 156 158 155
188.898697495461 592.819929122925 2510.99991798401 156 158 155
195.406377315521 591.86065196991 2506.99996948242 159 161 158
201.569214463234 589.956641197205 2499.00007247925 182 184 181
207.521304488182 587.580144405365 2489.00008201599 162 164 161
213.849008083344 586.383521556854 2483.99996757507 167 169 166
220.770686864853 586.839020252228 2486.00006103516 169 171 168
227.611124515533 587.057948112488 2486.99998855591 169 171 168
234.550639986992 587.512493133545 2489.00008201599 162 164 161
241.500437259674 587.966620922089 2490.9999370575 161 163 160
248.460546135902 588.420271873474 2493.00003051758 159 161 158
255.430847406387 588.873326778412 2494.99988555908 192 194 191
263.46230506897 591.686248779297 2506.99996948242 177 182 178
272.097289562225 595.678567886353 2523.9999294281 173 178 174
-69.9640661478043 644.591271877289 2760.99991798401 212 214 211
-61.7112815380096 636.892259120941 2727.9999256134 204 206 203
-53.8766011595726 631.994247436523 2707.00001716614 201 203 200
-46.2934151291847 628.963232040405 2694.00000572205 198 200 197
-38.7518629431725 625.464677810669 2678.99990081787 194 196 195
-31.3152559101582 622.432351112366 2665.99988937378 190 192 189
-23.9131450653076 618.465602397919 2648.9999294281 188 190 187
-16.6475661098957 616.132497787476 2638.99993896484 186 188 185
-9.44350007921457 614.265859127045 2631.00004196167 185 187 184
-2.28203763253987 612.165033817291 2621.99997901917 184 186 183
4.83233761042356 610.297203063965 2614.00008201599 185 187 184
11.9260335341096 609.596133232117 2611.00006103516 181 183 178
19.0106686204672 609.127879142761 2608.99996757507 171 173 168
26.0843746364117 608.659148216248 2607.00011253357 171 173 168
33.0835022032261 607.022345066071 2599.99990463257 156 158 153
40.0599278509617 605.61865568161 2594.00010108948 155 154 150
47.0399223268032 604.681193828583 2589.99991416931 152 151 147
54.018922150135 603.976607322693 2586.99989318848 146 145 141
61.0050559043884 603.505074977875 2585.00003814697 147 146 142
67.901186645031 602.332532405853 2579.99992370605 153 152 148
74.9731957912445 602.79369354248 2582.00001716614 155 154 150
81.9923505187035 602.787256240845 2582.00001716614 145 144 140
89.0802517533302 603.247344493866 2584.00011062622 140 139 135
96.0671603679657 603.006362915039 2582.99994468689 142 141 137
103.208027780056 603.698670864105 2585.99996566772 142 141 137
110.151767730713 603.223204612732 2584.00011062622 140 139 135
117.084354162216 602.747201919556 2582.00001716614 141 141 139
124.101839959621 602.737545967102 2582.00001716614 135 134 130
131.220564246178 603.194236755371 2584.00011062622 133 132 128
138.189285993576 602.950036525726 2582.99994468689 133 130 125
145.03975212574 602.238476276398 2579.99992370605 131 128 121
152.109280228615 602.460145950317 2581.00008964539 131 128 121
159.307137131691 603.14804315567 2584.00011062622 126 123 116
165.748417377472 601.034462451935 2575.00004768372 100 99 94
170.99991440773 594.952583312988 2549.00002479553 170 171 166
176.249295473099 589.337289333344 2525.00009536743 165 167 162
182.310536503792 586.755812168121 2513.99993896484 156 158 155
188.838168978691 585.807800292969 2509.99999046326 154 156 153
195.343598723412 584.859311580658 2506.00004196167 163 165 162
201.584815979004 583.210349082947 2499.00007247925 183 185 182
207.453891634941 580.627381801605 2487.99991607666 161 163 160
213.951528072357 579.911112785339 2484.99989509583 166 168 165
220.609918236732 579.661130905151 2483.99996757507 168 170 167
227.536931633949 580.110788345337 2486.00006103516 167 169 166
234.474167227745 580.559909343719 2487.99991607666 170 172 169
241.518676280975 581.24190568924 2490.9999370575 162 164 161
248.479202389717 581.690192222595 2493.00003051758 160 162 159
255.245178937912 581.671297550201 2493.00003051758 186 188 185
263.0615234375 583.985209465027 2503.00002098084 185 190 186
271.254926919937 586.998462677002 2516.00003242493 167 172 168
-69.7923451662064 635.520756244659 2753.99994850159 211 213 210
-61.6936758160591 629.295468330383 2726.99999809265 204 206 203
-53.8212656974792 623.992562294006 2703.9999961853 200 202 199
-46.228438615799 620.765864849091 2690.00005722046 198 200 197
-38.6537536978722 616.615474224091 2671.99993133545 194 196 195
-31.2590710818768 614.079892635345 2661.00001335144 190 192 189
-23.9150915294886 611.312866210938 2648.9999294281 188 190 187
-16.6615415364504 609.468400478363 2641.00003242493 186 188 185
-9.44427028298378 607.1617603302 2631.00004196167 185 187 184
-2.28396453894675 605.546772480011 2624.00007247925 183 185 182
4.83458023518324 603.469729423523 2615.00000953674 185 187 184
11.9224367663264 602.315127849579 2609.99989509583 181 183 178
18.983069807291 601.160109043121 2605.00001907349 169 171 166
26.0364655405283 600.465893745422 2601.99999809265 171 173 168
33.0480225384235 599.309623241425 2596.99988365173 157 159 154
40.0631837546825 598.614394664764 2594.00010108948 154 153 149
47.08007350564 598.149240016937 2592.00000762939 152 151 147
54.065078496933 597.452938556671 2588.99998664856 150 149 145
61.0808134078979 597.217500209808 2588.00005912781 143 142 138
68.0382996797562 596.519947052002 2585.00003814697 147 146 142
75.0663876533508 596.514165401459 2585.00003814697 153 152 148
82.0942595601082 596.507787704468 2585.00003814697 151 150 146
89.1563892364502 596.731662750244 2585.99996566772 142 141 137
96.2236821651459 596.954882144928 2586.99989318848 141 140 136
103.216342628002 596.716105937958 2585.99996566772 145 144 140
110.160626471043 596.246123313904 2584.00011062622 137 136 132
117.093726992607 595.775485038757 2582.00001716614 141 141 139
124.207906424999 596.2273478508 2584.00011062622 137 136 132
131.383374333382 596.90922498703 2586.99989318848 134 133 129
138.253793120384 596.206426620483 2584.00011062622 134 131 126
145.276173949242 596.195161342621 2584.00011062622 130 127 120
152.298167347908 596.183359622955 2584.00011062622 129 126 119
159.566342830658 597.093880176544 2588.00005912781 118 115 108
165.890216827393 594.543159008026 2576.99990272522 104 103 98
171.214610338211 588.762164115906 2552.00004577637 170 171 166
176.332905888557 582.750260829926 2526.00002288818 166 168 163
182.397320866585 580.198585987091 2515.00010490417 157 159 156
188.928097486496 579.261362552643 2510.99991798401 153 155 152
195.436716079712 578.323662281036 2506.99996948242 165 167 164
201.600387692451 576.462924480438 2499.00007247925 184 186 183
207.386493682861 573.679029941559 2486.99998855591 160 162 159
214.05403316021 573.432207107544 2486.00006103516 166 168 165
220.804423093796 573.415577411652 2486.00006103516 165 167 164
227.920353412628 574.321091175079 2490.00000953674 166 168 165
234.77466404438 574.534177780151 2490.9999370575 173 175 172
241.633832454681 574.74684715271 2492.00010299683 162 164 161
248.497843742371 574.95903968811 2493.00003051758 162 164 161
255.26425242424 574.940204620361 2493.00003051758 179 181 178
263.081043958664 577.227056026459 2503.00002098084 190 195 191
271.167159080505 579.97465133667 2515.00010490417 202 207 203
-69.4685205817223 625.118434429169 2740.9999370575 209 211 208
-61.6081729531288 621.018648147583 2723.00004959106 201 203 200
-53.7260994315147 615.549743175507 2698.99988174438 198 200 197
-46.0946969687939 611.676633358002 2681.99992179871 196 198 195
-38.5266914963722 607.346832752228 2663.00010681152 192 194 193
-31.2146227806807 605.981230735779 2657.00006484985 187 189 186
-23.9080097526312 603.930771350861 2648.00000190735 193 195 192
-16.662897542119 602.33598947525 2641.00003242493 182 184 181
-9.44503769278526 600.056290626526 2631.00004196167 185 187 184
-2.28502112440765 598.688364028931 2625 184 186 183
4.83682239428163 596.635580062866 2615.9999370575 185 187 184
11.9142718613148 594.810366630554 2608.00004005432 179 181 176
18.9846139401197 594.124913215637 2605.00001907349 166 168 163
26.0185692459345 592.982709407806 2599.99990463257 168 170 165
33.0379828810692 592.068016529083 2595.99995613098 161 163 158
40.0201044976711 590.924799442291 2591.00008010864 153 152 148
47.0475666224957 590.693056583405 2589.99991416931 151 150 146
54.069459438324 590.460956096649 2588.99998664856 150 149 145
61.0857605934143 590.228199958801 2588.00005912781 146 145 141
68.1227743625641 590.223073959351 2588.00005912781 145 144 140
75.1014947891235 589.761078357697 2585.99996566772 144 143 139
82.1326375007629 589.75476026535 2585.99996566772 161 160 156
89.1635790467262 589.747846126556 2585.99996566772 156 155 151
96.3430181145668 590.652525424957 2589.99991416931 138 137 133
103.304475545883 590.188503265381 2588.00005912781 146 145 141
110.254727303982 589.723885059357 2585.99996566772 138 137 133
117.239162325859 589.486658573151 2585.00003814697 137 137 135
124.313965439796 589.705109596252 2585.99996566772 139 138 134
131.495445966721 590.378940105438 2588.99998664856 137 136 132
138.53232562542 590.368270874023 2588.99998664856 137 134 129
145.681276917458 590.813040733337 2591.00008010864 131 128 121
152.663856744766 590.573132038116 2589.99991416931 128 125 118
159.825578331947 591.016888618469 2592.00000762939 118 115 108
165.967643260956 587.811887264252 2578.00006866455 115 114 109
171.295136213303 582.098364830017 2552.99997329712 176 177 172
176.486328244209 576.384723186493 2528.00011634827 168 170 165
182.556584477425 573.862731456757 2516.99995994568 150 152 149
188.942790031433 572.480380535126 2510.99991798401 152 154 151
195.373892784119 571.325540542603 2506.00004196167 166 168 165
201.454564929008 569.258391857147 2496.99997901917 184 186 183
207.402423024178 566.962957382202 2486.99998855591 160 162 159
214.070424437523 566.718757152557 2486.00006103516 165 167 164
220.910057425499 566.930115222931 2486.99998855591 163 165 162
227.937668561935 567.596971988678 2490.00000953674 165 167 164
234.698176383972 567.579448223114 2490.00000953674 174 176 173
241.652056574821 568.017363548279 2492.00010299683 161 163 160
248.416796326637 567.998945713043 2492.00010299683 163 165 162
255.283296108246 568.20809841156 2493.00003051758 173 175 172
262.995481491089 570.240020751953 2502.00009346008 192 197 193
271.295011043549 573.411047458649 2516.00003242493 203 208 204
-69.2967101931572 616.137206554413 2733.99996757507 209 211 208
-61.432134360075 611.860573291779 2714.99991416931 202 204 201
-53.5512864589691 606.231212615967 2690.00005722046 199 201 198
-45.9437444806099 602.403998374939 2673.00009727478 197 199 196
-38.486409932375 599.477648735046 2660.00008583069 193 195 194
-31.1819072812796 598.128199577332 2654.00004386902 186 188 185
-23.9099506288767 596.778273582459 2648.00000190735 192 194 191
-16.6768692433834 595.652997493744 2642.99988746643 182 184 181
-9.45298466831446 593.400359153748 2632.99989700317 185 187 184
-2.28520669043064 591.59791469574 2625 184 186 183
4.83536627143621 589.344084262848 2615.00000953674 184 186 183
11.9106695055962 587.540507316589 2607.00011253357 179 181 176
18.9934428781271 587.313890457153 2605.99994659424 166 168 163
26.0106697678566 585.734367370605 2598.99997711182 167 169 164
33.0406613647938 585.055947303772 2595.99995613098 162 164 159
40.0387905538082 584.15150642395 2592.00000762939 154 153 149
47.1240505576134 584.598779678345 2594.00010108948 150 149 145
54.1782677173615 584.59460735321 2594.00010108948 149 148 144
61.1851178109646 584.139227867126 2592.00000762939 147 146 142
68.2598948478699 584.359347820282 2592.99993515015 145 144 140
75.2237290143967 583.677470684052 2589.99991416931 143 142 138
82.2027996182442 583.220422267914 2588.00005912781 159 158 154
89.205227792263 582.988142967224 2586.99989318848 157 156 152
96.3879749178886 583.882212638855 2591.00008010864 139 138 134
103.352665901184 583.423435688019 2588.99998664856 144 143 139
110.391467809677 583.414912223816 2588.99998664856 143 142 138
117.429949343204 583.405733108521 2588.99998664856 135 135 133
124.516166746616 583.621442317963 2589.99991416931 139 138 134
131.607487797737 583.836615085602 2591.00008010864 138 137 133
138.596832752228 583.600521087646 2589.99991416931 137 134 129
145.861506462097 584.490656852722 2594.00010108948 133 130 123
152.793824672699 584.02818441391 2592.00000762939 134 131 124
159.961491823196 584.466516971588 2594.00010108948 129 126 119
166.045069694519 581.073999404907 2578.9999961853 117 116 111
171.375647187233 575.428068637848 2553.99990081787 170 171 166
176.709547638893 570.232510566711 2530.99989891052 165 167 162
182.643324136734 567.289710044861 2517.99988746643 151 153 150
189.032718539238 565.923571586609 2512.00008392334 155 157 154
195.311024785042 564.331710338593 2505.00011444092 184 186 183
201.470077037811 562.514126300812 2496.99997901917 178 180 177
207.501724362373 560.470938682556 2487.99991607666 164 166 163
214.086785912514 560.004353523254 2486.00006103516 163 165 162
221.104562282562 560.663461685181 2489.00008201599 164 166 163
228.046491742134 561.096906661987 2490.9999370575 167 169 166
234.715893864632 560.854196548462 2490.00000953674 169 171 168
241.476267576218 560.836315155029 2490.00000953674 165 167 164
248.435378074646 561.268389225006 2492.00010299683 161 163 160
255.609542131424 562.150478363037 2496.00005149841 160 162 159
263.435453176498 564.383327960968 2506.00004196167 186 191 187
271.854221820831 567.741692066193 2520.99990844727 195 200 196
-69.0488144755363 606.524527072906 2723.99997711182 207 209 206
-61.2334422767162 602.52183675766 2706.00008964539 203 205 202
-53.4162446856499 597.405254840851 2683.00008773804 201 203 200
-45.8958894014359 594.514667987823 2670.00007629395 197 199 196
-38.4605824947357 591.84604883194 2657.99999237061 194 196 195
-31.1609283089638 590.512871742249 2651.99995040894 184 186 183
-23.875767365098 588.733732700348 2644.00005340576 188 190 187
-16.659289598465 587.844729423523 2640.00010490417 179 181 178
-9.44656971842051 585.841715335846 2631.00004196167 185 187 184
-2.28277989663184 583.838164806366 2621.99997901917 185 187 184
4.83390921726823 582.056760787964 2614.00008201599 184 186 183
11.9162034243345 580.720067024231 2608.00004005432 178 180 175
19.0095603466034 580.718815326691 2608.00004005432 165 167 162
26.0327942669392 579.158306121826 2601.0000705719 166 168 163
33.0687947571278 578.487992286682 2598.00004959106 163 165 160
40.088377892971 577.816963195801 2595.00002861023 156 155 151
47.1460185945034 577.813446521759 2595.00002861023 149 148 144
54.1826449334621 577.586710453033 2594.00010108948 148 147 143
61.1664541065693 576.914072036743 2591.00008010864 149 148 144
68.2390704751015 577.131509780884 2592.00000762939 146 145 141
75.2588286995888 576.90304517746 2591.00008010864 143 142 138
82.3047012090683 576.896786689758 2591.00008010864 155 154 150
89.281365275383 576.444566249847 2588.99998664856 157 156 152
96.3956937193871 576.882421970367 2591.00008010864 143 142 138
103.400856256485 576.651751995087 2589.99991416931 141 140 136
110.485576093197 576.865971088409 2591.00008010864 149 148 144
117.530047893524 576.856851577759 2591.00008010864 138 138 136
124.670319259167 577.292442321777 2592.99993515015 137 136 132
131.770342588425 577.504932880402 2594.00010108948 139 138 134
138.714849948883 577.04895734787 2592.00000762939 138 135 130
145.985499024391 577.928245067596 2595.99995613098 130 127 120
152.982726693153 577.693819999695 2595.00002861023 133 130 123
160.159066319466 578.126668930054 2596.99988365173 131 128 121
166.186854243279 574.552178382874 2581.00008964539 122 121 116
171.590387821198 569.196403026581 2556.99992179871 172 173 168
176.862969994545 563.840389251709 2532.99999237061 164 166 161
182.875111699104 561.155200004578 2520.99990844727 151 153 150
189.197868108749 559.582769870758 2513.99993896484 157 159 156
195.248126983643 557.342052459717 2503.99994850159 181 183 180
201.324194669724 555.323600769043 2494.99988555908 174 176 173
207.517623901367 553.749978542328 2487.99991607666 162 164 161
214.189246296883 553.511261940002 2486.99998855591 162 164 161
221.032530069351 553.717315196991 2487.99991607666 164 166 163
227.605998516083 553.255200386047 2486.00006103516 166 168 165
234.356492757797 553.237736225128 2486.00006103516 169 171 168
241.494372487068 554.109990596771 2490.00000953674 168 170 167
248.65335226059 554.981827735901 2493.99995803833 164 166 163
255.730956792831 555.630624294281 2496.99997901917 156 158 155
263.244688510895 557.168960571289 2503.99994850159 174 179 175
271.550714969635 560.264348983765 2517.99988746643 192 197 193
-77.3049145936966 605.756878852844 2753.99994850159 207 212 208
-68.8769146800041 597.624361515045 2717.00000762939 206 208 205
-60.9441734850407 592.350602149963 2693.00007820129 202 204 201
-53.3010810613632 588.835775852203 2677.00004577637 201 203 200
-45.8136387169361 586.200296878815 2664.99996185303 196 198 195
-38.4492091834545 584.443926811218 2657.00006484985 193 195 194
-31.128192320466 582.687020301819 2648.9999294281 183 185 182
-23.8776952028275 581.589460372925 2644.00005340576 187 189 186
-16.6417043656111 580.051302909851 2637.00008392334 178 180 177
-9.44733433425426 578.732550144196 2631.00004196167 184 186 183
-2.28122295811772 576.313376426697 2619.99988555908 182 184 181
4.83244983479381 574.773490428925 2612.99991607666 181 183 180
11.9263036176562 574.112892150879 2609.99989509583 176 178 173
19.0183836966753 573.891699314117 2608.99996757507 163 165 160
26.0849446058273 573.229968547821 2605.99994659424 163 165 160
33.1351086497307 572.567641735077 2602.9999256134 165 167 162
40.153406560421 571.684896945953 2598.99997711182 160 159 155
47.186154872179 571.241438388824 2596.99988365173 149 148 144
54.2078949511051 570.797502994537 2595.00002861023 148 147 143
61.2185820937157 570.352852344513 2592.99993515015 151 150 146
68.2445541024208 570.127785205841 2592.00000762939 148 147 143
75.3229707479477 570.342004299164 2592.99993515015 145 144 140
82.3430567979813 570.115685462952 2592.00000762939 145 144 140
89.3574804067612 569.888889789581 2591.00008010864 155 154 150
96.3289812207222 569.441556930542 2588.99998664856 157 156 152
103.449039161205 569.873452186584 2591.00008010864 146 145 141
110.579662024975 570.304870605469 2592.99993515015 150 149 145
117.675483226776 570.515751838684 2594.00010108948 150 150 148
124.824471771717 570.945978164673 2595.99995613098 136 135 131
131.88236951828 570.935785770416 2595.99995613098 139 138 134
138.886362314224 570.70517539978 2595.00002861023 143 140 135
145.996987819672 570.913851261139 2595.99995613098 133 130 123
153.112649917603 571.122050285339 2596.99988365173 131 128 121
160.294994711876 571.549594402313 2598.99997711182 126 123 116
166.393041610718 568.238198757172 2584.00011062622 116 115 110
171.670883893967 562.507510185242 2558.00008773804 172 173 168
177.086219191551 557.656168937683 2536.00001335144 166 168 163
183.179497718811 555.223405361176 2525.00009536743 148 150 147
189.3630027771 553.230047225952 2516.00003242493 162 164 161
195.185169577599 550.356686115265 2503.00002098084 176 178 175
201.33963227272 548.582494258881 2494.99988555908 167 169 166
207.700327038765 547.467529773712 2490.00000953674 160 162 159
214.205548167229 546.791851520538 2486.99998855591 163 165 162
220.871612429619 546.555519104004 2486.00006103516 161 163 160
227.440044283867 546.098828315735 2483.99996757507 164 166 163
234.468400478363 546.7409491539 2486.99998855591 167 169 166
