ply
format ascii 1.0
comment KinectMotionCapture
element vertex 762
property float x
property float y
property float z
property uchar red
property uchar green
property uchar blue
end_header
192.015077649259 524.196594718997 2690.55067063472 171 172 174
190.674118586619 524.503562960597 2698.92177746547 171 172 174
186.179889951248 525.080922741053 2704.71652657361 166 167 169
180.099254639978 525.794500393396 2709.23197370091 163 164 166
177.20483990987 526.232946229029 2716.29243400734 162 163 165
176.72040340183 526.462599538176 2725.24167555261 164 165 167
173.856478048604 526.896700468372 2732.27250163221 166 167 169
171.807977063026 527.259535631497 2739.92104162751 160 161 163
169.775784098626 527.620020065297 2747.55373495348 156 157 159
169.373860475195 527.838357297453 2756.42271249581 151 152 154
166.569148606073 528.264079410303 2763.3959770959 165 166 168
164.587683722466 528.617608559631 2770.97932467574 203 203 205
160.184190206951 529.180817170489 2776.68606400523 197 197 199
156.599821425438 529.672424499866 2783.00655447883 160 160 162
150.574100234683 530.376117875535 2787.46926980645 167 167 169
145.363781883746 531.008577682472 2792.54971566834 162 162 164
137.692556222093 531.85554281083 2795.79110928068 153 153 155
134.12301002623 532.34441343187 2802.0976230339 154 152 155
128.913123308928 532.976111198611 2807.17775290641 154 152 155
127.009394053666 533.318277862916 2814.68558722848 154 152 155
122.636998107046 533.875928041864 2820.36192990417 186 186 188
119.099601072603 534.360067608774 2826.63721831259 185 185 187
113.906259451872 534.98903094611 2831.70132280709 152 152 154
108.713727272594 535.61771533401 2836.76466474287 146 146 148
104.357918670446 536.172655241947 2842.42493651717 144 144 146
100.844846564033 536.65316806132 2848.67660594416 174 174 176
97.3401116170662 537.132495465115 2854.91983381049 171 171 173
93.8440057399594 537.610663030809 2861.15500214844 152 152 154
90.3562362145371 538.087733735996 2867.38171663945 148 148 150
82.6483825755191 538.936928165424 2870.65915288505 142 142 144
77.4726309526845 539.562671533982 2875.7062661616 135 135 137
69.7490454004344 540.413629792239 2878.99940157846 159 161 160
62.8657992958659 541.190459739334 2882.88559510902 163 165 164
50.8549159604708 542.421644813397 2883.29466097254 148 150 149
43.9460772216078 543.201406274561 2887.20583509078 137 138 140
32.7436440943014 544.362352207248 2888.23938857873 148 149 151
20.6553873742781 545.602714775501 2888.72359308536 159 160 162
2.50876980342252 547.382437461425 2885.22541922002 150 151 153
-15.6953255471768 549.169094844134 2881.7829588525 139 141 140
-25.3059022360707 550.192588709834 2884.09024719804 172 174 171
221.12426203815 509.759567128069 2507.9070950199 203 205 204
218.601978840724 510.202238436917 2516.01430800789 195 197 196
216.848401555076 510.581879297532 2524.78474769435 183 183 183
212.851259444242 511.141048511635 2531.50548041081 168 168 168
206.592835935159 511.881992572675 2536.19342910348 173 173 173
200.331193070247 512.622916664976 2540.88491545744 181 181 183
194.066195658214 513.363791900631 2545.57974014728 187 187 189
187.797643924277 514.104685986749 2550.27775370322 181 181 183
180.761781891072 514.90752397375 2554.31199097205 184 182 185
169.887699756901 516.022240602698 2555.02631974079 162 160 161
160.52310797612 517.014796168927 2557.09357626141 128 126 127
145.749204038867 518.448538140506 2554.54811165168 126 126 124
132.473362326619 519.761458255385 2553.36706300218 132 133 128
114.515658062001 521.458177606698 2548.27665396998 136 137 132
154.627056396736 518.852374171501 2612.27239179521 144 146 143
167.927434348905 517.980933073151 2633.20190700595 161 163 160
175.83599326102 517.548767939004 2649.50161252552 162 164 161
179.88335999791 517.431334919453 2662.50413725431 165 166 168
183.190311821951 517.372658192275 2674.81597362285 165 166 168
187.33034846599 517.243129876678 2687.7282634434 169 170 172
187.560365511165 517.434384248518 2697.39062671265 171 172 174
184.644780957905 517.884403169532 2704.47039846946 175 176 178
179.355520343072 518.53014664187 2709.62727184642 166 167 169
174.864186120423 519.109395388929 2715.4185297295 157 158 160
172.775147389205 519.488721962521 2723.10488688222 154 155 157
171.503610402462 519.799220410794 2731.40687264435 155 156 158
171.858322195789 519.973310292062 2740.94794908957 160 161 163
170.630985291145 520.277853320304 2749.20692372526 161 162 164
167.809742007487 520.71412150723 2756.19504555922 161 162 164
163.383026601857 521.283690836164 2761.92356661554 147 148 150
162.204316976094 521.58140903524 2770.13492450923 182 182 184
159.420239070291 522.012402247488 2777.08692021253 201 201 203
155.833903676907 522.509817015731 2783.40884306585 181 181 183
148.172672545718 523.348210040235 2786.6415789149 165 165 167
142.956357122007 523.98166174879 2791.72783335608 159 159 161
136.09970739465 524.752603140399 2795.58848661682 161 161 163
133.348525931511 525.178417278884 2802.5085811311 160 158 161
127.312164168499 525.880031875821 2806.98216994686 148 146 149
123.751732761435 526.372972174049 2813.27903108355 148 146 149
118.54318668076 527.004353510175 2818.35787645238 174 174 176
116.6563027723 527.355099392861 2825.84771509133 186 186 188
113.121261134566 527.844350710122 2832.11957119953 163 163 165
107.926600943547 528.47353924302 2837.18495177002 151 151 153
102.732813969713 529.102440786539 2842.24950763984 141 141 143
96.7017776211301 529.802204653841 2846.71808177737 147 147 149
94.0272239170437 530.217061331549 2853.56370330206 169 169 171
91.3650854912396 530.630323381746 2860.39723195713 155 155 157
89.5590331550213 530.970171534472 2867.80841432967 143 143 145
81.8492525620278 531.811795517557 2871.08888297771 148 148 150
74.9762950675574 532.582450455775 2874.96611027196 140 140 142
65.5474626216952 533.571163391218 2877.09772666181 150 152 151
58.6545699946459 534.344020179017 2880.994086563 162 164 163
49.1944451648729 535.336370134625 2883.15657704465 156 158 157
42.2816994500939 536.111464359866 2887.07232066317 133 134 136
31.0755249130379 537.254247807532 2888.11227383366 138 139 141
18.9836750396064 538.473880503249 2888.60344810283 168 169 171
2.55567228591858 540.066247692707 2886.26017401425 157 158 160
-14.7848752993345 541.738704034957 2883.39432397378 144 146 145
-21.7984655110555 542.525833169886 2887.40842891411 172 174 171
224.470682707862 501.600019352825 2501.53896162829 212 214 213
218.939361793434 502.285536477864 2506.93032593256 190 192 191
214.909752553719 502.855196807117 2513.68174840572 165 167 166
212.393336532797 503.307624916255 2521.78169314988 169 169 169
209.138570358353 503.815646511639 2529.1897045006 165 165 165
204.383035964204 504.438521432917 2535.23686913008 174 174 174
200.390390017473 505.001782371386 2541.95253233405 180 180 182
194.885358846412 505.681272690529 2547.31868129381 173 173 175
188.618624167119 506.419389010589 2552.01563888223 154 154 156
180.055743932172 507.33553766054 2554.71498621294 150 148 151
169.945843348888 508.372255923057 2556.09924668918 141 139 140
159.044948196836 509.471217374758 2556.84252978937 138 138 136
144.267085761613 510.873349851885 2554.30566789611 153 153 151
130.215314253855 512.220389320628 2552.47317686058 136 137 132
117.66912566354 513.45112648425 2551.99662779677 136 137 131
108.192088470423 514.442525686504 2554.17571518418 112 113 107
153.122901740311 511.407320137312 2612.03225886195 148 150 145
168.763768574357 510.416781462293 2634.90630237918 162 164 161
172.755522429603 510.338998575582 2647.95819124924 162 164 161
176.794599223752 510.255102458425 2660.9639912742 164 165 167
180.093307673491 510.227185228106 2673.27946719507 164 165 167
181.856592894878 510.318595037911 2684.26818595957 167 168 170
182.072660713352 510.53062537796 2693.94133033811 170 171 173
179.936447790883 510.927692773223 2701.67191007441 176 177 179
178.611951844155 511.259255933547 2710.02337151144 176 177 179
175.713048505142 511.71489683872 2717.0857476491 162 163 165
171.228004116299 512.295976765065 2722.87048898673 156 157 159
169.151027282781 512.684515071215 2730.54350700667 153 154 156
167.893504739307 513.006662184259 2738.8298545519 157 158 160
168.266114000704 513.197365829771 2748.35070303966 159 160 162
166.245669378036 513.578158179807 2755.96872858746 161 162 164
161.814824680147 514.151137544139 2761.70084609028 162 163 165
158.199628987 514.65820543204 2768.05000092104 149 149 151
152.967276518537 515.294563397302 2773.15175084125 154 154 156
150.179872813388 515.733995639804 2780.10580182747 193 193 195
144.954922637819 516.368948677818 2785.20040880905 204 204 206
142.186484814493 516.805636156602 2792.13603206914 163 163 165
136.148231078263 517.505438395809 2796.61142966596 154 154 156
131.75202788347 518.072533905261 2802.31035511729 155 153 156
125.711482528975 518.77215328875 2806.78805535091 155 153 156
122.147003620437 519.271176392953 2813.08803668034 156 154 157
116.934415717573 519.903362109121 2818.17077675133 144 144 146
113.383162605786 520.400393562948 2824.45791903412 151 151 153
109.840182877714 520.896247641143 2830.73668189819 176 176 178
104.637676117713 521.526661234045 2835.80967316433 172 172 174
100.271992740679 522.088683928082 2841.47870390337 158 158 160
95.0729325627071 522.718368180422 2846.54838045883 147 147 149
90.7147106493147 523.279201325194 2852.21051551103 137 137 139
88.0447164624649 523.701679870187 2859.05048285904 172 172 174
83.6994666168351 524.260684326717 2864.69966889352 171 171 173
77.6675651411614 524.957520362471 2869.16953484727 136 136 138
69.9371091447101 525.793760532693 2872.47133020178 147 147 149
62.1959404409211 526.631174303413 2875.78358997539 132 134 133
55.2952292597686 527.399856971872 2879.6883307494 133 135 134
46.6808685941578 528.309715759256 2882.44006638972 151 153 152
38.9070076990836 529.150867602773 2885.78423750703 146 147 149
27.6931373876828 530.276016560322 2886.83443906515 135 136 138
17.312071511161 531.333399208923 2888.4845786569 157 158 160
3.46391359884457 532.678104712826 2887.86715058784 163 164 166
-13.0114748745518 534.241565564318 2885.57520356354 163 165 164
-20.8861377494136 535.09474695756 2889.01769457472 180 182 179
219.000605264691 494.629765361564 2508.00102988782 192 194 193
213.469415132772 495.314912186431 2513.39231905333 189 191 190
211.70132562834 495.723508202995 2522.17289002817 166 166 166
206.93521709277 496.350988932685 2528.22987419993 164 164 164
203.686384844831 496.866105316269 2535.63094446731 166 166 166
199.691402981336 497.435203803851 2542.34806448395 162 162 164
194.944353978022 498.058984462474 2548.38666912731 170 170 172
188.677333935938 498.794630581923 2553.08427517978 167 167 169
180.114221393688 499.700164644721 2555.78542202642 135 133 136
168.471771130228 500.834779373398 2555.84290145795 137 135 136
153.726318775889 502.201248238275 2553.27912694158 145 143 144
139.70495552999 503.515589021881 2551.42127290389 146 146 144
130.273266416856 504.48896333987 2553.55833088952 127 128 123
121.596474723035 505.406381259713 2556.37060638528 144 145 139
112.129121795137 506.383367035831 2558.54254529424 110 111 105
182.809095897372 501.607328730494 2637.84847184871 154 156 151
164.128592232557 503.268326929884 2632.06384571679 164 166 163
168.891566150093 503.165552459351 2645.77016688517 164 166 163
175.277199800001 502.937498644491 2660.71817350379 164 165 167
178.571554118033 502.939968547858 2673.03348193673 164 165 167
179.541121237921 503.116065163442 2683.3809485187 164 165 167
178.959608111657 503.407932603242 2692.41739335958 167 168 170
176.815344318917 503.816983140351 2700.15419662594 174 175 177
176.277968845289 504.10275560828 2709.14771295946 179 180 182
174.170104313867 504.506716205114 2716.8491235122 168 169 171
170.48022639416 505.030275233502 2723.27000151457 161 162 164
167.599792979331 505.49126669661 2730.31290809236 156 157 159
163.928904354056 506.011842134442 2736.71537041803 153 154 156
163.486479648166 506.284553626102 2745.61652964215 153 154 156
163.068122074844 506.553965713573 2754.49427749835 154 155 157
159.438101078552 507.068724033817 2760.85667958974 155 156 158
154.195136002798 507.706921121881 2765.96869616433 158 158 160
147.327535707191 508.469912894121 2769.84173629349 153 153 155
145.340927958015 508.856493753522 2777.42530578656 162 162 164
143.370669131648 509.240895633776 2784.99296260976 188 188 190
141.416675001542 509.623040699738 2792.54480190531 198 198 200
138.658473812554 510.066516417338 2799.46925673744 175 175 177
133.445368433986 510.699563448698 2804.55238336745 158 156 159
128.233050699786 511.332393247318 2809.63475996186 155 153 156
120.542509193937 512.157616225896 2812.89854797327 148 146 149
114.4977134551 512.855016349527 2817.38113474901 147 147 149
108.449879893767 513.552563563646 2821.86671638749 149 149 151
106.559480399426 513.92557110759 2829.35675579138 168 168 170
103.017298482268 514.426795671996 2835.63427050389 181 181 183
98.6475915673526 514.992274038238 2841.30678592869 171 171 173
92.6067364736416 515.688322332952 2845.78565938529 148 148 150
86.562569377632 516.384594805199 2850.2674507338 136 136 138
82.1992198266184 516.948875389425 2855.93416807591 149 149 151
78.6840016212578 517.446124099168 2862.1851572116 165 165 167
75.177454733657 517.942237129202 2868.42804129553 151 151 153
68.2888208725396 518.704473362559 2872.32174189251 137 137 139
61.3933820850505 519.467524942687 2876.22241721606 140 142 141
51.9362634956932 520.433208855223 2878.38552584407 133 135 134
43.3141755280815 521.333545340693 2881.14634220156 136 138 137
33.8218131796788 522.303347960511 2883.34383966017 159 160 162
26.8829264379051 523.071375610612 2887.28692398363 147 148 150
19.0777196799354 523.908341400158 2890.66284070313 145 146 148
8.67809165264521 524.952142519654 2892.33342012907 159 160 162
-5.19622439142475 526.273314855651 2891.74544566346 166 168 167
-11.3233755762305 526.978738438761 2896.30862675068 180 182 179
208.914328060199 487.37442871797 2489.33206511778 222 224 223
213.82176457657 487.33691237069 2504.30253482756 184 186 185
211.278764451815 487.814834622863 2512.42510995661 205 207 206
209.50438556474 488.23784531496 2521.20979589864 200 200 200
206.995438859579 488.710619544523 2529.29931635412 176 176 176
203.74620198187 489.234013089413 2536.69956506402 169 169 169
199.750882238605 489.808726726211 2543.41619068366 175 175 177
195.003477878974 490.435382686815 2549.45472323272 167 167 169
190.260509702224 491.061066614294 2555.48899425267 155 155 157
180.937118702979 492.009554672797 2557.52218878856 164 162 165
166.997915598535 493.285186897475 2555.58813178196 181 179 182
149.176489987843 494.837795760083 2550.38369549915 172 170 171
138.223158500255 495.905463727539 2551.18333597698 130 130 128
130.331400495643 496.756217111555 2554.64349940541 123 124 119
123.202231463972 497.55281598972 2558.77097619861 149 150 144
158.711799145953 496.142498725984 2628.57661687324 169 171 168
166.595479643188 495.85117856767 2644.88054804263 167 169 166
173.760015447693 495.607956014436 2660.47390671608 164 165 167
177.050226038091 495.640744004388 2672.78918677385 164 165 167
178.015302936265 495.839149734233 2683.13747709301 161 162 164
175.846701779907 496.262501944175 2690.89633394022 162 163 165
172.107764411889 496.798643813219 2697.36406896164 168 169 171
171.558398744178 497.102262200563 2706.36685411604 175 176 178
173.42475470922 497.228560992505 2717.2480655321 180 181 183
172.13001150622 497.583276169516 2725.56622235484 180 181 183
168.452265746992 498.110671909513 2731.9744858782 166 167 169
162.373773037082 498.812834344705 2736.48949253479 158 159 161
159.512227662044 499.279333455117 2743.51316682398 153 154 156
158.276929875051 499.625568569344 2751.77388466143 148 149 151
155.444066897842 500.08795057274 2758.76968541218 152 153 155
151.001968310094 500.667891738395 2764.51194924281 156 156 158
143.313566418857 501.486682742188 2767.77456322834 154 154 156
142.131847785274 501.825337789219 2775.98319650503 158 158 160
141.786861282554 502.100950119959 2784.78716941025 155 155 157
140.647239775127 502.43401634912 2792.9544878012 173 173 175
138.707325761276 502.82526614119 2800.49099965861 198 198 200
131.849349176437 503.580764511753 2804.35559082222 205 203 206
127.457284675546 504.153012318329 2810.04930714006 166 164 167
120.590938431834 504.909166073506 2813.9217747911 158 156 159
116.202638017692 505.480513537444 2819.6122242274 142 142 144
106.837693180745 506.42331443805 2821.68718505586 145 145 147
102.446826160772 506.994644688385 2827.37984787187 144 144 146
98.0608684981728 507.565225060653 2833.06808429707 151 151 153
96.1873565985329 507.946835981372 2840.54008249445 169 169 171
91.8162845448896 508.515316948713 2846.21350973905 159 159 161
83.2507463270611 509.399000974207 2848.92063258536 150 150 152
77.1958430959163 510.09407820943 2853.41359957228 138 138 140
71.137712627527 510.789398420616 2857.90939749975 139 139 141
70.9963141451317 511.037605666132 2866.51525495083 159 159 161
66.6409335862621 511.603535229468 2872.17381524754 170 170 172
63.1395269689712 512.104408932287 2878.41055349972 147 149 148
52.8349353571009 513.121103697561 2879.99076666756 142 144 143
41.6545222068954 514.205208816192 2881.01381103149 134 136 135
31.3030801913881 515.227426521894 2882.63973105454 147 148 150
25.2156171669897 515.9256944196 2887.16455881895 148 149 151
17.4064843410355 516.755430236129 2890.54544276885 141 142 144
7.00313291904875 517.783749681126 2892.2220077655 154 155 157
-4.2856494566319 518.8807498678 2893.35075848689 160 162 161
-6.08600278409588 519.252282940069 2900.75159864221 174 176 173
211.216486043969 479.51192492024 2492.45912863049 210 212 209
210.889116608624 479.856946572752 2502.65225817765 166 168 165
209.088535911895 480.297294999989 2511.46040039432 193 195 194
208.06014026916 480.684844326834 2520.92612659708 169 169 169
204.792499606607 481.219196894306 2528.34303079864 179 179 179
201.537054776832 481.751569717075 2535.74811696337 200 200 202
196.777088329566 482.383111582711 2541.79840171652 176 176 178
192.021747210677 483.013615048105 2547.84458476732 176 175 180
187.270652859918 483.643242365848 2553.88634236683 181 180 185
178.703383542713 484.528147093975 2556.5950038011 184 184 186
163.992250407822 485.826573658918 2554.0072064147 157 157 159
148.467012358199 487.181976618984 2550.80249683928 129 129 127
135.971916552941 488.335231735813 2550.28700153929 127 127 125
130.389651906723 489.022247230696 2555.72873226391 134 135 130
118.61694751591 490.128479291563 2555.91941307332 158 159 153
147.824146867087 489.351645614153 2620.55381984343 177 178 173
161.164952939834 488.734128479144 2641.40565948191 167 167 165
169.886687107239 488.428100863291 2658.29647404163 168 170 169
173.166487591661 488.492022992207 2670.61715203439 159 161 160
174.911034465183 488.659004866575 2681.61330873718 163 164 166
174.317126606019 488.985133073686 2690.65699800461 162 163 165
172.953799119609 489.362912267454 2699.03985118304 166 167 171
170.815627243901 489.792882311859 2706.76785103368 167 168 172
171.085176496335 490.054603634314 2716.3805432522 181 182 184
171.382618886708 490.312602192637 2725.96608739532 185 186 188
170.10580143591 490.678502436191 2734.26479053318 175 177 176
164.834102559797 491.321796097013 2739.40458692506 167 169 168
160.368328057371 491.908423986067 2745.16971083615 162 164 163
156.713797744068 492.437712047495 2751.55430355225 149 149 149
153.068004139779 492.965679279129 2757.93075364721 146 146 146
148.619840921495 493.549362913564 2763.67848661036 153 153 153
141.738346451749 494.303816207003 2767.56658584327 154 154 154
139.737655719093 494.714197306931 2775.16062228196 154 154 154
138.569910654815 495.064607662694 2783.35330432627 149 149 149
137.422444629904 495.412360032175 2791.52657967591 158 158 158
134.654142567657 495.873738334413 2798.45841883032 161 161 161
130.253376026398 496.450208519251 2804.16015233723 181 181 181
127.506080400122 496.908614297911 2811.07157112787 198 198 198
121.466067596835 497.600782403639 2815.55018166787 178 178 178
116.251134519143 498.234000876688 2820.63509789112 152 152 154
106.886118172969 499.163690228277 2822.71206761052 148 148 150
100.83108121 499.857133195379 2827.20540893922 143 143 145
94.7729639073822 500.550728612933 2831.70178655863 143 143 145
93.7274470578053 500.884344392684 2839.77557640987 153 153 155
91.0263554742072 501.335922947562 2846.64212296381 173 173 175
82.4588720180954 502.209385234551 2849.35268822898 162 162 164
77.243694069125 502.841514169812 2854.43800864623 143 143 145
72.0292819674384 503.473487589028 2859.52259155102 138 138 140
71.0437813120719 503.799183560922 2867.53795497835 148 148 150
66.6883740970707 504.368035441598 2873.19610982777 160 160 162
61.4879525624024 504.997979767821 2878.26709979175 154 154 152
51.1795094658654 505.999267975198 2879.85341462333 141 141 141
40.8486617138379 507.003174254503 2881.46159065913 137 137 137
31.3505448903864 507.947372736312 2883.66858667694 140 140 142
26.1203231386808 508.580602102787 2888.76868316945 148 148 150
17.454042471122 509.465133580679 2891.5757195045 148 148 150
5.32865939789184 510.603783714787 2892.11216192403 140 140 142
-4.23794771441877 511.556085766335 2894.38597210708 158 158 158
-4.3083625489384 511.811501853608 2902.92027628282 176 176 174
210.202429404894 472.214133397169 2503.04684385392 154 156 153
207.648844678862 472.71526744114 2511.17649895582 153 155 154
205.111292958774 473.213938003759 2519.29059714726 164 164 164
201.835498915096 473.757544585768 2526.7142300375 167 167 167
197.815584820511 474.346798683676 2533.45312913777 162 162 164
192.287318422318 475.030338580094 2538.8417524958 155 155 157
186.759609593699 475.713277466571 2544.229911008 152 151 156
180.470116749044 476.444162699155 2548.95019870063 155 154 159
174.177500750665 477.174956866369 2553.6739390325 162 161 166
162.519086312068 478.247455534185 2553.7564518526 154 154 156
150.829939537755 479.323281335292 2553.86865274554 144 144 144
139.110479889601 480.402443767277 2554.01079945971 156 156 154
129.676073687938 481.336428666311 2556.15603945134 161 162 157
116.35368851948 482.521121211974 2555.04016112062 153 154 148
142.408595608738 482.128968429145 2617.08000992517 176 177 172
155.735098079275 481.578061230772 2637.93620833255 156 157 152
165.228019320033 481.271328308478 2655.47823628989 173 175 172
170.070727916796 481.263659878816 2669.09166095379 174 176 175
171.017529202186 481.507859049569 2679.45133097605 164 165 167
168.830952830294 481.955430170998 2687.22479577545 160 161 163
168.247166120519 482.296351451625 2696.25624818212 158 159 163
169.277753920368 482.529280375001 2706.53438269457 158 159 163
170.340167694919 482.757990737678 2716.78153704509 162 163 165
171.434553264751 482.982510087574 2726.99790020213 170 171 173
169.356387598617 483.415247978346 2734.66556607113 184 186 185
165.688639231825 483.952381074314 2741.06246285906 184 186 183
162.029250360072 484.488208001295 2747.45091375405 181 183 180
157.571741931362 485.076506386433 2753.20758243316 169 169 169
151.500995715343 485.772119698881 2757.71586466428 160 160 160
147.859659655944 486.304920633777 2764.08717393204 149 149 149
140.975897571671 487.054513061651 2767.97790553151 146 146 146
137.343834021444 487.585732267646 2774.34024083943 149 149 149
132.903707609842 488.170614065892 2780.07981604665 153 153 153
130.923774340683 488.589022230904 2787.65205362052 147 147 147
128.139750305354 489.060667657781 2794.59798745008 150 150 150
125.368142625323 489.53060038372 2801.53184479172 151 151 151
122.609057862729 489.998777490455 2808.45352617098 170 170 170
120.688505184497 490.409110100197 2815.9679915038 187 187 187
116.299874019574 490.986455112 2821.65788294556 193 193 195
109.425270355703 491.733005973013 2825.53996964045 181 181 183
100.879665256388 492.594039257952 2828.23064637497 149 149 151
94.8214637397005 493.285227570142 2832.72746338931 145 145 147
91.2678640221856 493.804681198747 2839.01328405665 150 150 152
87.7230214645004 494.322899872648 2845.29092910257 149 149 151
79.9874463519834 495.129062630193 2848.60225324347 162 162 164
76.4497943368507 495.646093015729 2854.87259576085 169 169 171
72.0772236292868 496.220292943989 2860.54700377302 157 157 159
71.0915977708768 496.559714951872 2868.5604628267 135 135 137
65.040823036707 497.249141436548 2873.05016533355 131 131 133
58.1374064742297 497.997820916174 2876.96054905378 159 159 159
49.5242354365177 498.865720834085 2879.71730487859 169 169 169
40.8963548097194 499.735327707359 2882.48841525554 144 144 144
33.9642423991982 500.48727094163 2886.42681199558 136 136 138
25.3108966895677 501.359793249087 2889.22277867633 144 144 146
15.7836053371656 502.294270682314 2891.4605200414 159 159 161
1.07093661463242 503.593375176369 2890.29105663633 146 146 148
-6.77912292371108 504.41240784097 2893.71416333781 145 145 145
-8.58516427839762 504.806640313818 2901.11763466876 176 176 174
0.0272615424861122 504.465832812539 2915.2876401649 181 181 179
202.382083809621 464.618130450376 2486.42885378329 220 222 219
206.521627073494 464.740503299951 2500.72131197317 200 202 199
203.957898315107 465.253795908868 2508.85924321855 154 156 155
204.420066563848 465.586881538169 2519.68736147264 160 160 160
201.141933359882 466.139009159794 2527.11205777769 182 182 184
197.119547618734 466.734130955623 2533.85220617435 176 176 178
188.555956545308 467.598728972566 2536.56021638121 159 159 161
181.497881076762 468.373909917172 2540.62059961849 136 135 140
175.194508817021 469.103950242198 2545.35479465245 137 136 141
171.180331153864 469.69634362991 2552.08753340585 152 151 156
164.876346945035 470.425681468188 2556.82277778353 161 161 163
153.192900543477 471.479500900375 2556.93257065377 165 165 165
140.709067227212 472.583230677015 2556.41287351737 163 163 161
128.191030717495 473.690787521134 2555.92691286078 157 158 153
115.638434520422 474.802242450274 2555.47435650736 157 158 152
142.464798472116 474.531120976486 2618.14715818637 174 175 170
148.738637776681 474.479619732149 2633.18008384972 162 163 158
160.569806484503 474.080974621923 2652.66451004101 170 172 169
166.97530284961 474.012581069028 2667.56919497282 180 182 181
169.492774333 474.181587034193 2679.21443627007 168 169 171
168.884558199744 474.542246725299 2688.26723012694 162 163 165
167.506993240528 474.949123345398 2696.65992073943 159 160 164
166.944955314056 475.303460304772 2705.66779345131 158 159 163
165.609866041241 475.704585854408 2714.01949292698 158 159 161
166.692044795123 475.952357633467 2724.24420309184 163 164 166
166.204076867104 476.29679668876 2733.1799861062 179 181 180
164.937109257628 476.688610347902 2741.46507821451 183 185 182
163.690527518912 477.077693584141 2749.73066824911 184 186 183
158.429692044952 477.719588256096 2754.859883892 180 180 180
153.978347272523 478.309864702764 2760.60980177067 174 174 174
148.721045299678 478.950812685734 2765.73564851494 157 157 157
142.651874895714 479.643324831627 2770.24316213446 150 150 150
134.950360895241 480.440004388059 2773.52206470056 147 147 147
128.87118254803 481.13324747478 2778.03940832293 146 146 146
126.0628889761 481.616414488973 2785.00773927552 148 148 148
124.087405957021 482.045111893323 2792.5740369402 153 153 153
122.128208354273 482.471608840113 2800.12448817238 149 149 149
117.712445605825 483.055601058076 2805.8400013815 149 149 149
116.606443888181 483.424957008834 2813.96890906119 161 161 161
113.035929037205 483.952793754389 2820.27028768508 192 192 194
110.304195409788 484.425454123105 2827.16414635863 201 201 203
102.592494524552 485.221530895778 2830.45325374306 170 170 172
95.7040986187438 485.964382318091 2834.34992095549 155 155 157
88.8085644360115 486.707910796238 2838.25323867189 145 145 147
84.4199776605414 487.287373089798 2843.94277310095 145 145 147
79.196076963612 487.921338776369 2849.03648386483 155 155 157
75.6562893726746 488.444358361337 2855.3080618395 166 166 168
72.968993979766 488.910561536515 2862.15874705964 165 165 167
69.4484652857477 489.431022255952 2868.41191670617 149 149 151
63.3935914558958 490.118501843968 2872.90563958411 138 138 140
52.2389805941717 491.144100383742 2873.91170914096 143 143 143
45.3152012739086 491.890085649071 2877.84304942638 158 158 158
38.3841972961445 492.636906281943 2881.78110259454 169 169 169
34.0121599529755 493.213440246528 2887.45429815643 146 146 148
24.5016543352277 494.132769460535 2889.67760993904 137 137 139
13.2541507614135 495.169282523515 2890.77431017043 157 157 159
1.11908156839613 496.266679745358 2891.32613037052 152 152 154
-6.73094967333743 497.07795444204 2894.75035559732 151 151 151
-11.9969730229168 497.715933044097 2899.88530167082 159 159 157
-5.99301590356038 497.594598485378 2912.36238918961 163 163 161
205.835351177358 457.073549506893 2501.11905718764 191 193 190
204.770256209499 457.515098721066 2510.61358304499 182 184 183
204.481340548134 457.911469955999 2520.76093798029 184 184 184
201.202844962296 458.471898897324 2528.18476720447 145 145 147
197.936523412152 459.030409810641 2535.59679091494 185 185 187
191.649237445664 459.756800560073 2540.31555142758 196 196 198
185.35884904552 460.483156600868 2545.03773567461 139 138 143
178.302814863118 461.252491208315 2549.09661812866 148 147 152
172.767829010648 461.935905213076 2554.49193261085 139 138 143
165.701489237252 462.705729886949 2558.56131407949 140 140 142
154.019853427346 463.737974350104 2558.67249777645 153 153 153
140.768015531633 464.861320519933 2557.49563192857 150 150 148
128.249858057323 465.944892301183 2557.01333637342 150 151 146
118.018647571045 466.899175812526 2558.52990535486 170 171 165
143.309544124443 467.240382482772 2629.72183145708 171 172 167
154.341182921636 466.948726401793 2648.56781826132 153 155 152
163.880212390103 466.738786562843 2666.04975409149 169 171 170
169.546922562883 466.750791926433 2680.2589345491 178 179 181
168.938343600203 467.12794966054 2689.3096502974 170 171 173
165.974100275298 467.642069149307 2696.42826689783 159 160 164
165.407620592806 468.013401918688 2705.43770052381 160 161 165
164.865375122036 468.381460151813 2714.42389103633 157 158 160
165.146243857198 468.698865782059 2724.0171127248 156 157 159
163.052143260424 469.155624342815 2731.69738981295 160 162 161
160.974182259401 469.610154898096 2739.36163150017 167 169 166
160.522442090471 469.965977936284 2748.25975726651 172 174 171
156.867203694688 470.512367769199 2754.64252548463 187 187 187
153.220745332836 471.057342857287 2761.01712193992 192 192 192
148.771969604712 471.649978516704 2766.76414002901 185 185 185
143.515283322841 472.290937335283 2771.88937378154 179 179 179
135.000995438467 473.129034625542 2774.55234198867 166 166 166
129.738148746553 473.770268826667 2779.68365241803 157 157 157
124.476133562429 474.411132843303 2784.81419186096 145 145 145
120.855792311175 474.951547624846 2791.16352765066 141 141 141
115.599243812414 475.591368665972 2796.28879274554 143 143 143
111.992046851571 476.129697172566 2802.62504656909 149 149 149
111.698445211386 476.46369733404 2811.36936385032 150 150 150
109.772548171134 476.896581120157 2818.88580315961 168 168 170
107.032893929923 477.378584097042 2825.78614628633 183 183 185
100.145520884056 478.116382674596 2829.68254459197 196 196 198
96.5869269540565 478.64793533979 2835.9715363538 187 187 189
91.3652532919 479.282180477094 2841.06299433654 141 141 143
84.4686795902079 480.020667192896 2844.96842732289 144 144 146
78.4047671080108 480.707369759797 2849.47124055961 147 147 149
74.0214693977004 481.288966301913 2855.15520742777 159 159 161
69.6427676065197 481.869819586826 2860.8343824914 171 171 173
65.2686151508393 482.450099355713 2866.50912476304 162 162 164
61.74680257037 482.97629448354 2872.76272178474 144 144 146
52.2871801263496 483.876602774042 2874.93797926584 139 139 139
43.6605102737286 484.725211529832 2877.71099083873 143 143 143
37.5791705772079 485.413301956939 2882.23124227376 159 159 159
33.2051074638979 485.993098712189 2887.90596721631 161 161 163
24.549826259034 486.845019539413 2890.70690076222 146 146 148
11.584079496251 487.972558193486 2890.66223186052 138 138 140
2.0287560262644 488.884092517457 2892.93120051427 145 145 147
-7.54539847656055 489.79783692376 2895.2182041708 157 157 157
-13.6783071730733 490.491956692102 2899.78877325114 158 158 156
-17.213929184869 491.019227614576 2906.05558639832 172 172 170
204.400646034537 449.438411116579 2500.83805424554 178 180 177
201.830254882349 449.97442106072 2508.97924373424 177 179 178
202.285595262077 450.35185696093 2519.80758721251 189 189 189
199.755156515375 450.882004705971 2527.90996980242 160 160 162
197.240770956179 451.409804363106 2535.9967583862 152 152 154
192.467984689103 452.05441876957 2542.0581791361 171 171 173
186.939356356592 452.738063262387 2547.44714644095 194 193 198
180.649039311433 453.461533873164 2552.16934845474 174 173 178
173.591565466659 454.225464380916 2556.23079708037 155 154 159
164.994850962343 455.071240290306 2558.97448124304 156 156 158
153.311134885972 456.082459257743 2559.09083823444 158 158 158
142.366985959606 457.055697380463 2559.89565482504 128 128 126
131.396246322836 458.031874902954 2560.72644194216 138 139 134
121.172642994205 458.969277828053 2562.23795184687 160 161 155
141.014500275524 459.417221979873 2618.98699692867 153 154 149
138.664731313181 459.919243711164 2626.91446660646 169 170 165
146.542065327656 459.858390760482 2643.19029913242 149 151 148
156.061046606392 459.702340162265 2660.68417830511 158 160 159
166.443934056996 459.493177567308 2678.74494512591 192 193 195
170.574817385382 459.624809766451 2691.6273870722 187 188 190
169.993833583963 460.014616666055 2700.6488308763 167 168 172
167.846481563094 460.489865733742 2708.37891668494 168 169 173
165.715668687543 460.962751381735 2716.09326603217 161 162 164
162.801740904577 461.478177297898 2723.16138762427 158 159 161
159.900397633081 461.991797307628 2730.21761736461 160 162 161
156.208621870995 462.548824522926 2736.63543336911 162 164 161
156.549738929371 462.877092137412 2746.16722218547 164 166 163
154.498275476917 463.338896644434 2753.80407632837 178 178 178
154.080806739473 463.706409260521 2762.66644234211 185 185 185
149.633746481525 464.30186555223 2768.41134005574 189 189 189
144.378800979692 464.942870277544 2773.53483840296 190 190 190
135.866373142338 465.770266112621 2776.19754122631 182 182 182
130.605287950529 466.411602577214 2781.32708734552 176 176 176
126.982065996257 466.958218430966 2787.67836720014 157 157 157
121.726490545473 467.598447523372 2792.80260573419 148 148 148
115.649445350781 468.285967075873 2797.31867704043 144 144 144
110.393597846557 468.925758714325 2802.44325038308 144 144 144
107.617048117137 469.420976471494 2809.37794029426 144 144 144
104.853124608579 469.914471517338 2816.30068463944 144 144 146
99.6113976461208 470.551952317696 2821.41157761623 142 142 144
96.034571600228 471.09165779112 2827.71780699917 159 159 161
94.1341298997589 471.532005884782 2835.20786555836 173 173 175
91.4142154153596 472.01954011207 2842.08778929836 201 201 203
87.0309330552317 472.604391042417 2847.77092208442 190 190 192
82.6525810418008 473.188518933074 2853.44960367027 175 175 177
76.5951963015215 473.871921883673 2857.94642244461 144 144 146
69.691402786185 474.605775702013 2861.85970955286 143 143 145
61.9349561837894 475.39080520542 2865.19488287747 173 173 175
58.4053112673595 475.923648730988 2871.45527489428 188 188 190
51.4863025620693 476.659050406318 2875.3831042965 162 162 162
46.2631682509311 477.29280154013 2880.47608573876 149 149 151
40.1875893720294 477.977865940408 2884.99106384217 140 140 142
33.2534475216337 478.71485106059 2888.93368664873 163 163 165
24.598219115481 479.55632774941 2891.73611140384 171 170 175
11.6326054140137 480.659967254266 2891.6948426541 146 146 148
4.66028692869358 481.401352364096 2895.67472510694 143 143 145
-3.18178332635899 482.196249034704 2899.09380346339 156 156 156
-11.0348609193678 482.992310517764 2902.52330226837 156 156 154
-11.9642701698806 483.365569894555 2910.47593625103 160 160 158
207.456974280062 441.57610890654 2504.63309506279 182 184 181
203.39325541631 442.194325400156 2511.41121231696 168 170 169
199.337799279316 442.81108746399 2518.1813395254 152 152 152
196.044909664659 443.389842272774 2525.61675367777 156 156 158
193.520422590263 443.929795134893 2533.71177697708 170 170 172
190.253890521035 444.504401592701 2541.12163082167 170 170 172
185.479213602056 445.151714590087 2547.18419232431 146 145 150
179.184909481485 445.87319810645 2551.9109850966 147 146 151
172.887093556163 446.594695113314 2556.64092530703 159 158 163
164.288211137012 447.430218387288 2559.38827757622 130 130 132
153.370524661645 448.381987583446 2560.16998965976 137 137 137
144.735893124167 449.221162553832 2562.95230161278 160 160 158
132.998873034395 450.216781638301 2563.12389593336 178 179 174
140.288089222852 452.243091617551 2629.27079876707 161 162 157
143.456190931859 452.470479635906 2641.67857294995 170 172 169
150.60443212666 452.48886256689 2657.24944723539 145 147 146
160.973259804039 452.335592774549 2675.31625252901 162 163 165
167.463936781656 452.378067610095 2690.11962771201 192 193 195
170.840784833784 452.578504215876 2702.32375925535 203 204 208
171.080757750395 452.939735926119 2711.9514514627 186 187 191
169.754287428263 453.380948198865 2720.28832955077 165 166 168
164.452830839788 454.029850810195 2725.45684679049 162 163 165
160.754220010089 454.593607092604 2731.88045556499 162 164 163
155.458210194668 455.24132181662 2737.04373964777 161 163 160
154.187233644154 455.674565232057 2745.32668939391 159 161 158
152.936642964399 456.105078224591 2753.59013706633 169 169 169
150.897367614838 456.576225976067 2761.21350731543 176 176 176
146.442393768653 457.175598858226 2766.9656844688 187 187 187
141.179494866445 457.817901080164 2772.09688889074 193 193 193
137.546650547674 458.371862743809 2778.45663818806 192 192 192
133.922185905504 458.924633631914 2784.80790449675 190 190 190
129.488115136528 459.520444294333 2790.54018892196 176 176 176
123.417660948645 460.204993621443 2795.04981641703 169 169 169
117.344400331663 460.889647830317 2799.56255307819 160 160 160
112.916480858247 461.484135858249 2805.28858681878 150 150 150
109.319594486498 462.032503012447 2811.61345620921 153 153 153
104.074950252406 462.670882300687 2816.72711328374 145 145 147
96.3409271782263 463.446568906741 2820.0414005895 145 145 147
90.2601924274813 464.131192363298 2824.56156372116 147 147 149
88.3460230088922 464.584327708918 2832.06336415712 148 148 150
88.9558430094399 464.895615616816 2841.33083657296 166 166 168
86.2423375384855 465.390538553006 2848.20330401992 196 196 198
82.7016249435673 465.930880608845 2854.47357812558 196 196 198
77.4859644969386 466.564692013331 2859.55912900192 183 183 185
70.5838781824859 467.293242846293 2863.47116677139 162 162 164
62.8292875758243 468.070342940091 2866.80566902808 149 149 151
56.7590427274758 468.75261202331 2871.31576350694 161 161 163
52.3843695400896 469.338765868112 2876.99015468701 178 178 178
48.8658982633918 469.875773332952 2883.23883568598 165 165 167
41.942643521967 470.606432578634 2887.17158239388 155 155 157
32.4469093271249 471.484685350466 2889.38629701539 143 143 145
22.9324719201611 472.365102606385 2891.61892645122 157 156 161
11.6814367602176 473.346482762953 2892.72728221933 169 169 171
5.57021129879853 474.033269446514 2897.27740335342 157 157 159
-3.99605101884415 474.919836758516 2899.56058671607 163 163 163
-13.5806823902955 475.808618290473 2901.86202140194 166 166 166
-20.5836936586827 476.54871294098 2905.87257297142 153 153 151
-11.0873133804015 476.328746697763 2920.56418549866 91 92 87
201.204238835369 434.590757932736 2510.45767629735 166 168 167
199.399630817086 435.112961563975 2519.25771954046 173 173 173
195.35196433579 435.733855459336 2526.01916298075 137 137 139
189.800227789101 436.421592486254 2531.43047220913 148 148 150
184.249026476393 437.108849256639 2536.84132092396 154 154 156
180.978818918312 437.691820890966 2544.25358821387 149 148 153
174.672559283882 438.412216961452 2548.99241371218 160 159 164
168.362986273216 439.132706407114 2553.73451564127 162 161 166
162.049965502785 439.853171784974 2558.47970696198 159 159 161
154.965967875909 440.609212475461 2562.56866020688 172 172 172
147.874663788269 441.365745033133 2566.66445833558 180 180 178
135.37355691503 442.37514993156 2566.17585527242 180 181 176
143.478566021221 444.501629029551 2632.9147680449 161 162 157
148.224722866812 444.682537726684 2646.59619840802 181 183 180
151.447527848322 444.932749816888 2658.94627804479 168 170 169
159.449554496323 444.948080294535 2675.08702906492 148 149 151
165.144627038366 445.070202028273 2689.25177011915 152 153 155
170.89480235077 445.185318213434 2703.36282872487 201 202 206
171.929472260324 445.526811813099 2713.62120167228 211 212 216
171.401826861934 445.942415867293 2722.58586684551 189 190 192
166.903041217414 446.551734584758 2728.38007977217 180 181 183
163.209968350482 447.120601148374 2734.79743397045 172 174 173
157.919589903963 447.767841824167 2739.95519608478 168 170 167
155.044628977818 448.294381831763 2746.98331819615 164 166 163
152.181811034927 448.819197670392 2753.99929913507 162 163 165
148.523037138242 449.382767318183 2760.38337683071 158 159 161
144.062041178674 449.985877309158 2766.14098168864 162 163 165
140.418428417017 450.547122873193 2772.51034765163 170 171 173
136.783448791696 451.107044217913 2778.87133650166 183 184 186
133.156849381482 451.665715750379 2785.22385055391 193 194 196
130.357368789733 452.181383979482 2792.17862642154 195 196 198
126.750030161216 452.737290017918 2798.51276081364 193 194 196
122.328840758886 453.334231867737 2804.23174882036 187 188 190
117.088250450929 453.97280772009 2809.34135123422 177 178 180
111.022306297249 454.653827006493 2813.84735977912 167 168 170
104.125102210631 455.377899898927 2817.75521126183 156 157 159
94.7310214780646 456.232251497254 2819.87251507559 151 152 154
89.4782360167046 456.87156866331 2824.99411789122 148 149 151
85.0601603290251 457.467027056631 2830.71023318748 148 149 151
83.9901867936859 457.88622337847 2838.79566012248 147 148 150
81.2649551543831 458.390998157861 2845.67831572983 151 152 154
78.5521387933632 458.894178309741 2852.54887846757 151 152 154
74.1685458363475 459.48486378726 2858.23179517939 170 171 173
68.1021921555165 460.164503002728 2862.7380765227 187 188 190
61.1874373419203 460.889537059901 2866.66355191901 201 202 204
55.9606382086506 461.524664219585 2871.7599692078 199 200 202
51.5840248239394 462.114011098411 2877.43581510346 156 156 158
46.360755960738 462.748545789393 2882.52881434851 157 157 159
38.5784345263041 463.520886158949 2885.89155721228 175 175 177
29.9301984195397 464.340724330407 2888.69023667415 174 173 178
22.1243676913678 465.115733575855 2892.07593015544 155 154 159
12.5894300903413 465.985526189838 2894.33048690447 146 145 150
4.75809095442159 466.763544784501 2897.74106583123 169 168 173
-5.67269423092664 467.684418775168 2899.46109119366 149 149 151
-15.2613269589099 468.560538246887 2901.7680328907 147 147 147
-27.4687930201325 469.581898220959 2902.40332036515 161 161 161
-27.5443577732717 469.936601937502 2910.92772597597 157 157 155
201.266631248625 426.877701181181 2511.5357061281 165 167 166
197.956931525601 427.4754402556 2518.98500710041 159 159 159
194.659394939728 428.071292160358 2526.42250882057 186 186 188
187.592920882623 428.822365229502 2530.49445727192 164 164 166
183.55197864955 429.447233832392 2537.24897381628 144 144 146
178.759168806242 430.102582233592 2543.32835395166 147 146 151
172.446809049676 430.8213001151 2548.07348499702 144 143 148
165.367020942944 431.572400504611 2552.15865045853 126 125 130
159.812026999866 432.258749628894 2557.57339946108 136 136 138
155.025648527837 432.911770510568 2563.64707499806 178 178 178
146.394337237908 433.729429109023 2566.42893216456 166 166 164
131.574085817163 434.815305858188 2563.98124346103 160 161 156
143.535324212799 436.919721605337 2633.97900892775 161 162 157
152.208046652874 436.960918904429 2650.86717316644 184 186 183
154.65265592196 437.275121907718 2662.56330766078 183 185 184
161.0834018138 437.406692858005 2677.41336477304 160 161 163
162.825601552283 437.745140682809 2688.38617178104 148 149 151
167.776352641535 437.934989663457 2701.86311566575 172 173 177
168.80291565106 438.299264763654 2712.12617178891 198 199 203
170.658151552066 438.62299083349 2722.9889080855 210 211 213
169.353304256496 439.088796193326 2731.30101718301 208 209 211
165.665876991488 439.662612046457 2737.71203371229 187 189 188
161.183948039864 440.272282400653 2743.48945572196 180 182 179
155.901965385032 440.918612075566 2748.63901533657 170 171 173
153.041088087919 441.45154380041 2755.6522075031 166 167 169
148.575173306946 442.058487688023 2761.41413017515 161 162 164
144.924745928491 442.62654819426 2767.78925590788 163 164 166
141.282699572907 443.193270333172 2774.15591912912 166 167 169
136.834963809483 443.797319740596 2779.90055541291 167 168 170
133.208163892489 444.36167755747 2786.25242814101 180 181 183
130.408457753351 444.885777278178 2793.20618180975 193 194 196
126.800960327446 445.447452796131 2799.53962116346 200 201 203
122.379616448268 446.047362561534 2805.25832391134 206 207 209
117.138874368479 446.686281875684 2810.36802627337 201 202 204
113.551300806636 447.244944438969 2816.68212624892 194 195 197
106.659817994753 447.963342692391 2820.5851351304 177 178 180
98.9314632396416 448.722864884222 2823.8961828049 169 170 172
92.0242315916786 449.442835746885 2827.81459808247 156 157 159
86.7779703594587 450.081566305498 2832.92980894244 152 153 155
82.3685387948991 450.678870373165 2838.63740554879 148 149 151
78.8013212969281 451.233977299014 2844.93147933166 146 147 149
74.4032867529811 451.829579231423 2850.62801010291 148 149 151
70.8512492253317 452.382625058747 2856.90731458031 153 154 156
63.9337760313601 453.103048429535 2860.83617082595 160 161 163
58.7002556874254 453.73940620199 2865.93908049227 187 188 190
54.3149827795011 454.332970099116 2871.62290214903 198 199 201
50.7839486983621 454.883089710647 2877.88212022897 194 194 196
43.8559382784152 455.604353269083 2881.82097807441 182 182 184
35.2146847279902 456.412932664906 2884.61438779673 175 175 177
27.4138554572012 457.179704418564 2887.9963322546 188 187 192
20.4592747776671 457.90399325186 2891.96112762629 180 179 184
10.9207555512385 458.761103784834 2894.22145323031 148 147 152
2.22461612428493 459.576189635708 2897.06840378817 154 153 158
-8.2121017045873 460.481961953944 2898.79621453192 164 164 166
-16.0767021293724 461.25627183982 2902.24037055576 159 159 159
-29.1528385171431 462.301607672979 2902.31746972456 161 161 161
-29.2321699229943 462.673225500624 2910.84345362097 163 163 161
196.076735566824 419.35932980362 2507.88152035905 169 171 170
195.762162983852 419.854140671546 2518.03980366201 160 160 160
193.967013677245 420.402071151174 2526.82665184763 181 181 183
188.410809598318 421.090725194476 2532.24226186695 188 188 190
183.613218575849 421.749949109148 2538.32581698471 174 174 176
176.539816003953 422.49588080737 2542.40540544604 134 133 138
169.45936699384 423.242333970225 2546.49225189444 137 136 141
162.371548016488 423.989257521851 2550.586009464 140 139 144
156.042636995466 424.706730214537 2555.34776019801 164 164 166
152.013876339906 425.333791210003 2562.08951837916 176 176 176
142.605012918457 426.17225678438 2564.22384956891 154 154 152
128.707119633178 429.946325883107 2622.81133387216 161 162 157
149.122921779696 429.556018721831 2649.35721367229 181 183 180
157.070555307401 429.670492530005 2665.537324524 189 191 190
163.506438320595 429.842087908288 2680.37602696385 185 186 188
164.463069641304 430.237469225439 2690.7039288025 184 185 187
