ply
format ascii 1.0
comment KinectMotionCapture
element vertex 788
property float x
property float y
property float z
property uchar red
property uchar green
property uchar blue
end_header
-56.1503319969752 48.711643067087 2786.06203150368 17 20 11
-64.9609592459686 48.4851870994519 2784.61431373248 16 19 10
-80.2206520639521 48.8654530477502 2789.61081696042 17 20 11
-68.2085839168258 46.6883719213672 2767.42961709627 21 24 15
-78.4415294700049 46.5981082653579 2767.42188800892 22 25 16
-35.9765299375501 41.4933306940384 2714.19114091018 21 24 15
-14.906318349398 37.2755346744798 2671.393178732 20 23 14
-26.7410608536185 37.306689160414 2672.69496111602 12 13 5
320.103748772378 32.4981205251909 2675.84548373327 30 28 16
237.926908985787 38.3697957584316 2737.34590399615 14 14 2
213.865515680515 39.3472269968113 2748.31614118625 19 19 9
138.518336427806 44.7498290362295 2804.88397570946 17 17 7
90.3316841044939 47.8718955413916 2837.90027768387 14 15 7
116.354082208487 44.5840265720843 2804.87244908277 14 15 7
56.2698404920718 48.7922662191051 2849.03149473238 14 17 10
20.7578073044936 50.8935571536669 2871.46866972625 13 16 9
35.3103229882663 48.5976233133701 2848.65783027238 11 14 7
53.5117099576405 45.956594475173 2822.31520436401 12 15 8
24.2225528984479 47.5380278930508 2839.37966542064 12 15 8
19.7980043533894 46.9068605544499 2833.69865103336 11 14 7
-14.5235386907263 48.9781672745807 2855.76364923339 13 16 9
-18.1348915802246 48.2851811042476 2849.43678797751 15 18 11
-18.7894464864229 47.3192882370227 2840.31154936089 16 19 12
-26.8815633569286 47.032184958901 2838.14935127704 15 18 11
-39.3917379614819 47.1561042221295 2840.19729949521 15 18 11
-24.6247555896908 44.748817245702 2816.30633086564 15 18 11
-39.3411922739406 45.0787183634729 2820.46136032159 15 18 11
-37.17487512341 43.8290164126679 2808.43885903947 16 19 10
-46.7313320929079 43.6801976431499 2807.68619774103 17 20 11
-52.6299301729474 43.1871107427531 2803.40768052813 17 20 11
-67.9566270483494 43.5965402841466 2808.35575880426 17 20 11
-64.4301319871967 42.2010668492965 2794.84846789748 17 20 11
-71.7731831402462 41.8477307464331 2791.99361694954 16 19 10
-85.5756145838649 42.1249804420277 2795.57592499123 17 20 11
-65.6621682206957 39.1089571569263 2765.53177258294 21 24 15
-53.0498367843386 36.7831655274647 2742.54963203317 22 25 16
-66.8948058629542 37.0573322406993 2746.10079354251 21 24 15
-10.4291181709872 30.3354459599807 2678.30904813658 21 24 15
-30.0576186218118 31.1668439709406 2687.55130880156 21 24 15
-27.0331709392906 29.730878330875 2673.67986793479 26 27 19
244.523034790795 29.9102610656937 2732.20355068486 13 14 6
141.22731978519 36.9377830736989 2803.10280164026 16 17 9
115.973229768098 38.1437921452622 2815.67995305776 13 16 7
64.1332712610971 41.7746015032016 2852.22594992006 13 16 7
61.9889960413964 40.9293887362529 2844.49176025989 14 17 8
32.5225594073277 42.5802512322958 2861.42805924132 13 16 7
26.6309774943201 42.0857910456812 2857.15462124167 13 16 9
44.8636584215425 39.3592096891448 2830.8339531738 12 15 8
26.120399498196 40.047838216081 2838.24714790006 11 14 7
-2.29306043738897 41.6543605674125 2854.7118054181 12 15 8
-38.795843070123 44.0453569470478 2878.90230566914 15 18 11
-38.6085804924772 42.9973210294235 2869.15186581188 16 19 12
-25.0847975866153 40.6741973139395 2846.83046939719 15 18 11
-35.3794488422059 40.6090353323534 2846.77784119721 15 18 11
-39.7407554168572 39.9778039451053 2841.14296641653 15 18 11
-36.0122775749649 38.5623093846187 2827.7819957271 15 18 11
-33.0760817783107 37.2134793777869 2815.08205717324 15 18 11
-36.0492425670689 36.4330711314306 2807.98235555163 16 19 10
-26.635903749382 34.4309337129588 2788.85860845512 16 19 10
-35.5038225379321 34.220283812436 2787.36943888508 16 19 10
-60.3119406030175 35.598512340616 2801.5057938428 17 20 11
-67.6519163277933 35.2503243745867 2798.65319841478 16 19 10
-68.4961383098366 34.2502918650665 2789.39029316316 16 19 10
-76.5591805913604 33.9747893083025 2787.24923062929 19 22 13
-67.4141459231652 31.9511552367696 2767.93087524413 21 24 15
-61.9341296762992 30.2852387323819 2752.13295932301 22 25 16
-45.8445249707908 27.5146632109318 2725.49383783361 24 27 18
-18.5344048106861 23.5577230295055 2687.2203453547 22 25 16
-45.9235157827955 25.2527151433642 2704.42772893683 22 25 16
183.222867048713 29.8310159418054 2806.33770019986 30 31 25
197.166868352757 27.4704063202435 2784.32073919641 16 17 9
217.940478813987 24.4611201544764 2756.13520885366 14 15 7
120.065450243295 32.4022878129701 2832.20369551344 19 20 12
123.220982234922 31.0371679318014 2819.66297041378 16 17 9
100.311380042093 32.1005837758173 2830.23326998448 13 16 7
134.711186315647 27.7912647531195 2789.68694315009 13 16 7
98.8967457550243 30.0798939506421 2811.90584549078 14 17 8
42.774315523602 34.3299241627615 2852.76133241252 13 16 7
51.2232590611905 32.4589611156353 2835.40921227871 13 16 9
44.5061549963914 32.0306636709721 2831.77300188726 11 14 7
46.0630429786604 30.8033481852878 2820.54415689329 11 14 7
34.8305735270258 30.8108747213804 2821.04738355686 13 16 9
-22.7150663492175 35.349246621579 2864.57802030638 15 18 11
-24.8083418835416 34.4947574889765 2856.88045994288 15 18 11
-23.2093330276761 33.2714068940894 2845.68216935204 15 18 11
-29.8049012357577 32.8538708799853 2842.13382292858 15 18 11
-31.9651758440718 31.9941287290634 2834.38796137596 15 18 11
-32.67551418157 30.9846293906987 2825.22206328413 15 18 11
-45.1657577210907 31.1588889513389 2827.2844204632 15 18 11
-53.9573139632601 30.9649057306819 2825.85098662973 15 18 9
-29.1585359564879 27.3448492642322 2791.93444711165 16 19 10
-44.5670517411261 27.8177151207746 2796.82353443181 16 19 10
-55.5665625860435 27.8461750636639 2797.49574379281 16 19 10
-65.0896628975115 27.7271270813095 2796.76711976551 16 19 10
-69.5445967322674 27.0832326175405 2791.0643084449 15 18 9
-52.4438916745196 24.1756763955702 2763.92213023832 19 22 13
-58.4177487796969 23.6761939557486 2759.58902375732 20 23 14
-62.9639132950448 23.0252523163556 2753.82004167406 22 25 16
-75.3541911663742 23.2095070771006 2755.95491672703 24 27 18
-37.2940432145374 17.9889554137012 2706.94122102396 23 26 17
-81.6156923262836 21.6030238575113 2741.5268017673 21 24 15
180.528457216227 22.4533860805027 2809.28753685484 29 31 26
209.964591265042 18.5512250956259 2773.79084578889 14 17 10
124.392242743689 23.4154774788963 2819.23810568157 15 18 11
137.441187511168 21.0467817669005 2797.8075892419 13 16 7
128.252569006744 20.828492964111 2796.08589891121 13 16 7
162.446111533517 16.3562263539666 2755.38922172324 15 16 8
81.8563245813944 23.165386887875 2818.04487900308 14 15 7
38.7604308396576 26.334501171715 2847.34071561546 12 15 8
44.1480181865703 24.7082095961652 2832.71132782652 11 14 7
43.4526714174663 23.6795521010504 2823.55620040272 12 15 8
25.4797508842328 24.3866805806036 2830.29288694451 14 17 10
6.08105550138083 25.2512337041002 2838.46686951552 15 18 11
-22.1845249724242 27.0338866508538 2855.03932567049 15 18 11
-25.0498605560039 26.2390627202306 2848.01771582294 15 18 11
-18.300659937871 24.4506312254351 2831.9042015465 15 18 11
-27.1422904575829 24.262573224567 2830.43420333599 15 18 11
-35.9673679941248 24.0760204954314 2828.97621236074 15 18 11
-48.447946827249 24.2753442883728 2831.04599712402 15 18 11
-37.4591641010706 22.0122028323851 2810.59263316609 15 18 9
-48.4729565860342 22.0579218341904 2811.25457688197 16 19 10
-55.090045688396 21.6416893222166 2807.69063610545 16 19 10
-59.5270663982741 20.9930924083707 2802.00078657252 16 19 10
-62.5270655638224 20.1882404470712 2794.88150542658 16 19 10
-53.2852274153315 18.0563410097746 2775.63248208774 15 18 9
-67.8638653662853 18.4961917601392 2779.88796170279 18 21 12
-40.100154730331 14.3179593504469 2741.94246022818 19 22 13
-58.9924161037589 15.2271836493466 2750.48379388878 21 24 15
-37.2008208210264 11.6562200577288 2718.09293646729 24 27 18
-25.5247799922449 9.17561676176296 2695.66660582926 23 26 17
-12.5439132328553 6.52774002189135 2671.71466186928 21 24 15
232.951105274894 9.6958877942048 2764.47157576958 21 25 24
113.796373437345 19.1835530414135 2848.58924753195 9 14 8
133.25646540763 13.8905913804719 2802.14826161976 12 15 8
123.317242866533 13.7610238154622 2801.11822290098 11 14 7
49.4794288412588 20.1335223053989 2857.55010457654 18 21 12
80.7392379168821 15.8344663906457 2819.66801974099 19 20 12
31.5881154133177 19.7591320664512 2854.45929528035 15 18 11
3.80841736687954 21.5226484336353 2870.14884441641 13 16 9
-5.0408559895696 21.3437692634477 2868.67335224303 13 16 9
7.12527186795153 18.9737936708776 2847.83789313143 18 21 14
-7.73454623084935 19.4206778572375 2851.88957488237 17 20 13
-4.64898064483599 17.9837730270384 2839.29747156018 13 16 9
-16.4846252108211 18.1197151899502 2840.59942526765 15 18 11
-16.4273502852068 16.9938669285634 2830.75406597547 15 18 11
-14.9284606634197 15.7066496436257 2819.48287331782 15 18 11
-56.9433841972311 19.1014128849188 2849.56376573645 14 17 10
-44.3862603938276 16.6237701092415 2827.77587146856 14 17 10
-38.5316267109426 14.8550282533823 2812.24929736788 17 20 13
-13.034192584831 10.9212244699792 2777.60260275955 16 19 12
-61.9780744983607 15.1475261433779 2815.01571252956 15 18 11
-59.8609082381358 13.7718409741112 2802.95723706531 15 18 11
-60.6872839929213 12.7142870624302 2793.70697756744 15 18 11
-62.2668025935347 11.7349026782684 2785.14618132104 16 19 12
-32.9508959869709 7.27493371513008 2745.85410504442 18 21 14
-62.6405927026941 9.44547771732146 2765.10155805276 18 21 14
-40.7252391671149 5.77735951991956 2732.79992352266 20 23 16
-57.4593251859059 6.49316124677754 2739.19967494451 24 27 20
-28.4177907682874 0.741712616725843 2688.58594571976 24 27 20
213.118910712367 2.74411928583196 2772.29200880092 8 13 9
109.84519090948 9.90795052434004 2833.32671851664 16 18 13
107.635745560956 9.0004775864185 2825.54497027924 12 15 8
76.3984899479269 11.1283076273792 2843.67034846174 11 14 7
57.6129750888961 10.8437011965483 2841.16709934387 20 21 13
30.4660238279091 12.5951588995454 2856.07994794245 16 19 12
30.6030846588046 11.4530520229804 2846.29263927966 15 18 11
-31.4898110912665 15.8859192256811 2884.05597106549 18 21 14
-20.0601525668613 13.5320159693733 2863.92174765604 16 19 12
-15.4440782692673 11.9022892738159 2849.96809282239 13 16 9
-19.812537590155 11.2464809341759 2844.32761389919 13 16 9
-33.0866079406533 11.5712936377747 2847.05785198285 14 17 10
-24.8834858200826 9.5229614894505 2829.52663224829 14 17 10
-35.9247645354635 9.60349038789982 2830.16912140515 14 17 10
-41.0583323600113 9.02795903053219 2825.20944224737 14 17 10
-30.8149776021978 6.71932544404516 2805.45080232656 16 19 12
-38.9267835174358 6.47013730909468 2803.27422880466 15 18 11
-22.2712614397367 3.40400137416236 2777.04385582387 15 18 11
-52.9364066391729 5.72608383331882 2796.81998961062 15 18 11
-58.84727413651 5.23012104310983 2792.53256346833 16 19 12
-52.4938700660684 3.31581288809579 2776.13149023766 17 20 13
-48.3743130136742 1.64616147743507 2761.81769723021 18 21 14
-27.1073283875247 -2.04003024316035 2730.28099132402 18 21 14
-46.0421349942264 -1.03641172687829 2738.7922556394 20 23 16
-48.5070359153543 -1.96214027705671 2730.82493526043 24 27 20
-102.859098918698 3.26894663127189 2775.43913614831 26 29 22
240.000567578401 -6.63873986616284 2759.61826133933 12 17 11
219.729909982598 -5.70194807228097 2767.16050579669 8 13 7
164.015039282767 -0.990646013313945 2805.84370449508 5 10 3
184.599566634695 -6.75401716149737 2757.74509533547 14 17 10
74.6234720363783 2.79168527195919 2836.16560136111 20 23 16
76.9837447663413 1.37347125441839 2824.28314354792 23 24 18
91.4042521706331 -1.38019440347251 2801.37458445018 22 23 17
-20.821625821918 8.71155447756122 2884.34241793651 23 26 19
-25.105521586694 8.05666257781129 2878.76354005878 20 23 16
-20.4223643997932 6.39364599379527 2864.85805194634 15 18 11
-21.0228235665899 5.31442523287087 2855.77145445754 14 17 10
-21.6551069262709 4.23262635740934 2846.6617738735 15 18 11
-40.1140354012663 5.17637860767628 2854.28237806163 15 18 11
-40.7570924902609 4.093945915249 2845.16488416088 15 18 11
-38.4838375671617 2.66945915449956 2833.21931350976 17 20 13
-38.4644094201141 1.49618509918881 2823.34627805912 17 20 13
-44.3424851428249 1.00192290738571 2819.08263198793 15 18 11
-37.0735255265757 -1.03000196444847 2802.10963213028 15 18 11
-29.1565866473247 -3.15412257620332 2784.37056817312 15 18 11
-22.7764696617045 -5.11361366071733 2767.98863084429 15 18 11
-72.2078126598844 -0.458420494086537 2806.28587319729 16 19 12
-57.8719354573307 -3.36391978953438 2782.0801581637 16 19 12
-62.3655613441803 -4.03443841877685 2776.34886881513 16 19 12
-41.0488031284224 -7.82100024057275 2744.84773645192 17 20 13
-44.2114455145566 -8.67287298789549 2737.61031359486 19 22 15
-47.3927284719844 -9.52610646984059 2730.35937089746 22 25 18
-65.5154506638436 -8.55174223560196 2738.22385325097 27 30 23
-109.066895256962 -4.42889248730072 2772.13501765824 40 41 36
218.670397935953 -12.1412320049891 2778.71107638344 15 20 13
215.498845511966 -13.0085832870982 2771.46711604795 7 12 5
160.579447018725 -9.40411171084513 2799.60515011665 12 15 6
117.555862639551 -5.84397010712218 2827.7206438074 14 17 10
210.284947276224 -17.3451086670653 2735.55217641543 14 17 10
1.72438314906209 1.30971211103989 2883.35731848754 21 24 17
67.6166766173854 -7.36200979778717 2813.7431046453 23 26 19
37.5108669956656 -5.10829608700736 2831.45429316956 23 26 19
-24.722334214812 0.876387559313963 2879.00495125376 19 22 15
-16.2960723814349 -1.25859869178108 2861.63505133892 14 17 10
-19.8904520006873 -2.01080500249226 2855.32019440719 14 17 10
-20.5237726708318 -3.11225401114545 2846.20966232286 15 18 11
-30.8297440455516 -3.08228450732684 2846.14960426369 15 18 11
-30.0192260345731 -4.36130253568728 2835.61447449483 15 18 11
-32.9353540468165 -5.20557183926318 2828.55579368122 17 20 13
-31.4601499135834 -6.57796091939314 2817.2669994955 17 20 13
-35.8921857455006 -7.25024111843103 2811.58034916945 17 20 13
-35.2199756619578 -8.54028439992208 2800.94490118728 16 19 12
-25.1194706532334 -10.9820093292936 2781.0820323009 16 19 12
-16.5689501458279 -13.2547849509198 2762.56618111414 14 17 10
-17.5196177860937 -14.3815841404157 2753.22546903498 14 17 10
-63.2525724766038 -9.9991529104182 2788.02689278372 14 17 10
-53.3365498082472 -12.4556839656042 2768.0299192388 15 18 11
-49.2575331331442 -14.2061371991575 2753.68632836951 17 20 13
-54.5385246891799 -14.7987092607138 2748.61998676508 19 22 15
-57.6859666367393 -15.6604330807101 2741.39353313271 23 26 19
-55.1658649404816 -17.242142293987 2728.39077950649 26 29 22
-28.608917336689 -21.8883889823196 2690.80313580088 27 30 23
222.192350337111 -20.2741643400103 2776.28257894176 16 22 10
181.826787227432 -16.9691337769697 2801.38319579421 10 16 4
201.042906014603 -21.6038818321485 2764.64956448425 14 17 6
217.811594835661 -24.7661391932472 2739.73577824605 15 18 9
91.219925254078 -11.4989197377158 2841.94886212975 15 18 11
-4.54510538379704 -2.80071205824942 2908.43455278372 20 23 16
-43.7141178802385 0.605792978730563 2934.40308869958 26 27 22
-19.8483542324013 -3.3301741626805 2903.51399137596 27 30 23
36.3073572008634 -11.1010103806951 2842.90273867886 25 28 21
21.3442478189614 -10.5332784263184 2846.87986001508 17 20 13
0.428288349432204 -9.24730531012916 2856.42674225743 14 17 10
-3.18871256757802 -10.0101862828872 2850.09543259492 14 17 10
-18.7581566708037 -9.34076117522345 2854.86885515392 16 19 12
-20.1364573720348 -10.3721318462548 2846.45366273619 13 16 9
-10.4159248639688 -12.7551137572365 2827.55038337221 14 17 10
-24.4543972660418 -12.2611473012064 2830.96267799887 14 17 10
-24.4357157834154 -13.4793494498723 2821.08887370561 14 17 10
-16.3669487311751 -15.6960999393883 2803.45969851965 14 17 10
-25.9731725049073 -15.7430200131506 2802.67118186269 17 20 13
-39.2121365692486 -15.3336038977651 2805.42729777536 16 19 12
-53.8652523342273 -14.7382095327475 2809.62957469267 14 17 10
-55.641244486643 -18.2391871126134 2781.15151975665 13 16 9
-53.6609506430688 -19.7480469604202 2768.99314800057 14 17 10
-50.2950013334182 -21.444864979674 2755.36794768259 16 19 12
-46.2718878654185 -23.2386012189827 2740.98331767146 17 20 13
-56.5739120216484 -23.1900004670892 2740.92621540615 19 22 15
-73.2487079005024 -22.3059962431212 2747.36979949457 22 25 18
-64.3448778582005 -24.7549609305096 2727.8741408681 25 28 21
220.97755723061 -29.139848301324 2767.94623432755 19 25 13
227.047268015465 -31.1135628653711 2752.57453598089 12 18 6
225.341332490506 -32.1905637599662 2743.92160296128 9 12 1
192.877532183612 -29.6515175935583 2762.39495223939 15 18 9
136.047919737884 -24.1992877875286 2802.74387705991 15 18 11
77.9793640757687 -18.5409115091427 2844.66607741046 13 16 9
21.7319977774477 -13.0393027506168 2885.43733500312 19 22 15
-33.4670104507793 -7.60434463576329 2925.73319550601 26 27 22
4.98552326871371 -14.6101746770294 2872.05446483908 25 28 21
33.0274634193657 -19.2325376458515 2836.77848152694 14 17 10
12.8265050905272 -17.9872085247119 2845.60814637899 12 15 8
0.193133760352904 -17.6560962243848 2847.56754165816 15 18 11
7.74799464066112 -19.8140999557204 2830.80115911398 16 19 12
6.29375128372045 -20.8687394318536 2822.33079638334 15 18 11
-4.83250545061953 -20.7206642652886 2822.91173081889 15 18 11
-10.7512389804747 -21.2199826354474 2818.61858542509 15 18 11
-22.5708443812485 -20.9748139191336 2819.93271951973 14 17 10
-13.0327764782647 -23.4306484863976 2800.89679865648 14 17 10
-9.45288944264355 -25.1467879945673 2787.42658849456 15 18 11
-5.93128256660869 -26.8676488456223 2773.91410588667 15 18 11
-34.5300532307884 -24.4660779958765 2791.48349140941 14 17 10
-44.10464420913 -24.4965151514933 2790.71798953014 14 17 10
-9.47736925914189 -30.2693752723635 2746.62374210491 14 17 10
-31.4196805921312 -28.7031377877504 2757.89809283068 14 17 10
-49.6665588109106 -27.6013610575609 2765.67321720006 13 16 9
-65.686531004906 -26.7773338769597 2771.35586205049 16 19 12
-36.5718554851606 -31.9273851916921 2731.91470813842 16 19 12
-61.881529390601 -29.8681483925018 2746.92596063409 18 21 14
-71.429939510506 -29.8949710112282 2746.17945612617 21 24 17
217.517546367509 -36.4879233493444 2771.57655126388 13 19 7
192.688838811129 -34.792285064713 2783.22922046753 17 23 11
214.200731991965 -38.6676511524086 2754.3394635292 17 20 9
187.143713677661 -36.6858532651971 2768.08393100637 16 19 10
190.852909192241 -38.4287974851621 2754.70732354928 16 19 10
170.055610113919 -37.1828886609539 2763.10439672477 11 14 7
-6.83232574853521 -16.7132017390698 2911.64646942042 19 22 15
32.9957200181221 -22.8352152696495 2866.38016222546 24 25 20
23.3264207682553 -22.8622320153812 2865.54631610106 24 27 20
26.517202654416 -24.4904860855907 2853.02951709865 21 24 17
-7.24429342226585 -21.4934440927979 2874.26986322281 15 18 11
19.2224016128124 -26.0561833206761 2840.32262085043 14 17 10
4.3241981243396 -25.4178530447899 2844.34744592539 15 18 11
-18.732899082377 -23.7295868493717 2856.04931930926 15 18 11
-11.1761711072937 -25.9370071782877 2839.2837454801 15 18 11
-1.47366557061335 -28.4373122461837 2820.36709819196 15 18 11
-10.3602368807858 -28.5554364438631 2818.86487567186 15 18 11
-21.4431423040522 -28.3846118291415 2819.4773516284 14 17 10
-18.5232134270661 -30.0345288081874 2806.76439024947 14 17 10
-5.39167767690563 -33.0350056487691 2784.15521457353 16 19 12
-1.14804610116459 -34.8889821420504 2769.93043219305 15 18 11
-3.52639541730082 -35.8793318813898 2762.02552760059 15 18 11
-10.2875572963579 -36.2911648087345 2758.35716767835 14 17 10
-6.17907846555665 -38.1559408220842 2744.03435548706 14 17 10
-38.2442536122154 -35.1716831472722 2765.26929947039 14 17 10
-38.4711132394415 -36.4537080818859 2755.21746838851 12 15 8
-32.2737148524936 -38.6157567082491 2738.70175397719 13 16 9
-54.0611662816644 -36.9759754090678 2750.08873846603 14 17 10
-42.2226368039504 -39.9256673885824 2727.77782329063 15 18 11
-105.171016768059 -32.5933911872772 2780.99233647863 18 21 14
-53.619697342429 -41.0408432965353 2718.27487118893 19 22 15
204.001384953021 -41.2782218100211 2793.86744177461 12 18 8
211.730505797274 -43.5219209425315 2777.22665545607 17 23 13
237.929949437622 -48.065187130798 2744.32110658522 15 21 11
156.03965734704 -39.2231911012811 2806.04400217157 18 21 12
208.893007399817 -48.4320542149334 2739.32640345655 16 19 12
181.929155150517 -46.3688160964224 2753.1385270363 13 16 9
12.1098135334776 -27.4246078289054 2885.79995262011 23 24 18
29.7740828565889 -30.9193361429372 2860.29837666334 22 25 18
18.5969572938562 -30.7387290881564 2860.84259998001 20 23 16
28.5384410553586 -33.277327036342 2842.0989991461 15 18 11
16.6084818573595 -32.999287896046 2843.33300743623 14 17 10
-8.01667626993585 -31.0593071601679 2856.36980271389 15 18 11
-27.3068183545164 -29.7943588138313 2864.62480044523 15 18 11
-30.142194041336 -30.6777110397491 2857.62416627592 15 18 11
10.0501631154026 -37.2545534407098 2810.14928464911 15 18 11
-22.5493127623357 -34.2184978019271 2830.99716499683 14 17 10
-32.1202459359604 -34.2228189480284 2830.23474149802 14 17 10
-6.36235735301183 -38.9626462651953 2795.77277321572 13 16 9
-5.72946323890244 -40.3564234196444 2785.10829881575 15 18 11
-15.3737833987937 -40.3664507548074 2784.29264662147 15 18 11
-14.7913814226723 -41.7641092321847 2773.59154973344 14 17 10
-29.5118428361416 -41.0767583250828 2777.74547213094 14 17 10
-25.3415629543026 -42.9750728832501 2763.46699648409 14 17 10
-53.018056790533 -40.4868582000824 2780.47006792366 15 18 11
-35.1931863985999 -44.2871486187292 2752.61329411837 12 15 8
-18.2328279045063 -47.9993126253921 2725.36559467262 12 15 8
-39.3492815535015 -46.4037699561092 2736.00344458851 13 16 9
-66.7961173675278 -43.8952775850983 2753.17310274 16 19 12
-57.1216678570568 -46.6139983936721 2732.99967961471 17 20 13
216.794449801577 -51.8846523513732 2773.44474339922 22 27 20
188.097877823861 -49.5674262428687 2788.47214122742 15 21 11
209.635672377458 -53.6384759307065 2759.60016957096 13 16 7
29.4040499740396 -38.1232111356795 2861.22897398905 21 24 17
20.4948177871676 -38.2229777075576 2859.71041710082 19 22 15
15.368827929426 -38.8208965339513 2854.75611797595 14 17 10
10.9884452880626 -39.5192720044273 2849.10707444939 14 17 10
2.10480176333405 -39.616517530685 2847.60708009803 15 18 11
-36.6310830608172 -35.6924735006586 2873.89192646694 14 17 10
-35.7148053894658 -37.0880170077004 2863.43316838542 15 18 11
-38.5506425512179 -37.9825683532984 2856.43243743436 15 18 11
-9.57943877955092 -43.2237831683189 2819.35659481054 14 17 10
-35.4226144263681 -40.9907764231803 2833.98198068742 13 16 9
-8.9116739444417 -45.9487305226651 2798.82977431326 13 16 9
-69.1509529976 -38.9330446101649 2846.59605472224 14 17 10
-25.9490713178756 -46.2429007120715 2795.12335668963 14 17 10
-29.7068448674307 -47.0508216059604 2788.68976980547 13 16 9
-45.1095595992135 -46.2250122257569 2793.58485016118 14 17 10
-95.2422917603688 -40.4813308279888 2832.61448505525 15 18 11
-16.5002128582945 -52.9667774363258 2745.12317045295 15 18 11
-10.3054344675688 -55.2231244621538 2728.60537358749 13 16 9
-25.729661716638 -54.3983409099826 2733.4848538643 12 15 8
-44.6770524197071 -53.0530616802787 2741.98843180151 12 15 8
-47.1312077531845 -54.0764567828028 2734.02870090503 13 16 9
-44.627770091394 -55.8258427502113 2721.01301784879 17 20 13
-35.0855607878322 -58.6160255920036 2700.74366348309 18 21 14
154.397851532883 -51.5099402589542 2828.25905010917 19 24 18
174.588415135205 -55.4610141012032 2800.88141742152 19 24 18
72.1603588933384 -49.8248466990791 2832.87848834154 18 19 13
37.3699668904002 -46.4460016394979 2854.61023086505 18 21 14
20.8815939531526 -45.5123529193274 2859.95387727524 16 19 12
11.2350610750491 -45.4974177215235 2859.13645299744 14 17 10
11.3758626981086 -46.8175867124633 2849.35095419501 14 17 10
-3.50081309835182 -46.0800404189532 2853.39188770202 15 18 11
7.81475892047112 -48.9506499207909 2833.17234333095 14 17 10
-50.2259714450268 -42.2130887826471 2877.59025437531 14 17 10
-31.4854347574676 -46.1193276223535 2850.39672995937 14 17 10
-29.1768316822736 -47.7546946457992 2838.47542131095 14 17 10
-44.6314337416551 -46.8989152555049 2843.33303923956 13 16 9
-19.5571252234363 -51.766450303411 2809.61021342141 13 16 9
-73.1707948400864 -45.4856388344527 2851.05930965361 14 17 10
-23.4803162948132 -55.2586102853296 2783.28105719304 13 16 9
-61.4411598755862 -51.1475121354824 2810.12869496547 13 16 9
-75.3586609807586 -51.8234627281217 2803.74158194175 14 17 10
-14.2261771333301 -62.1255755144775 2733.13899001016 15 18 11
-41.4150186940303 -60.9276882468672 2739.37282213468 12 15 8
-41.0217329530593 -62.3897961779951 2728.53459887968 13 16 9
-46.3619423439412 -63.0055769980465 2723.42491696905 17 20 13
-46.7416862894827 -64.3662431585072 2713.2618584488 19 22 15
163.329892905569 -60.2170994200573 2821.10368768945 23 28 24
171.127363816641 -62.603963790909 2804.51172463284 10 15 9
157.251801710677 -62.0885150319596 2806.8068941157 23 25 20
172.640553474384 -65.5244096334332 2783.36174376417 17 19 14
178.704028939014 -67.719602186825 2767.9841089941 15 17 12
154.112592649133 -65.7426461662312 2779.81020613225 14 17 10
48.3705902142724 -55.2425892984538 2845.24827583286 16 19 12
24.291296436624 -53.2217737837159 2857.44615264179 15 18 11
1.07030126074026 -51.2973845951195 2869.03040889957 13 16 9
8.75740281925452 -53.6928316515113 2852.3583932709 14 17 10
27.6024930213854 -57.6813214738939 2825.24024531152 15 18 11
-21.6767678128711 -52.0410777166007 2861.18265148777 14 17 10
-26.0128904416557 -52.7471098280894 2855.56535972947 14 17 10
-39.2702968444165 -52.1779391905849 2858.30891558559 14 17 10
-39.8975588822545 -53.4155613597073 2849.20208578921 13 16 9
-26.5304914430748 -56.6828316624524 2826.76230069966 13 16 9
-74.3678634395548 -51.0890185702086 2862.51439657916 12 15 8
-58.8476809824465 -54.6811694473289 2837.92869504409 15 18 11
-39.7977469295254 -58.8203370821511 2809.72294844468 14 17 10
-13.6046362021363 -64.0463299788066 2774.33898282929 14 17 10
-18.8761579462158 -64.6609570173878 2769.27939438084 13 16 9
-41.5530907679107 -62.6884600030204 2781.25829672565 13 16 9
-32.3263499567532 -65.4589145775356 2761.99509459713 13 16 9
-13.1048939193981 -69.7516179822796 2732.67816810357 15 18 11
-19.9007571060581 -70.1560160382345 2728.98469012198 12 15 8
-43.1655208089301 -68.0632803523071 2741.77310697788 11 14 7
-40.6220754781317 -69.8759695040955 2728.78640016861 12 15 8
-40.9794742217273 -71.2572397430721 2718.63914132138 16 19 12
-50.5977962297135 -71.2228921887423 2717.84256050981 18 21 14
201.742012477406 -73.020725776048 2788.36338804455 16 21 17
126.667797310312 -64.0781098753815 2843.91199429767 18 20 15
172.310086281271 -71.7344618247159 2794.20693899859 12 15 8
169.971490838209 -72.7940901767251 2786.33050192727 15 18 11
184.482351797098 -76.2093578158498 2763.48409090503 12 15 8
162.166363185885 -74.4902972027788 2773.2529979702 9 12 5
120.877958331746 -70.0792317897356 2800.16030269064 10 13 6
18.9629612712698 -57.0470690642015 2881.97205670412 19 20 14
16.1602582370199 -57.973627819046 2874.99488878835 15 18 11
36.7732150216376 -62.2472525751183 2846.6867875197 14 17 10
-21.1588100844742 -55.2904766613668 2889.94957506333 13 16 9
-20.9186067513736 -56.646783914946 2880.2356571574 14 17 10
13.7557577464289 -62.9962413757604 2838.64299310653 14 17 10
3.36225183678929 -62.8456009966932 2838.52009061669 14 17 10
-20.4149779811145 -60.7332927302334 2850.93710898821 14 17 10
-27.0042101916808 -61.1199058559445 2847.39351229509 14 17 10
-22.4816328583179 -63.1445558741159 2833.37007915226 14 17 10
-59.3696745212211 -59.047056461503 2858.525271791 14 17 10
-45.2789795703523 -62.496362233102 2835.3741010529 13 16 9
-55.5284712991468 -62.3326017341993 2835.35536949514 13 15 10
-13.7981306261192 -69.9747061092172 2785.28489929197 13 15 10
-16.8574764090037 -70.9211297597271 2778.12158495107 13 15 10
-16.2988936273372 -72.4206290300275 2767.40299965399 12 15 8
-4.45915866474467 -77.0901141297186 2735.20307080444 12 15 8
2.43140374510809 -79.6002745451716 2717.95304590214 14 17 10
-17.3444699191114 -78.0065252047722 2727.09262851643 13 16 9
-29.8742076913807 -77.5183644599233 2729.12823993173 12 15 8
-30.9390663190532 -78.8101366471938 2719.70391274809 11 14 7
-37.0192185944065 -79.3227707111918 2715.29368401421 15 18 11
-17.5504015749861 -83.8612549897383 2684.9194987407 17 20 13
152.495844006319 -73.7771938953292 2831.70789722657 10 15 11
159.557734022177 -76.1508310451078 2815.81809398565 11 16 10
200.488704590103 -83.3418177354051 2770.11086932772 16 19 12
181.916952291973 -82.1220873948785 2776.41604637292 15 18 11
143.470594552803 -78.0439277643685 2800.44118999503 9 12 5
174.046923814693 -83.840967433677 2763.29137957951 9 12 5
36.8370934316795 -66.8178952232728 2866.47200158857 15 16 11
26.4015735254435 -66.655374388171 2866.3184079558 16 19 12
9.94243974434594 -65.6053852844105 2871.68413421828 15 18 11
53.8558444538268 -73.4168423015922 2821.96002481329 13 16 9
48.6178539934685 -74.036649474223 2816.92442319258 14 17 10
7.39817998349102 -69.318768141887 2845.11843755808 14 17 10
-8.2073286445381 -68.3707518057463 2849.86712729289 14 17 10
-11.0897600484527 -69.3146726939625 2842.83207463783 14 17 10
-1.36164800447292 -72.1600149154663 2823.93224237209 14 17 10
26.7908444217282 -77.8119878082887 2787.49614895736 14 17 10
-39.7884734234291 -69.1271103725262 2840.55573671466 14 17 10
-27.9598245046 -72.3181818514558 2819.47147290572 13 16 9
7.25350843479378 -79.1185053341382 2775.79686711961 13 15 10
3.42865860348152 -79.9665414396249 2769.31445201587 13 15 10
-22.3013209993821 -77.4290807459367 2784.02343824001 13 15 10
20.4713731142481 -85.510108093201 2732.23570684703 13 16 9
7.51076704083564 -86.4317422446118 2724.07094975893 12 15 8
7.15999683604318 -87.8579405413836 2713.92826851147 13 16 9
-14.7876664303568 -85.8724363213329 2725.20086317516 13 16 9
-20.1602598353625 -86.5006581069074 2720.06793686266 12 15 8
-25.5380930873679 -87.1291056335491 2714.93091645279 11 14 7
-18.8162556317544 -89.7020934534966 2697.55855547423 14 17 10
-11.4647596896802 -92.3961836117572 2679.40670285664 16 19 12
186.221283906499 -84.71666275493 2812.87155098812 95 99 98
187.039137361588 -86.246787223918 2802.34046693562 20 25 21
176.983106283468 -86.2140242425252 2801.22657345176 17 22 16
187.781857005877 -89.2051454860016 2781.86680050687 10 13 6
186.172408155816 -90.4085742366185 2773.28317235501 14 17 10
159.217373053856 -87.9038319623479 2787.10392397863 10 13 6
148.445338392714 -87.7540743417515 2786.70661344727 9 12 5
77.5366730999441 -80.1030703584039 2830.44675597405 15 16 11
38.921484393831 -75.7466197695509 2855.586545607 18 21 14
24.694144788096 -75.0019845564626 2858.86290157675 17 20 13
5.99001228183171 -73.5718573492845 2866.30821571474 14 17 10
5.4038540615009 -74.8651765401965 2857.23090083648 14 17 10
-7.20836552625692 -74.3382326989037 2859.20691586751 13 16 9
-5.58042661748015 -75.9760871714227 2848.02749774557 12 15 8
-10.7044772644262 -76.5889043415438 2843.07452893294 14 17 10
19.0890737111324 -82.5830345683315 2805.35626752981 14 17 10
13.1099787395068 -83.0905287982792 2801.01932342635 14 17 10
-26.8479009294997 -78.3141801633192 2828.89300447983 14 17 10
-15.0528411701183 -81.5741493724644 2807.78374771477 13 16 9
6.1805810679223 -86.341027912024 2777.45256893162 14 17 10
-3.49573667651848 -86.2738296712851 2776.6141121682 14 17 10
-1.47325714950464 -88.0544623794209 2764.48465065419 13 16 9
21.6011664338445 -93.197116764816 2731.78074529181 13 16 9
37.2441421861223 -97.1947384008388 2706.0466743414 13 16 9
-25.3556092083036 -88.6570159505588 2757.04994838416 13 16 9
-7.57794742098028 -93.005695668148 2729.156174354 12 15 8
-17.2620920713868 -92.9378573604309 2728.31175246446 14 17 10
-25.4920275856807 -93.1014629262519 2726.0502722448 14 17 10
-21.5645090643763 -95.2513589941761 2711.59483387399 13 16 9
-19.1240596859696 -97.1720251369632 2698.53262169902 13 16 9
-11.0574112761854 -100.035305363015 2679.66330475714 14 17 10
187.444322866964 -93.9210044548355 2802.59532313234 14 19 15
185.901168380946 -95.1355817875298 2794.05969671 10 15 9
195.135433369979 -97.9594454623625 2776.03700959719 15 18 11
177.346272354195 -96.7668376601042 2781.67432975408 13 16 9
162.691560484905 -96.029222723936 2784.64083889032 10 13 6
141.962824335002 -94.3647103131769 2793.09002958254 10 13 6
118.264729125953 -92.2310347149873 2804.32948592138 9 12 5
80.2119639376597 -87.8900396223817 2828.64157897376 15 16 11
52.2044871789809 -85.040143855164 2844.17121470909 18 21 14
23.5670251302489 -82.0632575866647 2860.48013500125 17 20 13
9.38992882874112 -81.284460736278 2863.79338092693 14 17 10
-1.7316571831274 -80.967410142629 2864.37855716273 14 17 10
23.916265661093 -86.3638193316847 2831.06858328222 12 15 8
18.7272684309647 -86.985322810345 2826.06878378457 11 14 7
-2.1202639786444 -85.1495206692439 2835.66776077834 14 17 10
-43.6902242383366 -80.0241162741632 2864.8449459798 14 17 10
-20.5834917541532 -85.0947814290051 2833.39986329798 14 17 10
-18.3466002485728 -88.3307048879366 2811.53758028082 13 16 9
-8.8468658335934 -91.3104512458036 2792.47151141456 14 17 10
4.22047017404292 -94.8886539624993 2769.81286967971 14 17 10
1.8426506045901 -95.991368774735 2761.90777996068 14 17 10
16.180826597382 -99.8218446927067 2737.69904618025 13 16 9
26.7668711967066 -103.069122301103 2716.94874391567 13 16 9
12.6557048802702 -102.282366017162 2720.30952973362 13 16 9
-2.1293039996324 -101.372231904012 2724.41778873605 13 16 9
-10.391529434705 -101.530895720901 2722.13292589465 14 17 10
-18.6413236581025 -101.68838359794 2719.85678618323 14 17 10
-15.4459383774039 -103.758736717 2706.10604833173 13 16 9
-15.8706722405018 -105.234619137397 2695.90979206704 13 16 9
-10.650361358634 -107.673405779008 2679.91969544482 14 17 10
182.415146478606 -100.774486709681 2807.56069696017 15 20 16
181.662330210946 -102.121783495844 2798.36229469957 10 15 9
180.106094621335 -103.354238427791 2789.81709495251 10 13 6
167.74664049073 -102.941190885744 2790.74073152131 11 14 7
140.071382701375 -100.167628269481 2805.27577660575 11 14 7
126.293724379265 -99.5087492393277 2807.6426451335 10 13 6
120.953264873198 -100.146943893819 2802.53296285556 8 11 4
88.2143639246147 -96.5216178182879 2822.04771913568 16 17 12
19.9685198361541 -87.3075560868326 2873.90159239954 20 23 16
23.9520356075302 -89.3504458301185 2860.72232626768 18 21 14
20.333962638317 -90.208067367857 2854.39005404903 16 19 12
44.5309265029183 -95.4769028543331 2822.49896848355 16 19 12
13.805947465662 -92.0459924241422 2841.00230724742 15 18 11
20.611720864554 -94.5809849452455 2824.9260223083 14 17 10
6.46684043147072 -93.7691985202092 2828.26278930322 14 17 10
-15.0638716426799 -91.753849461714 2838.60246084812 14 17 10
-46.8791580011818 -88.0487415672823 2858.78716916615 14 17 10
-50.4616912762654 -88.9024189631499 2852.48038593107 14 17 10
-37.8501427202962 -92.4081453410714 2830.72673788167 13 16 9
4.76630775740672 -100.871266280273 2780.05913786945 14 17 8
4.6158945820487 -102.348225753577 2770.06173707011 14 17 8
8.07995575107423 -104.433406216129 2756.50569300046 14 17 8
19.4932366414604 -107.857024656833 2735.11884767007 14 17 8
14.1078921763196 -108.496435869065 2729.9766211653 14 17 8
30.4229741436064 -112.78472883442 2703.49326541682 13 16 7
35.0594181127408 -115.135486186192 2688.31539372414 15 18 11
18.7743581165667 -113.953919310326 2693.80768177856 15 18 11
-21.108449812308 -108.734921331373 2722.973357151 12 15 8
-20.7608956270424 -110.350820850667 2712.10090865358 11 14 7
-6.20386886879687 -114.42096341 2686.81427939852 13 16 9
-23.0291272637149 -113.101129457707 2693.15099756151 15 18 11
184.371398116593 -108.667730915378 2806.4687714246 11 16 12
150.444442980645 -107.839799608938 2806.58109069088 11 14 7
128.95688631353 -105.95081694334 2815.71636981143 11 14 7
139.705540105146 -109.127647667001 2796.31933987716 10 13 6
130.511791470742 -109.167240109583 2794.59483573806 8 11 4
84.0425010721582 -103.268178509864 2826.39978831423 16 17 12
34.0107198274975 -96.7424955216891 2861.80116130967 21 24 17
31.1465344410968 -97.7305721954315 2854.77940640136 19 22 15
53.1614398251401 -102.73710277166 2825.01352754361 17 20 13
17.0876304899217 -98.3700634557817 2848.28997211059 17 20 13
-2.30941961983033 -96.674250961759 2856.46935786778 17 20 13
10.5303276886919 -100.230036365336 2834.8811768823 16 19 12
-2.09368666279497 -99.6309618319323 2836.84871251655 14 17 10
-19.8836257923172 -98.1697398488144 2843.72186581517 14 17 10
-65.6019983472631 -93.5067005855034 2867.41906870633 14 17 10
-31.5710924268666 -100.650363295653 2825.35592499445 13 16 9
2.22138711163566 -107.814128229718 2783.11954461132 14 17 8
-9.77967078613151 -108.833127166343 2774.41456019547 14 17 8
15.234843259341 -116.183644921633 2729.51959819716 14 17 8
38.0654407717409 -121.675987157404 2696.63716687454 13 16 7
61.4404531222132 -127.307628998743 2662.91335680024 16 19 12
13.4265316992375 -120.607304767756 2699.778404036 15 18 11
-22.8597729559361 -115.883604101008 2725.37298050616 12 15 8
-38.5801376772201 -116.285619044106 2720.15039396857 13 16 9
-36.8342290557917 -118.178770266842 2707.82016485136 15 17 12
196.423677361471 -118.164613806408 2796.63060045039 13 18 14
190.989278739195 -118.817259243791 2791.45274650628 7 12 6
153.890149423324 -114.429357914512 2813.98602040809 16 19 12
154.695314966424 -116.060252545335 2803.44522819668 8 11 4
150.853278423981 -116.954578443212 2796.95011961234 9 12 5
154.653196705442 -119.085199213347 2783.63731536692 10 13 6
133.202724804286 -117.138546677223 2792.79977013502 8 11 4
76.8235733338693 -109.485574931238 2833.48639092165 12 13 8
51.0939774080117 -106.770892279399 2846.96151631639 22 25 18
47.4252966808972 -107.650009418519 2840.59215409754 19 22 15
46.00627987503 -108.903569528595 2832.14661475034 19 22 15
23.4925500117402 -106.669575596768 2843.00981982985 20 23 16
-5.67767071554881 -103.303761813046 2860.16983308706 16 19 12
1.19281538167648 -105.926931697319 2844.13971865124 16 19 12
-18.8621516433309 -104.049186772111 2853.07841902577 14 17 10
-27.6800595750326 -104.045128543122 2851.62659093215 15 18 11
15.3503762053657 -114.344459835839 2791.36891494566 15 18 11
-8.33833706271858 -111.832015797248 2803.85212761976 14 17 10
-6.93846280542298 -113.599021467631 2792.50672638853 16 19 10
-42.2146025630992 -109.053550052165 2816.36232244915 16 19 8
-21.0731958973236 -114.234200566392 2785.96234377733 14 17 6
-5.19321821500807 -118.541661465136 2760.39851118693 13 16 5
38.868404007836 -127.808636741211 2707.06907096894 14 17 6
34.1296762769505 -128.587581559297 2701.15955286288 17 20 11
24.3297183966171 -128.47633139569 2700.23168985801 16 19 10
3.0404177801775 -126.323968976153 2710.74705972027 15 18 9
-27.4811170130502 -122.504353686465 2730.63517953132 12 15 8
-42.1235204118071 -121.4838311551 2734.84708095247 11 14 7
-41.0324661345545 -123.274719555437 2723.27768855643 11 14 7
-47.8030807711343 -123.659049078598 2719.60290991572 12 14 9
186.731647485049 -124.233924825634 2805.63055298563 12 17 13
182.10060858982 -125.01262926881 2799.79910203228 7 12 6
174.370581507153 -125.289496664758 2796.66440578058 11 14 7
172.809608094408 -126.572520217978 2788.11551534438 11 14 7
168.149495455552 -127.353599472158 2782.26327066193 10 13 6
149.696581548276 -125.86320165454 2788.65567269991 10 13 6
149.637925767734 -127.400985064415 2778.72448070904 8 11 4
94.7260691074669 -119.82582176081 2818.00401296666 12 13 8
59.0732733665718 -115.396605335201 2840.35093758316 20 23 16
58.4109670397255 -116.79401348507 2831.2178940863 16 19 12
48.659857125505 -116.667992460889 2830.32551683186 15 18 11
29.8991121025685 -115.011661140832 2837.73093711678 17 20 13
14.9642137965769 -113.986754365809 2841.73082494457 13 16 9
-4.40811467867674 -112.190799568857 2849.92893365972 13 16 9
-20.7181834009649 -110.899776719562 2855.40364677096 15 18 11
-23.5798705783148 -111.909338015426 2848.38359404385 16 19 12
-3.47137771366679 -116.897571337265 2819.70588200354 17 20 13
0.955444372649161 -119.200647953072 2805.61162355299 18 21 14
-10.1607843683444 -118.806721149197 2806.20107278194 18 21 14
-11.6925045466703 -120.085283830656 2797.67341123486 18 21 10
-13.251717918872 -121.365943921425 2789.12610313803 19 23 9
-7.53250641680903 -123.94106612615 2773.49697965596 19 23 9
1.0287190989251 -127.039669207071 2754.98500025632 16 19 8
-14.4623149576109 -125.868615783222 2759.81780477784 16 19 8
-17.589634444992 -126.899109178839 2752.60478901808 17 20 9
-15.6834003543747 -128.840718764496 2740.39053780384 18 21 12
-13.1068367363847 -130.916475814032 2727.42621217995 16 19 12
-13.4536617719643 -132.475094907081 2717.28601460943 15 18 11
-12.4063160986754 -134.297544041117 2705.68477705225 14 17 10
-6.18218787941993 -138.738669839862 2678.06097707479 13 15 10
163.828850913948 -128.055313208287 2826.062220065 16 21 17
166.235959230304 -129.988010617803 2814.2111084081 9 14 8
184.767850074355 -136.180457233831 2778.20890671594 12 15 8
163.177470677678 -134.137151819176 2787.27042912064 10 13 6
142.440012841244 -132.215382526667 2795.71430585597 9 12 5
124.839600306483 -130.803040656872 2801.48956681122 7 10 3
79.9632288243006 -126.277705301419 2822.09105238716 21 24 17
41.3877194858285 -121.214208712859 2847.26289329087 16 19 12
61.1277170225515 -126.136385804248 2819.55371681731 15 18 11
40.0714467799519 -124.046884144614 2829.00266033934 16 19 12
31.860715822408 -124.164394912936 2826.75533539195 13 16 9
18.4241876538089 -123.367563581203 2829.37019520367 13 16 9
-11.3838562779214 -119.692678154285 2847.30443894616 12 15 8
-8.31984994621426 -121.762373572494 2834.69350165134 13 16 9
-9.75978862132942 -123.050348684501 2826.23232679884 14 17 10
-0.134479487845063 -126.308544460917 2807.25587932471 15 18 11
-2.39927607018831 -127.472272261673 2799.43241333824 15 18 11
-23.8001479354646 -125.216559882815 2809.86772078612 16 19 8
-26.0536310042123 -126.378923084184 2802.05246311906 17 21 7
11.1281601171718 -134.6685976389 2756.09188645664 19 23 9
-6.58876098491623 -133.069546037294 2763.01867021582 18 21 10
-11.889100880794 -133.713900206826 2757.93804030034 17 20 9
-9.95352320382148 -135.683701954588 2745.74462360218 17 20 9
-21.7836307492325 -135.136034807471 2747.05267668225 17 20 11
18.2390181630945 -144.15341828813 2696.97204037017 17 20 11
-12.3359895081359 -140.152839455086 2716.82231316682 15 18 11
-7.7126155689593 -142.669369323532 2701.63412706001 14 17 10
3.46545006806576 -148.119509376731 2668.95058582439 12 14 9
199.192824257938 -141.518088121679 2796.0493564453 16 21 17
140.292586294095 -133.146281634856 2837.3823966053 17 19 14
165.13272827149 -138.909299609016 2805.95535592517 18 21 14
180.551448763785 -143.111799156794 2782.52775306235 17 20 13
158.203091132313 -140.88176272967 2792.2760778042 13 16 9
122.157534265125 -136.27367777121 2814.3391875027 12 15 8
110.725239707594 -135.870674538622 2814.69955984995 11 14 7
94.7528148888908 -134.672691835066 2819.18353033669 16 17 12
65.1668977489521 -131.08955081559 2836.04300272124 22 25 18
69.7921207534336 -133.453982728886 2822.09225855369 17 20 13
41.1329078693341 -129.98848128552 2838.3878861333 14 17 10
54.0114765914623 -133.815983501818 2816.82617684278 15 18 11
37.5036332044778 -132.466083375288 2822.1581115809 13 16 9
24.7988736131268 -131.77673525429 2824.0675705211 13 16 9
8.40133685881783 -130.417122390741 2829.47951808823 12 15 8
-7.19138577513712 -129.185810591608 2834.23891161038 12 15 8
-20.502240882293 -128.350718747211 2836.94506830337 11 14 7
18.7456236108106 -137.020718789218 2790.0099381613 11 14 7
-9.38434515297626 -133.508937272342 2806.68946051605 12 15 8
-23.466913530553 -134.11721766962 2800.18302946674 15 19 4
-5.28518296386604 -139.066776341806 2772.57912994763 17 21 7
-19.3103135206254 -138.094416194406 2776.00322504402 18 22 8
-16.5797725548213 -140.223974766144 2763.15054284731 17 21 7
-18.2483122006118 -141.546480448678 2754.52347536843 19 22 11
15.4360623054677 -149.506973554398 2710.96965512576 21 24 15
7.12623374837174 -149.622236397239 2708.6505035998 21 24 15
12.4639256735897 -152.316447813741 2692.7442052241 21 24 17
-15.1798922366162 -148.760951229415 2709.77637013302 21 24 17
-24.8616924900058 -148.598457669197 2708.93442167145 20 22 17
205.037597209452 -150.153373429241 2791.59677231056 13 18 14
184.085163989593 -148.146877129814 2799.88553243865 12 17 11
150.85099510672 -143.991896514851 2819.04394122833 11 14 7
157.068675013091 -146.658969770401 2803.77570238018 17 20 13
150.921252661698 -147.18470066912 2799.31664179452 12 15 8
137.877402437005 -146.500916204424 2800.98055299406 11 14 7
111.120686719365 -143.391213061946 2814.94813481778 11 14 7
60.2392117279837 -137.546177700995 2841.08395923298 22 25 18
57.3079977986048 -138.5961423396 2834.01330042867 17 20 13
58.889555542649 -140.459642733346 2822.79911666951 14 17 10
37.8364682395693 -138.261059860739 2832.25092009017 14 17 10
24.3784264994988 -137.412082446917 2834.85044838499 12 15 8
16.2035890920453 -137.510584479192 2832.62923972106 13 16 9
22.968980452946 -140.329644327132 2816.52224212379 13 16 9
19.2398977968287 -141.247141104539 2810.10889885713 12 15 8
31.820822616706 -145.167879390517 2788.33094889076 12 15 8
33.9335330552801 -147.184767564697 2776.26599548668 13 16 9
10.9185784945889 -144.55316777244 2788.00319714467 14 17 10
-7.58363341701274 -142.735016470896 2795.59685324947 15 19 5
-17.9468406414327 -142.419687230269 2795.4967491047 16 20 5
21.4233264660502 -151.445271465824 2747.41344100462 18 22 7
-42.2405643015793 -141.093983185154 2798.88952040355 18 22 8
-9.88582765820611 -150.515963060188 2746.9539003275 19 22 11
5.72782888655121 -155.174825031322 2721.19493146818 22 25 16
20.4880730618648 -159.706265645248 2696.05357676707 22 25 16
-8.66482427136317 -155.798577127817 2714.46363497686 24 27 20
-26.9442895468748 -153.959263827842 2722.21916653853 24 27 20
-33.7354587914591 -154.335829339059 2718.52923227304 24 26 21
217.906295305835 -158.42759009563 2791.00277366597 24 28 27
196.115490363772 -156.238526030465 2799.91974161183 24 29 25
150.476019887512 -151.428346716198 2819.96948323242 18 21 14
156.698199621658 -154.139026883497 2804.70428552786 13 16 7
153.627077469994 -155.212573130522 2797.53208482192 10 13 6
175.825906092034 -160.812545271504 2767.89652994599 10 13 6
141.316661675582 -156.265804182465 2788.60266687235 13 16 9
35.5562564806795 -140.384076079689 2863.93553723288 21 24 17
49.3639983213305 -144.472164047887 2841.81104881812 17 20 13
51.7265244329748 -146.499104480827 2829.9271412101 13 16 9
28.4332816662984 -143.829797499191 2841.46279680295 15 18 11
23.2627212744116 -144.474152993032 2836.47624681284 14 17 10
15.8407986361055 -144.703009738621 2833.56485075452 12 15 8
24.103931462554 -147.845995166944 2816.07188390369 13 16 9
16.6516207445371 -148.077164326349 2813.13844716505 16 19 12
12.9178710858406 -149.003373445232 2806.72167655889 17 20 13
-13.7682677544229 -145.610094537831 2821.97718854058 17 20 13
-3.44486633133867 -149.184169763653 2802.26987196731 18 21 14
-24.1120104953989 -146.89696713004 2812.00190268244 17 20 11
17.6420755725686 -156.496665744234 2761.93843594504 17 20 9
-19.1230008423156 -151.127505014032 2787.18920993156 18 21 10
8.44257499236978 -158.089650486535 2750.3210118718 19 22 11
-49.2236550412446 -148.630750082837 2796.25952142508 19 22 11
-53.6868291731452 -149.415122988502 2790.54973050919 18 21 10
-6.15190725688608 -160.342721852521 2733.55427035397 24 27 18
15.1316081591677 -166.21978407756 2702.01845077915 19 22 13
-1.08549446563444 -164.766075249525 2707.561381035 25 28 21
-43.0080518131199 -158.215340490078 2738.96054839743 26 28 25
-55.4565529433548 -157.452150196055 2741.05614859009 26 28 25
187.907031301818 -160.757756015642 2817.41382648672 3 8 4
191.854328345838 -163.090887887029 2804.20683449285 21 26 20
