ply
format ascii 1.0
comment KinectMotionCapture
element vertex 761
property float x
property float y
property float z
property uchar red
property uchar green
property uchar blue
end_header
-76.6523496028646 773.785971706636 2784.41910469345 241 242 244
214.151697331247 724.471964130767 2699.89956052409 187 188 190
227.250249000967 721.798333009819 2719.87894579741 208 209 213
238.045098788821 719.545386995581 2737.8326982242 205 206 210
240.920621974356 718.724839613985 2749.26864444074 195 196 200
242.232001029841 718.188208448316 2759.38168973057 217 218 222
245.986026114699 717.213304051675 2771.38533163356 244 245 247
247.366328169693 716.667689202644 2781.43126315048 240 241 243
247.163310561167 716.408159037004 2790.17335267233 236 237 241
244.555763793601 716.581788983136 2796.98808852409 240 241 245
241.960400344747 716.753647153053 2803.79098802801 247 248 252
236.123782711094 717.507343029281 2808.05819253823 245 246 250
230.284040308192 718.261124950281 2812.32882511512 247 248 252
221.989410408137 719.454061638773 2814.72122458858 248 249 253
216.137151011383 720.208949775123 2819.00412322725 249 250 254
207.818230393729 721.404372044178 2821.41993853266 235 236 240
201.953496520277 722.160361035915 2825.71506180516 235 236 240
192.785816851363 723.505598090858 2827.53499335978 216 217 221
181.945283448105 725.14799722197 2828.13767865742 220 221 225
167.763282872244 727.384310703567 2826.30307270092 213 212 217
153.53923552341 729.625630004861 2824.50947995358 202 201 206
142.603703704245 731.279048656628 2825.20520924421 206 205 210
134.145279738798 732.490229505668 2827.75722432497 218 217 222
126.508552600621 733.554450396897 2830.93225008665 219 218 223
117.183851977873 734.917713373236 2832.90544154631 225 224 229
108.680765599039 736.134039840618 2835.50138438566 236 237 241
96.7931492263272 737.94949961186 2835.70135094595 242 243 247
83.1867137121742 740.067831084551 2834.72954738186 245 246 250
71.2345570794683 741.891060330199 2834.99279289148 246 247 251
57.5555910697911 744.018122642528 2834.09172276736 243 244 248
30.2373069047261 748.554436695112 2823.70637254921 235 236 238
-4.84917947378838 754.45779032993 2808.07971672545 237 238 240
-34.0927358494794 759.321882366035 2796.72392619495 238 239 243
-59.1648161216503 763.444052221107 2788.42033843283 236 237 241
-74.8896246167496 765.913456696696 2786.6660656402 240 241 245
-80.3434063868931 766.570741537864 2791.98460514718 244 245 249
225.706484047761 714.945513541428 2719.59061446422 210 211 215
238.092513986485 712.463975942428 2738.83224369306 206 207 211
240.967621543886 711.670370742238 2750.26462059184 193 194 198
244.683667110057 710.729751718548 2762.30057151318 203 204 208
248.443078261075 709.7835937671 2774.29461626081 248 249 251
249.828860339348 709.2587527269 2784.33203567373 245 246 248
248.823896903925 709.157183414997 2792.43021339372 237 238 242
245.410443021845 709.481031000316 2798.6057776625 239 240 244
242.005490658162 709.80373482742 2804.7734066868 247 248 252
235.355493413996 710.697845005359 2808.41064668403 248 249 253
229.513671721824 711.449117518965 2812.68371491521 249 250 254
223.668535307146 712.200630999533 2816.96003910003 249 250 254
219.458119616439 712.664474288907 2822.48939760441 249 250 254
211.147010342709 713.848284387267 2824.89951024558 242 243 247
204.466815969141 714.744963047823 2828.56635681808 240 241 245
196.129776077914 715.9315113931 2831.00181423406 219 220 224
181.989647011208 718.133428743286 2829.1303751412 220 221 225
166.150071853851 720.630409350834 2826.06908228277 208 207 212
151.09161115685 722.98784583698 2823.67000293812 196 195 200
140.150298720057 724.623182171803 2824.37414502606 206 205 210
130.851485492424 725.970103589085 2826.32370735299 209 208 213
122.37054011242 727.173142380645 2828.89962776587 214 213 218
115.551438169725 728.085445544993 2832.70210231311 220 219 224
108.725255746918 728.9985103408 2836.51183315498 228 229 233
101.89176497857 729.912273632292 2840.32838021265 235 236 240
91.6740496670263 731.414681200534 2841.75053578984 242 243 247
78.0488131043215 733.508375121604 2840.80104336427 243 244 248
59.2967348811628 736.490937164427 2836.30907458567 241 242 246
28.5825768469778 741.547486017015 2823.55101173068 232 233 235
-3.95102763754807 746.91375432842 2809.72009106105 236 237 239
-31.4844815910993 751.40631342232 2799.55487458744 237 238 242
-57.4063463065988 755.614354291677 2790.66519648155 233 234 238
-74.8424019204945 758.347994814826 2787.73734476689 236 237 241
-81.1558445822524 759.154005139279 2792.47064936817 243 244 248
215.042907903524 709.939595034005 2702.57936237495 186 187 189
228.142035855307 707.389018173237 2722.53998802576 219 220 224
239.735342774099 705.104508524183 2741.12243512732 206 207 211
242.613926638499 704.337177958654 2752.54747662233 206 207 211
244.730236511745 703.703819019482 2763.29275719344 194 195 199
250.899802057713 702.369210840195 2777.20162372544 229 230 232
252.291253574014 701.86504772335 2787.23069495655 248 249 251
250.484269830908 701.915918622893 2794.68551294171 245 246 250
247.074632477692 702.244756137059 2800.8568876736 241 242 246
243.673142841504 702.572225726982 2807.02003593865 243 244 248
238.653502631004 703.179556601276 2811.91484963361 247 248 252
232.81927268662 703.927277426081 2816.18090408507 250 251 255
226.981729096746 704.675121144418 2820.45023087187 251 252 255
221.140661188056 705.423186321746 2824.72268678583 250 251 255
213.654507252434 706.454318480845 2827.75341947363 252 253 255
207.802899397563 707.20324063525 2832.03621504912 247 248 252
198.648708843194 708.519946356922 2833.84696863219 226 227 231
183.687730220752 710.833853238519 2831.357183961 213 214 218
163.708405158946 714.007310918406 2825.22185650799 212 211 216
148.643990377933 716.333373038927 2822.83298893234 184 183 188
137.696940917681 717.950503623413 2823.54551877132 194 193 198
129.227040636275 719.141535616029 2826.11224583766 194 193 198
123.251553410765 719.904364637497 2830.51600003058 200 199 204
117.272897283331 720.667462173842 2834.92319914557 206 205 210
110.450423329448 721.57464736409 2838.72977858411 212 213 217
101.936183041279 722.770679430827 2841.33979692386 216 217 221
93.4071064203237 723.968345977746 2843.96430638593 229 230 234
81.4781334668413 725.745736284486 2844.21096729251 233 234 238
63.5822985354038 728.539597002745 2840.3138734007 234 235 239
29.4781588705546 734.094291129871 2825.18051165121 229 230 232
-2.20122994153504 739.229328438134 2811.95208950822 234 235 237
-30.5842032508545 743.797038732319 2801.2024416808 236 237 241
-55.6477584415487 747.794712111588 2792.9087889115 230 231 235
-71.3642816657898 750.198501232142 2791.15598664325 231 232 236
-79.3894023693254 751.29299218561 2794.71221905485 238 239 243
218.2670289144 702.201763396769 2706.18938579947 188 189 191
231.373246674871 699.711974145462 2726.13398678331 220 221 225
248.558083372795 696.531229034872 2749.21580411602 208 209 213
251.457552703318 695.788155309357 2760.61652088407 211 212 216
251.991510027671 695.449204713507 2770.0554310257 202 203 207
252.553126376359 695.106590351676 2779.46741685031 214 215 217
251.531611514272 695.034056363798 2787.57773897344 238 239 241
250.52978616106 694.958876331903 2795.66856236535 247 248 252
247.119909014955 695.293051270156 2801.83938634617 244 245 249
245.340913613354 695.35071333917 2809.2654077626 242 243 247
242.764719352686 695.544096271881 2816.04609062874 246 247 251
236.940038022199 696.287900776165 2820.30324199591 249 250 254
233.563227415043 696.617153594943 2826.44162005986 249 250 254
224.46148964114 697.914745418983 2828.20311228225 250 251 255
217.803776403635 698.798093524014 2831.8496050046 252 253 255
211.13883632693 699.682234749304 2835.50315686228 248 249 253
199.517705938849 701.402228391007 2835.4529465947 233 234 238
180.42481300392 704.380951186481 2829.88306998441 209 210 214
160.437725081615 707.50716403613 2823.76209608992 208 207 212
147.857925914433 709.3821139829 2823.22404629977 182 181 186
138.574089363235 710.700375504926 2825.16297248561 187 186 191
130.106094069286 711.880435017184 2827.72942959904 189 188 193
121.623176869733 713.062198766264 2830.31045249988 192 191 196
115.640424339155 713.823054222379 2834.72171294023 202 201 206
107.973778173377 714.866338944136 2837.9295430953 202 203 207
100.296203186523 715.910929410705 2841.14837058474 203 204 208
89.2303550137963 717.523000097439 2841.97927931006 217 218 222
77.2920523221345 719.280029906345 2842.23855189926 223 224 228
60.2347269930181 721.892804114485 2838.95247940172 229 230 234
27.823349776948 727.072726146532 2825.02738930438 227 228 230
-7.26715430911984 732.694892193129 2809.44628252636 232 233 235
-32.2457534391969 736.620586900348 2801.07890554928 234 235 239
-56.4567454079503 740.413983365521 2793.38608409581 229 230 234
-73.0327145843623 742.928966699186 2791.05338058914 231 232 236
-84.5002887963484 744.58936851419 2792.2764037324 233 234 238
223.872561043358 694.085991393244 2711.74155799625 190 191 193
236.991692924136 691.6563144732 2731.66445049141 216 217 221
250.200642293179 689.215314631621 2751.49982641583 212 213 217
252.303988211169 688.632062380364 2762.25057463957 209 210 214
253.641239004159 688.178015244543 2772.32606087005 218 219 223
256.617082995108 687.451731313802 2783.64845494692 202 203 205
256.410161295053 687.257336192665 2792.38445651626 210 211 213
252.997596927154 687.597451936439 2798.55707089959 245 246 250
249.593303761272 687.936348057295 2804.72165211678 248 249 253
247.819821538607 688.004165366575 2812.14069792495 245 246 250
246.062434751348 688.069658746344 2819.54410420358 247 248 252
241.060420055298 688.674531769178 2824.42177877151 245 246 250
238.51034635562 688.872287737581 2831.17587720169 246 247 251
228.60101385495 690.29094347556 2832.30418257289 250 251 255
220.310967697754 691.439960222969 2834.69852167005 250 251 255
211.182998827016 692.726955288421 2836.48729011367 250 251 255
198.737083072163 694.562088230245 2835.82217705186 248 249 253
179.642352994524 697.49545972388 2830.26082765405 208 209 213
158.824943470501 700.710561050331 2823.5343283887 179 179 181
146.241115827014 702.561854669602 2823.00343748795 178 178 180
136.120814027405 704.00468871799 2824.33766494798 173 173 175
128.481469027884 705.036983684153 2827.52000892245 176 176 178
121.667676942571 705.932564897895 2831.32002004181 176 176 178
114.008182043002 706.967046266169 2834.52205001562 201 201 203
105.497326558207 708.14118697182 2837.13194272919 193 194 196
93.6023320361334 709.871600327014 2837.35180572402 191 192 194
82.5213045037461 711.466760519667 2838.20062498351 204 205 207
72.2597741805524 712.92592444682 2839.67268090625 211 212 214
59.4313445536243 714.805813217263 2839.38045704009 223 224 226
33.8187524981022 718.783380536198 2830.21806834304 226 227 229
-1.2577155814042 724.310075655867 2814.63713416432 229 230 232
-24.5145797294799 727.892301296034 2807.44496995374 230 231 235
-51.275433925976 732.045377990615 2797.97963516833 229 230 234
-68.6972370781644 734.664473368272 2795.05456027099 230 231 235
-82.7340053433758 736.727137229381 2794.51831113887 228 229 233
-83.023288428175 736.538807307217 2803.33554018901 229 230 232
202.973443239887 690.573019328082 2686.25252075322 189 191 188
227.096509541889 686.397053623173 2715.34486407786 186 187 189
243.405785634821 683.506807564042 2737.83594324184 216 217 221
253.438791667665 681.647949400491 2755.07106244953 213 214 218
253.150361533857 681.480458921612 2763.88402660412 204 205 209
256.89398311857 680.654406055324 2775.87599914537 213 214 218
257.466544203778 680.348034046844 2785.27176008082 217 218 220
260.483257800345 679.643369700146 2796.55037467008 206 207 209
257.887480264014 679.855968562641 2803.34766391242 239 240 244
255.303906766464 680.066852005653 2810.13308790209 251 252 255
251.109923085709 680.540358575549 2815.64470094903 242 243 247
247.733687985602 680.880729881641 2821.78120206039 247 248 252
243.550464914415 681.352467123937 2827.28239116881 244 245 249
241.823042439316 681.424620508332 2834.65505809674 250 251 255
231.921338893377 682.826333943371 2835.77829186809 246 247 251
222.818104552684 684.097106710907 2837.54523404827 246 247 251
212.050167238386 685.637170167753 2838.09129336637 250 251 255
197.131499888801 687.849564885118 2835.57449642931 240 241 245
175.552753409224 691.140140571483 2828.1759516203 204 205 209
154.725838883204 694.305491088385 2821.46624411036 161 161 163
140.471188854806 696.40295143336 2819.72430256713 165 165 167
131.169868209821 697.696527318344 2821.68423924294 165 165 167
124.353509785218 698.587124865547 2825.48753535889 162 162 164
118.366235664765 699.343184176702 2829.90399467296 177 177 179
110.699180260621 700.370526899571 2833.11492527024 193 193 195
98.8191335923418 702.077768093923 2833.32336966054 175 176 178
89.4357190262602 703.38067771412 2835.36378513356 176 177 179
78.3449172532094 704.95821311855 2836.22457745254 180 181 183
68.9200091756672 706.265999842212 2838.30547576207 192 193 195
57.7801864424163 707.849289297891 2839.21443401491 212 213 215
38.1139510023401 710.804702558452 2834.21734012688 221 222 224
6.45537648009897 715.687795696395 2821.00548632473 226 227 229
-21.9068634403055 720.035710029539 2810.26773568267 232 233 237
-49.5172730226767 724.258576303362 2800.21879776712 231 232 236
-67.7925998070132 726.977445933997 2796.70962854516 228 229 233
-79.2484334027979 728.598758584394 2797.92643260243 221 222 226
-81.2530782269443 728.702073207964 2805.57011764552 224 225 227
202.2309971966 683.442126532522 2686.62681417284 195 197 194
231.113935718668 678.601182177994 2719.59261132142 189 190 192
246.636499543766 675.909846877281 2741.41859915616 213 214 218
251.890493134906 674.868468993714 2754.77639354658 206 207 211
253.197187885814 674.461275244927 2764.87495962641 203 204 208
257.741875575461 673.536459191967 2777.5029681571 209 210 214
261.530022179226 672.734290690703 2789.44685875551 224 225 227
265.361642276247 671.926392751634 2801.34876418287 213 214 216
265.199386529109 671.758491749942 2810.03683382338 233 234 238
261.014281651252 672.234004353458 2815.53933359689 246 247 251
253.588657536613 673.226796046156 2818.51528813987 243 244 248
246.151917878687 674.220694185571 2821.5021170493 246 247 251
243.594998560585 674.435647517884 2828.2604715169 242 243 247
242.684542331977 674.38826812539 2836.25679293702 247 248 252
236.06072988095 675.251774727434 2839.87255424273 248 249 253
226.146038778013 676.638673147809 2841.01087450286 246 247 251
213.739996325889 678.421027714724 2840.31362944078 252 253 255
198.000474648863 680.731967672613 2837.18047872409 239 240 244
173.116901754497 684.494385695303 2827.32596219516 208 209 213
152.284351287513 687.609497646035 2820.62927649606 157 157 159
135.532092242106 690.073777571597 2817.06221605921 161 161 163
125.386639027931 691.48746743852 2818.42572674299 162 162 164
121.060193933335 691.977306023487 2824.06679990931 168 168 170
115.901679259455 692.598959913884 2829.09740106382 185 185 187
109.066901279042 693.48623156934 2832.91914179434 186 187 189
97.18309653223 695.172481876367 2833.13442045615 176 177 179
86.9536154049499 696.595690320098 2834.58030310031 175 176 178
76.701349687998 698.021548285995 2836.04808173862 175 176 178
66.4264234048688 699.450145038666 2837.53795786264 189 190 192
56.1288376325777 700.881362504685 2839.04994785408 210 211 213
36.4589368121604 703.791654941809 2834.06316258091 219 220 222
4.79729259096429 708.591975980833 2820.86692855726 224 225 227
-24.4224202523045 713.00267130207 2809.55413504105 231 232 236
-47.759246721351 716.481875254155 2802.45660115776 229 230 234
-64.3151278656853 718.889715474015 2800.11978564372 227 228 232
-76.6226332614681 720.626608445325 2800.74832034974 220 221 225
-82.0679498098631 721.282354360173 2806.05868121903 223 224 226
199.904888386255 676.553737780321 2685.70370966185 197 199 196
226.399550286435 672.203227286453 2716.71754909561 192 193 195
247.479889401059 668.708201185106 2743.0624099662 211 212 216
253.533087150147 667.576360534188 2757.05720033058 207 208 212
258.041725800338 666.688358021441 2769.7152272232 203 204 208
262.59761927797 665.794444217763 2782.32754090182 215 216 220
265.59355999593 665.146296129884 2793.61843018824 224 225 227
267.823522420106 664.619200730954 2804.23514639135 228 229 231
270.088713834512 664.087559258298 2814.8172137521 227 228 232
265.105780724578 664.690970245231 2819.6761561112 235 236 240
259.312227924466 665.420884771974 2823.90444932016 247 248 252
251.888953868657 666.405124566708 2826.87933418676 246 247 251
249.345374937151 666.626474860548 2833.62349598514 245 246 250
246.814021303002 666.846107054925 2840.35577181687 244 245 249
238.561935061584 667.958613123146 2842.71781241895 246 247 251
228.653001620086 669.328864115661 2843.85287571873 243 244 248
217.075783567102 670.958052986696 2843.7724807587 252 253 255
198.869639875734 673.618815041643 2838.7859528173 235 236 240
169.854512938508 677.960275924706 2825.86332597406 215 216 220
147.356991538449 681.283266828105 2817.95510012844 151 151 153
133.085108385814 683.323871886907 2816.2386745188 152 152 154
125.431442230701 684.333912981082 2819.43852872504 152 152 154
119.435880224258 685.085755848488 2823.86417906295 175 175 177
113.437024215378 685.837896039587 2828.29305644967 190 190 192
106.596343376086 686.720486712161 2832.12135065354 176 177 179
96.3874608480149 688.125189829925 2833.54917582128 170 171 173
86.998253867046 689.401998860007 2835.59920090374 163 164 166
75.0576769969724 691.073410822965 2835.87304822397 173 174 176
64.7789436311079 692.486389029278 2837.36901325176 197 198 200
53.6295579688479 694.033261932813 2838.29284998498 208 209 211
32.254393889267 697.161689029346 2832.13335749374 215 216 218
3.13901854170684 701.484694354723 2820.72991584499 222 223 225
-22.6686551704032 705.292729439417 2811.78630290696 225 226 230
-46.857124401976 708.847365318857 2804.10606691082 224 225 229
-66.8415162848994 711.74983444615 2799.43273219353 224 225 229
-79.154778065464 713.465988448389 2800.0700482853 216 217 221
-89.7749497614448 714.919874465782 2801.89935830766 219 220 222
195.995366586377 669.891827993167 2683.48566552904 190 192 189
228.829487269088 664.673327070981 2719.6685675093 189 190 192
247.527586577124 661.633123217356 2744.06073939908 209 210 214
253.580335003913 660.53890235312 2758.05041575911 208 209 213
260.487264653093 659.314999147919 2772.62761600727 203 204 208
263.445416625862 658.698563685511 2783.95134296409 210 211 215
268.853346430529 657.707303942703 2797.14886897957 220 221 223
269.479793401173 657.450512960269 2806.48379238021 227 228 230
273.363467633219 656.695139534507 2818.32624418185 229 230 234
269.197317842075 657.173746649022 2823.80946390668 233 234 238
264.224462913211 657.775710214616 2828.65861241124 244 245 249
256.812677411848 658.750540902942 2831.62347963526 244 245 249
254.280482539336 658.978593753315 2838.35534625984 246 247 251
250.943537241182 659.329874569904 2844.45121959617 245 246 250
243.519938433042 660.305486887337 2847.42770208401 246 247 251
232.801724153036 661.783497455794 2847.93355708382 241 242 246
219.588226879107 663.641315396535 2846.60972598276 248 249 253
196.439471575605 667.013444960368 2837.92435088199 235 236 240
166.592221385549 671.403863676149 2824.40388946583 208 209 213
145.744572492758 674.4189808912 2817.73697590501 151 151 153
133.129951645021 676.177565545376 2817.25036545585 152 152 154
125.476273692649 677.179588366381 2820.45141647421 153 153 155
118.646202765396 678.055698165145 2824.2704705909 182 182 184
110.135909141247 679.187146615698 2826.88577742321 191 191 193
104.125983080506 679.937733921407 2831.32587705085 174 175 177
94.7516926949286 681.199453460493 2833.36331995375 169 170 172
85.3584873192199 682.463275728409 2835.41889709708 158 159 161
74.2583333903069 683.985661853487 2836.29746512647 181 182 184
64.8237195374466 685.254350504943 2838.39344225038 205 206 208
55.3705253912757 686.525132584384 2840.50789831446 205 206 208
31.4494603046698 689.988681254309 2832.5755886992 214 215 217
1.48080698429931 694.365905929358 2820.59454177729 221 222 224
-20.9151481754617 697.592739913484 2814.01691826402 223 224 228
-41.6762620184454 700.569615514816 2808.68697337304 222 223 227
-64.2218275047553 703.814484694244 2802.25524953168 223 224 228
-80.8270265581195 706.158487254308 2799.9768426086 214 215 219
-94.0357624507446 707.987487919178 2800.06978972602 216 217 219
192.085868107251 663.202036049045 2681.27138136702 178 180 177
232.846885203679 656.919844734508 2723.91041554801 200 201 203
251.553922101268 653.959006603853 2748.28198206004 206 207 211
257.615661387929 652.901346416903 2762.25698886918 210 211 215
262.932772479267 651.956681236543 2775.53781255356 208 209 213
264.293404979071 651.607068698079 2785.57464501564 205 206 210
267.292404760372 651.012314536409 2796.85460500797 212 213 215
268.720006921543 650.653977601803 2806.82588722627 226 227 231
274.215884618794 649.686422237324 2819.93257618753 229 230 234
272.479280086089 649.803782879359 2827.30767942147 231 232 236
269.947644348763 650.040374690523 2834.03772876187 237 238 242
263.362384543045 650.883866130644 2837.61816495307 241 242 246
260.845484769206 651.11818745768 2844.33391684045 243 244 248
253.438644488604 652.083962180166 2847.29521185495 248 249 253
244.382940035984 653.295671106259 2849.02368576362 250 251 255
232.845798394992 654.877468091361 2848.91049883409 245 246 250
217.986739974111 656.954326833827 2846.35454150754 241 242 246
189.060824004564 661.129807056225 2833.36785872377 233 234 238
158.369871124206 665.565277213599 2819.26163865019 173 174 178
140.817589773959 668.037448752203 2815.07059865187 134 134 136
131.513820343862 669.277953519584 2817.04114873749 141 141 141
123.023562042395 670.396497685905 2819.63846744577 147 147 147
115.353038192236 671.392329595463 2822.85716170368 184 184 184
108.508050769411 672.26489472347 2826.69155202176 176 176 176
99.9791478474013 673.387648963247 2829.32696100449 168 170 169
88.0742474023668 675.012164759714 2829.57231234018 167 169 168
77.8234415194099 676.389720127931 2831.0457804446 161 163 162
70.9266539447837 677.268048893399 2834.93075721607 200 202 201
67.4066782365408 677.644362610598 2841.20434476153 211 213 212
57.9593450704237 678.901137834417 2843.31505099292 201 203 202
33.1946161980703 682.431079756583 2834.79378977715 209 210 212
0.674637323454963 687.10930520986 2821.05069326741 218 219 221
-20.8691419431775 690.155983427954 2815.07038275605 217 218 222
-42.4856678190726 693.21152463 2809.16133859991 216 217 221
-62.4600415513168 696.021637011216 2804.49136815564 219 220 224
-79.0610958027442 698.330266476687 2802.21407351089 210 211 215
-89.6810585078218 699.751929168197 2804.04793859569 206 207 209
187.384868317275 656.600661329219 2678.41309236235 180 182 181
229.720493025782 650.242279200461 2722.33393535407 202 203 205
250.805995475182 647.012256742019 2748.63450153421 204 205 209
257.662912141099 645.875209885004 2763.24852808375 211 212 216
262.180039143174 645.082951055799 2775.88431288485 210 211 215
265.141207123622 644.519973916277 2787.19714378468 206 207 211
266.534874290599 644.187556586212 2797.19829304763 211 212 214
268.765641192108 643.732891426704 2807.8035052351 223 224 228
273.453817936607 642.918715246639 2820.27267448827 229 230 234
271.715010796364 643.04708588877 2827.64833767085 233 234 238
270.803463658915 643.054403225073 2835.63732038496 237 238 242
265.846319357038 643.654327247678 2840.47116944824 242 243 247
264.965193485011 643.657501618059 2848.43089356662 242 243 247
256.750981048047 644.733625800445 2850.76070214783 247 248 252
247.702777475379 645.931075204561 2852.48349728096 251 252 255
235.352308955686 647.610540482403 2851.74627347443 248 249 253
219.676405255448 649.774765703587 2848.57163354036 241 242 246
184.156784458166 654.83560487031 2830.66579123234 233 234 238
153.454579239112 659.189406487257 2816.58281547204 159 160 162
135.06227057873 661.743670301025 2811.79689249044 132 132 132
125.744723269918 662.972480134412 2813.78251487743 141 141 141
118.073526991086 663.960553960367 2817.00302350832 148 148 148
112.894601929155 664.585016779792 2822.0534773214 184 184 184
105.20746249759 665.574733642607 2825.28991274049 170 170 170
95.8323550395965 666.809915314994 2827.33175145151 161 163 162
83.077647700629 668.536449376549 2826.98898602259 164 166 165
75.3418345020327 669.53166672191 2830.27260440096 163 165 164
70.127287603984 670.159794676215 2835.35788951856 206 208 207
66.6055166987562 670.541746800644 2841.63276420904 211 213 212
54.6123391607787 672.155088073023 2841.96776543477 204 206 205
28.990137365561 675.747810983281 2832.87146134485 208 209 211
-2.68696517271794 680.217555576273 2819.73943671294 217 218 220
-23.3845285118734 683.090313477568 2814.36143594081 216 217 221
-43.2952266727007 685.847215382249 2809.63643704001 214 215 219
-60.6980934152026 688.238662607423 2806.72620430543 218 219 223
-76.4355622227324 690.387339511015 2805.03190678527 208 209 213
-90.4957732602201 692.291737934461 2804.54232823514 202 203 207
185.059494876646 649.624670133483 2677.50220522126 181 183 182
225.800430100345 643.656129986603 2720.11482349314 197 198 200
250.853794329383 639.944654997086 2749.63162501673 204 205 209
256.912614329606 638.962607055166 2763.59835526367 204 205 209
263.026368647096 637.973397894379 2777.5115933465 207 208 212
266.790503030322 637.322150331866 2789.45702238604 210 211 215
270.598110368296 636.665232368261 2801.36045806366 214 215 217
272.838199967239 636.233746059946 2811.95298685068 224 225 229
274.306354114298 635.913226208852 2821.8784109991 228 229 233
272.569212350535 636.052237167889 2829.25084780402 233 234 238
271.659495232961 636.072814624464 2837.23639128334 239 240 244
268.330180088788 636.439893723536 2843.32201494273 240 241 245
268.269638131239 636.339249748861 2851.89914072736 242 243 245
260.063069420536 637.403795929331 2854.22307019903 237 238 240
251.841601139822 638.469925593213 2856.56156112582 243 244 246
238.680020131034 640.241459772507 2855.19926695026 240 241 243
223.011895372403 642.369971695702 2852.02218082202 252 253 255
183.37674889653 647.919438821908 2831.0456750799 211 213 212
146.886168500277 653.016382441072 2812.68142662507 180 182 181
129.307196197644 655.411413312269 2808.52863033598 131 131 131
121.637282740725 656.391541533043 2811.74903946272 145 145 145
116.453721693463 657.016765698562 2816.80398435115 159 159 159
110.436510171046 657.760605505033 2821.25231582737 178 178 178
103.57956959436 658.623958229503 2825.09959955117 169 169 169
92.5241849127665 660.084974938578 2825.94278142904 165 166 168
80.601989365197 661.66874175185 2826.21132973914 161 162 164
72.860507675387 662.65658193346 2829.50200519666 176 177 179
67.6401353887042 663.28550323939 2834.59295775427 206 207 209
62.4203169020419 663.914236792375 2839.68338813007 208 209 211
46.1777030732509 666.110218809695 2837.06680609056 198 199 201
21.3865932372777 669.520005748851 2828.58950041566 210 211 215
-7.75214502318011 673.545628107355 2817.25321155741 214 215 219
-28.4608349799229 676.371539157621 2811.89352146714 215 216 221
-49.2386935875473 679.205711302673 2806.6009580415 211 212 217
-64.9397309428199 681.317834338884 2804.87588619633 216 217 222
-79.8269294981977 683.313413490908 2803.777132687 204 205 209
-94.7561344634247 685.314229249521 2802.71931819546 200 201 205
180.359197442494 642.964637787941 2674.65222618034 179 181 180
222.674474652204 636.930685677555 2718.54498608213 194 195 197
249.310280402861 633.099233954929 2749.34195092617 204 205 209
254.567206554658 632.267120553633 2762.66590404142 203 204 208
261.474089863939 631.204267055431 2777.21934722942 205 206 210
267.638518209096 630.246337670489 2791.07797995846 210 211 215
273.857670198194 629.281345632137 2804.8829773152 215 216 218
277.715754956811 628.647561638757 2816.73253113524 225 226 230
277.580717203416 628.573233096038 2825.37974293704 229 230 234
275.851066204768 628.722091020355 2832.7432859243 238 239 243
272.515340598348 629.095626229484 2838.83465889922 239 240 244
270.001000601886 629.354273825378 2845.54427347791 240 241 245
268.313893939608 629.497119703002 2852.86645788811 240 241 243
262.558156991983 630.208645141752 2857.0599172957 244 245 247
254.342376648436 631.263443362011 2859.39443479922 242 243 245
242.007419343696 632.892893611163 2858.64920032634 235 236 238
223.056056902518 635.445061302737 2853.00182650163 236 237 239
182.596791675289 640.997012201848 2831.42640644405 194 196 195
141.971612946904 646.568817695159 2810.01280644541 135 137 136
126.038240813328 648.69397171685 2807.09961117795 134 134 134
120.021392342391 649.435537977418 2811.54758032578 144 144 144
117.331336768428 649.713152997231 2818.42887969352 160 160 160
111.315955919404 650.454167389868 2822.87581087893 175 175 175
101.951868349966 651.661482827115 2824.91082529509 166 166 166
90.0543955351836 653.221009069301 2825.15874415388 165 166 168
79.8069191639916 654.550144074901 2826.63606251234 166 167 169
72.0632586759948 655.530370143804 2829.92968906921 183 184 186
65.9968865781151 656.27692826118 2834.42643595843 208 209 211
57.3892022365832 657.376709545496 2837.14347144813 206 207 209
41.9829999801178 659.421412924781 2835.13558858722 196 197 199
17.182546926283 662.770696332508 2826.6765032613 206 207 211
-6.85455535607238 666.012290402872 2818.89222508964 209 210 214
-26.7072811597657 668.671071978014 2814.12416092307 210 211 215
-47.4807906793533 671.45650528227 2808.8348202101 206 207 212
-67.4657378320318 674.131188864618 2804.19570348795 211 212 217
-84.0776995953059 676.336641665921 2801.94448962961 201 202 206
-102.462351780646 678.787081734836 2798.58321807698 191 192 196
178.825916850962 635.837706807872 2674.39399728273 179 181 180
218.75487566364 630.291347064423 2716.333274895 194 195 197
250.153805250903 625.915379830623 2750.98299810244 201 202 206
256.209895379436 625.008848248258 2764.94161570934 200 201 205
265.518689038116 623.65793324986 2781.40356757271 202 203 207
274.09649260797 622.407738538088 2797.15960766821 210 211 215
281.134234323483 621.368709897928 2811.57992306277 217 218 220
284.20406334017 620.872585725208 2822.77497110801 228 229 233
283.276835764346 620.922863164324 2830.77317524479 231 232 236
280.751363224171 621.191464674082 2837.49237341984 237 238 242
275.80467329566 621.790601476249 2842.31595748666 237 238 242
272.484822436305 622.167383646828 2848.39108670358 237 238 242
269.988288743153 622.431688298008 2855.08218324956 239 240 242
265.053191201256 623.028656069729 2859.89457648686 243 244 246
257.661970764434 623.960441589938 2862.84538435483 244 245 247
245.334758707136 625.56485614638 2862.0961590012 242 243 245
219.809055781034 628.967875595485 2851.51515887872 234 235 237
173.569765766752 635.192260575468 2825.66096250764 204 206 205
136.230372190759 640.200804783203 2806.73575416474 116 118 117
124.426493194901 641.728423667539 2806.89544887132 134 134 134
120.066754134616 642.241696361243 2812.56578204471 142 142 142
116.544147864699 642.640736818691 2818.83896061652 159 159 159
108.857886918585 643.606591535294 2822.07771265937 170 170 170
100.324440809256 644.687343023302 2824.72384108263 161 161 161
88.4229561869518 646.226041340295 2824.97848424185 163 164 166
80.6922080395593 647.196737780747 2828.26069712854 171 172 174
72.1083844875716 648.283250457602 2830.95599959589 189 190 192
67.7301582459 648.797720308656 2836.64485171635 209 210 212
58.280211127959 650.001471312582 2838.76565275509 204 205 207
42.8761316728443 652.013651130942 2836.76046888917 195 196 198
16.3783803184354 655.531946526082 2827.12802733302 205 206 210
-5.95671252343966 658.483507313408 2820.53065189665 206 207 211
-26.6611171197657 661.212359194863 2815.18071384091 208 209 213
-50.0013180935586 664.297958858347 2808.14470543268 204 205 210
-69.9917588642096 666.927752095661 2803.51767872777 208 209 214
-87.4689317722348 669.215595560048 2800.69620786261 199 200 204
-101.553705991954 671.042657083588 2800.24245127558 187 188 190
174.917643733661 629.015906091411 2672.1980071572 180 182 181
215.629357483763 623.517964943661 2714.77008845778 196 197 199
249.40629986985 618.948055712543 2751.33814014015 199 200 204
263.435219565868 617.015234390751 2771.70107416293 198 199 203
271.162039181478 615.923934342295 2786.86176002528 202 203 207
279.752924065806 614.717850332329 2802.59829063966 210 211 215
282.786812756495 614.253323700124 2813.82435785723 218 219 221
287.470768577052 613.568998271061 2826.27852666598 230 231 235
287.358393907686 613.524245541063 2834.89886239812 232 233 237
284.032985138534 613.907697263867 2840.97818710273 235 236 240
278.282837067612 614.614095473919 2845.16685447529 235 236 240
274.155422201385 615.103917925305 2850.60995222518 235 236 240
270.03264033103 615.593025338382 2856.04889286602 236 237 239
265.097372182008 616.190073586669 2860.86144362431 244 245 247
257.70605437511 617.113910590349 2863.81352296948 241 242 244
246.199567396177 618.58506356137 2863.68591080233 241 242 244
214.094195010573 622.796664226337 2848.1831615422 232 233 235
162.893900906745 629.546873735971 2818.67546734301 194 196 195
132.142946977372 633.57423672109 2804.68914725992 125 127 126
121.986417923032 634.861301551364 2806.08237154184 133 133 133
119.281777531564 635.157207521755 2812.97545045445 148 148 148
113.259746542415 635.893988951144 2817.42961095744 160 160 160
105.565714418399 636.852803587799 2820.67712041556 163 163 163
94.5155389261658 638.257202179455 2821.52349762443 158 158 158
84.277153861553 639.553406883933 2822.99665526518 163 164 166
76.5367000057418 640.517307122747 2826.28951053945 181 182 184
69.6272745128139 641.370706164619 2830.19038371088 197 198 200
67.7753088038768 641.552543474051 2837.67085051688 208 209 211
59.171265204073 642.630591076574 2840.38714508291 200 201 203
43.7694740139416 644.610449312085 2838.38480389385 196 197 199
16.4240050876172 648.174256357521 2828.17018465643 203 204 208
-3.35540182030369 650.733218803387 2823.34406696622 202 203 207
-21.4926058979485 653.073504847881 2819.75335650139 205 206 210
-46.5322269635506 656.328220115708 2811.54574567648 201 202 206
-69.944869329543 659.366224156651 2804.58870725381 203 204 208
-88.2812985601586 661.730505289531 2801.19228384739 197 198 202
-98.9221230040997 663.074377493295 2803.05802450539 180 181 183
154.227828334964 624.395118823624 2646.66486413532 187 189 186
171.801427808937 622.063088511129 2670.65210392566 179 181 180
213.297698900913 616.618776907302 2713.85409108241 195 196 198
252.636729585947 611.456744021033 2754.90546338681 197 198 202
269.863012718603 609.172525223327 2777.81361759963 198 199 203
280.80265628145 607.706603947491 2795.50726575478 202 203 207
286.210665771471 606.960349633105 2808.6685009462 211 212 216
288.456205416631 606.625369923816 2819.24101628157 218 219 221
290.737458097388 606.28575704337 2829.77909066733 231 232 236
292.247061133891 606.046447162877 2839.65169049961 232 233 237
288.123973042523 606.539144347477 2845.09006681378 233 234 238
283.194329800311 607.136426988109 2849.89699731338 232 233 237
276.639205138473 607.944571092348 2853.45273318203 234 235 237
271.706951937846 608.54165204027 2858.262285219 236 237 239
265.1416473517 609.350476759546 2861.82836715036 240 241 243
258.569012622929 610.160061691203 2865.40127782066 240 241 243
247.885367103562 611.503098367451 2865.89275461246 242 243 245
210.847865268242 616.266544774639 2846.70398865617 236 237 239
156.342022185881 623.295446866862 2814.76958770279 200 202 201
128.88233648854 626.812577938016 2803.25837677833 129 131 130
120.374972639253 627.869592197836 2805.88177564177 130 130 130
116.005487674147 628.389505611825 2811.56114298916 152 152 152
109.14303989202 629.232736611299 2815.41686943153 159 159 159
100.604982668535 630.292899594807 2818.0706197313 161 161 161
91.2156452374395 631.463240407486 2820.1361724667 157 157 157
80.1313525213141 632.853011024014 2821.01859059157 168 169 171
74.9016226911516 633.48352477877 2826.11859996494 188 189 191
69.6725747509799 634.113775663979 2831.21797106347 200 201 203
69.5083670309313 634.087704891867 2839.88701659595 208 209 211
58.3705522182587 635.483456224351 2840.82169900668 199 200 202
39.5752356529662 637.870694743045 2836.46065509787 196 197 199
14.7699646192043 641.035836200333 2828.03357019709 202 203 207
-3.3094382798593 643.329077460886 2824.39275334798 200 201 205
-23.1538991182907 645.850258341612 2819.63648142928 204 205 209
-49.0525740026273 649.154554933054 2810.85768632982 199 200 204
-70.755716686342 651.915039357313 2805.07792536519 201 202 206
-91.6720728388101 654.57294568563 2799.94928190168 196 197 201
-99.7362431022166 655.567335976629 2803.5590859377 178 179 181
152.700000009177 617.140409639849 2646.42044446193 183 185 182
171.060565367105 614.786519982516 2671.04635561534 174 176 175
222.870713001334 608.193553351575 2722.59745410822 195 196 198
255.867100529838 603.985842952655 2758.46982831395 197 198 202
270.707813402407 602.079263283604 2779.4400083668 199 200 204
282.44824858821 600.565621458815 2797.7624209965 210 211 215
287.859637197065 599.853968635738 2810.91518658766 211 212 216
290.912123355436 599.44105397346 2822.11515801828 224 225 227
293.19887299751 599.125013785794 2832.6442898065 229 230 234
293.099424445353 599.111123336724 2841.24722828151 232 233 237
291.405493812004 599.299056104191 2848.56952517324 233 234 238
288.105707192537 599.690026520831 2854.62263328677 230 231 235
281.562024516706 600.491538924199 2858.16798725666 232 233 235
274.196313958676 601.396874801218 2861.0973726836 235 236 238
266.0028370489 602.406610155089 2863.41640281966 231 232 234
259.431993450637 603.210721060728 2866.98834392953 239 240 242
246.287959556799 604.846390302152 2865.62870598792 238 239 241
205.133613831737 610.026204093456 2843.38160352416 232 233 235
152.264242640015 616.687194534568 2812.71035760868 112 114 113
126.448467487214 619.923857427077 2802.44232876377 120 122 121
117.935415246883 620.971020341124 2805.0731701502 134 134 134
114.390169071183 621.389439227753 2811.36562851777 151 151 151
107.523983277074 622.227821230739 2815.22612138285 152 152 152
98.1475210794613 623.383388867353 2817.28107229005 156 156 156
87.079957347814 624.752593286886 2818.14991796097 158 158 158
76.8241786337547 626.018852726819 2819.64477364977 182 183 185
71.5866256472184 626.650352714741 2824.75240576824 193 194 196
68.0339440576878 627.068870351947 2831.05257085835 203 204 206
67.0215635769744 627.166148496034 2839.12838640481 203 204 206
56.723869949467 628.436925382063 2840.66419654573 190 191 193
37.9251142689272 630.781890987598 2836.3131534893 196 197 199
13.9660962697645 633.778355675701 2828.48756648578 203 204 206
-5.8186441696062 636.246942629867 2823.68010252935 198 199 201
-23.1075968065841 638.39966582517 2820.69169686939 199 200 204
-49.0058973032839 641.639639198238 2811.92203694106 194 195 199
-73.2813532489676 644.674108915044 2804.40506036961 201 202 206
-95.9222323600262 647.501582896911 2798.12967519454 187 188 190
-106.580070788486 648.81550790425 2800.01707501523 179 180 182
153.541404508701 609.581427269789 2648.11904096651 176 178 175
173.486442196634 607.112775926635 2674.02266587791 173 175 174
227.681694956228 600.418969507334 2727.47128959479 195 196 198
259.89309955102 596.437077516969 2762.672878278 203 204 208
272.350388559373 594.891649961986 2781.70538954161 204 205 209
284.89337172746 593.335609240934 2800.65403601712 203 204 208
290.31015875072 592.658332829286 2813.79636008438 222 223 227
294.9747754734 592.073537573597 2826.25502238705 231 232 234
295.660257140304 591.979281972006 2835.5073008033 231 232 236
295.56629348295 591.980975460904 2844.10248939747 230 231 235
293.877961332099 592.179023230355 2851.41773192044 229 230 234
291.394772196352 592.474874521759 2858.090914544 228 229 233
284.858683973325 593.270210782536 2861.62963994117 231 232 234
276.685729987234 594.267127804387 2863.93018505449 233 234 236
266.864072200092 595.46707202918 2865.00375360522 237 238 240
258.657535585761 596.467574017835 2867.3371169083 228 229 231
243.049241381968 598.380383391449 2864.13249889728 234 235 237
200.242292748717 603.645955183623 2840.6796240788 241 242 244
149.01152621589 609.949366455155 2811.26822603654 127 129 128
125.66779846262 612.8143665238 2802.85107713654 127 129 128
117.981395841606 613.748913616004 2806.09493495986 135 135 135
113.605612686059 614.275177124572 2811.77928012027 150 150 150
105.904866207499 615.211191712885 2815.0368268689 151 151 151
96.5245073030494 616.353982605355 2817.09753566079 156 156 156
87.1256961952596 617.498791809206 2819.17660729983 160 160 160
77.7079902789 618.645819135334 2821.2737760836 185 186 188
73.3125698247714 619.173660667105 2826.97772598264 197 198 200
68.92144605417 619.700973571555 2832.67714950031 206 207 209
67.0668912291235 619.915524203859 2840.15501448005 203 204 206
54.2314581753947 621.483053461265 2839.91591171985 188 189 191
36.2748899131056 623.681378454821 2836.16714684341 196 197 199
13.1622850021422 626.514617259392 2828.94243100504 203 204 206
-7.47599254905928 629.042835432941 2823.55648139036 197 198 200
-26.4757876359889 631.368872699259 2819.40753319466 197 198 202
-51.5259234416732 634.440105214956 2811.23748233272 193 194 198
-74.0917428073096 637.20504477943 2804.89680428044 201 202 204
-100.171972241968 640.402556757292 2796.31407825257 184 185 187
-112.562441334096 641.913856408365 2797.0583397297 175 177 176
148.065232851148 602.78442226024 2644.64251383916 178 180 177
176.703956454689 599.358971060022 2677.64161074197 162 164 163
241.222025863942 591.628189936074 2739.41396183327 192 193 195
270.283233543467 588.15045089072 2772.00125392384 209 210 214
279.575017427272 587.04410109038 2788.44395011564 227 228 232
288.937441381093 585.928803464468 2804.81816000038 222 223 227
293.561989577722 585.381505375624 2817.31073103486 227 228 232
298.233899163931 584.828253077585 2829.75748938087 220 221 223
297.31642269264 584.945249769646 2837.73648729225 215 216 220
295.611662715123 585.156454667054 2845.06609827217 215 216 220
293.923018623829 585.365421510039 2852.38003672231 219 220 224
291.439606094723 585.669468146194 2859.0522299104 223 224 228
287.342337713218 586.166930106509 2864.46426263923 231 232 234
278.36023324492 587.250332008871 2866.13861439754 233 234 236
268.54237786863 588.433816327383 2867.21083986504 234 235 237
257.883199655449 589.718042969893 2867.6867123574 233 234 236
238.169235837433 592.088841829469 2861.40617204766 230 231 233
189.592611854385 597.92349743728 2833.67951889557 226 227 229
143.285232595662 603.485813684856 2807.99078962028 123 125 124
122.407833569671 605.995898342033 2801.42806197301 131 133 132
116.370438602772 606.724650913266 2805.89866579475 140 140 140
110.3298771849 607.453684728304 2810.3723723814 147 147 147
101.788816511559 608.482573122479 2813.03338967992 148 148 148
91.5647218280489 609.713335895672 2814.50236689186 156 156 156
82.9902687766468 610.745903210246 2817.19599957259 164 164 164
76.0775870364991 611.578883720162 2821.10346193775 192 193 195
72.5180044523053 612.00931154586 2827.40838165493 205 206 208
67.28291584519 612.640677766078 2832.513586379 213 214 216
63.7365127433709 613.069254164219 2838.80603015753 198 199 201
50.0475809286698 614.715207824011 2837.98596387386 185 186 188
33.7770906070807 616.670985956344 2835.4325656331 197 198 200
9.80903000213607 619.550711924451 2827.63321200263 203 204 206
-12.5399844265495 622.236014432646 2821.08901376513 195 196 198
-30.6974078087809 624.418205320512 2817.54208560575 194 195 197
-52.3345765083376 627.018115165811 2811.72054435222 194 195 197
-77.4744926025677 630.038394832665 2803.64717745281 198 199 201
-103.562128827317 633.172623502071 2795.08115972235 180 181 183
-116.82138349461 634.766810360893 2795.2589781078 176 178 177
172.005056463245 592.54834610618 2674.81216369953 159 161 160
246.826108972405 583.852850733398 2744.91725710952 202 203 205
275.899844330565 580.48922921265 2777.47524250971 216 217 221
286.79965973742 579.243683063027 2795.17586926512 212 213 217
295.379439151842 578.268063480465 2810.88936523357 175 176 180
297.615200376823 578.031749444261 2821.45734578334 171 172 176
299.886549806146 577.790801527361 2831.99067160565 181 182 184
297.362155537043 578.108800918161 2838.70149805634 197 198 202
296.464180403612 578.236797087067 2846.65916729107 202 203 207
293.968191363075 578.55080276568 2853.3423771988 213 214 218
293.106676277233 578.673747262154 2861.26492554427 217 218 222
287.387070152795 579.363335070644 2865.4254110405 227 228 230
280.0345438069 580.24330339999 2868.34545366236 231 232 234
270.22074376269 581.410253405158 2869.41643373144 236 237 239
261.202820579281 582.484267220556 2871.12740371651 225 226 228
235.75174305929 585.476625571685 2860.53299499353 223 224 226
183.879432110618 591.554027344273 2830.3751548275 224 225 227
135.909917096264 597.176354605908 2803.49392484933 127 129 128
119.974535850163 599.058515498924 2800.6186389386 130 132 131
115.588237711465 599.591929464106 2806.31270664034 143 143 143
108.715117428168 600.415630937357 2810.18191748959 146 146 146
98.5055822924465 601.628826609449 2811.63869542321 147 147 147
89.1079265549277 602.747072126257 2813.72054586384 155 155 155
82.2000974773136 603.574441568614 2817.6236809347 166 166 166
76.9616042668151 604.206590806145 2822.73215075065 194 195 197
74.2440556681174 604.54416389434 2829.63188932205 207 208 210
66.4867038789127 605.470331459456 2832.94710136666 212 213 215
60.406381407704 606.200544813322 2837.46011693173 194 195 197
45.8637471842596 607.919595423236 2836.05973890297 183 184 186
32.9752252357718 609.445331966098 2835.87986898701 198 199 201
9.85523131343813 612.167061758771 2828.67863368743 203 204 206
-10.7900339021323 614.599733769237 2823.31408244993 194 195 197
-31.5044677685843 617.040666874489 2818.01665787707 194 195 197
-53.1430874588756 619.589856505063 2812.20439174636 193 194 196
-76.5696973266001 622.348294138305 2805.30220521037 196 197 199
-103.514350779878 625.518343525507 2796.16501465271 173 174 176
-116.773470770332 627.08845412497 2796.34625776269 175 177 176
179.972383357772 584.270691778802 2682.29403071227 171 173 172
249.255841712875 576.473376257838 2747.84624548006 194 195 197
279.129790825304 573.134697663065 2781.02282955709 143 144 148
291.631692830339 571.761525396058 2799.98558019915 164 165 169
300.222596423873 570.830410665377 2815.68145189563 199 200 204
301.668157309684 570.70777844744 2825.60006378069 182 183 187
301.539050808317 570.763052767094 2834.22223051509 180 181 183
297.407961581062 571.271310884237 2839.66659001844 192 193 197
295.702641498389 571.504345888771 2846.99353071076 195 196 200
293.204451478314 571.826855187121 2853.67766939243 202 203 207
292.340540857408 571.963618578026 2861.60021627108 204 205 209
288.245003510179 572.466569252225 2867.01005666975 209 210 212
281.709167246374 573.245922681976 2870.55089412314 211 212 214
273.532700653924 574.211232966479 2872.85959876848 219 220 222
262.066133930251 575.549685845687 2872.71195821334 215 216 218
232.513834969494 578.940432086619 2859.04635702152 204 205 207
161.713787394492 587.01307947044 2814.79786349733 192 193 195
127.710569539998 590.911088815383 2798.39189502584 123 125 124
115.888581458298 592.29165208467 2798.59130707804 138 140 139
112.320620509053 592.735047839358 2804.90262998133 143 143 143
105.439850366333 593.554422951061 2808.78041453042 145 145 145
96.05479406697 594.658149488989 2810.85156159944 147 147 147
87.4854829833191 595.669121605515 2813.54361783302 156 156 156
82.2462215022526 596.301692024304 2818.6527883026 168 168 168
77.8457081220076 596.838768602497 2824.36009277473 198 199 201
74.2899764812601 597.279725088226 2830.65997015878 209 210 212
