ply
format ascii 1.0
comment KinectMotionCapture
element vertex 796
property float x
property float y
property float z
property uchar red
property uchar green
property uchar blue
end_header
-52.2110613520703 98.1411677466517 2671.83104354212 18 21 12
-75.7943992082148 98.8088551158951 2685.61663215115 17 20 11
-124.988963603844 101.232500286324 2726.54458487112 17 20 11
-123.32550402908 100.219182950627 2714.1587487355 23 26 17
160.561953764559 106.755377068641 2810.061721582 9 11 6
134.395461641542 107.381301199832 2823.2095516259 15 17 12
153.652546023904 105.425723379522 2796.40036414022 15 17 12
150.556059294998 104.736858970564 2789.21172460028 13 16 9
145.150236016085 104.17931059967 2784.0550672178 12 15 8
131.363784127274 104.110454765769 2786.41187498083 11 14 7
156.908698348702 100.845644170272 2743.15714293082 11 14 5
100.073824788471 103.340451850161 2784.72231056025 10 13 4
90.9457952233828 103.012527597486 2783.04398711955 9 12 5
33.0847533046401 104.775648916826 2816.4510430185 13 16 9
51.7247030989663 102.769299642807 2789.19422433223 14 17 10
15.9211744625738 104.103399015148 2812.65123870712 12 15 8
-4.87551380989881 104.52993079046 2822.27993546874 12 15 8
-5.62157232700677 103.713960447585 2813.08912331893 13 16 9
-13.7714540247611 103.360133622166 2810.88471231113 12 15 8
-35.8739495870959 103.89388570504 2822.03741785141 10 13 6
-32.9659267723041 102.843190569605 2809.31886069068 9 12 5
-7.46340841995652 100.330461782654 2774.68304977147 8 11 4
-5.45970818182151 99.3125356906804 2762.54383800956 9 12 5
-13.6721772730661 98.9540418591474 2760.29403242523 8 11 4
-43.5920360918445 100.0237556317 2779.36906009102 8 11 4
-56.7665674034625 100.00725027629 2782.16972730499 9 12 5
-62.7023582915007 99.5150784995086 2777.86425286712 11 14 7
-80.8344286198055 99.8409728580277 2785.71867392925 11 14 7
-78.868072972329 98.8206889780763 2773.55267281096 15 18 11
-119.015816255073 100.656941924121 2803.74419325009 15 18 11
-117.018284140782 99.6394869823238 2791.60051247005 15 18 11
-91.6883762060188 97.0060332208728 2755.60392445044 16 19 12
-70.791573755276 94.6507569819598 2723.80560693452 17 20 13
-93.0156800845046 95.2837392093129 2736.10598796105 17 20 9
-84.2545771054162 93.7517309002646 2716.51180248236 17 20 9
-85.3832078065886 92.906216731432 2707.04350594652 19 22 11
-103.28395826677 93.2525084698932 2715.06571903442 19 22 11
-77.3065944240736 90.4585798541465 2677.06730504767 18 21 10
-95.8914489285874 90.8560840120877 2685.82918702155 13 16 5
143.206653773418 100.186390677981 2825.85512483759 4 9 2
165.616797716645 97.9599300362553 2796.3898444485 5 10 3
174.805408457205 96.5128233879473 2778.34103514242 10 15 9
158.629654911254 96.6035764270784 2782.67199995899 11 16 10
152.438339053934 96.0879560625903 2778.181171246 10 15 9
138.630714300297 96.0441950275798 2780.52275745757 12 15 8
116.513293643587 96.5251698190208 2790.42933952184 13 16 7
134.456990243486 93.595373157651 2754.01726923464 10 13 4
113.93834347819 93.98848496905 2762.61231831061 7 10 3
44.7168121751842 97.5153924992027 2816.20075074567 9 12 5
37.9762618408726 97.0650516211317 2812.54713752172 11 14 7
15.5699990027194 97.6329785035283 2823.48010326017 12 15 8
-0.78899635207863 97.8197060336287 2828.91375493786 16 19 12
-3.73608510028722 97.1324445517208 2821.83342530158 15 18 11
-45.1580377223848 98.9928507224581 2851.10107206146 14 17 10
-64.9869194769073 99.4438724819249 2860.19643983935 12 15 8
-16.3650343622448 95.3089001877153 2804.02334849631 11 14 7
-6.18282039226936 93.7244764216045 2784.22376010208 11 14 7
-15.0977839227751 93.4256122974116 2782.70003997218 10 13 6
-10.1539333210061 92.1794186674384 2767.75060874089 9 12 5
-21.2568536982327 92.030421710382 2768.34724994788 8 11 4
-41.7434650480026 92.5379187057613 2778.20113819294 7 10 3
-68.780720269195 92.6122666148704 2784.53916754162 10 13 6
-88.330446274169 93.0875012503406 2793.83702392283 13 16 9
-54.8642381557758 89.793234409329 2750.14868556579 14 17 10
-61.575613390966 89.3470194822049 2746.51624289258 14 17 10
-75.3928014565428 89.4152548657018 2750.08679484539 15 18 11
-61.6248862822129 85.5924446430767 2704.46731609743 14 17 10
-97.890339475025 87.3308920062606 2731.29692397033 15 16 10
-98.9736441700961 86.4694985858902 2721.86140479207 19 20 14
-88.2286218940338 84.713182522232 2699.99886422308 22 23 15
-115.840298400523 85.8454991343056 2718.2770918664 22 23 15
176.839664000664 90.5090341027032 2797.07699073956 0 2 0
189.91520013219 88.7634996747734 2775.66890738193 10 15 8
185.978275395467 88.0948909249409 2769.1061556224 16 21 15
163.64137255577 88.6144833733672 2778.85382597429 11 16 10
158.200771109331 88.0474561476522 2773.67190914369 10 15 9
148.184878530729 87.7795436488799 2772.58529545712 12 15 8
104.01284383059 89.7681220124058 2802.33066045884 13 16 7
127.45800678139 87.299458535614 2771.14409289621 11 14 5
128.833118685918 86.2800972955861 2759.78452787344 10 13 4
102.306366076471 87.1312048826481 2773.90737463019 7 10 3
33.887235095531 89.9344575131542 2816.95760563419 11 14 7
5.52064278303943 90.9726744679281 2833.45306543653 13 16 9
-10.8094911628069 91.1996774166727 2838.90784336843 15 18 11
-9.2736675606131 90.1941720298762 2827.66485186769 13 16 9
-38.8501257524374 91.3585939401593 2845.75426106268 12 15 8
-45.4244053556965 90.9247697801823 2842.22126470051 11 14 7
-18.1719461185481 88.0938390415022 2806.38204378324 10 13 6
-40.2357599127945 88.7506857823133 2817.56370853845 10 13 6
-30.8817871380844 86.2438319165892 2788.51319277749 10 13 6
-65.1689983944093 87.8100021934212 2811.83555683669 8 11 4
-66.6928484663603 87.0039486666956 2803.3159938497 8 11 4
-68.2441456146103 86.1957463004603 2794.77652300706 9 12 5
-71.2627280567864 85.4921930565005 2787.64428354528 11 14 7
-115.92469918754 87.8950471547894 2821.97702255477 13 16 9
-45.160225830216 81.6613358805348 2741.08548743757 14 17 10
-49.7606840452196 81.0532233318791 2735.27736363053 14 17 10
-62.9035012928463 81.0939975681015 2738.10131117872 15 18 11
-83.053725335132 79.7623036467954 2727.19264281576 15 17 12
-71.5057176888354 77.8927730424413 2704.67629891801 15 16 11
-104.170164460645 79.4821896525849 2727.93982622459 20 21 15
-78.0519116951128 76.4462712186852 2690.04231989859 22 23 17
-38.9214992312643 72.3407803040754 2638.10501989578 23 24 16
199.665339828685 81.3218492637832 2777.75885730597 33 35 24
201.892686616642 80.2290497881749 2765.78139245243 15 18 9
184.091719074662 80.4868007469991 2771.40541857231 10 13 6
161.758409886174 81.0636351130835 2781.15598398025 14 17 10
164.728975502172 79.9168051966824 2768.4819840122 13 16 9
156.21835546257 79.5552473800215 2766.01602692286 12 15 8
131.007879526578 80.3570978836754 2778.62274797569 13 16 7
106.663766743813 81.1150180754284 2790.62196054549 11 14 5
103.570568560015 80.3921719332398 2783.4355328179 9 12 3
107.236063041174 79.1873995505078 2770.02997149551 8 11 4
91.3215112359946 79.37054240731 2774.55075500093 7 10 3
55.9983835765703 80.9559246635989 2797.12225846444 13 16 9
21.59225743564 82.5016730477081 2819.1229840389 15 18 11
2.23686820702618 82.9790351956311 2827.32669344371 11 14 7
-11.1039726780713 83.0286207359161 2830.00713406206 9 12 5
-11.8246460667475 82.1556650461823 2820.83443549157 9 12 5
-11.1018131315186 81.1708166728585 2810.23723096731 9 12 5
-6.84529550686164 78.9711600997012 2786.13886255627 9 12 5
-24.5292679381139 79.3561533068338 2793.08338206499 11 14 7
-37.0419967730262 79.3592279500893 2795.12886656523 11 14 7
-57.5090266800014 79.9770450043646 2804.99750860891 11 14 7
-66.2981523928976 79.7099874719274 2803.56517210516 11 14 7
-79.4040069225186 79.7801329949359 2806.41606348781 12 15 8
-90.3068108404705 79.685603258097 2807.15775479701 13 16 9
-88.9769484613026 78.6363039591467 2795.76523578547 13 16 9
-63.9221444487197 73.7608508365011 2739.79580444061 15 18 11
-64.9659345629647 72.8628094131231 2730.38874459592 16 19 12
-78.0569931407726 72.9351841540497 2733.25037317123 16 19 12
-61.512560926142 70.5999114063977 2705.70783963784 17 19 14
-62.6697245367689 69.692954312604 2696.21854776648 16 19 12
-72.9609433415384 69.5346713011371 2696.16823062399 19 22 15
-93.6959241829705 70.2480826664525 2707.07815015016 21 24 17
-37.1111604864407 64.5150598909183 2636.90736653432 24 25 17
140.714839404058 74.9049942663997 2800.45353182646 15 16 10
162.853079946654 72.3501596460909 2770.78918510358 14 15 9
162.730335249638 71.3876402917028 2760.81444751529 12 15 8
117.744666464961 73.7002818955978 2791.20637540169 11 16 9
97.2244144989585 74.2477910458343 2799.80104288637 8 14 4
95.671269724118 73.404040790738 2791.26005260272 7 13 3
107.647921999079 71.548045765498 2770.28984201062 8 11 4
111.257160827529 70.3025112955088 2756.84329329702 7 10 3
47.417232957935 74.135270631804 2805.68866875132 13 16 9
29.4569865174275 74.5398870427488 2812.43271625311 15 18 11
24.220435682988 73.9839833769682 2807.39877640884 10 13 6
1.8912902984427 73.7865505618995 2808.50259307276 10 13 6
23.2338911746641 71.1662400329531 2778.26143300457 10 13 6
3.21974815779491 71.7568705577966 2787.22320808564 10 13 6
11.1569037662083 70.1594611823442 2769.50146756315 10 13 6
-16.087550102347 71.336593677155 2785.57605647652 10 13 6
-32.9996671882915 71.7105767948573 2791.84501799978 12 15 8
-42.5787908058635 71.5069335875602 2791.0753529908 12 15 8
-53.5861642205593 71.4221842908343 2791.74128918005 12 15 8
-71.0650812856668 71.8681639882018 2798.83476660837 13 16 9
-92.075274002569 72.6143937918694 2809.54534540455 14 17 10
-78.5318973802567 70.5340936318547 2786.00434621306 13 16 9
-17.5547925980792 63.4920748829733 2704.18941660627 14 17 10
-37.9107211394103 64.1745586867096 2714.13892595075 15 18 11
-63.852731037243 65.342695366773 2729.92260209925 16 19 12
-59.9809480074598 64.0026968552117 2715.43086217197 16 19 12
-32.9158087339425 60.6727567769611 2676.98295369936 15 20 14
-55.2356467991832 61.5488330101077 2689.2151680665 15 20 13
-55.0448744837724 60.4969992027462 2678.23192214977 15 20 13
-47.2157543713561 58.7742981559104 2659.19619313442 19 24 17
-29.0376168136386 56.1311684267789 2629.13129822533 23 26 17
111.130833269034 70.5011754190777 2837.03599246523 14 14 4
122.728724685615 68.6686785245013 2817.0263656956 16 17 9
140.339356384281 66.3643020371186 2791.49193604686 13 16 9
136.472955159882 65.6755328287297 2784.98050064678 12 15 8
125.75337095401 65.5101685986562 2784.61932193848 11 16 9
111.270262862891 65.6393891980099 2787.70744315548 8 13 6
115.722853505994 64.306194762569 2773.63648304911 6 11 4
112.579315046125 63.5562541918048 2766.41342534246 9 12 5
92.141120703416 64.1623731079249 2775.06787501948 11 14 7
33.5898656846543 67.7951223158811 2819.09996936303 12 15 8
39.5113151515498 65.3673367449803 2793.73731679909 10 13 6
26.059955296823 65.4615741543645 2796.33786602828 12 15 8
39.2963273734694 63.4015190626369 2773.80945186429 11 14 7
11.0929524962247 64.6990432246982 2790.42454491079 11 14 7
1.41376862162268 64.4998356442918 2789.58266103045 11 14 7
-7.51079968859214 64.2420140964619 2788.05218607951 11 14 7
-11.2995287916029 63.5609457533634 2781.5968013872 11 14 7
-26.7686446275235 63.8526132672405 2786.4410406316 11 14 7
-52.3583712803313 65.0036846497287 2801.2446768772 13 16 9
-45.2179015242213 63.4094740880718 2784.18074908709 14 17 10
-58.5496877945095 62.5419630942057 2776.98193184954 14 17 10
-60.1839299845481 61.6764187295571 2768.38233640446 13 16 9
-36.0729663434418 58.57805066665 2733.96982802863 13 16 9
1.41210493979926 54.2835499708251 2685.77897423566 14 17 10
-33.9454933933265 56.3244186346321 2710.79816403604 15 18 11
-75.5066877268598 58.9430141877773 2742.43907962185 16 19 12
-53.9180762779561 56.0000183685039 2709.9042556679 16 19 12
-45.8952116123157 54.2375555947273 2691.00877481291 14 21 13
-26.016302073594 51.3957610222229 2659.7054317971 15 20 13
-73.5459307033746 54.6121900604843 2698.13894322719 15 20 13
-90.0928510171644 55.0594354960043 2704.67272029533 17 22 15
-54.3712310197444 50.7412841289736 2656.43871434227 21 26 19
176.935260623236 58.8857677107241 2789.57559844052 19 17 4
84.6235739576953 65.1183113353488 2861.02257049893 12 12 2
76.3687882812176 64.8011122117325 2858.7420034077 16 17 9
132.340905237105 59.3903884452078 2799.24494469693 13 16 9
138.408950555712 57.9040530693718 2783.87421321289 12 15 8
108.682321305714 59.2796570000353 2800.62049877535 10 15 8
122.289658907138 57.1781259702004 2778.36079535327 8 13 6
123.690778074732 56.0491805460188 2767.01952848502 6 11 4
128.060745358311 54.6702754081168 2752.88873588536 10 13 6
104.570743241863 55.5711325491831 2764.27279887943 12 15 8
67.6004644034838 56.5905601243836 2778.2365719001 11 14 7
28.7437066356317 58.8228100193459 2804.42552009876 11 14 7
31.6586335786107 57.5718200661884 2791.71065887813 12 15 8
35.2598536792987 56.2537940520536 2778.25793003368 12 15 8
-1.7916272830798 58.3881194824614 2803.28469817302 12 15 8
-7.01632083780379 57.8271767127237 2798.25903392278 11 14 7
5.36156018506828 55.7485105761783 2776.34351811041 11 14 7
0.804525818852486 55.1190520580536 2770.5664705795 11 14 7
-28.5577781296298 56.6510560309782 2788.81298663138 11 14 7
-78.865324860979 60.0444280294378 2827.70398993233 13 16 9
-54.2436059729787 56.8723553136184 2793.66136560643 14 17 10
-41.3705997588283 54.7111858923794 2770.86902761009 14 17 10
-45.1838466759626 54.0200659178555 2764.3958185176 14 17 10
-54.7574164742555 53.8440112599094 2763.63031933219 13 16 9
-42.828519032678 51.729017253933 2741.38914173213 14 17 10
-46.0016326579857 50.9673457938127 2734.14458493763 14 17 10
-74.8123320227534 52.5465347715488 2752.7909154484 15 18 11
-83.6189759428438 52.3107034863864 2751.34633226652 16 19 12
-105.846268470295 53.3195746566046 2763.64630750156 14 19 12
-51.8304047789828 47.2507817480452 2697.78705033001 14 21 13
-86.0427628277347 49.3754165645787 2722.40154243902 15 20 13
-102.564269073474 49.8653615533215 2728.95395898911 14 19 12
-61.0533910438566 44.8693719704016 2675.03239436064 17 22 15
-1.04637195437096 38.0572337753278 2601.16123868133 21 26 19
151.155190974285 52.3026629221201 2802.96674475281 16 16 6
145.011421969257 51.7877877045351 2798.51038754206 16 17 9
155.68803501786 49.878540784575 2779.06784877464 15 16 8
135.008184487949 50.5671896122466 2787.54724027761 13 16 9
122.012791543822 50.6253641404377 2789.2431103563 11 16 9
134.070478966157 48.577151256764 2768.33067025056 9 14 7
108.986353669359 49.6616693685749 2781.03041734536 8 13 6
114.156166494912 48.1834247411648 2766.24361556831 9 12 5
119.258914252852 46.6997172234395 2751.40816922189 10 13 6
56.0544466481154 50.0710004248472 2789.59565282212 12 15 8
53.7231419125015 49.2391041092365 2781.72594892491 11 14 7
40.9721531736476 49.3184119811927 2783.59880539538 12 15 8
14.1914073378873 50.6437163920813 2798.77526004851 12 15 8
-4.34663169240279 51.2579204446786 2806.33684608021 11 14 7
3.68616047465098 49.5106246406588 2788.68367533575 11 14 7
10.1665341167028 47.8883094615386 2772.37612405919 10 13 6
10.7180451272613 46.7888689652185 2761.65414418385 10 13 6
-18.677485034732 48.4054221504349 2779.8770021029 12 15 8
-45.7515064287626 49.8342913204052 2796.07641625015 13 16 9
-58.1984303328751 49.940034507836 2798.1701241855 14 17 10
-41.6940981685023 47.3741524640618 2771.83238981755 14 17 10
-32.5337240483523 45.4675595090053 2752.5257471648 13 16 9
-52.9213950517553 46.3102438438048 2762.45305716839 12 15 8
-56.0332388868272 45.5421248512919 2755.25288349436 14 17 10
-78.4415294700049 46.5981082653579 2767.42188800892 15 18 11
-78.6838234420999 45.5609671368989 2757.35981414879 16 19 12
-89.6062735776506 45.5407055466748 2758.08763967839 16 19 12
-91.3030799788912 44.6369648376584 2749.44249662941 16 19 12
-133.92698662235 47.6951433596246 2782.78532921515 16 21 14
-127.818008800169 46.0440702770589 2766.20839951834 16 21 14
-93.754714742913 41.6383488119917 2720.47719850563 14 19 12
-52.9584213979182 36.5228281404672 2667.27175289293 12 17 10
-38.2236970579495 33.9387859946753 2640.88643116949 17 24 16
199.359764885678 41.6474467787009 2771.16060873824 18 18 6
177.632822083726 41.3878512002621 2770.23058678088 15 16 10
157.63032780342 42.0545933558933 2777.96586069387 14 15 9
136.180686188404 42.8604900673913 2787.12313920096 13 16 9
124.702686149667 42.8095761909403 2787.44807948984 12 17 10
125.384813716726 41.6947090192346 2776.82100268167 9 15 5
97.2998074638234 43.1165407188254 2792.28720220604 8 14 4
105.52194421324 41.331735955493 2774.7713958769 10 13 6
102.386173105522 40.5480615747639 2767.55350354416 11 14 7
67.0085217895542 42.6609708013317 2790.08815367356 12 15 8
42.2617264783023 43.8421192296068 2803.03292792546 12 15 8
38.4831897590736 43.1351262900107 2796.58480059649 11 14 7
31.7193238806426 42.6988183195926 2792.91435651648 11 14 7
10.8878691885934 43.5574387298901 2802.52003897272 11 14 7
4.17237343628774 43.1254330363492 2798.88497569831 10 13 6
-28.3057068611028 45.0913341237395 2819.81543774915 10 13 6
-18.0559761771613 43.0868546407161 2800.06266599674 10 13 6
-12.2947518260834 41.4874665375667 2784.4689408111 12 15 8
-33.599014392568 42.4372434285283 2794.96737310369 13 16 9
-49.7205207318885 42.9101708780482 2800.57492977299 14 17 10
-41.8507728803725 41.0973758919001 2782.80323295839 15 18 11
-45.6331824181531 40.3913238309295 2776.35230290633 14 17 10
-48.7091408491884 39.6144768483402 2769.17809911853 13 16 9
-64.0191119655942 40.0257841211263 2774.13831176539 12 15 8
-65.6621682206957 39.1089571569263 2765.53177258294 14 17 10
-63.7620272210198 37.8382848299964 2753.31650278653 15 18 11
-78.2858026562294 38.1857548450832 2757.61099100641 16 19 12
-88.4994340508589 38.1134704645383 2757.61735423335 16 19 12
-85.9520537516811 36.7674200801839 2744.63556910697 16 19 12
-87.6907106842646 35.8435159352829 2735.95998558291 17 20 11
-112.659328979651 37.2691524318466 2751.21526725834 17 23 13
-68.821039066953 31.7032427492893 2695.27230757405 19 24 17
-87.4813835269956 32.4862670234881 2703.98141800352 17 22 15
-79.5964877447661 30.5472115431669 2684.98502608367 19 24 18
213.773430856428 33.715350358856 2769.2179554481 16 18 7
192.833059275212 34.4850364864078 2777.50919462811 13 16 7
180.437374711052 34.5086259885152 2778.40429982366 16 19 12
174.979602780378 33.9172362651448 2773.20981234175 13 16 9
164.162108116206 33.8073238063634 2772.77823160389 13 16 9
134.302298864235 35.4250043694055 2789.42919830658 13 16 9
123.590365882437 35.3240319189526 2789.07418676798 14 17 8
106.837247569783 35.7803880012685 2794.22349602428 12 15 6
83.3396376668492 36.8679854312299 2805.60298984794 10 13 4
106.684896031271 33.6392929107558 2774.34014962164 11 14 7
85.5062337303791 34.5226141011519 2783.69425898677 12 15 8
55.4201314500844 36.2548224164942 2801.41709225576 13 16 9
29.9576922791056 37.5769817673713 2815.07883187848 12 15 8
-20.7255495757557 41.3054859738697 2852.46385217114 11 14 7
12.0614197631275 37.140325066355 2811.98411224163 11 14 7
26.841108611356 34.6566797020202 2788.10226251474 10 13 6
5.30910511342508 35.644001928485 2798.43579072041 10 13 6
-16.8679442906232 36.7103151710733 2809.53744259407 10 13 6
-30.8737137568111 36.9992361336821 2812.97211120399 11 14 7
-57.274876030021 38.5094450255253 2828.42467065998 14 17 10
-46.3381738905664 36.3690699403863 2807.93417420915 14 17 10
-52.9640585207769 35.9474947468887 2804.36383030506 14 17 10
-37.8272729411764 33.3618001191437 2779.50499961369 14 17 10
-49.5743883067943 33.4419292174239 2780.87084732364 14 17 10
-54.078106969528 32.7998973021291 2775.13238579726 13 16 9
-93.8078724188207 35.7197052447933 2804.3970646014 12 15 8
-49.5017376285223 30.128940039267 2750.02846086128 14 17 10
-53.3626062658141 29.4083619495076 2743.52058055638 15 18 11
-47.9806093589254 27.7344151697161 2727.65156764894 15 18 11
-68.2259909951859 28.69859538035 2737.68293612896 16 19 12
-62.9077768673287 27.0197353953458 2721.76766083746 16 19 12
-56.9555329408225 25.2612608138263 2705.07627290801 16 17 9
-53.1893244563966 23.7186766108975 2690.50697360326 21 22 14
-85.2394272147601 25.9540212535186 2712.98408711957 23 26 19
-49.3393511481717 20.9901875323151 2664.87617727107 21 24 17
214.964979282945 25.8414922130759 2768.80681505839 13 16 7
215.476206497474 23.5746045991411 2748.16854278514 15 18 11
128.618131980821 29.4528489553646 2805.04043273441 12 15 8
128.60829075791 28.3652466247297 2795.14690771404 12 15 8
123.998369478677 27.7062171070585 2789.33137154828 13 16 7
122.412529149001 26.7579549424854 2780.76615018574 12 15 6
112.480289201748 26.6027852543947 2779.74104361846 11 14 5
78.4390467749727 28.7689204691724 2800.77438693671 11 14 7
104.708558028008 25.1352646965218 2766.68890782347 12 15 8
51.32330509015 29.2081190152951 2805.82233118413 13 16 9
2.69895054830815 32.8659858079844 2840.99412067179 11 14 7
2.76652513625564 31.7855661145765 2831.15675240632 11 14 7
28.8053843769736 28.1329859813629 2796.90397287138 10 13 6
58.3583882177066 24.0966098313368 2759.02095565003 9 12 5
-0.941119281507419 28.8955655987846 2804.98690060355 8 11 4
-13.5273639379596 29.0616849578506 2806.97991776949 9 12 5
-19.4665890101107 28.5638580304892 2802.67192517381 10 13 6
-25.4068084929051 28.0660849683598 2798.36321198148 14 17 10
-50.3245386400872 29.5057372299895 2812.42041792497 14 17 10
-55.4818348587263 28.9381712094883 2807.44357789391 14 17 10
-54.1155854095812 27.6963976495103 2796.07646172586 13 16 9
-40.4991407496402 25.1748791665638 2772.5861962564 13 16 9
-72.4287666422199 27.384232761643 2793.91547774483 13 16 9
-69.6961224882668 25.9860985111851 2781.06773052546 12 15 8
-23.3023208671501 19.9708496635233 2724.50496656606 13 16 9
-57.2483363978207 22.4188029891159 2748.07913709325 15 18 11
-57.5485168656764 21.3098157830781 2737.97503063946 15 18 11
-23.8036833444657 16.5417080880489 2693.24617185939 16 19 12
-55.4264157473401 18.7778502164078 2714.79806267715 16 19 12
-69.9563417210962 19.1903908064539 2719.08842183567 14 15 7
-61.9254340206217 17.1523092707914 2700.19737548491 22 23 15
261.04708774452 13.6970638164544 2729.27874328989 23 29 19
162.025005328376 20.8963590047539 2795.86610304901 15 20 14
145.111752697288 21.4147209094751 2800.89964159217 15 20 14
131.319700382247 21.6410835199816 2803.25388482632 12 15 8
137.408609806915 19.9348037510076 2787.89716411632 11 14 7
137.339638588514 18.8198878129738 2777.96063615152 12 15 6
127.372781709421 18.6748976887725 2776.91019211606 12 15 6
121.965167202061 18.0816566383579 2771.75205544339 11 14 5
117.306416144068 17.4127567263379 2765.90107153343 12 15 8
90.0773850193333 19.0050195712727 2780.75390681079 13 16 9
68.2191805801171 20.0785927190508 2790.85140187058 13 16 9
19.5380392948543 23.8874722772662 2825.98308482249 12 15 8
14.3408049603808 23.3123393973785 2820.97725447131 11 14 7
52.987691928327 18.244916377262 2774.86004176484 10 13 6
7.58189468565629 20.6668868176352 2797.53744908595 8 11 4
30.3277378810529 17.1740344905242 2765.83874198996 9 12 5
13.9770850019496 17.7411097997448 2771.2803678428 11 14 7
-14.7607299865447 19.6234148479693 2788.74632698384 14 17 10
-46.2829174954629 21.8261905161911 2809.13560482704 14 17 10
-38.3505144213454 19.8608671173458 2791.40855553395 13 16 9
-39.9358296789949 18.8975725345034 2782.84393314219 13 16 9
-42.9951387335394 18.0877262209298 2775.68133721758 12 15 8
-60.4971767423905 18.8361379866872 2782.75958565841 12 15 8
-64.987946840636 18.1835302998906 2777.03075173142 12 15 8
-52.2855167540079 15.6499151233538 2754.11287294879 14 17 10
-52.5611058255906 14.5203713820067 2744.02619472304 15 18 11
-87.0672390773053 17.1665188039992 2768.43036448212 16 19 12
-79.4978486275786 15.1722308351835 2750.4403073563 16 19 12
-76.2610161365238 13.6455883389074 2736.7223694736 16 19 12
-66.0248990250847 11.3215920617901 2715.7230739072 13 14 6
-85.4405287631788 12.3263857938667 2725.12082185525 24 25 17
-58.4842075672141 8.0820185511124 2686.58939708206 27 28 22
191.806130382318 13.7286311701485 2800.12707948986 69 74 67
183.286392996199 13.4354031746798 2797.65456466845 9 15 5
186.357474303223 11.9964092855908 2785.05224527884 7 13 3
156.276596901364 13.8485835463061 2801.54414271866 16 19 10
147.821842323728 13.5609588323942 2799.11905818068 21 24 17
152.389891275296 11.9652489989546 2785.13076105089 14 17 8
148.501011671045 11.2134707659771 2778.60241696339 14 17 8
136.988411681955 11.2343888688076 2778.902638853 13 16 9
129.299217509801 10.8701084106221 2775.79710048516 12 13 7
125.400602606098 10.1177207412634 2769.2616959844 13 14 8
122.996549721148 9.20839237312907 2761.33856871558 13 16 9
31.1239946180697 16.4679275769162 2825.69826980073 14 17 10
28.1580202311718 15.6530169537836 2818.60360299386 13 16 9
25.1734102245496 14.8366563814381 2811.49541948426 10 13 6
20.6835338349403 14.1765680799629 2805.76690105793 12 15 8
21.3717518957899 12.9624221348051 2795.14373651213 10 13 6
-6.79994884299329 14.8350969801309 2811.78470406916 10 13 6
-18.6318864407027 14.9716875533284 2813.08905384435 12 15 8
1.15617989878825 11.6884341535069 2784.18798831416 14 17 10
-39.9962341969697 15.0145943483473 2813.65845363712 14 17 10
-39.3195894554363 13.8001875307532 2803.02660354677 14 17 10
-33.5881087277798 12.0214091682644 2787.41070240374 13 16 9
-12.6871720175523 8.54965612099492 2756.84476335481 12 15 8
-57.793140938418 12.3921838100381 2790.86293112143 12 15 8
-71.6442600994178 12.78413011614 2794.41023088167 11 14 7
-60.9973195221205 10.4298477020258 2773.70859660782 12 15 8
-62.6405927026941 9.44547771732146 2765.10155805276 14 17 10
-103.621509871626 12.9286371514147 2795.93247149622 15 18 11
-95.9355822183778 10.8913992473966 2778.02638264935 16 19 12
-87.6241679317629 8.76562036707967 2759.33823730485 16 19 12
-76.5695609852186 6.30533033751779 2737.69655550343 16 19 12
-81.151607842822 5.64031431236639 2731.90119577794 12 13 7
-80.8177792223044 4.39946028808713 2721.02099148211 13 16 9
-91.7483551995342 4.47332397686867 2721.74340317875 27 29 24
-91.4604062017834 3.22904155218007 2710.82962792272 18 20 15
203.863981731637 4.84935329266289 2790.29607614422 76 81 74
188.342314964291 5.27210392852179 2793.86784742959 7 13 3
169.784301239455 6.01591239591706 2800.18027874462 17 23 13
122.809694285376 9.70236039530486 2831.60800371866 20 23 14
142.087688141696 6.56665419533617 2804.80799637399 20 23 14
157.39243170226 3.81736022518148 2781.3051299737 13 16 7
177.916182739124 0.498254387288871 2752.93690190424 13 16 7
131.308892217916 4.21585273544872 2784.63076570502 13 16 9
110.735852724584 5.22301116819518 2793.18949459883 12 13 8
172.725414739255 -2.53516119268563 2726.92650684603 13 14 9
106.807790182187 3.30582703173957 2776.74596096496 12 15 8
54.7778797916756 7.72076411940403 2814.39326604388 13 16 9
18.7671439619344 10.4565403528844 2837.70746574895 15 18 11
13.5956371823083 9.87706923172793 2832.72026387729 13 16 9
12.892813590192 8.80885306305934 2823.55951597244 12 15 8
21.8238178194543 6.67740741075531 2805.32049589675 12 15 8
3.23744551634864 7.56426498570834 2812.84842515135 12 15 8
7.63712382897941 5.91667921106856 2798.73780979033 12 15 8
9.76338445251423 4.51045489939966 2786.68577233735 14 17 10
-28.5683793227869 7.62834446023763 2813.25949134763 15 18 11
-49.8598938414316 8.86471458591287 2823.76861662338 14 17 10
-44.7693006513379 7.1317374750757 2808.92339104873 14 17 10
-25.9118329183348 3.81845004535647 2780.58259922966 13 16 9
-57.291825307936 6.2244928789098 2801.07598693771 12 15 8
-73.3210874841705 6.89524150715731 2806.75112089567 11 14 7
-58.2658896303669 3.98333324677919 2781.83178766137 11 14 7
-68.5141986312128 3.98767357327076 2781.81310599374 12 15 8
-75.8688940042926 3.65906448572734 2778.95023362643 14 17 10
-73.9223494815038 2.23938642622803 2766.76784799081 15 18 11
-99.8194017094445 4.09876132556697 2782.58732169449 16 19 12
-66.2548994768208 -2.2969390131341 2727.83861084961 16 19 12
-68.043183091274 -3.30924703410238 2719.12630962469 21 22 16
-88.1589911025427 -2.11576855003084 2729.25247575465 23 26 19
-66.7906437519654 -5.93579895996715 2696.55353530204 15 17 12
157.680136175066 2.00451862301818 2830.90950957808 43 48 41
164.746474648085 0.100559388128307 2815.02531012992 17 23 13
192.587128951546 -4.02133621140424 2780.84127648362 6 12 2
173.262185686947 -3.15171378087753 2787.83371258694 18 21 12
170.903287355043 -4.08603128602225 2779.94319224236 19 22 13
160.864886838284 -4.19752532588552 2778.84134883843 13 16 7
163.826035720942 -5.71231852683496 2766.15865867285 13 16 7
159.120870991904 -6.40316009717876 2760.27421184043 13 16 9
140.743360890585 -5.60039891237177 2766.71779269143 12 13 8
120.164434474489 -4.54206885778766 2775.27251322365 13 14 9
74.7392416029191 -1.90280749252986 2796.70192423162 14 17 10
48.4190235063808 -0.15210407757027 2810.97904889465 16 19 12
6.50751380594006 3.37152047456923 2839.90022980978 15 18 11
3.5902554024636 2.53803297106212 2832.84078416338 14 17 10
2.148680690222 0.359677391960078 2814.49303137241 15 18 11
-3.79452369082567 -0.140518129470857 2810.1821420934 16 19 12
-3.8423093144544 -1.31962558459445 2800.26035239866 17 20 13
-14.9493288447027 -1.22572261115658 2800.85525237818 16 19 12
-23.8283979581762 -1.38491035833352 2799.35826036559 13 16 9
-36.3431439926241 -1.11545209925359 2801.40363184038 13 16 9
-46.634396372526 -1.09938586441719 2801.35387899485 13 16 9
-82.3119205967755 1.92196473717229 2826.1461140235 12 15 8
-77.2746639218049 0.143463054831816 2811.26169860283 12 15 8
-69.4179475284238 -1.98523753082283 2793.47895488198 12 15 8
-67.4015562753121 -3.42996554722222 2781.3470757488 13 16 9
-61.8484288082954 -5.31132499866172 2765.60106845043 14 17 10
-67.8071869346772 -5.81098823246923 2761.27890662563 15 18 11
-70.2029475609158 -6.74502559824994 2753.36195991319 15 18 11
-56.9882184544341 -9.5968506960076 2729.57880919787 15 18 11
-55.2279583374409 -11.0620398301895 2717.26085702139 15 18 11
-93.0645919746655 -7.63326059765967 2745.43041225906 19 20 14
-77.1998848576527 -10.8489352498379 2718.62570871634 15 18 11
-67.0873856992031 -13.373259883071 2697.53578515506 33 35 30
175.948949404123 -7.50662041627617 2815.69688255856 24 29 22
193.811065716282 -10.6439642712607 2790.34083480618 14 20 10
206.902203454378 -13.2849998194871 2768.93923101936 17 23 13
233.745468256147 -17.4621453310387 2735.26692521544 4 7 0
175.921981409494 -12.3045131174032 2776.12891370672 19 22 13
171.995941105727 -13.0854890860544 2769.57377761983 15 18 9
148.966377197534 -11.7332217624075 2780.05857747264 13 16 7
133.646224065675 -11.2283683342027 2783.77684615972 13 16 9
122.173697726928 -11.1478654010534 2784.10642010258 12 13 8
109.974027314129 -10.9788122315202 2785.14435694175 13 14 9
93.2795437518532 -10.2900717862482 2790.33764332957 14 17 10
78.1510504357663 -9.76877610475624 2794.19463911355 15 18 11
72.0788454732988 -10.2808260915947 2789.79017451486 16 19 12
-15.3172257646006 -3.72158021291508 2841.33506757262 13 16 9
-40.4705224117159 -1.94828397999339 2855.22319630556 15 18 11
-21.1463818718136 -5.41029625727982 2827.21965776581 17 20 13
-18.1914272091579 -6.95760358569569 2814.5326070645 16 19 12
-15.2901817343005 -8.50930218758983 2801.80630470707 15 18 11
-20.5035782172032 -9.09768278640727 2796.78898544429 13 16 9
-24.2611975789835 -9.86263538624313 2790.35572797702 13 16 9
-46.971148366892 -8.33172113368072 2802.30845818975 13 16 9
-107.342425536332 -2.18874325674501 2851.20937206118 13 16 9
-111.637738144179 -2.84880185898659 2845.62219169989 12 15 8
-55.3130355607472 -10.9770044792303 2780.1911931689 12 15 8
-48.2995176634633 -13.0792804478702 2763.03236733858 13 16 9
-69.3440873330236 -11.7066033407616 2773.72149310425 14 17 10
-73.1329228712476 -12.4728899227183 2767.26559960761 15 18 11
-54.8339594728269 -16.0189984983317 2738.5184623153 15 18 11
-63.6950318865348 -16.1642613682779 2737.03488150372 15 18 11
-81.7504987602513 -15.1377589116438 2744.94838276302 15 18 11
-72.8905843775294 -17.532210268852 2725.42116485848 20 21 15
-95.1066430656151 -15.9576408754356 2737.73214911644 21 24 17
-82.8273039773113 -18.8119877991782 2714.50593807039 34 36 31
207.431262935117 -18.6213326959674 2789.05778640188 12 17 10
179.502632003517 -16.7076266311919 2803.40509502233 12 18 8
212.724300195122 -21.6851184381432 2764.47139958114 5 11 1
191.028810884122 -20.4657714323358 2773.45255205401 14 17 8
208.59410537896 -23.7133416181904 2747.88077351366 18 21 12
160.153067502074 -19.411520803377 2780.71834718258 11 14 5
168.4680854368 -21.6089495352032 2763.2677823851 12 15 6
118.061165214706 -17.0152532400221 2798.38712875943 11 14 7
99.0405319545133 -16.0274194907845 2805.60076444288 12 13 8
105.83621551618 -18.0477597637436 2789.51977198052 13 14 9
96.7024950617388 -18.2086681919829 2787.83816906075 12 15 8
58.2283616935744 -14.895806580154 2813.07492673455 14 17 10
38.7184480585772 -15.0167216305877 2811.28241124285 16 19 12
26.7566587762351 -14.8056350429732 2812.49300609767 14 17 10
-0.0500253707373943 -12.7960202958597 2827.65412368221 16 19 12
-51.9535640289339 -7.71741830194739 2866.63143654957 16 19 12
-58.4733910198389 -8.11449943065437 2863.13839463589 16 19 12
-28.859808933867 -12.9373645151815 2825.2953081558 15 18 11
-13.4262443668296 -16.0581740375149 2800.64890842357 14 17 10
-10.581482359987 -17.6477452488328 2787.88176263954 12 15 8
-35.5585322429171 -15.7880304056068 2801.89809414043 12 15 8
-47.3083701881558 -15.5578615938521 2803.26243369801 13 16 9
-67.7400173846754 -14.2295574623318 2813.16032418072 13 16 9
-59.8433899473998 -16.4599946916243 2795.40599751117 13 16 9
-36.871130555046 -20.6215081924475 2762.63300081845 13 16 9
-44.3045232774675 -20.9416164329624 2759.71312212159 14 17 10
-72.5380591405609 -18.592944186365 2777.54671172726 15 18 11
-68.4467803077722 -20.3809089372861 2763.21181995454 15 18 11
-35.8936715653442 -25.8686541267432 2720.08548260228 15 18 11
-49.788827098747 -25.3602395748139 2723.60174386802 14 17 10
-63.6362416285028 -24.8476989803751 2727.15234002835 14 17 10
-83.0881251744755 -23.5874800822488 2736.5251005962 14 15 9
-81.3285060703433 -25.113350759665 2724.20667084886 19 22 15
-72.5974353805912 -27.5760719060162 2704.58570560168 24 26 21
-75.8579554124787 -28.4572621200467 2697.27718065165 18 20 15
186.862920542764 -23.9423910055774 2807.46874864669 7 12 5
179.91039457194 -24.3751230154062 2803.66185342947 23 29 19
165.234979884987 -23.9066881708794 2806.61199120113 10 16 6
206.850348793909 -30.0240367588 2760.1710085888 11 14 5
185.842344093013 -30.0911058748782 2758.52780428205 14 17 8
167.352385910308 -29.1678894170971 2764.89077372582 12 15 6
148.931692634716 -28.2387630102998 2771.303984714 12 15 8
125.263864905596 -26.6652429163551 2782.56254529692 12 13 8
130.472773064898 -28.555888005833 2767.80229014902 14 15 10
44.3207798246323 -20.6088998846908 2826.43125423125 15 18 11
51.8388028261953 -24.0129931557809 2799.75067896877 16 19 12
56.2567958578515 -25.81454864106 2785.65256045148 15 18 11
6.29375128372045 -20.8687394318536 2822.33079638334 18 21 14
-56.6119525619704 -15.4619383438498 2861.98020713703 16 19 12
-36.5829908903401 -19.2067440935372 2833.2511394434 15 18 11
-10.0916561008007 -23.8036116426255 2798.08654945899 14 17 10
-6.52057804596917 -25.5204946483872 2784.60994971294 12 15 8
-23.4726283741789 -24.6208943165689 2790.85262513148 12 15 8
-39.6307969451173 -23.809466563367 2796.43502466042 13 16 9
-55.0019175703083 -23.0867247734432 2801.35248620059 13 16 9
-5.85605429489866 -30.7402183999452 2743.07104806889 13 16 9
-12.6457505265269 -31.1563942177889 2739.38198098793 13 16 9
-23.7512352066076 -31.0048439687165 2739.97799113088 14 17 10
-74.2985924584274 -25.6405994936472 2779.94017015457 15 18 11
-65.9057156851557 -28.0360045335938 2761.30971299549 15 18 11
-36.2042698740572 -33.2916340755146 2721.05805550917 15 18 11
-8.85732518774152 -38.2797714365823 2682.80603469817 14 17 10
-68.1981334811019 -31.6382037022304 2732.45677738211 14 17 10
-81.2773833856757 -31.1860666668469 2735.32888988755 12 13 7
-57.6829369488177 -35.7136090297876 2700.53500259477 23 26 19
-44.1057500065649 -38.9122078273547 2675.77751771646 27 29 24
170.243045452336 -30.8377996734983 2812.67741062051 21 27 17
168.731935893574 -31.9151379637955 2804.16600386964 23 29 19
152.483204333971 -35.031153400177 2778.78458753521 16 19 10
162.291494529633 -37.5234861691033 2759.94466618518 17 20 13
139.342753292609 -35.9848320656238 2770.48929467998 16 17 12
101.34132237833 -32.5557704729648 2794.83368744313 14 15 10
56.726248755691 -28.2623859237547 2825.50459500192 7 10 3
42.4556170856114 -27.7293455590022 2828.74849586071 14 17 10
64.2722342428703 -31.7363545785089 2798.84393640942 19 22 15
85.767871142246 -37.0353537205452 2758.81897086979 20 23 16
18.5931514384379 -29.7460828675825 2811.43987009077 19 22 15
-31.8970038999415 -24.5253979793014 2848.97242110923 15 18 11
-31.8154567702298 -25.7830658372123 2839.14428404058 15 18 11
-42.0969769400266 -25.7026334070784 2839.10220678634 14 17 10
-9.69796735407957 -31.1861649043021 2798.33454874551 13 16 9
-14.1903552241549 -31.881167820331 2792.60403284399 14 17 10
-22.347758604869 -32.0951164045272 2790.39487771856 14 17 10
-39.9677562720124 -31.0529712087881 2797.38910250344 12 15 8
-52.4319013186549 -30.6818221832601 2799.47167079794 12 15 8
-23.5651836772339 -35.8303944127067 2761.08551657222 13 16 9
-2.85548252636647 -39.9287786721431 2730.37806725154 13 16 9
-26.2307146985656 -38.1072973848151 2743.0850291995 14 17 10
-66.7287460171127 -33.9379428290173 2773.03443598557 14 17 10
-74.0982710197389 -34.2420335694981 2770.16093749358 14 17 10
-52.9235687072076 -38.4583102100585 2738.55464918423 15 18 11
-56.809493843339 -39.2580922289375 2732.02820370508 15 18 11
-52.2018191410205 -41.2372333144959 2716.83165334359 15 18 11
-68.8646072699282 -40.2703579166155 2723.28406738801 17 18 12
-60.0975168972435 -42.8460835819511 2703.68893566455 15 18 11
-33.162045845097 -47.9969898718866 2665.13780437815 22 25 18
219.481877800007 -44.4754264103885 2770.48971102709 18 24 14
157.58101888867 -39.4146259439421 2804.69032513376 16 19 10
124.604351445588 -40.4369517048197 2794.36594321806 18 21 14
53.2586513284676 -33.9213060314156 2839.01885016643 9 12 5
72.2283173874128 -37.6273915104374 2811.99244033791 7 10 3
0.671052828176588 -29.6805906007995 2867.61514740743 13 16 9
12.1025770986325 -32.4149108136488 2847.48034963023 18 21 14
42.9002722819485 -37.6948475649388 2809.25830021733 19 22 15
0.377288714299429 -34.6937665736315 2829.08801300905 18 21 14
-9.24653118704533 -34.7029201872015 2828.28693183824 15 18 11
-35.1291217198 -32.5469394845925 2842.88364934808 14 17 10
-32.1202459359604 -34.2228189480284 2830.23474149802 14 17 10
-38.7277049972057 -34.6199897118255 2826.67787829534 13 16 9
-31.3977100483758 -36.8955043122378 2809.74789042284 15 18 11
-19.7606967265198 -39.7720859349548 2788.52600435604 15 18 11
-37.3894718861016 -38.687247932255 2795.51408239681 14 17 10
-56.4023298394745 -37.3974765982298 2803.97021504572 14 17 10
-34.7609592091422 -41.6799618828659 2772.7018891993 14 17 10
-48.6840214203081 -41.0856859556499 2776.19835522357 14 17 10
-69.0409119289326 -39.5872691821801 2786.15130007879 14 17 10
-48.3869217822448 -43.791651882744 2755.40263328222 14 17 10
-52.2329417949303 -44.5971224835835 2748.9053815419 14 17 10
-36.1135244519197 -48.2190621983076 2722.28326506516 14 17 10
-42.8948008215013 -48.6287906352584 2718.60033437914 15 18 11
-60.3098587993003 -47.5240104295238 2725.74344157712 15 18 11
-63.5166180945481 -48.4353773495111 2718.47373608143 16 17 11
-59.6946696124478 -50.360974248247 2703.94290385573 27 30 23
-45.3975599100949 -53.8138401943556 2678.47098180769 30 32 27
217.569899887317 -51.9827419788819 2772.77105576578 14 20 10
194.282529592729 -50.3534966986502 2783.07066369221 15 21 11
146.422481345095 -45.5659196893526 2815.09683296399 18 21 12
143.382879236233 -46.4789199421116 2807.94829500686 16 19 10
97.571843833459 -44.4657711189173 2819.21365268156 17 20 13
115.081119359276 -48.0589867788479 2793.59951403259 14 15 10
90.779050657388 -46.187784756862 2805.63484424584 8 11 4
28.8056250351412 -39.3202117510256 2852.14296010027 7 10 3
80.1543173656087 -47.4152729714908 2795.45616313437 7 10 3
44.037699282204 -43.9245782951316 2818.69743034486 16 19 12
-3.13760747894087 -38.9143571142365 2852.45614769912 20 23 16
-5.26881143532165 -39.9131727646621 2844.7306556478 20 23 16
-19.3352125803243 -39.3029773492214 2848.12299837825 16 19 12
-13.3114846966123 -41.4120131524165 2832.71698613945 15 18 11
-13.2801603616879 -42.7184977343855 2822.85219422872 14 17 10
-13.2849256024592 -44.0279163328452 2812.96093087598 14 17 10
-29.5120065550563 -43.1088463629228 2818.49421405487 14 17 10
-34.6752963962258 -43.7087115152819 2813.51286551747 15 18 11
-29.6057704183044 -45.7339294785365 2798.65088761358 15 18 11
-41.3727593433699 -45.4191189935431 2800.00322278663 14 17 10
-36.3866745140955 -47.4510070046774 2785.08072282826 14 17 10
-48.8605212418818 -47.0319332006054 2787.15620643849 14 17 10
-66.3534319334431 -45.8916093903812 2794.24305657817 14 17 10
-89.5391266173842 -43.9234266750205 2807.08816136796 13 16 9
-2.43914746962703 -59.1357017171197 2699.70461349829 14 17 10
7.82322902146682 -62.0291098996752 2678.72146973304 14 17 10
-5.49593987455266 -61.5165016254311 2681.4199661402 14 17 10
-70.1871416849333 -54.8724145820801 2725.95677603517 24 25 19
-64.9310955882425 -57.0427450142272 2709.99394441644 11 14 7
-80.8265483060819 -56.0925780063644 2715.76749501561 21 23 18
272.262755220197 -66.8310718889418 2725.88511602025 16 21 14
252.684899672421 -65.660337216727 2732.69573580495 16 22 12
164.544361027094 -56.8132037026358 2789.88801477629 18 21 12
136.128340220069 -54.3931230059587 2805.11960559117 21 24 15
114.718734365621 -52.877796119829 2814.30950027919 20 23 14
148.278361646216 -58.6929195796433 2774.38151919536 17 20 13
111.683333291975 -55.1341101436023 2797.27602712841 11 12 7
157.11175174783 -62.6073866415751 2746.18182321276 10 11 6
126.674363912767 -59.8586825966085 2763.65485636055 8 11 4
106.924921238858 -58.5352331283345 2771.57719361243 8 11 4
35.416424371133 -50.1086518757073 2827.23768360432 13 16 9
32.4544693793341 -51.0256079103445 2820.1454136626 18 21 14
12.2960041668185 -49.5699734127805 2829.00694791971 17 20 13
-12.2477607479938 -47.4867453000915 2842.1031779733 15 18 11
-11.4387976818806 -48.9162839926984 2831.56645305191 14 17 10
-0.306476754209584 -51.8020077237621 2811.21398949754 13 16 9
-4.77580618865159 -52.5129463062772 2805.5001084308 14 17 10
-10.7266474282479 -53.0162697386573 2801.18366718656 14 17 10
-24.0151586149528 -52.4761451894885 2803.90452739682 13 16 9
-38.7236440566698 -51.7231215432609 2808.0674640772 13 16 9
-31.5021692766553 -54.1068515544568 2791.05796500897 13 16 9
-41.0835278539858 -54.0845351195369 2790.28811883713 13 16 9
-47.744295534909 -54.4805877888601 2786.69261674175 13 16 9
-56.5695676217493 -54.5603791450359 2785.23502550023 12 15 8
-68.260170129028 -54.2166973720734 2786.64317553349 13 16 9
-12.7732358460673 -65.1606114298184 2710.70942228443 13 16 9
-3.90197762859756 -67.902260662654 2691.18896361912 14 17 10
-0.10558192800314 -69.9082322498521 2676.63890604612 14 17 10
-31.1341489171759 -66.7065990942021 2697.39137382559 14 17 10
-78.9827146355562 -60.934223351304 2735.60662732765 22 23 17
-77.9255094466644 -62.505606912776 2724.01380884036 12 15 8
-73.39927100138 -64.6152045306291 2708.75726833313 8 10 5
255.622836649521 -72.5360202597205 2740.96645442825 12 18 8
168.81937811142 -63.6468830263907 2796.65785632572 17 20 11
115.882723780779 -60.5200047523495 2813.87955512446 16 19 10
144.873302191048 -65.8495149373243 2778.0526414624 12 15 8
150.854789125435 -68.0514092198431 2762.61553751146 9 10 5
143.879018189764 -68.4740859263983 2758.79154797822 9 10 5
157.313291551735 -71.7366884694928 2736.40050553947 9 12 5
135.212800878841 -70.0559110996916 2746.3254377469 8 11 4
68.8701876576827 -62.1385233238804 2797.08265699284 12 15 8
26.1039825759988 -57.4697960755475 2826.62538226312 18 21 14
36.5902545232526 -60.3047298741178 2807.0398779057 15 18 11
1.54518940996295 -56.6739257400253 2829.82331530811 16 19 12
6.0290519199846 -58.6632669455706 2815.77199580971 13 16 9
9.71012408176986 -60.5512771890638 2802.37426634599 13 16 9
-12.5044083409391 -58.7099372702215 2813.45237716538 14 17 10
-16.222816976154 -59.5322039767979 2807.04725408335 14 17 10
-31.6964955916921 -58.6424821740755 2811.8912149343 13 16 9
-38.3346380634291 -59.0348096605754 2808.31242768172 13 16 9
-62.4749471675767 -56.8482500662896 2821.70165485695 14 17 10
-35.6019052224523 -62.1856762442699 2785.57498483101 14 17 10
-46.6281061710452 -61.933815723174 2786.22897753422 13 16 9
-69.9120419768777 -59.8433202452744 2799.00348477643 12 15 8
-41.2080567898356 -65.5326732503385 2760.49662316041 13 16 9
-27.7702217538585 -71.8332089613676 2715.86064321405 13 16 9
0.303914159720087 -77.5747219143501 2676.89692621763 14 17 10
-5.18480827837653 -78.2057796270416 2671.67980112619 14 17 10
-37.5588832896934 -74.6839593706245 2693.92857649503 19 20 14
-65.5398201907762 -71.8050493295296 2711.94826071498 22 25 18
-52.6132635368284 -75.2749692899788 2687.95307686658 16 18 13
225.789108764686 -76.3142589871238 2767.49017314026 0 6 1
207.114052306689 -75.1468493700788 2773.71990330355 10 16 12
166.139569060577 -70.8815281161871 2799.61900164497 15 20 14
156.896287986411 -70.9784545938513 2797.85829997502 17 22 16
184.482351797098 -76.2093578158498 2763.48409090503 12 17 10
130.811961667654 -70.0960308206917 2801.18611099755 7 9 4
123.928103033274 -70.5086926217538 2797.42880138049 9 11 8
140.618315281138 -74.2550301533925 2772.45516731839 9 9 7
135.947650939677 -74.9959604424062 2766.59518236695 8 9 4
164.529012514127 -80.4862046721429 2730.47080453787 8 11 4
136.37567053604 -77.8853280742789 2745.89373260857 8 11 4
46.7275419254167 -67.7694632572001 2808.17503143769 16 19 12
7.84521471707622 -63.4976145676265 2834.35577477326 13 16 9
33.9669349526175 -68.6797345000383 2800.15531552119 14 17 10
13.8473924486853 -67.1172016939181 2809.04560714141 13 16 9
13.8057492548644 -68.4967299942188 2799.12725505403 13 16 9
-3.99275861389126 -67.2531917113208 2805.99309407985 13 16 9
-28.3473423162071 -65.0171868053823 2819.22753395331 13 16 9
-42.3173193932505 -64.3087875726982 2822.69027397011 13 16 9
-38.6777651212034 -66.2355893106902 2809.26225081551 13 16 9
-39.4737236973133 -67.5061451611697 2800.03296248279 13 16 9
-35.2100331114809 -69.5516185335403 2785.82175133736 13 16 9
-22.5327072309791 -74.3221648315559 2752.99316701817 11 14 7
-19.190857519761 -76.273143702886 2739.34920901215 13 16 9
-43.9303821526118 -73.896192093906 2753.54034754205 15 18 11
-41.3356078389828 -75.7379405868953 2740.59070301656 11 14 7
-34.5096349882692 -78.2528555264403 2723.29383168183 11 14 7
7.12027040841745 -86.2450091794018 2670.67841299942 14 17 10
22.1940425450589 -90.1239990858361 2644.53231509373 12 15 8
-3.90130300779301 -87.5168336080959 2660.21182944109 16 19 10
-48.2123703686415 -81.9816819603363 2694.81481178665 16 19 10
-18.4599059846258 -88.2273650237979 2653.35979283013 19 22 15
-45.7063231861465 -85.3730597535302 2670.67649032149 5 7 2
185.088655239841 -79.7529084245922 2793.54860486733 10 19 16
194.317027331956 -82.4671117664865 2775.52220131899 21 27 23
211.918650245053 -86.3936249800204 2749.97331904404 19 24 18
179.523247192442 -83.2004291435857 2768.49956434848 10 12 7
153.395158499842 -80.8736837818141 2781.68384885351 6 8 3
141.108715882733 -80.518836965006 2782.65982375141 8 10 7
133.419357005843 -80.8226401532293 2779.55447231489 9 9 7
144.695104093716 -83.8871483048023 2759.30507586657 9 10 5
133.942035374095 -83.7514772391015 2758.9214427998 8 11 4
62.1483130671381 -76.0350018985324 2804.49068796969 12 15 8
2.15168158579671 -68.5403175496461 2849.96492726793 16 19 12
3.00227415676213 -70.0416518659843 2839.45772232701 13 16 9
2.3219728424464 -71.3230913417624 2830.3122212839 14 17 10
8.29608431678874 -73.6129883204255 2814.86932495357 14 17 10
-22.0955554243523 -70.4230844446991 2833.6130877413 13 16 9
