ply
format ascii 1.0
comment KinectMotionCapture
element vertex 802
property float x
property float y
property float z
property uchar red
property uchar green
property uchar blue
end_header
166.161276754711 212.5906375983 2777.86611751128 24 26 21
181.791387607823 214.45310102987 2798.91226009347 23 26 19
178.17658339337 215.196599302054 2805.22608187255 24 27 20
187.499236350624 216.67248007644 2821.25647206686 23 26 19
177.452719405351 217.04489045234 2822.6756382271 21 24 17
174.691353982471 217.828278090361 2829.55299635688 22 25 18
157.292657799351 217.79781637514 2825.57966996116 23 26 19
170.838037761567 219.479858818765 2844.47158148406 18 21 14
151.76268487438 219.365009062121 2839.34117817727 17 20 13
153.11528898958 220.368114182998 2849.18605186465 22 25 18
150.391490838116 221.146397314373 2856.02685958241 21 24 17
148.503889156669 221.966920386665 2863.44797811709 23 26 19
142.505125118667 222.566975750985 2867.89924224635 20 26 16
145.605483762425 223.645067599121 2878.83130548021 24 27 18
142.110248381485 224.37261345438 2885.02841355832 26 29 20
129.479197179275 224.626558634697 2884.78084159316 29 30 22
125.980030375154 225.354445315147 2890.98180325879 33 33 25
119.98411821753 225.953787341671 2895.43034085968 33 33 25
116.496453178697 226.680128217507 2901.6201095716 34 31 24
110.500435805203 227.27936557051 2906.06876712411 40 35 29
106.183442701533 227.962394242928 2911.67156307117 46 41 35
103.557247995315 228.727790592013 2918.41735378575 32 27 21
89.1151447505019 228.913857207985 2917.1440592159 30 23 17
68.7035447326902 228.81789943021 2911.92120536123 32 33 27
56.7107398513147 229.1382562718 2912.44660122565 30 33 26
62.5527003139297 230.313724214856 2924.89288697592 32 35 28
61.6248734048828 231.160386575434 2932.77431875784 30 33 26
64.1353654032244 232.164733352644 2942.88578062 25 28 21
49.5518121636778 232.368130752975 2941.75038650357 27 30 23
33.2096048313995 232.497530487629 2939.53814224415 34 37 30
3.91263964798449 232.042910317537 2929.02149079054 23 26 19
-16.8688056233224 231.99260272063 2924.15881382111 25 28 21
-21.2984633293716 232.689193270356 2929.87148294427 28 31 24
4.59244242602042 234.736946434565 2954.87122546768 30 33 26
-11.0451384034236 234.924960537362 2953.36786065635 33 38 31
-40.648898593183 234.50833690679 2943.14990746535 38 45 37
-77.3354947778979 233.801804871891 2928.67221323072 39 40 32
-315.49736120607 226.393630880053 2807.76132093758 80 59 54
-309.032149313923 227.637669597002 2820.99582123424 76 52 48
-313.091655200572 228.434471084051 2827.74302231384 86 62 58
-314.491710380951 229.339596511649 2836.08474293424 80 63 56
-314.100796317016 230.314695660027 2845.47148116971 92 79 73
189.108765752635 190.424619691448 2644.99419585108 126 119 109
190.61849744163 191.582135929605 2656.07678911494 122 104 90
197.589032381036 193.103822143627 2671.60227861225 126 103 89
198.407276805885 194.198019375654 2681.96431599719 125 97 85
193.026359081631 194.870531640238 2687.20824982295 115 87 76
179.837988173014 195.02334337546 2686.11180488426 32 12 5
167.39420862842 195.232478990294 2685.68455438692 25 14 10
159.624532199328 195.754561085841 2689.07172863706 11 6 2
187.243648234904 198.582822858059 2720.7421055635 18 15 10
226.067408935782 202.104145126168 2761.02175247963 24 25 19
219.257970540288 202.65540226766 2764.86799342615 16 17 11
181.534501427024 201.238241106966 2744.44007558122 17 20 13
174.63533360668 201.800478368552 2748.37379631611 17 20 13
186.842542234056 203.56365938431 2767.16563019308 17 20 13
179.976220463548 204.121586344037 2771.06737137566 23 26 19
173.903381054493 204.729800709357 2775.59098754662 24 27 20
179.860621552891 206.07748052561 2789.31425499526 21 24 17
187.481528623131 207.516248239535 2804.2061706705 23 26 19
192.747220330665 208.800651957297 2817.20859915344 24 27 20
192.408018797644 209.738698423288 2825.90892002234 24 27 20
192.902969465775 210.721947737683 2835.19114378093 21 24 17
185.306774401826 211.220914034189 2838.40946497596 20 23 16
176.072208964225 211.625487211945 2840.43484479789 18 21 14
155.397801934901 211.366058810948 2834.07987591765 18 21 14
157.547283264837 212.44125120121 2844.53935575958 18 21 14
164.650985491012 213.794506003323 2858.54059294397 21 24 17
157.84600387008 214.343697592491 2862.3827135352 20 23 16
142.798833356687 214.42747235193 2860.30846908159 22 25 18
128.531268996253 214.56322882721 2858.86895279422 20 26 16
125.806310256573 215.350024471427 2865.70965484755 21 27 17
132.217274490522 216.640013041815 2878.99123250247 25 28 19
128.707381424102 217.375215160638 2885.20176428653 26 27 19
130.205917683146 218.381749052919 2894.90121842688 30 30 22
121.713869451312 218.842183518471 2897.59758288885 32 32 24
120.741651461987 219.708756762692 2905.5201528498 36 33 26
112.23805811228 220.17055255375 2908.22811842316 43 38 32
109.606979874317 220.945225595997 2914.97738746576 40 35 29
98.5590574179001 221.276218081293 2915.98017633049 29 24 18
80.7258167299296 221.258690147748 2912.43610960256 28 21 15
59.4483219081794 221.07331508997 2906.66907076369 28 29 23
49.1319172620614 221.462227986332 2908.35380033524 28 31 24
46.4493534428914 222.24309676003 2915.15327959467 30 33 26
63.3894920435334 224.011430958932 2934.91245751727 29 32 25
68.4675113417348 225.168425152471 2946.70316923131 26 29 22
48.7548329296374 225.086356379564 2942.20113241907 24 27 20
27.2605058718787 224.927741524399 2936.64545604967 30 33 26
4.83326182165511 224.736094590156 2930.60415285398 26 29 22
-6.46065802303397 225.097347102444 2931.846748343 25 28 21
-2.22507682950512 226.209923324462 2943.06333134559 28 31 24
-4.87519857911867 226.986540095536 2949.8312235945 32 35 28
-26.6104231206752 226.857778218675 2944.51034973048 32 37 30
-45.8082051901747 226.860562508543 2940.90138131056 42 50 39
-76.4020631701503 226.343099628629 2930.26460454088 34 37 28
-296.441894248587 218.087713457819 2811.32190050063 70 61 54
-303.141917569784 218.771802633074 2816.45710530406 76 57 53
-314.243344142229 219.258058374006 2818.90698602328 60 39 36
-320.077456227035 219.983486717607 2824.59312757514 61 40 37
179.150247038416 182.12381081338 2637.68883557699 127 120 110
185.272440360839 183.643027754913 2652.63985863845 116 100 85
188.354192773217 184.933180029799 2664.97630285637 105 83 69
189.92545681143 186.107448056135 2675.99531768086 123 95 84
184.523022243414 186.783019302619 2681.26016593436 109 81 70
173.655811229938 187.075780406608 2682.08915624631 30 10 1
162.762134566924 187.37173787528 2682.94395491818 27 16 10
154.196135496158 187.833381138662 2685.7139128386 15 10 4
173.147454619194 190.184232428971 2710.47474743062 15 12 5
214.300566413045 194.022992186274 2752.64546295017 26 27 19
222.481961617798 195.588283700773 2768.37901477754 15 16 8
178.427455065206 193.634003565774 2742.98134642389 18 21 12
172.314840965849 194.24517392068 2747.54368471434 17 20 11
192.479219002665 196.596182489105 2772.51715778675 17 20 11
190.416274836967 197.462279860554 2780.10565813882 22 25 16
181.167749981078 197.856155680197 2782.14648093432 23 26 17
189.548660095682 199.395948728292 2797.68568016903 19 22 13
203.625448108934 201.289476877484 2817.4355474644 20 23 16
192.002098175588 201.523168325871 2817.60721605315 22 25 18
190.044620907321 202.375630848346 2825.0930014417 24 27 20
190.533527443015 203.378998638965 2834.37825361115 24 27 20
187.802936274822 204.17569610612 2841.22308526416 24 27 20
164.73879558328 203.707441255776 2833.02095590013 24 27 20
161.169126092795 204.456586335734 2839.28912363537 22 25 18
153.519432113085 204.95433622906 2842.56074982847 22 25 18
168.809598322655 206.847937179111 2862.52295103765 24 27 20
167.765546477084 207.737938169463 2870.51305262712 22 25 18
141.212121672468 207.096345717758 2860.13347807738 23 26 19
125.290005780756 207.105200605101 2857.52189328317 23 26 17
122.557209307562 207.901564284417 2864.36896417034 24 27 18
132.277457178422 209.425278198604 2879.99780486273 24 27 18
130.430127329477 210.263117778372 2887.37637350016 24 25 17
130.265738085057 211.195092187501 2895.90400062963 26 27 19
112.586918836272 211.118617348562 2892.2153034567 27 28 20
114.941595663169 212.1924227244 2902.47156397892 31 31 23
114.814983919964 213.11952411269 2910.96239772158 28 28 20
105.461587312321 213.524923624928 2913.10531867814 18 15 8
85.9749982782314 213.369639580832 2908.38959295642 19 16 9
67.2682851890518 213.269069109052 2904.30826156835 23 20 13
60.3557004564683 213.826033797282 2908.25642262146 23 24 16
47.4951398588255 214.060504543914 2908.23929734954 22 25 16
49.9126166092037 215.126164487344 2918.43440051075 24 27 18
60.8915485963926 216.644376313661 2934.23073395076 24 27 18
55.7090802403875 217.289482644674 2939.28165520524 23 26 17
40.2502233654025 217.391773284528 2937.61348475549 22 25 16
24.7455791779303 217.499716500701 2935.9896084936 28 31 22
15.2177406101579 217.92645853669 2938.3025984796 25 28 19
9.98289273569242 218.577991231802 2943.40458355641 24 27 18
-3.8929129835954 218.786786515822 2942.9824972028 28 31 22
-10.0113765725194 219.396455180723 2947.55120391398 31 34 25
-40.4382862939903 218.7806155753 2936.76318509272 33 36 27
-58.7965388368348 218.788188902603 2933.73709078439 38 44 34
-74.5962466221171 218.932732514279 2932.40080751449 24 27 18
-312.729534033808 210.16064068075 2811.66312229686 64 49 44
-334.407459063404 210.12590432039 2807.68869939985 72 54 50
182.300185767716 174.748060438142 2641.31900765134 148 144 135
183.018880172703 175.898892396558 2651.7711912478 92 76 63
187.644200452349 177.336114498262 2665.38693153467 102 80 67
186.882744192467 178.361830676589 2674.49360004422 112 84 73
183.030162222092 179.153990359931 2681.03634651461 116 88 77
172.939846597385 179.486022394994 2682.50497331214 27 7 0
162.826976699387 179.820779816925 2683.99559402547 23 12 6
157.399605618488 180.499516820393 2689.2847367074 20 15 9
162.198995637461 181.914300801679 2702.73093951428 13 10 3
184.398131109689 184.563171801866 2729.89091023191 20 20 12
181.438117664049 185.39807181153 2736.95791527881 18 19 11
157.887000883021 184.777743032067 2727.84492751305 21 24 15
164.434041271667 186.283588505607 2742.37604745449 16 19 10
196.523305397982 189.555349881428 2776.62717447074 16 19 10
186.487164166844 189.879726809816 2778.04313671604 20 23 14
202.835939978665 192.01961340136 2799.75154066624 21 24 15
200.038536822278 192.833637874023 2806.66015668734 17 20 11
189.212704792806 193.101486911549 2807.45173904902 19 22 15
179.972467720788 193.480967151956 2809.48612177095 21 24 17
178.793863910727 194.402320653333 2817.60553940476 23 26 19
176.825549081125 195.267316644131 2825.10023421078 26 29 22
174.061780494017 196.076717647534 2831.97613395411 26 29 22
173.752123361915 197.044180052829 2840.64276913317 26 29 22
163.677511443386 197.372603372375 2842.0963352849 23 26 19
164.210631276947 198.389518016263 2851.33568077697 23 26 19
161.493272250373 199.19283985294 2858.16639363882 25 28 21
161.253302618794 200.151310650613 2866.76515705537 22 25 18
143.743551026431 200.014145713325 2862.91754317036 22 25 18
131.129245400733 200.194773285375 2862.66384106867 23 26 17
130.892126101322 201.152700475805 2871.25985440815 24 27 18
141.460546921413 202.774476946952 2887.44886253827 23 26 17
139.634393312728 203.620991053154 2894.80512076487 23 24 16
124.493506657397 203.652311571612 2892.83169053949 24 25 17
106.801383319078 203.537525689095 2889.16186687964 25 26 18
113.32761662638 204.889529964815 2902.31947690456 32 32 24
112.35799162985 205.783771771465 2910.2353825839 30 30 22
108.885556450467 206.525861216159 2916.40770018865 18 18 10
93.6215437514782 206.572305689233 2914.55430063087 20 20 12
83.3808485997438 206.920568144885 2916.16985767268 23 20 13
71.4242487583405 207.173323090405 2916.66929292793 20 21 13
55.1945037244685 207.185351423349 2914.3630572276 19 22 13
33.8113046711452 206.911595580059 2908.71404689478 20 23 14
43.9005173834994 208.437855972701 2923.97578583486 21 24 15
47.2243606841682 209.569991315129 2934.67793789585 21 24 15
39.4541682927754 210.074145592743 2938.06827422785 21 24 15
31.6732619824025 210.579606303461 2941.46905654953 27 30 21
32.4848508515703 211.560812774546 2950.43749366705 25 28 19
24.7019040543632 212.066493865535 2953.84026965022 24 27 18
7.40231024059224 212.056911224548 2951.1820186944 27 30 21
10.8359324968572 213.175244040824 2961.77719863699 30 33 24
-22.1478887835023 212.336502328889 2949.31044767265 31 34 25
-42.2051855309089 212.206601800619 2945.15769147431 33 36 27
-76.2777772056871 211.348796649187 2932.35733817294 25 28 19
-81.6406469913238 212.016770755623 2937.58402086665 141 141 133
191.587295990805 168.992784320857 2659.8707012964 105 89 76
190.809339622074 170.037254035767 2668.99098289344 111 89 76
188.501645266091 170.957506115185 2676.81451976034 105 77 66
186.989062969693 171.935895062474 2685.2568153122 121 93 82
178.470127067947 172.371017774053 2687.98395853603 88 68 59
173.067156256247 173.04717997091 2693.24925194523 22 12 3
162.17254380966 173.306053451564 2694.11046086126 10 6 0
177.208868661862 175.526438152733 2715.69334111278 17 14 5
176.576538594801 176.551996525663 2724.67180872759 16 16 6
170.434925532572 177.162414740834 2729.26305458278 20 22 11
157.158558203617 177.24562835511 2728.26427796219 13 16 5
170.058279728639 179.259705929686 2747.74826321046 15 18 7
196.585795929647 182.25055880173 2777.64476538045 15 18 7
207.304439972547 184.06406860347 2795.07317084481 20 23 12
204.498096154901 184.887805819606 2801.98889169347 21 24 13
192.078915364499 185.021111398552 2801.54875975776 17 20 9
179.625448151822 185.158619683866 2801.14171574606 18 21 12
167.944088296158 185.357203505152 2801.37617793716 20 23 16
174.815672803055 186.862867752683 2815.58504755665 22 25 18
168.787987928158 187.458261814596 2820.06571944293 26 29 22
168.440316737923 188.447219416038 2828.76692616306 27 30 23
169.744325722669 189.544975971711 2838.64572825064 28 31 24
179.237909004566 191.195654045871 2854.48088498318 26 29 22
169.177833260864 191.506463317423 2855.92261984703 27 30 23
165.652256447857 192.261709195921 2862.14576336437 28 31 24
158.027766544499 192.740927706751 2865.39510046731 25 28 21
151.216178265227 193.276182183442 2869.24617930907 24 27 20
151.826503496677 194.302617182029 2878.40745159547 22 25 16
151.637636771887 195.27123799986 2886.95396890159 23 26 17
152.302278139032 196.290773988771 2896.06232413291 23 26 17
134.707329315042 196.123992725636 2892.30368963838 22 25 16
117.888590416878 196.017806660003 2889.18255842899 25 26 18
106.862427686306 196.291178121965 2890.17225592638 26 27 19
110.040056969149 197.469409815309 2901.01278764797 30 31 23
110.740414630604 198.484236806921 2910.08637205881 27 28 20
110.627910801489 199.443002364193 2918.55851648388 21 22 14
98.7395263183419 199.666299161837 2918.99490462335 21 24 15
97.803322988868 200.570227832852 2926.87585253692 18 21 12
74.0254562840628 200.072191171641 2919.38686539351 18 21 12
40.8280210603555 199.017140297953 2905.74695947264 17 20 11
23.6654959923772 198.953468377992 2902.96092943981 17 20 11
33.7312556944869 200.531815503087 2918.23859701144 17 20 11
45.5764365439295 202.203056822916 2934.56936199313 20 23 14
57.4998907338209 203.864511626606 2950.82384683346 21 24 15
38.6011454751518 203.702394445147 2946.94230280527 26 29 20
32.5456449699955 204.299997795043 2951.45026949178 24 27 18
31.6603786721585 205.197342879591 2959.28160923116 23 26 17
25.6106182520734 205.794193116145 2963.78398723817 26 29 20
16.959607198634 206.243157608822 2966.64023723086 29 32 23
-16.8781687875748 205.267726197347 2953.62443143138 32 35 24
-22.1346248675762 205.923022275674 2958.74731754933 26 29 18
-36.9809260640976 206.042547374841 2957.8848944858 33 36 27
-50.1211076668984 206.264142858656 2958.14733996377 136 137 131
187.788251469936 161.125730891448 2657.72073345441 130 114 101
193.199314368279 162.696151596397 2671.95344232783 115 93 80
190.897488770417 163.626869606931 2679.76994241311 94 66 55
191.726965624366 164.80752740216 2690.10770915443 107 79 68
189.465429298532 165.732980327906 2697.88464173224 121 101 92
187.220493807031 166.656290561281 2705.64574396715 66 56 46
179.49941976323 167.141404857652 2708.99011915479 11 9 0
181.206086078394 168.372395390762 2719.86629395493 20 18 6
169.544236929553 168.548079507961 2720.084766292 17 17 5
169.708776485498 169.650931810568 2729.67741589994 21 23 10
177.03305920299 171.302061616595 2744.83249691789 14 18 4
181.243093317867 172.700893634072 2757.44938722539 15 19 5
183.908005059282 173.972044443659 2768.78532164018 16 20 6
196.989702158016 176.025798628315 2788.08273826803 21 25 11
193.357858459891 176.800905593796 2794.40847091322 23 27 13
183.31779801689 177.094021888052 2795.83294530191 19 22 11
176.471725052151 177.629326354055 2799.71826055771 18 21 12
174.454648845482 178.523113520588 2807.25712080879 20 23 16
174.069983201055 179.533526234138 2815.99189251261 21 24 17
174.519349683039 180.599977713083 2825.30708479832 25 28 21
166.878557382954 181.073946636675 2828.5733863089 26 29 22
167.364744595555 182.135660453124 2837.85271528924 27 30 23
180.114815203411 184.069855381548 2856.08020341301 24 27 20
174.962744850037 184.713650478658 2861.1011328013 26 29 22
164.07445774396 184.951839312905 2861.9591177424 28 31 24
157.267529723012 185.481624915297 2865.80603933399 25 28 21
158.688768042603 186.586555700569 2875.56770845309 23 26 19
159.316369127564 187.630243031644 2884.70927567436 22 23 15
156.662715439821 188.442553675669 2891.47539965121 24 25 17
149.04584354898 188.913013187674 2894.71846653131 24 25 17
130.612339041838 188.650694107755 2890.38974135615 23 26 17
123.782008491232 189.183083529006 2894.25951716236 26 29 20
113.60456456725 189.492347188548 2895.81802880502 27 30 21
110.938179145853 190.306026994592 2902.59659322005 27 30 21
106.606622253647 191.007087682233 2908.21152394243 23 26 17
94.71133223858 191.210201456549 2908.65741457722 24 27 18
92.9003016329957 192.077195108668 2915.99562857024 21 27 17
93.6403179786995 193.106439683396 2925.02803825086 24 27 18
72.3933751737693 192.71430869763 2919.26121924351 19 22 13
30.7063152873979 191.028231413067 2899.97479483716 18 21 12
19.4749674956656 191.308548090048 2901.16721763372 17 20 11
38.0556291542242 193.475349512213 2922.07225726228 17 20 11
55.0367648183672 195.521366727161 2941.74968306628 20 23 14
60.1299503966457 196.808163215162 2953.50614971757 21 24 15
42.0955787962742 196.655750614106 2950.18174485386 24 27 18
22.283791515 196.404751123163 2945.80309250016 23 26 17
33.4459517281629 198.055491928702 2961.39822771991 23 26 17
39.4976370555251 199.382783482616 2973.61381411579 25 28 19
4.0298954483351 198.201935576294 2959.41279226407 27 30 21
-31.5721137836329 197.037844702124 2945.34262346655 28 31 22
-35.1215271012131 197.801087492007 2951.58859288729 28 30 19
188.616011982724 154.774946080685 2669.17368631791 123 110 101
188.632602365255 155.916248510907 2678.90756873007 95 75 66
189.455947145501 157.119682094842 2689.24805845961 67 44 36
188.749926194016 158.188068894714 2698.2933721892 96 71 64
186.502659022973 159.122853332769 2706.05475609192 111 91 82
181.133440234995 159.795482918862 2711.28705536095 33 19 10
171.045750569605 160.079404418373 2712.76018525821 21 11 2
166.455116517608 160.817659127108 2718.62688617005 21 12 3
176.887304282514 162.776358881073 2736.31828794153 23 23 13
189.775252324719 164.917214704296 2755.7952266625 17 18 10
190.838631805166 166.089938462974 2765.90189728514 13 19 9
176.805105346907 166.051335524023 2764.25608598846 13 19 9
184.28124390179 167.726914193832 2779.25675838366 17 23 11
179.81810355525 168.448718664637 2784.99894965727 19 25 13
163.328373014797 168.227728132059 2781.56807633511 23 26 15
144.373083541209 167.82564727111 2776.36123875752 21 24 15
169.681438870267 170.859437433659 2804.62754526366 18 21 12
191.906912117198 173.626274421648 2830.32701754246 20 23 14
170.532283452381 173.037164228613 2823.29885876262 24 27 18
171.000050445389 174.120668994566 2832.59359644249 24 27 18
164.985611937995 174.709769755307 2837.06170679519 23 26 17
170.388073516344 176.154707727301 2849.90459388192 19 22 13
165.212635745985 176.801913038123 2854.94822343263 19 22 13
156.759932069445 177.206447506642 2857.61411800671 23 26 17
153.2217877797 177.975036329348 2863.8481069749 22 25 16
155.456234605633 179.163447828746 2874.2064810884 18 21 12
156.075877882336 180.227539111908 2883.3529348357 19 22 13
147.623112382155 180.631867612284 2886.01892124357 22 25 16
138.326540197949 180.978581195203 2888.11442630435 22 25 16
128.180190860953 181.268364488895 2889.64493975204 22 25 16
126.342970837631 182.150173396623 2897.00697053571 22 25 16
119.511895762919 182.677771339769 2900.87853168572 28 31 22
107.651703703636 182.855504412365 2901.2933207882 20 23 14
85.6941531268989 182.338555694276 2894.83368449158 18 24 14
77.9551597680328 182.816435023975 2898.1969231489 26 32 22
82.0050480950401 184.103646337866 2909.57209092267 22 28 18
80.1854080122402 184.983056441471 2916.91735694972 19 25 15
72.4551314777484 185.459748423713 2920.27211516101 20 23 14
40.1038425317846 184.284970994113 2907.22657832839 19 22 13
36.5490584978128 185.055030977192 2913.47687337172 17 20 11
50.9053160770767 187.010687228448 2931.52313143265 18 21 12
52.5349692285286 188.111042836437 2941.07817990998 20 23 14
48.2018998961182 188.815240928224 2946.69381095889 22 25 16
43.8738449350118 189.518815954234 2952.30489259381 23 26 17
30.9480393140262 189.66633618682 2952.36540784257 22 25 16
29.1965157114289 190.537002628302 2959.64398766528 22 25 16
31.781920089847 191.680921438507 2969.66076958308 25 28 19
4.95785674466198 190.956509943272 2960.97909304109 27 30 21
-55.8121390001007 188.115511789101 2931.05588011584 28 31 22
-76.8136998204776 187.80475785743 2926.45027499508 21 24 15
-15.0605069188523 192.641659316178 2973.52367531278 8 11 2
181.70851210717 146.614094959366 2664.48590865223 145 136 129
184.037733733452 147.982988167651 2676.14074202991 104 85 79
182.51292961734 149.004616200936 2684.58878331139 66 46 39
184.131235505165 150.296421539404 2695.5440507624 72 47 40
177.959109865151 150.904135143284 2700.16633364075 95 72 64
176.491195518833 151.918392297356 2708.55897195257 82 63 56
172.684153334647 152.727661387313 2715.05396797925 54 40 31
172.827973374158 153.871868233184 2724.66108018986 28 17 11
184.856090354668 156.017152160626 2743.57428007615 26 23 16
194.593487862955 157.951343675991 2760.54233183258 15 18 11
182.959475733066 158.080852844384 2760.7396483936 13 18 11
173.684208407746 158.412828857409 2762.81617562095 13 19 9
180.353838396071 160.06711644614 2777.2036225979 17 23 11
175.080836668512 160.727535260805 2782.34218165027 19 25 13
156.173517148218 160.274015770848 2777.09531180683 21 25 11
143.633098299304 160.350764856307 2776.78359223849 20 23 14
147.983861354636 161.797348007659 2789.25367903103 18 21 12
166.116412817447 164.339293191638 2811.9654997838 20 23 14
168.165763807467 165.576080304445 2822.50086474604 24 27 18
174.309747364555 167.129835430136 2836.0082357361 24 27 18
170.744275776239 167.907904522354 2842.26762209406 22 25 16
168.003281400138 168.748665878364 2849.11627166278 21 24 15
155.463692281197 168.824958254514 2848.80413350375 20 23 14
148.626751641977 169.348723856917 2852.68174782232 20 23 14
142.604573045236 169.936406474626 2857.15809164108 20 23 14
138.226273580723 170.650073177034 2862.81723742327 15 18 9
147.058661619677 172.364697747144 2877.88227238244 19 22 13
139.411826182079 172.823757538604 2881.15677838112 22 25 16
135.071449972048 173.532586147679 2886.77931872109 22 25 16
128.242143450666 174.055138730715 2890.64953153152 21 24 15
128.071059593923 175.071560155843 2899.17132527791 22 25 16
120.408749527717 175.532393863641 2902.4609356275 23 26 17
105.202662386015 175.444227870255 2900.56957266121 23 26 19
87.4344464808368 175.179017087391 2896.99788062167 22 25 18
88.1080816643061 176.255459330313 2906.08889414095 24 27 20
91.3381885807305 177.509624370077 2916.86609188119 25 28 21
81.9367879647612 177.856128759051 2919.06538620114 25 28 21
68.2837410179529 177.905230710708 2918.44569969827 24 25 17
63.0790104092407 178.555966684975 2923.51789563997 22 24 13
62.9785069132591 179.56328394326 2931.97094763663 21 24 13
45.8526733347036 179.383336376216 2929.16566790226 21 24 13
26.9647037644747 179.092090043235 2925.29250868835 20 23 12
33.7060772219817 180.570247206814 2938.21783602203 18 21 10
30.2032799974215 181.339687164695 2944.41659903456 23 26 15
26.7089891931622 182.108008822219 2950.6067424883 19 25 13
28.3963879593792 183.22328077429 2960.10258192938 18 24 12
-36.4181547322922 179.886972005639 2927.18364833173 19 25 13
-55.748290130011 180.645510466149 2932.09654017721 22 28 18
-95.8864125683325 179.031959816526 2915.51234437762 6 16 7
-48.9982774219921 183.117093030752 2953.3685923573 10 17 9
174.006124726222 139.517162713435 2668.93235087515 60 47 41
173.234663843454 140.627050303475 2678.03651362522 83 68 61
173.267930902648 141.804734904004 2687.74845858204 60 41 34
170.198916362671 142.696194972693 2694.91534377493 39 20 13
170.28050511001 143.867684661185 2704.58022018639 50 36 27
171.963276559499 145.175923607519 2715.46904350163 58 45 37
182.354629848209 147.248826669515 2733.18411531256 23 19 10
191.243802301478 149.172426004263 2749.57878544765 24 21 14
188.319029428494 150.045458872513 2756.6051600651 15 18 11
186.995353954098 151.055281236887 2764.85556034683 13 18 11
184.895674941882 151.99352155465 2772.46987624857 13 19 9
199.573947284882 154.37254686152 2792.96795160477 16 22 10
181.545813241094 153.932112912488 2788.26301286689 16 22 10
165.862513343578 153.703991234735 2785.44930529293 16 19 8
156.561520280704 154.025837500043 2787.55253788827 19 22 13
153.689578270183 154.891849014569 2794.52748843133 19 22 13
161.332586433208 156.633642868704 2809.35267026352 20 23 14
175.517190804785 158.905449018071 2828.93956499803 23 26 17
182.490187369404 160.562381643921 2843.0257113868 24 27 18
177.316716818949 161.210415136499 2848.06726505415 21 24 15
165.61897973213 161.326102526947 2848.32990429218 21 24 15
150.62097807244 161.18044490737 2846.24074444541 19 22 13
138.855214885159 161.304560646605 2846.56968890054 18 21 12
137.738603269517 162.287697004313 2854.61841588969 17 20 11
132.5252540517 162.940492476839 2859.69886584469 15 18 9
126.48753517832 163.527834409111 2864.19069174104 19 22 11
127.892270058281 164.701051260812 2873.95831852686 21 24 13
132.646073629104 166.129508223212 2886.0308591723 21 24 13
124.148559367967 166.51874876913 2888.74317391239 20 23 14
119.802308373695 167.231458078115 2894.37097443419 21 24 15
107.110371503459 167.302593108285 2894.2105442558 22 25 16
98.5694243261075 167.697207572263 2896.965532103 23 26 17
94.2084025525984 168.411629846306 2902.60740920946 23 26 17
92.3747396547907 169.315509042454 2909.96264573592 25 28 21
93.9288142610883 170.469812499797 2919.58510919927 26 29 22
77.7757331845779 170.299587405576 2917.22934419092 25 28 21
87.8192922574108 172.077289409313 2932.49925490963 25 26 18
73.3246850078966 172.036672198466 2931.3116013632 24 25 17
74.9481935203562 173.182132251141 2940.86608514066 23 26 17
49.3251405423014 172.342447019653 2932.42607211749 23 26 17
19.3382380947931 171.205858722781 2921.27808599786 20 23 14
3.79774910495145 171.127462472133 2919.71768288842 18 21 12
7.09320944960457 172.400823920366 2930.42714648755 23 26 17
8.70779016744239 173.54732101017 2939.9903424234 18 24 14
20.6997459936034 175.418251041106 2956.14584377918 16 22 12
-17.3449547872551 173.772683645033 2940.32173786584 17 23 13
-26.9583091310417 174.132566472214 2942.72952804344 18 24 14
-66.9670088452996 172.395561045168 2926.03506012782 19 25 15
-74.9450612784468 172.887980315068 2929.63353898303 13 20 12
161.645132809078 130.758338988528 2659.82931060583 68 59 52
163.178398976978 132.110343465887 2670.86012634941 59 48 42
166.3086559049 133.605001177569 2683.11784121013 82 67 60
163.221982909233 134.507186257296 2690.30067635861 66 49 41
161.716927901165 135.553990056731 2698.7257233586 30 15 8
161.804994524773 136.743942226697 2708.38143839647 28 18 9
170.593654581598 138.729300608586 2724.86679086688 19 15 6
186.566466060267 141.35725751844 2746.87639637778 23 23 15
182.045390392867 142.096019821075 2752.6739497633 20 21 13
187.059925117854 143.696982695694 2765.87899353756 14 20 10
195.310678257397 145.578072848098 2781.49699700962 13 19 9
194.848849236908 146.665146534885 2790.29706262819 15 21 9
184.010210382491 146.823873991159 2791.11749047842 15 21 9
177.957224895447 147.41141766574 2795.6241086884 15 18 7
164.66568554359 147.363130670215 2794.65983384353 19 22 13
161.813031642967 148.235301632921 2801.61472064458 20 23 14
162.204334177997 149.386635429558 2810.97502571846 20 23 14
170.721756456941 151.233938164366 2826.33321655857 21 24 15
176.059168537698 152.793968713778 2839.22368812534 23 26 17
170.056501368199 153.374967963862 2843.68164460723 21 24 15
163.235168175754 153.887054570996 2847.54548665083 20 23 14
148.231590851681 153.710157176315 2845.46648074634 19 22 13
138.099274612813 153.951346441234 2846.99024129637 16 19 10
138.623275003589 155.085752544881 2856.2212773435 17 20 11
133.411834345769 155.738823390326 2861.29979137021 19 22 13
129.852036721736 156.527762582339 2867.55227464375 17 20 9
127.955343325727 157.451097752117 2874.96722580228 18 21 10
127.733613353334 158.507390847194 2883.53341887479 18 21 10
121.717984604995 159.08963173747 2888.00372504021 18 21 10
107.368900341163 159.001855399173 2886.67853511621 19 22 11
103.833360133532 159.787585450796 2892.90740472622 21 24 13
96.9585017481207 160.305992234992 2896.82346395828 19 22 11
93.4325920797985 161.090463977492 2903.04295627793 21 24 15
97.4825869871698 162.46841856474 2914.40460639966 27 30 21
103.261754218578 163.972548781767 2926.8646706162 29 32 23
89.6642917036239 163.961840534026 2926.19862787216 27 30 21
72.6426233308155 163.694467937419 2923.30283192982 28 29 21
70.8417231026397 164.605505723202 2930.6244766046 28 29 21
71.6087112510562 165.709036112673 2939.61878563344 25 28 19
43.4212477333928 164.612176989986 2929.51221457872 22 25 16
21.9650202699651 164.043241512526 2923.97934995771 17 20 11
3.0052953860662 163.675742669474 2920.1887149187 16 19 10
-1.4253571529812 164.401966864554 2925.89832992789 20 23 14
-12.7328171907379 164.61838340967 2927.17543987949 15 21 11
-24.9282306638881 164.774684468527 2927.92661428569 13 19 9
-6.91283327344383 167.145354730844 2947.94592864537 14 20 10
-24.2964461412143 166.923168722689 2945.40287037902 15 21 11
-74.7130904528959 164.325872232203 2922.16653276921 16 22 12
153.901691203187 123.599501554302 2664.32566984081 79 76 69
157.788983782478 125.203624378509 2677.23270537256 81 74 66
158.593498105085 126.497383845528 2687.57854389883 54 44 35
157.076602465899 127.559604358808 2696.01307023698 56 45 39
151.64767572684 128.241279528137 2701.30332345083 44 35 28
154.103487199401 129.676236026951 2712.82268711433 20 13 5
160.550670208585 131.481641903908 2727.40869201293 21 21 13
185.279719771852 135.001264680443 2756.17878970203 19 22 13
191.890229607749 136.786108118894 2770.60598560871 17 20 11
190.598041632563 137.819788879928 2778.82125423565 13 19 9
170.969709323298 137.146039757758 2772.90600127593 14 20 8
163.273055875064 137.589104426831 2776.23234136773 15 21 9
165.18952235904 138.917104924414 2786.88584346844 16 19 8
170.35785805758 140.534126378337 2799.93578715136 19 22 13
162.683357090047 140.974284123128 2803.24055914449 20 23 14
164.692126066796 142.290613273652 2813.80446636738 20 23 14
161.068453920242 143.09376710652 2820.11827706831 20 23 14
164.758688014926 144.547547401655 2831.82596798877 21 24 15
161.169859214753 145.346249708247 2838.1058366653 23 26 17
148.618021632037 145.352588477023 2837.81586268249 23 26 17
144.207575547762 146.080019200252 2843.50489621706 21 24 15
142.260583359537 147.0211627875 2850.96750058548 17 20 11
141.972588727113 148.102569780506 2859.59544577983 16 19 10
135.945581239756 148.684227163625 2864.0774752854 18 21 10
126.614491560022 148.983373859152 2866.21428709468 17 20 9
114.783001384994 149.073376943312 2866.61354125578 17 20 9
110.384185492545 149.799149847379 2872.29127086289 17 20 9
104.327969965546 150.384353002581 2876.80178032003 16 19 8
107.432427820985 151.737025026586 2887.68919014602 18 21 10
98.0519135986651 152.042221878999 2889.87418704617 20 23 12
90.3266735570654 152.488212200883 2893.22848163756 17 20 9
77.5575992195532 152.521428508223 2893.15025447515 20 23 14
92.5008553102056 154.828298957814 2911.97861434942 27 30 21
94.8972134918762 156.095456744179 2922.16490726836 28 31 22
82.9700594566156 156.19726717919 2922.65774977754 26 29 20
57.4669738867515 155.214129222323 2914.11947175276 27 28 20
48.8429248224547 155.59849982818 2916.95849503993 27 28 20
52.110883033877 156.930490008919 2927.68660336285 22 25 16
34.1084748106604 156.574609678332 2924.36086867668 19 22 13
11.7769897308118 155.890492184002 2918.29692449955 16 19 10
-0.35530731849942 156.017917223561 2918.98969122689 16 19 10
-6.51026570509927 156.615214672217 2923.596466272 18 21 12
-6.64711168004262 157.677266464355 2932.07751714732 14 20 10
-32.6221760389873 156.753175610432 2923.9991939012 13 19 9
-28.4487345480575 158.145765223343 2935.23643453217 14 20 10
-77.0541532300744 155.530089171873 2913.03805822379 16 22 12
-91.1370004477359 155.553607882446 2912.84895093534 17 23 13
-39.1529746899884 160.532134602132 2954.01499262715 13 20 12
150.835455815817 118.139738102925 2682.34754426465 52 43 36
150.867790383069 119.375421847623 2692.05184295157 45 36 29
142.277605575218 119.746283647875 2694.85923512705 50 43 35
138.402961933454 120.587264466716 2701.41667342076 26 22 13
152.713959438656 123.216676321249 2722.24211325582 20 20 12
177.422614981717 126.842069219971 2751.01682973059 20 23 14
187.190029432758 128.979678336798 2767.92500918647 17 20 11
171.55548943059 128.64145134394 2765.07915583311 13 19 9
164.65016590492 129.154562260584 2769.02625012672 13 19 9
158.538162162434 129.745095681922 2773.59137029553 15 21 11
168.462699497297 131.862815880527 2790.3464639785 17 23 13
169.618759560975 133.134013232472 2800.34654705784 21 24 15
165.971754984183 133.946053283728 2806.68221382772 22 25 16
151.831770087784 133.77400018471 2805.16150336724 21 24 15
152.225546045717 134.963783113844 2814.51366953063 18 21 12
151.024174138191 135.999763878511 2822.63875436234 19 22 13
144.147573373473 136.508988475032 2826.55790092613 21 24 15
140.52659070864 137.317593257646 2832.86823528397 21 24 15
138.549268419753 138.273836519775 2840.35838832336 22 25 16
148.880249230712 140.340236977961 2856.71746266146 20 23 14
142.036515202241 140.845211319149 2860.60460025618 20 23 14
133.539512526794 141.203692116124 2863.32129110357 24 27 16
121.726855482649 141.270303988098 2863.70563874024 16 19 8
107.402307254763 141.121119990026 2862.36482235315 16 20 6
93.0362810246792 140.977159286382 2861.06476007676 15 19 5
106.054433784824 143.237124304877 2878.97788998328 14 18 4
110.828362942815 144.761785712877 2891.0158888061 17 20 9
100.620779977416 144.980835844607 2892.61800032444 19 22 11
77.8371680980778 144.123245979085 2885.61175456584 17 20 9
83.4936604113086 145.714094088919 2898.18081992292 19 22 11
93.4054277645711 147.655860102352 2913.5576910204 24 27 18
92.4324847480848 148.662725113979 2921.4599080401 24 27 18
72.0532183918174 148.034326793588 2916.2836408612 20 23 14
52.4516100917025 147.485248267811 2911.73999578137 18 19 11
31.0884395018913 146.80331529429 2906.13176313179 18 19 11
33.4649314735684 148.097709564946 2916.33342010845 14 17 8
36.7297471027159 149.457626988977 2927.06052142766 12 15 6
18.6763854460335 149.068226139458 2923.79033857222 14 17 8
-10.5654274135643 147.782027683263 2913.34148911128 17 20 11
-11.5944096151739 148.795848462348 2921.29866365281 16 19 10
-37.5464846278892 147.804758340408 2913.20775195059 13 19 9
-22.2122006387662 150.127774165406 2931.6454290618 13 19 9
-63.80689881866 147.913944845234 2913.76219895366 16 22 12
-87.3787329491611 147.155083337116 2907.52441537642 19 25 15
150.15099175623 111.716469546471 2692.47871507183 34 27 19
139.199740594771 111.834139782972 2693.41703684681 32 28 19
124.280263952612 111.551285864314 2691.26984020792 18 14 5
131.443143456076 113.528604928602 2706.53698637346 8 8 0
194.91785038413 121.197198369853 2765.65248167908 21 24 15
193.608868151586 122.26092910987 2773.87998587807 15 18 9
195.50493760997 123.641206030542 2784.54635393621 14 20 10
180.677341749696 123.346636399542 2782.30964989982 15 20 13
181.004166237236 124.564381992451 2791.72416699354 12 17 10
174.141700269548 125.067123613599 2795.63057351786 19 24 17
163.252781679442 125.176670479338 2796.50819875869 19 22 13
157.172434960202 125.760837830324 2801.04248609587 18 21 12
167.24492656772 127.911713841578 2817.6457585843 17 20 11
150.671319428675 127.476751366863 2814.32980092408 16 19 10
154.33574659895 128.994202283155 2826.05370801196 16 19 10
146.653371799333 129.419950729224 2829.36842852481 15 18 9
136.513662335187 129.614992790821 2830.90635119333 21 24 15
136.979155382835 130.815100233951 2840.18611310979 22 25 16
139.930897984931 132.242197150462 2851.21417147328 25 28 19
139.636709325462 133.357827694714 2859.84320920213 23 26 17
132.780602263896 133.859483887228 2863.74346166454 17 20 9
116.014692661594 133.448476720538 2860.61492260902 18 21 10
104.985495042657 133.575297186272 2861.62895612666 15 18 7
87.2974616734581 133.100305988685 2858.00864709726 14 17 6
101.13249295465 135.497394660229 2876.50724705838 15 18 7
104.228624586539 136.906204277599 2887.39462783566 17 20 9
92.3357189494109 136.961703982283 2887.86030588492 17 20 9
79.5757517446938 136.946287543304 2887.78022310368 19 22 11
72.6535777651001 137.456034940994 2891.74454727376 20 23 14
96.8323833722642 140.711166385927 2916.84907125352 21 24 15
94.181815354085 141.583265719697 2923.60329437265 20 23 14
34.1096017082734 137.442838546965 2891.76198138977 17 20 11
43.2042202505842 139.356542952 2906.53719366997 15 16 8
18.4261512284896 138.333668757716 2898.70208365379 16 17 9
-5.58967860712078 137.394805591843 2891.51455138189 14 17 8
29.123313391433 141.484085910346 2923.03944889248 12 15 6
24.7214003396703 142.216511012818 2928.71927083255 12 15 6
6.62469877592864 141.792587593024 2925.49688972432 13 16 7
-25.2594387307332 140.223993350487 2913.46291771938 15 18 9
-42.6409702842481 139.890027537622 2910.93431368353 22 28 18
-52.5089902830662 141.308700713308 2921.94063346041 20 26 16
-81.2505517308804 140.064445911113 2912.40607485846 15 21 11
-86.6644055666086 140.744158247101 2917.68165056239 11 17 7
165.907499859667 105.815018416162 2706.04471490724 15 12 5
138.481482318802 104.151304841478 2693.84888826405 20 20 12
118.830387216455 103.335813636476 2687.9768506703 18 18 8
158.38020259997 108.77076596411 2728.66992802615 16 18 7
191.022460911857 113.430869300904 2763.58329878159 20 23 12
216.705051636311 117.32275906835 2792.76840442074 20 23 12
217.861026193008 118.638249102944 2802.76202597062 14 17 8
194.309684208786 117.4001083628 2793.74057417295 11 16 9
197.069379149365 118.879096274261 2804.95166923692 13 18 11
166.187918807912 116.919312333438 2790.56293233349 12 17 10
156.083492038725 117.094327623871 2792.06877871237 16 19 10
163.684707560749 119.060024399742 2806.90236850084 16 19 10
162.463524657674 120.126500086808 2815.04228096578 16 19 10
170.169523807214 122.078976164833 2829.77377307651 16 19 10
155.21269055654 121.76853869817 2827.66808678045 16 19 10
140.210027173314 121.463792375942 2825.60673149285 16 19 10
144.734476909298 123.085901664159 2837.87840215756 17 20 11
143.583979515541 124.143385237493 2845.94945189731 19 22 13
138.356937338307 124.800501553491 2851.04286054466 22 25 16
147.093646883252 126.805839579245 2866.15993834098 22 25 16
151.780958713056 128.407402770557 2878.27292124314 19 22 13
139.185961085919 128.347579651163 2878.03558452064 21 24 13
114.976798555194 127.19183508103 2869.65518013207 17 20 11
103.115993835186 127.222285838942 2870.09268371949 17 20 11
92.0561791917733 127.334573183083 2871.13960622606 17 20 11
87.6338694252952 128.07296400861 2876.8388006741 16 19 10
86.5560775263905 129.121154747543 2884.83902625954 15 18 9
77.96712953055 129.470491799493 2887.64837161081 19 22 13
70.2023432752359 129.898764551785 2891.04455482607 18 21 14
68.3119972396131 130.866510198084 2898.44663911287 14 17 10
59.6969016314723 131.219095659862 2901.28146931613 12 15 8
78.0944044061211 134.018066825977 2922.27529185392 10 13 6
-10.06182365595 127.208434091166 2871.95494185613 11 12 6
-29.8704299982635 126.594740179083 2867.62673686007 12 13 7
-1.27113408311263 130.301993957255 2895.35970956433 13 16 7
12.1419068512267 132.632121482715 2912.87033968847 12 15 6
21.3695623292032 134.575529274509 2927.50905417731 13 16 7
-81.5588228192978 130.169776375213 2895.75344794424 14 20 10
-81.1833365819194 132.495435394001 2913.45802567081 26 32 22
-70.1090186769648 134.571821238938 2929.07747945023 12 18 8
185.116050935061 102.924313433864 2741.244192846 16 16 6
178.993673038393 103.509448959418 2745.82007466792 18 20 9
175.244996900705 104.352030144329 2752.25218883453 17 20 9
217.564366479416 110.149115383027 2794.39226280007 21 24 13
204.392811382581 109.952919410658 2793.33070269845 14 17 8
198.365435599209 110.526067215175 2797.8143556394 10 15 8
178.73555188813 109.659527269021 2791.92879980222 13 18 11
183.093904602073 111.335577998334 2804.35743474375 10 15 9
167.403556129221 110.900146249731 2801.58136684723 15 18 11
163.33706253476 112.894797749237 2816.66093454755 15 18 9
167.8057505899 114.556856169202 2828.98173507944 16 19 10
156.901353498363 114.631355092925 2829.87991077154 16 19 10
150.038638704156 115.12412918097 2833.7880375813 15 18 9
154.58581366156 116.776267280937 2846.03236567795 15 18 9
153.458654717257 117.844874441298 2854.07893377308 16 19 10
146.616053879846 118.335028216281 2857.96713656554 21 24 15
155.371748296235 120.384425590393 2873.05885015142 21 24 15
165.017733350627 122.507184249061 2888.67289636675 19 22 13
159.880801805391 123.153430866467 2893.67843036115 21 24 15
135.720628818272 121.929913761139 2885.25939538269 19 22 13
110.64308208566 120.636414614547 2876.3444222502 18 21 12
87.9667030590214 119.596913350485 2869.25891695094 19 22 13
77.7040460784271 119.775867879626 2870.92130605106 17 20 11
83.2820953341837 121.483568906172 2883.55099571376 16 19 10
72.174914644572 121.583416319759 2884.6467920207 15 18 11
47.6214382874938 120.409309975397 2876.61101021381 13 16 9
8.68796289029472 117.893377900035 2858.96395367507 10 13 6
44.376490795758 123.597461050959 2900.61741268135 6 9 2
-2.37586663244738 120.397022906518 2878.08259389633 8 9 3
-51.0138675746856 117.063082862875 2854.60582204065 9 10 4
-25.8653817587007 120.571636841171 2880.12689281651 10 13 6
-29.5551255362136 121.406396154434 2886.5016423475 10 13 6
-18.7140196460747 123.56398987904 2902.34067661598 11 14 7
-136.680656469684 115.23607562405 2843.58765022849 9 12 5
197.592826095614 95.6318964059289 2742.68524626639 12 13 5
182.441516053712 97.7282077679859 2758.83813437142 13 16 5
185.865721935175 99.3666613272929 2770.78270061242 17 20 9
203.662599448474 102.581896439304 2793.72833860191 16 19 10
184.067212241628 101.662796959465 2787.81629550219 12 17 11
174.802169675402 101.88879588438 2789.89833275996 12 17 11
179.150506749133 103.599012006684 2802.33186375012 13 18 12
170.684983499386 103.912399232198 2805.02362203062 14 17 10
164.622360830954 104.487680547127 2809.54196031757 15 18 9
165.01831909411 105.754811608195 2818.88052739949 15 18 9
142.772321413143 104.605025259385 2811.38394714913 16 19 10
145.60492060894 106.129750971554 2822.51588718298 16 19 10
159.866767722609 108.849284859572 2841.9599047685 15 18 9
157.0978493073 109.762337956914 2848.82559863314 15 18 9
146.984676072623 109.906871622002 2850.34463555247 15 18 9
133.571782937599 109.714333825156 2849.52218701367 17 20 11
140.653530983251 111.644698849663 2863.45992838501 18 21 12
141.208461298284 112.891743809622 2872.64360258635 17 20 11
142.616564412247 114.219478476261 2882.38504700046 19 22 15
138.267109087501 114.955244985265 2888.0126216257 20 23 16
114.025122006121 113.680402837837 2879.68241507108 20 23 16
98.835733639802 113.335208540219 2877.81245864509 21 24 17
85.2667394967241 113.16227051642 2877.14212387699 18 21 14
77.5040467790937 113.575195303486 2880.53849660093 17 20 13
47.9737690850257 111.8373514636 2869.02594065766 11 13 8
23.364647252138 110.608696660788 2861.05347786918 9 11 6
22.206451215248 111.695136868429 2869.12823053945 6 8 3
18.5405926488129 112.532854882087 2875.47848656614 5 7 2
14.8836172202178 113.369494359051 2881.82041875488 5 7 2
8.69588947471067 113.960366564752 2886.46068390591 7 8 2
-3.43378740120182 113.982399250047 2887.16608786427 8 9 3
-17.2940018917078 113.846075589835 2886.77952761924 9 12 5
-70.7542285510776 111.170254174311 2869.41127470015 10 13 6
-61.6694711190999 113.224561650945 2884.1754981361 14 17 10
-78.2606082762327 112.867660224621 2882.28231997184 8 11 4
-100.061167053151 112.037850350235 2877.12993855722 7 12 5
-118.826831783958 112.707176037473 2882.91273545468 11 16 9
145.76416071547 82.1715639506558 2702.61853660652 13 16 7
137.248037034062 83.8175203893405 2715.08296746594 17 19 8
161.12098331236 87.8733668518513 2743.20702542821 14 17 6
197.049643027687 93.2737836248624 2780.4155081184 15 18 7
195.768464574904 94.3898645748976 2788.60800325689 18 21 12
168.972509752479 92.6116325218916 2777.22035011905 14 19 13
169.269480887662 93.9106533624601 2786.65249958686 10 15 9
168.792704734476 95.1162641503382 2795.44988819739 14 19 13
161.105973620141 95.512113594098 2798.77335365463 15 18 11
164.688811872482 97.1607366448697 2810.55889255994 15 18 9
138.430995873368 95.5055790583349 2800.03557858072 15 18 9
133.123475984803 96.1743735973788 2805.20717674883 16 19 10
158.30579074612 101.401597846919 2841.77692423411 17 20 11
151.455541195752 101.882925195732 2845.67402685354 16 19 10
136.424543712004 101.485914516011 2843.65444437836 15 18 9
124.625392256841 101.445368183006 2844.04121870142 16 19 10
125.115157697033 102.720054753639 2853.2855171688 17 20 11
119.870584640384 103.380893573802 2858.39578405407 16 19 10
111.326454098586 103.693839026502 2861.16600367343 19 22 15
112.692688343235 105.048978138748 2870.9449741286 19 21 16
119.894300112239 107.00527335752 2884.75985657936 20 22 17
107.211667759852 106.885085356752 2884.61846433761 18 20 15
83.6673960456849 105.65161679149 2877.00621042957 15 17 12
72.5615284632575 105.714591493956 2878.10615257227 13 15 10
33.8159002264939 102.960113401928 2860.30781802341 9 11 6
-5.92239602047862 100.139812175356 2842.08803679583 7 9 6
15.5487919372042 103.543558636245 2865.60789625587 6 8 5
10.1823650237138 104.219725440582 2870.83690035295 6 8 5
3.12792435144749 104.72678543311 2874.93330234341 8 10 7
-4.77985271557824 105.150421070733 2878.47216291202 10 11 5
5.11793856071652 107.339666700835 2893.82599723928 11 12 6
-8.72277451686188 107.174478521439 2893.42433796625 10 13 6
-37.941736652976 105.51057171626 2883.00896037012 10 13 6
-85.2062733101682 102.111247152176 2861.01213845685 10 13 6
-71.0179813549225 104.714459756285 2879.12948031926 13 16 9
-73.0430350358873 105.733234567885 2886.65778920089 14 17 10
-66.4517527489701 107.575457649759 2899.67835050199 12 17 10
-95.1442896261065 106.036111666529 2890.13872412433 9 14 7
45.4264018277093 121.733582910697 2996.20690632597 232 237 230
138.897449009916 76.4367538239375 2717.37010754359 17 20 11
155.644122958058 79.7484201532727 2739.92711354662 11 14 5
157.413656749541 81.2685331958822 2750.69846567478 14 17 8
164.791059050251 83.4373577805418 2765.72428309915 16 19 10
192.97812771439 88.0181666151676 2796.57164897909 16 19 10
157.338181533911 85.1519145318183 2778.53966502046 11 14 7
168.057751083873 87.6740707994857 2795.86241380444 11 14 7
