ply
format ascii 1.0
comment KinectMotionCapture
element vertex 759
property float x
property float y
property float z
property uchar red
property uchar green
property uchar blue
end_header
-121.212497353554 671.472609043121 2910.00008583069 122 122 120
-113.068491220474 670.097589492798 2904.00004386902 125 125 123
-104.775682091713 667.568027973175 2892.99988746643 123 123 121
-96.7433899641037 666.422426700592 2888.00001144409 119 119 117
-88.6456742882729 664.583921432495 2880.00011444092 115 115 113
-68.9813941717148 628.136336803436 2721.99988365173 204 204 202
-60.6077536940575 618.218719959259 2678.99990081787 196 196 194
-52.925568073988 613.608062267303 2658.99991989136 196 196 194
-45.5753952264786 611.996650695801 2651.99995040894 190 190 188
-38.2342301309109 609.923183917999 2642.99988746643 188 189 184
-31.0006346553564 609.002888202667 2638.99993896484 180 181 176
-23.8067582249641 608.543634414673 2637.00008392334 178 179 174
-16.6047625243664 607.39141702652 2631.99996948242 179 180 175
-9.42273158580065 605.777084827423 2625 178 179 174
-2.28309398517013 605.315983295441 2622.99990653992 176 177 172
4.84382407739758 604.623556137085 2619.99988555908 173 174 169
11.9407093152404 603.23828458786 2614.00008201599 174 175 170
18.9903564751148 601.390838623047 2605.99994659424 179 180 175
26.0364655405283 600.465893745422 2601.99999809265 165 166 161
33.1116504967213 600.463509559631 2601.99999809265 158 159 154
40.1404052972794 599.768161773682 2598.99997711182 164 163 159
47.1708886325359 599.303066730499 2596.99988365173 154 153 149
54.1486069560051 598.375976085663 2592.99993515015 153 152 148
61.1516200006008 597.90974855423 2591.00008010864 149 148 144
68.2225376367569 598.13529253006 2592.00000762939 148 147 143
75.3567814826965 598.821759223938 2595.00002861023 149 148 144
82.3483169078827 598.353803157806 2592.99993515015 142 141 137
89.3287807703018 597.885429859161 2591.00008010864 149 148 144
96.2980762124062 597.416400909424 2588.99998664856 155 154 150
103.455826640129 598.100602626801 2592.00000762939 147 146 142
110.37378013134 597.399830818176 2588.99998664856 145 144 140
117.411181330681 597.390651702881 2588.99998664856 145 144 140
124.448239803314 597.380995750427 2588.99998664856 140 139 135
131.738886237144 598.524391651154 2594.00010108948 141 140 136
138.949334621429 599.205851554871 2596.99988365173 142 141 137
146.231934428215 600.11750459671 2601.0000705719 137 136 132
153.53587269783 601.028501987457 2605.00001907349 133 132 128
160.799473524094 601.708233356476 2608.00004005432 127 126 122
167.950168251991 601.925909519196 2608.99996757507 119 118 114
175.105839967728 602.143108844757 2609.99989509583 119 118 114
182.266503572464 602.35983133316 2611.00006103516 105 104 100
188.561826944351 599.807620048523 2599.99990463257 97 96 92
193.743482232094 594.025492668152 2575.00004768372 142 143 138
198.788836598396 588.243067264557 2549.99995231628 160 161 156
204.907938838005 585.920631885529 2539.99996185303 151 152 147
211.305737495422 584.520578384399 2533.99991989136 152 153 148
217.928677797318 583.812057971954 2530.99989891052 151 151 149
224.179536104202 582.180559635162 2523.9999294281 158 158 156
230.483308434486 580.779314041138 2517.99988746643 165 165 163
236.848160624504 579.60832118988 2513.00001144409 161 161 159
243.863999843597 580.051481723785 2515.00010490417 168 168 166
250.890105962753 580.494165420532 2516.99995994568 171 171 169
257.926464080811 580.936372280121 2519.00005340576 178 178 178
264.867842197418 581.147491931915 2519.99998092651 180 182 179
272.137522697449 582.050085067749 2523.9999294281 173 175 172
279.538810253143 583.182752132416 2529.00004386902 169 171 168
288.32545876503 587.082028388977 2546.0000038147 191 193 190
-252.675563097 676.604509353638 2967.99993515015 212 214 211
-243.790745735168 674.343824386597 2957.99994468689 208 210 207
-235.517546534538 673.678398132324 2954.99992370605 209 209 207
-227.260008454323 673.012316226959 2951.99990272522 208 208 206
-218.721091747284 671.433687210083 2944.9999332428 206 206 204
-210.004940629005 669.170498847961 2934.99994277954 184 186 181
-201.755598187447 668.274581432343 2930.99999427795 166 168 163
-193.527400493622 667.378008365631 2927.00004577637 142 143 138
-185.257032513618 666.252851486206 2921.99993133545 135 136 131
-177.074015140533 665.355145931244 2917.99998283386 131 132 127
-169.260025024414 665.824830532074 2920.00007629395 126 127 122
-161.489978432655 666.522026062012 2923.00009727478 117 116 112
-153.650611639023 666.990578174591 2924.99995231628 117 116 112
-145.650491118431 666.774451732636 2924.00002479553 116 115 111
-137.89090514183 667.697906494141 2927.99997329712 114 113 109
-129.842907190323 667.252540588379 2926.00011825562 117 116 112
-121.680445969105 666.122317314148 2921.0000038147 121 121 119
-113.233327865601 663.167178630829 2907.99999237061 129 129 127
-105.146341025829 662.035763263702 2903.00011634827 124 124 122
-97.052700817585 660.675525665283 2897.0000743866 118 118 116
-89.1761258244514 660.683035850525 2897.0000743866 113 113 111
-68.7335357069969 618.504643440247 2711.99989318848 205 205 203
-60.4769177734852 609.615445137024 2673.00009727478 200 200 198
-52.9099591076374 606.199085712433 2657.99999237061 194 194 192
-45.5790981650352 604.834616184235 2651.99995040894 192 192 190
-38.2518097758293 603.013515472412 2644.00005340576 181 182 177
-31.0266520828009 602.33211517334 2641.00003242493 181 182 177
-23.826751857996 601.87816619873 2638.99993896484 174 175 170
-16.61242172122 600.511372089386 2632.99989700317 178 179 174
-9.42349806427956 598.687887191772 2625 175 176 171
-2.28153914213181 597.776114940643 2621.00005149841 175 176 171
4.84052067622542 597.091734409332 2618.00003051758 170 171 166
11.9325444102287 595.722675323486 2611.99998855591 173 174 169
18.9919006079435 594.352960586548 2605.99994659424 175 176 171
26.0485894978046 593.666911125183 2602.9999256134 164 165 160
33.1143438816071 593.436419963837 2601.99999809265 153 154 149
40.1436686515808 592.749297618866 2598.99997711182 161 160 156
47.1747182309628 592.289507389069 2596.99988365173 156 155 151
54.1947670280933 591.829359531403 2595.00002861023 152 151 147
61.2273812294006 591.596603393555 2594.00010108948 148 147 143
68.2543814182281 591.363310813904 2592.99993515015 150 149 145
75.3628686070442 591.813623905182 2595.00002861023 151 150 146
82.4184864759445 591.807246208191 2595.00002861023 141 140 136
89.404933154583 591.344237327576 2592.99993515015 139 138 134
96.3430181145668 590.652525424957 2589.99991416931 157 156 152
103.384301066399 590.644538402557 2589.99991416931 157 156 152
110.382631421089 590.408027172089 2588.99998664856 144 143 139
117.465920746326 590.626835823059 2589.99991416931 143 142 138
124.506250023842 590.61723947525 2589.99991416931 139 138 134
131.749406456947 591.519176959991 2594.00010108948 141 140 136
138.906881213188 591.964483261108 2595.99995613098 145 144 140
146.243542432785 593.093276023865 2601.0000705719 140 139 135
153.548017144203 593.993484973907 2605.00001907349 135 134 130
160.87381541729 594.893157482147 2608.99996757507 129 128 124
168.092131614685 595.336198806763 2611.00006103516 118 117 113
175.25377869606 595.550715923309 2611.99998855591 124 123 119
182.35057592392 595.536708831787 2611.99998855591 113 112 108
188.794121146202 593.470275402069 2602.9999256134 111 110 106
194.059520959854 587.98360824585 2578.9999961853 142 143 138
199.194043874741 582.496702671051 2555.0000667572 159 160 155
205.165788531303 579.745352268219 2542.99998283386 149 150 145
211.572155356407 578.361451625824 2536.99994087219 150 151 146
218.117594718933 577.433049678802 2532.99999237061 151 151 149
224.107787013054 575.136601924896 2523.00000190735 159 159 157
230.409279465675 573.751628398895 2516.99995994568 165 165 163
236.771821975708 572.594225406647 2512.00008392334 160 160 158
243.882387876511 573.259890079498 2515.00010490417 166 166 164
250.90891122818 573.697149753571 2516.99995994568 169 169 167
258.048087358475 574.361979961395 2519.99998092651 179 179 179
264.992624521255 574.57035779953 2520.99990844727 180 182 179
272.373288869858 575.690090656281 2526.00002288818 172 174 171
279.559314250946 576.353430747986 2529.00004386902 164 166 163
288.233280181885 579.978942871094 2545.00007629395 187 189 186
-260.843276977539 668.793857097626 2969.00010108948 219 221 218
-251.758366823196 666.110277175903 2957.00001716614 202 204 201
-243.479818105698 665.453374385834 2953.9999961853 198 200 197
-235.376313328743 665.246546268463 2953.00006866455 203 203 201
-227.046608924866 664.363205432892 2948.99988174438 204 204 202
-218.515276908875 662.803530693054 2941.99991226196 203 203 201
-210.235968232155 661.918938159943 2937.99996376038 178 180 175
-201.977863907814 661.033868789673 2934.00001525879 161 163 158
-193.873196840286 660.598814487457 2931.99992179871 139 140 135
-185.525238513947 659.261763095856 2926.00011825562 131 132 127
-177.391424775124 658.600151538849 2923.00009727478 125 126 121
-169.563263654709 659.064412117004 2924.99995231628 118 119 114
-161.944776773453 660.42947769165 2930.99999427795 116 115 111
-154.398277401924 662.244617938995 2938.99989128113 119 118 114
-146.45916223526 662.481963634491 2940.00005722046 120 119 115
-138.749673962593 663.845300674438 2946.00009918213 117 116 112
-130.430221557617 662.278652191162 2938.99989128113 119 118 114
-122.148461639881 660.711288452148 2931.99992179871 129 129 127
-113.670766353607 657.791256904602 2918.99991035461 133 133 131
-105.661898851395 657.349407672882 2917.00005531311 114 114 112
-97.6635739207268 656.906843185425 2914.99996185303 110 110 108
-89.645080268383 656.238317489624 2911.99994087219 119 119 117
-68.4095919132233 608.249545097351 2698.99988174438 205 205 203
-60.3686720132828 601.268529891968 2667.99998283386 197 197 195
-52.7947992086411 597.667336463928 2651.99995040894 198 198 196
-45.4796627163887 596.319079399109 2645.99990844727 184 184 182
-38.2115058600903 595.195651054382 2641.00003242493 183 184 179
-31.0291685163975 595.198392868042 2641.00003242493 179 180 175
-23.8286852836609 594.749927520752 2638.99993896484 173 174 169
-16.6074614971876 593.173980712891 2631.99996948242 178 179 174
-9.42426361143589 591.597437858582 2625 174 175 170
-2.28085392154753 590.471088886261 2619.99988555908 174 175 170
4.83906455338001 589.794874191284 2617.00010299683 170 171 166
11.9289448484778 588.441967964172 2611.00006103516 173 174 169
18.9934428781271 587.313890457153 2605.99994659424 175 176 171
26.0707177221775 587.086617946625 2605.00001907349 164 165 160
33.1424847245216 586.858868598938 2604.00009155273 153 154 149
40.2087084949017 586.630523204803 2602.9999256134 161 160 156
47.1967160701752 585.500240325928 2598.00004959106 157 156 152
54.1782677173615 584.59460735321 2594.00010108948 153 152 148
61.1379034817219 583.68843793869 2589.99991416931 148 147 143
68.1809186935425 583.683252334595 2589.99991416931 149 148 144
75.2818211913109 584.128260612488 2592.00000762939 150 149 145
82.4251398444176 584.797918796539 2595.00002861023 144 143 139
89.412122964859 584.340274333954 2592.99993515015 140 139 135
96.3135659694672 583.431482315063 2588.99998664856 153 152 148
103.312745690346 583.198070526123 2588.00005912781 156 155 151
110.47674715519 583.865582942963 2591.00008010864 144 143 139
117.656737565994 584.53243970871 2594.00010108948 143 142 138
124.708481132984 584.522843360901 2594.00010108948 147 146 142
131.912246346474 585.188567638397 2596.99988365173 140 139 135
139.13194835186 585.853815078735 2599.99990463257 137 136 132
146.423816680908 586.743891239166 2604.00009155273 139 138 134
153.678044676781 587.408006191254 2607.00011253357 135 134 130
160.824820399284 587.620854377747 2608.00004005432 127 126 122
168.234094977379 588.73450756073 2612.99991607666 124 123 119
175.535902380943 589.396953582764 2615.9999370575 123 122 118
182.71392583847 589.608311653137 2617.00010299683 120 119 115
189.098969101906 587.340891361237 2607.00011253357 112 111 107
194.375589489937 581.919014453888 2582.99994468689 130 131 126
199.521318078041 576.49689912796 2559.00001525879 161 162 157
205.342963337898 573.327422142029 2545.00007629395 148 149 144
211.755186319351 571.959733963013 2539.00003433228 149 150 145
218.30652654171 571.042239665985 2535.00008583069 154 154 152
224.213689565659 568.547427654266 2523.9999294281 160 160 158
230.426758527756 566.953420639038 2516.99995994568 164 164 162
236.789703369141 565.809607505798 2512.00008392334 160 160 158
243.803739547729 566.241919994354 2513.99993896484 163 163 161
250.72830915451 566.44868850708 2515.00010490417 164 164 162
257.76007771492 566.880106925964 2516.99995994568 178 178 178
265.012264251709 567.761540412903 2520.99990844727 177 179 176
272.285580635071 568.642556667328 2525.00009536743 177 179 176
279.69041466713 569.748222827911 2529.99997138977 171 173 170
288.027793169022 572.655022144318 2542.99998283386 169 171 168
-270.103722810745 663.646578788757 2982.00011253357 210 212 209
-260.511636734009 659.883260726929 2964.99991416931 199 201 198
-251.777619123459 658.122301101685 2957.00001716614 182 182 180
-243.580907583237 657.696068286896 2954.99992370605 178 178 176
-235.553845763206 657.714486122131 2954.99992370605 176 176 174
-226.910173892975 655.951678752899 2947.00002670288 170 170 168
-218.606486916542 655.078589916229 2943.00007820129 165 166 161
-210.32389998436 654.204845428467 2938.99989128113 157 158 152
-202.131316065788 653.553068637848 2936.00010871887 149 150 144
-193.888366222382 652.67813205719 2931.99992179871 137 138 133
-185.666620731354 651.802539825439 2927.99997329712 130 131 126
-177.708834409714 651.816785335541 2927.99997329712 125 126 121
-169.866502285004 652.275621891022 2930.0000667572 127 126 122
-162.178605794907 653.401851654053 2934.99994277954 119 118 116
-154.620692133904 655.195415019989 2943.00007820129 115 114 112
-146.76970243454 655.875265598297 2946.00009918213 114 113 111
-139.043316245079 657.222390174866 2951.99990272522 120 119 117
-130.795687437057 656.120002269745 2947.00002670288 125 124 122
-122.491538524628 654.571533203125 2940.00005722046 123 123 121
-114.147208631039 652.577221393585 2930.99999427795 122 122 120
-106.286197900772 653.253972530365 2934.00001525879 117 117 115
-98.241038620472 652.816891670227 2931.99992179871 94 94 92
-89.8370146751404 649.70725774765 2917.99998283386 163 163 161
-68.2123228907585 599.17676448822 2690.99998474121 194 194 192
-60.3282861411572 593.615353107452 2665.99988937378 198 198 196
-52.7990572154522 590.502679347992 2651.99995040894 197 197 195
-45.4833395779133 589.170694351196 2645.99990844727 192 192 190
-38.214597851038 588.060736656189 2641.00003242493 185 186 181
-30.9964306652546 587.395548820496 2638.00001144409 173 174 169
-23.7764343619347 586.284339427948 2632.99989700317 170 171 166
-16.5898744016886 585.395336151123 2628.99994850159 178 179 174
-9.42502729594707 584.50573682785 2625 172 173 168
-2.28103855624795 583.392798900604 2619.99988555908 172 173 168
4.83760749921203 582.502067089081 2615.9999370575 170 171 166
11.9344796985388 581.61073923111 2611.99998855591 174 175 170
19.0168488770723 580.941498279572 2608.99996757507 175 176 171
26.1028558015823 580.716967582703 2608.00004005432 164 165 160
33.1833548843861 580.491960048676 2607.00011253357 154 155 150
40.2274131774902 579.820990562439 2604.00009155273 160 159 155
47.2005233168602 578.481435775757 2598.00004959106 158 157 153
54.2035326361656 577.809393405914 2595.00002861023 155 154 150
61.2136647105217 577.35937833786 2592.99993515015 149 148 144
68.2653933763504 577.354192733765 2592.99993515015 148 147 143
75.3169134259224 577.348351478577 2592.99993515015 149 148 144
82.4635252356529 578.010022640228 2595.99995613098 147 146 142
89.5227640867233 578.003108501434 2595.99995613098 141 140 136
96.4328944683075 577.105045318604 2592.00000762939 147 146 142
103.360936045647 576.429128646851 2588.99998664856 155 154 150
110.570847988129 577.311217784882 2592.99993515015 147 146 142
117.847576737404 578.415334224701 2598.00004959106 144 143 139
124.910719692707 578.405618667603 2598.00004959106 146 145 141
131.973534822464 578.395426273346 2598.00004959106 144 143 139
139.25002515316 579.275190830231 2601.99999809265 141 140 136
146.49161696434 579.931855201721 2605.00001907349 137 136 132
153.631195425987 580.142557621002 2605.99994659424 138 137 133
160.837456583977 580.575406551361 2608.00004005432 127 126 122
168.440446257591 582.343399524689 2615.9999370575 123 122 118
175.81807076931 583.220422267914 2619.99988555908 125 124 120
183.07726085186 583.651602268219 2621.99997901917 121 120 116
189.621418714523 581.856369972229 2614.00008201599 115 114 110
194.766938686371 576.054155826569 2588.00005912781 133 134 129
199.92658495903 570.696890354156 2563.99989128113 163 164 159
205.762207508087 567.565202713013 2549.99995231628 149 150 145
212.10503578186 565.991222858429 2542.99998283386 150 151 146
218.495413661003 564.639389514923 2536.99994087219 153 153 151
224.230751395226 561.729311943054 2523.9999294281 163 163 161
230.444192886353 560.15419960022 2516.99995994568 164 164 162
236.713245511055 558.801233768463 2510.99991798401 160 160 158
243.725046515465 559.228301048279 2513.00001144409 163 163 161
250.747084617615 559.654891490936 2515.00010490417 163 163 161
257.676869630814 559.858500957489 2516.00003242493 176 176 176
264.716506004334 560.284078121185 2517.99988746643 176 178 175
271.874248981476 560.931861400604 2520.99990844727 178 180 177
279.710918664932 562.914073467255 2529.99997138977 176 178 175
288.388609886169 566.453218460083 2546.0000038147 168 170 167
-279.341906309128 658.20723772049 2993.99995803833 213 215 212
-269.218266010284 653.391242027283 2971.99988365173 195 197 194
-260.092109441757 650.773108005524 2960.00003814697 189 189 187
-251.796811819077 650.133013725281 2957.00001716614 179 179 177
-243.92931163311 650.591671466827 2959.00011062622 176 176 174
-235.731393098831 650.170266628265 2957.00001716614 166 166 164
-226.927667856216 647.989332675934 2947.00002670288 154 154 152
-218.549102544785 646.906971931458 2941.99991226196 145 146 141
-210.483342409134 646.703660488129 2940.99998474121 140 141 135
-202.491298317909 646.719753742218 2940.99998474121 135 136 130
-194.366410374641 646.295368671417 2938.99989128113 126 127 121
-186.188474297523 645.650565624237 2936.00010871887 120 121 115
-178.147673606873 645.444810390472 2934.99994277954 116 115 111
-170.285731554031 645.898342132568 2937.00003623962 117 116 112
-162.633508443832 647.230982780457 2943.00007820129 114 113 111
-155.105799436569 649.222850799561 2951.99990272522 111 110 108
-147.229760885239 649.894595146179 2954.99992370605 113 112 110
-139.384105801582 650.785684585571 2959.00011062622 128 124 123
-131.205573678017 650.136590003967 2956.00008964539 131 130 128
-122.959643602371 649.047017097473 2950.99997520447 139 139 139
-114.623703062534 647.296905517578 2943.00007820129 125 125 125
-106.584541499615 647.085785865784 2941.99991226196 110 110 110
-98.4834656119347 646.43406867981 2938.99989128113 129 129 129
-76.7435133457184 601.357758045197 2733.99996757507 205 205 205
-68.0657029151917 590.585708618164 2684.99994277954 194 194 194
-60.3331439197063 586.411654949188 2665.99988937378 199 199 199
-52.7634918689728 582.896828651428 2650.00009536743 194 194 194
-45.4182475805283 581.141114234924 2641.99995994568 185 185 183
-38.1742641329765 580.264568328857 2638.00001144409 184 185 180
-30.9519302099943 579.387605190277 2634.0000629425 171 172 167
-23.7693227827549 578.949809074402 2631.99996948242 170 171 166
-16.5912173688412 578.291594982147 2628.99994850159 178 179 174
-9.43297147750854 577.852666378021 2627.00009346008 171 172 167
-2.28209374472499 576.533377170563 2621.00005149841 169 170 165
4.83614858239889 575.213432312012 2615.00000953674 170 171 166
11.9354436174035 574.552834033966 2611.99998855591 173 174 169
19.0183836966753 573.891699314117 2608.99996757507 173 174 169
26.1049643158913 573.669910430908 2608.00004005432 162 163 158
33.1987589597702 573.667526245117 2608.00004005432 156 157 152
40.2770042419434 573.444664478302 2607.00011253357 157 156 152
47.258835285902 572.121322154999 2601.0000705719 159 158 154
54.2496703565121 571.23738527298 2596.99988365173 157 156 152
61.2421967089176 570.572853088379 2594.00010108948 151 150 146
68.2972148060799 570.567727088928 2594.00010108948 149 148 144
75.3229707479477 570.342004299164 2592.99993515015 148 147 143
82.5018957257271 571.215391159058 2596.99988365173 150 149 145
89.6333828568459 571.648478507996 2598.99997711182 145 144 140
96.6638475656509 571.421086788177 2598.00004959106 139 138 134
103.568822145462 570.533275604248 2594.00010108948 151 150 146
110.664956271648 570.744752883911 2595.00002861023 155 154 150
117.947667837143 571.835339069366 2599.99990463257 148 147 143
125.064894556999 572.045683860779 2601.0000705719 145 144 140
132.085576653481 571.815490722656 2599.99990463257 149 148 144
139.368057250977 572.684526443481 2604.00009155273 147 146 142
146.615624427795 573.333024978638 2607.00011253357 137 136 132
153.879106044769 573.980927467346 2609.99989509583 140 139 135
161.096781492233 574.40847158432 2611.99998855591 129 128 124
168.582409620285 575.715005397797 2618.00003051758 124 123 119
176.100224256516 577.02100276947 2624.00007247925 123 122 118
183.440655469894 577.666759490967 2627.00009346008 119 118 114
189.998850226402 575.893044471741 2618.99995803833 112 111 107
195.083037018776 569.941282272339 2592.00000762939 137 138 133
200.019955635071 563.989222049713 2565.00005722046 156 157 152
206.020087003708 561.33508682251 2552.99997329712 145 146 141
212.454915046692 559.999942779541 2546.99993133545 148 149 144
218.512058258057 557.784795761108 2536.99994087219 157 157 155
224.070087075233 554.470241069794 2522.0000743866 173 173 171
230.370044708252 553.133904933929 2516.00003242493 163 163 161
236.825346946716 552.236974239349 2512.00008392334 160 160 158
243.840277194977 552.658557891846 2513.99993896484 161 161 159
250.765770673752 552.860021591187 2515.00010490417 163 163 161
257.695972919464 553.060948848724 2516.00003242493 171 171 171
264.525800943375 553.041636943817 2516.00003242493 176 178 175
271.570652723312 553.461492061615 2517.99988746643 177 179 176
279.620796442032 555.85902929306 2529.00004386902 186 188 185
288.183033466339 559.135258197784 2543.99991035461 173 175 172
298.101902008057 564.828276634216 2569.9999332428 198 203 199
-287.205338478088 649.444162845612 2990.9999370575 201 203 200
-278.336524963379 647.728264331818 2983.00004005432 191 193 190
-269.329160451889 645.577371120453 2973.00004959106 176 178 175
-260.726928710938 644.294500350952 2967.00000762939 170 170 168
-252.412050962448 643.662512302399 2963.99998664856 167 167 165
-244.360148906708 643.681347370148 2963.99998664856 164 164 162
-235.988616943359 642.831027507782 2960.00003814697 150 150 148
-227.407157421112 641.328573226929 2953.00006866455 141 141 139
-219.085991382599 640.477001667023 2948.99988174438 136 137 132
-210.714370012283 639.407634735107 2944.00000572205 126 127 121
-202.851325273514 639.858067035675 2946.00009918213 122 123 117
-194.712251424789 639.439046382904 2944.00000572205 112 113 107
-186.710357666016 639.453828334808 2944.00000572205 105 106 100
-178.525820374489 638.81653547287 2940.99998474121 105 104 100
-170.820951461792 639.916241168976 2946.00009918213 106 105 101
-163.254201412201 641.667068004608 2953.9999961853 112 111 107
-155.643492937088 643.417358398438 2961.99989318848 114 113 111
-147.739663720131 644.080996513367 2964.99991416931 118 114 113
-139.724895358086 644.309639930725 2966.00008010864 129 125 126
-131.615489721298 644.103109836578 2964.99991416931 129 127 128
-123.219437897205 642.375290393829 2957.00001716614 131 131 131
-114.827573299408 640.429615974426 2947.99995422363 115 115 115
-106.629274785519 639.352202415466 2943.00007820129 164 164 164
-98.6924022436142 639.794886112213 2944.9999332428 221 221 221
-75.963631272316 587.885975837708 2706.00008964539 196 196 196
-68.0711567401886 583.329319953918 2684.99994277954 207 207 207
-60.4058876633644 579.858422279358 2668.99991035461 191 191 191
-52.8473816812038 576.604127883911 2654.00004386902 192 192 192
-45.4734675586224 574.652671813965 2644.99998092651 183 183 181
-38.2062830030918 573.56983423233 2640.00010490417 182 182 180
-30.9661738574505 572.486281394959 2634.99999046326 170 171 166
-23.7531755119562 571.402132511139 2630.00011444092 171 172 167
-16.5862422436476 570.969223976135 2628.00002098084 176 177 172
-9.43013932555914 570.535719394684 2625.99992752075 168 169 164
-2.28140666149557 569.232583045959 2619.99988555908 168 169 164
4.83283959329128 567.711651325226 2612.99991607666 169 170 165
11.9272656738758 567.059218883514 2609.99989509583 173 174 169
19.0053358674049 566.406190395355 2607.00011253357 171 172 167
26.0870438069105 566.187024116516 2605.99994659424 161 162 157
33.1759676337242 566.18469953537 2605.99994659424 156 157 152
40.249340236187 565.964460372925 2605.00001907349 156 155 151
47.2808107733727 565.309226512909 2601.99999809265 158 157 153
54.274920374155 564.436137676239 2598.00004959106 157 156 152
61.3415576517582 564.431488513947 2598.00004959106 152 151 147
68.4080049395561 564.426243305206 2598.00004959106 150 149 145
75.4452049732208 564.203262329102 2596.99988365173 150 149 145
82.5402662158012 564.414143562317 2598.00004959106 151 150 146
89.744009077549 565.276324748993 2601.99999809265 148 147 143
96.8575924634933 565.486133098602 2602.9999256134 138 137 133
103.816621005535 564.826369285584 2599.99990463257 145 144 140
110.801681876183 564.383447170258 2598.00004959106 157 156 152
117.957010865211 564.808785915375 2599.99990463257 152 151 147
125.122860074043 565.233707427979 2601.99999809265 145 144 140
132.146820425987 565.006375312805 2601.0000705719 148 147 143
139.379024505615 565.647304058075 2604.00009155273 148 147 143
146.739631891251 566.72215461731 2608.99996757507 138 137 133
154.068052768707 567.579209804535 2612.99991607666 138 137 133
161.294400691986 568.001329898834 2615.00000953674 136 135 131
168.724372982979 569.074511528015 2619.99988555908 131 130 126
176.315277814865 570.581555366516 2627.00009346008 128 127 123
183.594539761543 571.001946926117 2628.99994850159 126 125 121
190.303727984428 569.684326648712 2622.99990653992 119 118 114
195.323839783669 563.588261604309 2595.00002861023 134 135 130
200.347259640694 557.92647600174 2569.00000572205 163 164 159
206.358671188354 555.304825305939 2556.99992179871 144 145 140
212.721362709999 553.768694400787 2549.99995231628 147 148 143
218.614801764488 551.146328449249 2538.00010681152 160 160 158
224.08701479435 547.655165195465 2522.0000743866 174 174 172
230.478957295418 546.552240848541 2516.99995994568 162 162 160
237.126007676125 546.100437641144 2515.00010490417 160 160 158
243.95552277565 546.082437038422 2515.00010490417 160 160 158
250.784426927567 546.064019203186 2515.00010490417 163 163 161
257.510185241699 545.82804441452 2513.99993896484 169 169 169
264.440178871155 546.025931835175 2515.00010490417 175 177 174
271.698445081711 546.874642372131 2519.00005340576 180 182 179
279.420077800751 548.591315746307 2526.99995040894 186 188 185
287.75081038475 551.39285326004 2539.99996185303 179 181 178
296.615421772003 555.062055587769 2556.99992179871 185 190 186
-294.756412506104 640.052378177643 2984.99989509583 205 207 204
-286.362498998642 639.430701732636 2982.00011253357 185 187 184
-277.797490358353 638.379573822021 2976.99999809265 176 178 175
-268.987059593201 636.684536933899 2969.00010108948 168 170 167
-260.570853948593 635.846674442291 2964.99991416931 166 166 164
-252.431213855743 635.651648044586 2963.99998664856 161 161 159
-244.461178779602 635.884881019592 2964.99991416931 156 156 154
-236.006662249565 634.830892086029 2960.00003814697 142 142 140
-227.655634284019 633.990705013275 2956.00008964539 137 137 135
-219.325721263885 633.149802684784 2951.99990272522 134 134 132
-211.016938090324 632.308483123779 2947.99995422363 121 122 116
-203.073561191559 632.538855075836 2948.99988174438 117 118 113
-195.256501436234 633.197784423828 2951.99990272522 108 109 104
-187.486007809639 634.070754051209 2956.00008964539 103 104 99
-179.207533597946 633.226871490479 2951.99990272522 105 104 100
-171.414211392403 634.098649024963 2956.00008964539 105 104 100
-163.819715380669 635.827898979187 2963.99998664856 109 110 105
-156.18123114109 637.556552886963 2971.99988365173 112 111 109
-148.2994556427 638.426601886749 2976.0000705719 116 115 113
-140.301272273064 638.86696100235 2977.9999256134 137 135 136
-132.114216685295 638.448715209961 2976.0000705719 141 139 140
-123.604267835617 636.313438415527 2966.00008010864 174 176 175
-75.7170170545578 578.640580177307 2697.00002670288 205 205 205
-67.975178360939 575.213491916656 2680.99999427795 189 189 189
-60.4107156395912 572.643995285034 2668.99991035461 194 194 194
-52.8914369642735 569.859325885773 2655.99989891052 191 191 191
-45.4943031072617 567.717671394348 2645.99990844727 181 181 179
-38.1948687136173 566.21915102005 2638.99993896484 177 178 173
-30.9921614825726 565.792798995972 2637.00008392334 171 172 167
-23.7731449306011 564.722180366516 2631.99996948242 174 175 170
-16.5938846766949 564.080119132996 2628.99994850159 174 175 170
-9.42730531096458 563.222885131836 2625 165 166 161
-2.28158989921212 562.150537967682 2619.99988555908 166 167 162
4.82952874153852 560.219466686249 2611.00006103516 167 168 163
11.9190830737352 559.575080871582 2608.00004005432 171 172 167
19.0141517668962 559.573829174042 2608.00004005432 169 170 165
26.0991510003805 559.357523918152 2607.00011253357 159 160 155
33.1913605332375 559.355139732361 2607.00011253357 156 157 152
40.2371175587177 558.708548545837 2604.00009155273 155 154 150
47.3027601838112 558.490395545959 2602.9999256134 157 156 152
54.3001554906368 557.628154754639 2598.99997711182 156 155 151
61.346460133791 557.4089884758 2598.00004959106 153 152 148
68.4134736657143 557.403802871704 2598.00004959106 153 152 148
75.5383744835854 557.827115058899 2599.99990463257 153 152 148
82.6421603560448 558.035433292389 2601.0000705719 153 152 148
89.8201391100883 558.672189712524 2604.00009155273 155 154 150
96.9769358634949 559.093832969666 2605.99994659424 140 139 135
104.024536907673 558.871388435364 2605.00001907349 135 134 130
111.023716628551 558.433771133423 2602.9999256134 155 154 150
118.102453649044 558.424711227417 2602.9999256134 156 155 151
125.325083732605 559.058725833893 2605.99994659424 146 145 141
132.360458374023 558.834135532379 2605.00001907349 145 144 140
139.604091644287 559.467017650604 2608.00004005432 148 147 143
146.976128220558 560.528337955475 2612.99991607666 141 140 136
154.374927282333 561.589121818542 2618.00003051758 133 132 128
161.677107214928 562.220394611359 2621.00005149841 138 137 133
168.99511218071 562.851071357727 2624.00007247925 138 137 133
176.396042108536 563.69560956955 2628.00002098084 135 134 130
183.678582310677 564.11075592041 2630.00011444092 141 140 136
190.46351313591 563.023865222931 2625 133 132 128
195.715218782425 557.646930217743 2599.99990463257 123 124 119
200.596570968628 551.626443862915 2572.00002670288 160 161 156
206.616505980492 549.037218093872 2559.99994277954 145 146 141
213.071227073669 547.734498977661 2553.99990081787 149 150 145
219.062075018883 545.359134674072 2542.99998283386 163 163 161
224.548235535622 541.91118478775 2526.99995040894 168 168 166
230.679422616959 540.178537368774 2519.00005340576 160 160 158
237.332299351692 539.732098579407 2516.99995994568 159 159 157
243.876695632935 539.070844650269 2513.99993896484 159 159 157
250.603556632996 538.838088512421 2513.00001144409 163 163 161
257.32433795929 538.604915142059 2512.00008392334 168 168 168
264.354407787323 539.014518260956 2513.99993896484 172 174 171
271.718323230743 540.066957473755 2519.00005340576 183 185 182
279.219269752502 541.333258152008 2525.00009536743 182 184 181
287.091881036758 543.242156505585 2533.99991989136 186 188 185
295.592725276947 546.222448348999 2548.00009727478 161 166 162
-302.883833646774 631.961524486542 2984.99989509583 182 184 181
-294.383257627487 631.13671541214 2980.99994659424 180 182 179
-286.19173169136 630.946516990662 2980.00001907349 165 167 164
-277.63158082962 629.908859729767 2974.99990463257 164 166 163
-269.007235765457 628.658890724182 2969.00010108948 155 157 154
-260.678380727768 628.043472766876 2966.00008010864 152 154 151
-252.705782651901 628.27455997467 2967.00000762939 143 145 142
-244.562178850174 628.081619739532 2966.00008010864 138 140 137
-236.263826489449 627.464592456818 2963.00005912781 127 129 126
-228.058129549026 627.058684825897 2960.99996566772 128 130 127
-219.714060425758 626.2286901474 2957.00001716614 125 127 124
-211.462661623955 625.609815120697 2953.9999961853 115 116 111
-203.502461314201 625.837564468384 2954.99992370605 108 108 106
-195.866957306862 627.123773097992 2960.99996566772 106 106 104
-188.261702656746 628.621101379395 2967.99993515015 106 106 104
-180.314287543297 629.059016704559 2970.00002861023 104 104 102
-172.587424516678 630.343556404114 2976.0000705719 105 105 103
-164.882719516754 631.839454174042 2983.00004005432 116 118 115
-156.719028949738 631.640195846558 2982.00011253357 112 112 110
-148.659944534302 631.8638920784 2983.00004005432 123 123 121
-140.830591320992 633.146166801453 2989.00008201599 184 184 182
-75.863428413868 572.408437728882 2701.99990272522 204 206 203
-67.9805874824524 567.96532869339 2680.99999427795 200 202 199
-60.4155287146568 565.428256988525 2668.99991035461 189 191 188
-52.9354847967625 563.1023645401 2657.99999237061 184 186 183
-45.5839149653912 561.623334884644 2651.00002288818 181 181 179
-38.2558144629002 559.931814670563 2642.99988746643 178 179 174
-31.0416538268328 559.510946273804 2641.00003242493 171 172 167
-23.7931124866009 558.030128479004 2634.0000629425 175 176 171
-16.5952108800411 556.97238445282 2628.99994850159 174 175 170
-9.41728428006172 555.490493774414 2621.99997901917 169 170 165
-2.27915984578431 554.431676864624 2617.00010299683 167 168 163
4.82621463015676 552.736699581146 2608.99996757507 169 170 165
11.915466748178 552.312314510345 2607.00011253357 173 174 169
19.0083812922239 552.311062812805 2607.00011253357 169 170 165
26.1012390255928 552.309274673462 2607.00011253357 161 162 157
33.1558175384998 551.671326160431 2604.00009155273 158 159 154
40.2094200253487 551.244676113129 2601.99999809265 156 157 152
47.3065376281738 551.453053951263 2602.9999256134 150 151 146
54.3462745845318 551.025331020355 2601.0000705719 151 152 147
61.3985732197762 550.808846950531 2599.99990463257 156 157 152
68.4979185461998 551.015555858612 2601.0000705719 153 154 149
75.6315514445305 551.433563232422 2602.9999256134 150 151 146
82.7122777700424 551.427245140076 2602.9999256134 152 153 148
89.8617580533028 551.844120025635 2605.00001907349 155 156 151
96.9474017620087 551.836729049683 2605.00001907349 145 146 141
104.072697460651 552.040636539459 2605.99994659424 135 136 131
111.117787659168 551.820278167725 2605.00001907349 144 145 140
118.20250749588 551.811277866364 2605.00001907349 156 155 151
125.479236245155 552.649021148682 2608.99996757507 147 146 142
132.57409632206 552.638947963715 2608.99996757507 145 144 140
139.936223626137 553.687393665314 2614.00008201599 147 146 142
147.212609648705 554.311573505402 2617.00010299683 145 144 140
154.622837901115 555.35888671875 2621.99997901917 139 138 134
161.813020706177 555.558383464813 2622.99990653992 139 138 134
169.201418757439 556.392848491669 2627.00009346008 142 141 137
176.611050963402 557.226657867432 2631.00004196167 141 140 136
184.041917324066 558.059871196747 2634.99999046326 129 128 124
191.058650612831 557.621955871582 2632.99989700317 133 132 128
196.257188916206 552.100896835327 2607.00011253357 131 131 129
201.001867651939 545.73255777359 2576.99990272522 153 155 152
206.955105066299 542.964041233063 2563.99989128113 156 158 155
213.337659835815 541.465759277344 2556.99992179871 146 148 145
219.250917434692 538.908421993256 2545.00007629395 161 163 160
224.742844700813 535.503745079041 2529.00004386902 164 166 163
231.063038110733 534.216165542603 2523.00000190735 156 158 155
237.821504473686 533.986985683441 2522.0000743866 155 157 154
244.185820221901 532.910406589508 2516.99995994568 160 162 159
250.72181224823 532.256960868835 2513.99993896484 163 165 162
257.343292236328 531.814873218536 2512.00008392334 162 164 161
264.373809099197 532.219111919403 2513.99993896484 172 174 171
271.845996379852 533.46973657608 2519.99998092651 177 179 176
279.128909111023 534.296452999115 2523.9999294281 182 184 181
286.659359931946 535.546123981476 2529.99997138977 183 185 182
295.033812522888 538.276970386505 2542.99998283386 158 163 159
-311.740666627884 625.332176685333 2992.00010299683 198 200 199
-303.007572889328 624.100565910339 2986.00006103516 166 168 165
-294.404983520508 623.077511787415 2980.99994659424 169 171 168
-286.020845174789 622.471809387207 2977.9999256134 155 157 154
-277.465581893921 621.447563171387 2973.00004959106 158 160 157
-269.027322530746 620.631814002991 2969.00010108948 146 148 145
-260.873734951019 620.442569255829 2967.99993515015 142 144 141
-252.895176410675 620.670914649963 2969.00010108948 134 136 133
-244.828060269356 620.689630508423 2969.00010108948 129 131 128
-236.441224813461 619.871556758881 2964.99991416931 120 122 119
-228.229522705078 619.471073150635 2963.00005912781 115 117 114
-219.879448413849 618.651866912842 2959.00011062622 112 114 111
-211.908400058746 618.877351284027 2960.00003814697 104 104 102
-203.931331634521 619.102358818054 2960.99996566772 104 104 102
-196.609705686569 621.417641639709 2971.99988365173 108 108 106
-189.1008913517 623.314380645752 2980.99994659424 103 103 101
-181.360423564911 624.58324432373 2986.99998855591 110 110 108
-173.586785793304 625.851631164551 2993.00003051758 134 136 133
-165.393069386482 625.655710697174 2992.00010299683 140 142 139
-157.204270362854 625.45907497406 2990.9999370575 186 188 185
-83.8977172970772 569.69690322876 2723.99997711182 210 212 209
-75.6167322397232 563.219845294952 2693.00007820129 202 204 201
-67.7324011921883 558.624386787415 2671.0000038147 198 200 197
-60.2392181754112 556.537985801697 2661.00001335144 188 190 187
-52.8799407184124 555.287539958954 2654.99997138977 183 185 182
-45.5875433981419 554.454922676086 2651.00002288818 179 179 177
-38.2878109812737 553.203344345093 2644.99998092651 174 175 170
-31.0323722660542 552.160382270813 2640.00010490417 169 170 165
-23.7950049340725 550.907611846924 2634.0000629425 172 173 168
-16.602847725153 550.072610378265 2630.00011444092 172 173 168
-9.41444374620914 548.191249370575 2621.00005149841 168 169 164
-2.28021247312427 547.564268112183 2618.00003051758 168 169 164
4.83214901760221 546.309173107147 2611.99998855591 169 170 165
11.93926949054 546.308577060699 2611.99998855591 172 173 168
19.0463531762362 546.307325363159 2611.99998855591 169 170 165
26.1533763259649 546.305477619171 2611.99998855591 162 163 158
33.1966578960419 545.257389545441 2607.00011253357 158 159 154
40.2435287833214 544.627070426941 2604.00009155273 155 156 151
47.3103001713753 544.414401054382 2602.9999256134 152 153 148
54.4132813811302 544.619560241699 2604.00009155273 153 154 149
61.450682580471 544.196665287018 2601.99999809265 156 157 152
68.5296803712845 544.191479682922 2601.99999809265 153 154 149
75.6375342607498 544.394910335541 2602.9999256134 150 151 146
82.7823802828789 544.807016849518 2605.00001907349 152 153 148
89.9378508329391 545.218467712402 2607.00011253357 152 153 148
97.029484808445 545.211136341095 2607.00011253357 153 154 149
104.200705885887 545.621454715729 2608.99996757507 149 150 145
111.339807510376 545.822083950043 2609.99989509583 129 130 125
118.43866109848 545.813083648682 2609.99989509583 150 149 145
125.537142157555 545.803546905518 2609.99989509583 157 156 152
132.686093449593 546.002686023712 2611.00006103516 148 147 143
140.054196119308 547.037541866302 2615.9999370575 143 142 138
147.336572408676 547.65373468399 2618.99995803833 144 143 139
154.811754822731 548.896610736847 2625 139 138 134
162.01063990593 549.09348487854 2625.99992752075 135 134 130
169.407710433006 549.917161464691 2630.00011444092 143 142 138
176.69178545475 550.321996212006 2631.99996948242 143 142 138
184.265613555908 551.56272649765 2638.00001144409 136 135 131
191.436111927032 551.548302173615 2638.00001144409 136 135 131
196.648567914963 546.09751701355 2611.99998855591 127 127 125
201.329186558723 539.60132598877 2581.00008964539 154 156 153
207.293674349785 536.86797618866 2568.00007820129 152 154 151
213.604107499123 535.179615020752 2559.99994277954 146 148 145
219.095081090927 531.60947561264 2542.99998283386 164 166 163
224.58191215992 528.248131275177 2526.99995040894 156 158 155
230.805531144142 526.767909526825 2519.99998092651 154 156 153
237.556248903275 526.541471481323 2519.00005340576 156 158 155
244.20391023159 526.105582714081 2516.99995994568 161 163 160
250.74028968811 525.460302829742 2513.99993896484 163 165 162
257.567048072815 525.441646575928 2513.99993896484 162 164 161
264.498293399811 525.631606578827 2515.00010490417 166 168 165
271.542131900787 526.03006362915 2516.99995994568 176 178 175
278.706699609756 526.637136936188 2519.99998092651 182 184 181
286.226779222488 527.870655059814 2526.00002288818 183 185 182
295.287042856216 531.820297241211 2545.00007629395 170 175 171
-321.384072303772 620.107114315033 3006.00004196167 192 194 193
-312.180161476135 618.06708574295 2996.00005149841 177 179 178
-303.334206342697 616.645455360413 2989.00008201599 157 159 156
-294.624149799347 615.429520606995 2983.00004005432 163 165 162
-286.04194521904 614.419221878052 2977.9999256134 148 150 147
-277.672857046127 613.821089267731 2974.99990463257 153 155 152
-269.40980553627 613.428711891174 2973.00004959106 140 142 139
-261.508524417877 613.861083984375 2974.99990463257 136 138 135
-253.254890441895 613.467633724213 2973.00004959106 129 131 128
-245.093882083893 613.27999830246 2971.99988365173 124 126 123
-236.778110265732 612.679064273834 2969.00010108948 115 117 114
-228.709027171135 612.696647644043 2969.00010108948 110 112 109
-220.342040061951 611.88817024231 2964.99991416931 107 109 106
-212.712123990059 613.142848014832 2970.99995613098 105 105 103
-204.980090260506 614.190697669983 2976.0000705719 108 108 106
-197.749510407448 616.88905954361 2989.00008201599 107 107 105
-189.87675011158 617.729485034943 2993.00003051758 105 105 103
-182.22451210022 619.394898414612 3000.99992752075 120 120 118
-174.296230077744 620.234251022339 3005.00011444092 177 179 176
-83.5655108094215 560.059010982513 2713.00005912781 209 211 208
-75.5103677511215 555.110812187195 2688.99989128113 201 203 200
-67.687027156353 550.987660884857 2668.99991035461 196 198 195
-60.2213479578495 549.134790897369 2660.00008583069 186 188 185
-52.8442896902561 547.694146633148 2653.00011634827 182 184 181
-45.5739498138428 547.078728675842 2650.00009536743 178 178 176
-38.2908470928669 546.049773693085 2644.99998092651 173 174 169
-31.0348309576511 545.020282268524 2640.00010490417 170 171 166
-23.7968936562538 543.783783912659 2634.0000629425 171 172 167
-16.5978502482176 542.753100395203 2628.99994850159 172 173 168
-9.41519066691399 541.102588176727 2621.00005149841 169 170 165
-2.27952236309648 540.277242660522 2617.00010299683 167 168 163
4.83068265020847 539.038419723511 2611.00006103516 168 169 164
11.940217576921 539.24423456192 2611.99998855591 170 171 166
19.0478656440973 539.24298286438 2611.99998855591 167 168 163
26.1554513126612 539.241194725037 2611.99998855591 160 161 156
33.1992879509926 538.20663690567 2607.00011253357 157 158 153
40.2776263654232 537.997245788574 2605.99994659424 155 156 151
47.3322197794914 537.580907344818 2604.00009155273 153 154 149
54.4384829699993 537.783324718475 2605.00001907349 154 155 150
61.5027770400047 537.57232427597 2604.00009155273 156 157 152
68.5877799987793 537.56719827652 2604.00009155273 153 154 149
75.7016241550446 537.767946720123 2605.00001907349 150 151 146
82.7888920903206 537.761688232422 2605.00001907349 153 154 149
89.9449214339256 538.167834281921 2607.00011253357 152 153 148
97.0743224024773 538.366913795471 2608.00004005432 154 155 150
104.24879938364 538.77180814743 2609.99989509583 155 156 151
111.433856189251 539.176344871521 2611.99998855591 131 132 127
118.538692593575 539.16734457016 2611.99998855591 138 137 133
125.643134117126 539.157807826996 2611.99998855591 157 156 152
132.848873734474 539.560616016388 2614.00008201599 150 149 145
140.118613839149 540.169298648834 2617.00010299683 143 142 138
147.404238581657 540.777325630188 2619.99988555908 145 144 140
154.82372045517 541.797697544098 2625 144 143 139
162.084817886353 542.198300361633 2627.00009346008 129 128 124
169.485166668892 543.011128902435 2631.00004196167 140 139 135
176.906734704971 543.82336139679 2634.99999046326 149 148 144
184.559106826782 545.254290103912 2641.99995994568 149 148 144
191.813558340073 545.446336269379 2642.99988746643 150 149 145
197.115272283554 540.272355079651 2618.00003051758 121 121 119
201.812461018562 533.859848976135 2586.99989318848 148 150 147
207.551494240761 530.542731285095 2571.00009918213 149 151 148
213.453263044357 527.844309806824 2558.00008773804 149 151 148
218.852996826172 524.113833904266 2539.99996185303 166 168 165
224.33203458786 520.795822143555 2523.9999294281 149 151 148
230.731099843979 519.747316837311 2519.00005340576 156 158 155
237.290918827057 519.110977649689 2516.00003242493 160 162 159
244.027867913246 518.886983394623 2515.00010490417 161 163 160
250.559210777283 518.249869346619 2512.00008392334 161 163 160
257.380962371826 518.231272697449 2512.00008392334 164 166 163
264.307171106339 518.418610095978 2513.00001144409 167 169 166
271.561801433563 519.224345684052 2516.99995994568 170 172 169
278.837382793427 520.029604434967 2520.99990844727 178 180 177
286.020636558533 520.628213882446 2523.9999294281 171 173 170
294.959992170334 524.320304393768 2542.00005531311 188 193 189
-330.007344484329 612.768650054932 3009.99999046326 175 177 174
-321.193426847458 611.570537090302 3003.99994850159 147 149 146
-312.30702996254 610.16833782196 2996.99997901917 147 149 146
-303.660809993744 609.172761440277 2992.00010299683 147 149 146
-295.040845870972 608.176529407501 2986.99998855591 150 152 149
-286.351203918457 606.976091861725 2980.99994659424 136 138 135
-277.97332406044 606.385946273804 2977.9999256134 139 141 138
-269.792288541794 606.20254278183 2976.99999809265 129 131 128
-261.879622936249 606.629550457001 2979.00009155273 126 128 125
-253.614574670792 606.241405010223 2976.99999809265 116 118 115
-245.277211070061 605.64911365509 2973.99997711182 111 113 110
-237.194672226906 605.667173862457 2973.99997711182 108 110 107
-229.419618844986 606.499373912811 2977.9999256134 103 105 102
-221.547842025757 607.127249240875 2980.99994659424 102 104 101
-214.160308241844 609.180510044098 2990.9999370575 100 100 98
-206.235572695732 609.807431697845 2993.99995803833 106 106 104
-198.955550789833 612.470686435699 3006.99996948242 136 136 134
-190.779522061348 612.485587596893 3006.99996948242 163 163 161
-183.453023433685 615.351498126984 3020.99990844727 194 196 193
-83.4488421678543 551.905393600464 2709.00011062622 206 208 205
-75.375884771347 546.818315982819 2684.00001525879 198 200 197
-67.5401762127876 542.54549741745 2663.00010681152 192 194 191
-60.1128749549389 540.920615196228 2654.99997138977 184 186 183
-52.8086088597775 540.110111236572 2651.00002288818 181 183 180
-45.5087423324585 539.095222949982 2645.99990844727 175 175 173
