ply
format ascii 1.0
comment KinectMotionCapture
element vertex 803
property float x
property float y
property float z
property uchar red
property uchar green
property uchar blue
end_header
-23.7017590552568 220.360577106476 2615.9999370575 13 16 9
-16.5756121277809 220.52988409996 2618.00003051758 14 17 10
-9.40245948731899 219.856530427933 2609.99989509583 17 20 13
-2.2825407795608 220.109462738037 2612.99991607666 15 18 11
4.83706220984459 219.604030251503 2607.00011253357 9 12 5
11.8230422958732 217.245057225227 2578.9999961853 17 20 13
18.8901796936989 217.58134663105 2582.99994468689 25 28 21
26.0091982781887 218.170061707497 2589.99991416931 21 24 17
33.3451144397259 219.937816262245 2611.00006103516 18 21 14
40.6870059669018 221.115559339523 2625 17 20 13
47.7952510118485 220.861032605171 2621.99997901917 13 16 9
54.698321968317 219.848126173019 2609.99989509583 11 14 7
60.8014278113842 216.223731637001 2566.99991226196 12 15 8
69.2846551537514 220.938056707382 2622.99990653992 13 16 7
75.9166404604912 219.418913125992 2605.00001907349 16 19 10
83.5336968302727 220.763310790062 2621.00005149841 17 20 11
91.9297263026237 223.791942000389 2657.00006484985 17 20 11
98.8420695066452 223.029986023903 2648.00000190735 16 19 10
104.262955486774 219.235688447952 2602.9999256134 15 18 7
111.234806478024 218.978628516197 2599.99990463257 15 18 7
119.464136660099 221.079468727112 2625 18 21 12
126.57518684864 220.990255475044 2624.00007247925 19 20 12
133.833184838295 221.153378486633 2625.99992752075 19 20 12
141.101583838463 221.316263079643 2628.00002098084 20 22 11
149.903625249863 223.752573132515 2657.00006484985 21 21 9
157.207176089287 223.830580711365 2657.99999237061 28 24 12
165.010541677475 224.581971764565 2667.00005531311 21 15 1
172.862321138382 225.333034992218 2676.00011825562 49 41 28
181.031823158264 226.420551538467 2688.99989128113 70 58 44
188.711136579514 226.834177970886 2694.00000572205 77 63 50
196.70806825161 227.584287524223 2703.00006866455 31 19 5
204.753249883652 228.334024548531 2711.99989318848 27 20 4
213.472574949265 229.757025837898 2729.00009155273 22 19 4
222.931265830994 231.85308277607 2753.99994850159 73 69 58
232.609033584595 234.032943844795 2779.99997138977 50 46 37
-296.895533800125 219.929754734039 2700.99997520447 99 89 77
-288.474380970001 219.126313924789 2690.99998474121 105 92 76
-280.62903881073 218.729749321938 2686.00010871887 104 83 62
-272.097587585449 217.762857675552 2674.00002479553 91 70 49
-265.215069055557 218.098670244217 2677.99997329712 102 81 62
-259.465515613556 219.411626458168 2694.00000572205 103 82 65
-157.339662313461 220.419943332672 2704.99992370605 27 27 19
-150.351971387863 220.996409654617 2711.99989318848 19 20 12
-141.796872019768 219.209387898445 2690.00005722046 18 21 12
-133.311182260513 217.340499162674 2667.00005531311 17 20 11
-126.320913434029 217.834562063217 2673.00009727478 18 21 12
-118.540406227112 216.942936182022 2661.99994087219 17 20 9
-110.903061926365 216.214016079903 2653.00011634827 16 19 8
-103.705115616322 216.299757361412 2654.00004386902 15 18 7
-96.3195785880089 215.977728366852 2650.00009536743 15 18 7
-87.9469066858292 213.210359215736 2615.9999370575 16 19 8
-80.0992026925087 211.339116096497 2592.99993515015 16 19 10
-72.4611729383469 209.71205830574 2572.99995422363 18 21 12
-65.6441450119019 210.366874933243 2581.00008964539 18 21 12
-59.0329356491566 211.917966604233 2599.99990463257 17 20 11
-51.9182756543159 211.838662624359 2598.99997711182 17 20 11
-44.7916239500046 211.677595973015 2596.99988365173 18 21 12
-38.0967520177364 213.879972696304 2624.00007247925 16 19 12
-23.8567516207695 214.616060256958 2632.99989700317 14 17 10
-16.3926668465137 211.030393838882 2588.99998664856 15 18 11
-9.31998156011105 210.867896676064 2586.99989318848 17 20 13
-2.27215071208775 212.00929582119 2601.0000705719 16 19 12
4.83725918456912 212.498307228088 2607.00011253357 10 13 6
11.9610587134957 212.660983204842 2608.99996757507 13 16 9
18.9640820026398 211.356177926064 2592.99993515015 20 23 16
26.1006373912096 211.844339966774 2598.99997711182 18 21 14
32.7206626534462 208.827301859856 2562.00003623962 14 17 10
48.3805350959301 216.322913765907 2654.00004386902 13 16 9
55.1406629383564 214.446142315865 2631.00004196167 10 13 6
62.2014068067074 214.036256074905 2625.99992752075 11 14 7
70.3969150781631 217.212378978729 2664.99996185303 15 18 9
76.4151439070702 213.704705238342 2621.99997901917 17 20 11
83.9832797646523 214.761078357697 2634.99999046326 17 20 11
91.3798213005066 215.246602892876 2641.00003242493 17 20 11
98.659411072731 215.405836701393 2642.99988746643 17 20 11
105.148404836655 213.934808969498 2625 15 18 7
112.608373165131 214.500978589058 2631.99996948242 15 18 7
119.195856153965 213.436931371689 2618.99995803833 19 22 13
126.097872853279 213.024646043777 2614.00008201599 20 21 13
134.450152516365 214.97531235218 2638.00001144409 20 21 13
141.160905361176 214.236468076706 2628.99994850159 20 22 11
148.894011974335 215.045660734177 2638.99993896484 22 22 10
157.035991549492 216.343447566032 2654.99997138977 24 22 9
165.388330817223 217.803865671158 2673.00009727478 18 14 2
173.644378781319 219.019487500191 2687.99996376038 43 37 25
181.510269641876 219.664394855499 2696.00009918213 63 53 41
189.208909869194 220.06456553936 2700.99997520447 64 52 38
196.570217609406 220.057100057602 2700.99997520447 30 20 8
204.38377559185 220.538169145584 2707.00001716614 36 30 16
215.358346700668 224.277630448341 2753.00002098084 27 25 12
-297.565907239914 213.046237826347 2707.00001716614 92 84 73
-289.342522621155 212.427139282227 2698.99988174438 83 71 57
-281.579673290253 212.122619152069 2694.9999332428 87 69 49
-273.430496454239 211.502954363823 2687.00003623962 81 63 43
-265.918135643005 211.355343461037 2684.99994277954 99 78 61
-259.378850460052 211.994677782059 2693.00007820129 94 75 60
-169.77547109127 219.57916021347 2788.00010681152 20 21 13
-149.5261490345 212.424039840698 2697.00002670288 18 19 11
-142.065912485123 212.272062897682 2694.9999332428 18 21 12
-133.266359567642 209.993094205856 2665.99988937378 16 19 10
-125.900492072105 209.840521216393 2664.00003433228 17 20 11
-119.257546961308 210.94799041748 2677.99997329712 18 21 10
-111.701659858227 210.479751229286 2671.99993133545 19 22 11
-104.060858488083 209.774985909462 2663.00010681152 19 22 11
-95.7417711615562 207.494363188744 2634.0000629425 18 21 10
-87.7150073647499 205.5284678936 2608.99996757507 17 20 9
-80.0714567303658 204.192489385605 2592.00000762939 16 19 10
-73.0554535984993 204.353019595146 2594.00010108948 19 22 13
-65.9010633826256 204.119339585304 2591.00008010864 18 21 12
-59.0352527797222 204.830795526505 2599.99990463257 16 19 10
-51.5207834541798 203.178524971008 2578.9999961853 14 17 8
-44.7761379182339 204.519674181938 2595.99995613098 15 18 9
-37.9095040261745 205.703034996986 2611.00006103516 17 20 13
-31.0433693230152 207.437589764595 2632.99989700317 17 20 13
-23.4952513128519 204.28729057312 2592.99993515015 17 20 13
-16.4819601923227 205.075919628143 2602.9999256134 17 20 13
-9.37799364328384 205.076426267624 2602.9999256134 17 20 13
-2.28184997104108 205.78570663929 2611.99998855591 14 17 10
4.86713834106922 206.652298569679 2622.99990653992 16 19 12
11.9982091709971 206.179261207581 2617.00010299683 12 15 8
19.0087147057056 204.760536551476 2598.99997711182 13 16 9
25.6698187440634 201.37195289135 2555.99999427795 20 23 16
55.0799518823624 207.038074731827 2628.00002098084 12 15 8
63.1276741623878 209.950685501099 2664.99996185303 15 18 11
70.2411755919456 209.475427865982 2658.99991989136 16 19 10
77.1759152412415 208.606034517288 2648.00000190735 16 19 10
84.1778144240379 208.051458001137 2641.00003242493 16 19 10
90.8297747373581 206.787675619125 2625 17 20 11
97.692683339119 206.153824925423 2617.00010299683 18 21 12
104.992277920246 206.465035676956 2621.00005149841 18 21 10
112.184897065163 206.539615988731 2621.99997901917 18 21 10
118.790872395039 205.589950084686 2609.99989509583 18 21 10
125.282660126686 204.561278223991 2596.99988365173 18 21 10
143.20681989193 210.064709186554 2667.00005531311 21 23 12
148.504823446274 207.302436232567 2631.99996948242 22 22 10
155.326694250107 206.824079155922 2625.99992752075 22 20 8
165.889695286751 211.149737238884 2680.99999427795 16 12 0
174.29706454277 212.482169270515 2697.99995422363 41 37 25
182.257816195488 213.184222579002 2707.00001716614 67 59 48
189.846649765968 213.413491845131 2710.00003814697 47 37 25
195.922702550888 211.988747119904 2691.99991226196 29 23 11
204.316064715385 213.08371424675 2706.00008964539 26 24 12
-290.424913167953 205.835595726967 2709.00011062622 89 79 67
-282.634556293488 205.541655421257 2704.99992370605 81 64 46
-275.068491697311 205.399438738823 2703.00006866455 72 55 37
-267.611354589462 205.333009362221 2701.99990272522 89 70 55
-260.255038738251 205.342322587967 2701.99990272522 100 82 68
-254.676133394241 206.795424222946 2720.99995613098 102 84 70
-159.73661839962 208.79328250885 2746.00005149841 25 28 19
-151.583179831505 207.886576652527 2733.99996757507 19 22 13
-144.127190113068 207.892015576363 2733.99996757507 21 22 14
-134.321138262749 204.323247075081 2687.00003623962 18 19 11
-125.999763607979 202.731177210808 2665.99988937378 21 22 14
-118.415899574757 202.203407883644 2658.99991989136 18 21 10
-112.08214610815 203.880697488785 2680.99999427795 19 22 11
-104.182027280331 202.744007110596 2665.99988937378 20 23 12
-95.9998518228531 200.846508145332 2641.00003242493 20 23 12
-87.045893073082 196.89530134201 2588.99998664856 18 21 10
-80.4452076554298 198.039203882217 2604.00009155273 19 22 13
-73.4806880354881 198.422342538834 2608.99996757507 19 22 13
-66.5394589304924 198.957338929176 2615.9999370575 18 21 12
-58.7196089327335 196.678042411804 2585.99996566772 17 20 11
-51.8024303019047 197.212502360344 2592.99993515015 16 19 10
-44.5708632469177 196.529805660248 2584.00011062622 15 18 9
-37.8238335251808 198.128551244736 2605.00001907349 15 18 11
-30.8205392211676 198.814377188683 2614.00008201599 17 20 13
-23.8314215093851 200.032308697701 2630.00011444092 19 22 15
-16.6408941149712 199.880957603455 2628.00002098084 18 21 14
-9.43599734455347 199.196889996529 2618.99995803833 17 20 13
-2.30115721933544 200.338020920753 2634.0000629425 15 18 11
4.88959206268191 200.414031744003 2634.99999046326 17 20 13
11.9849117472768 198.816478252411 2614.00008201599 16 19 12
18.9509280025959 197.066575288773 2591.00008010864 14 17 10
25.8314944803715 195.620626211166 2572.00002670288 17 20 13
39.6376997232437 194.477289915085 2556.99992179871 16 19 12
47.2539775073528 197.137638926506 2592.00000762939 14 17 10
55.6060448288918 201.775118708611 2653.00011634827 14 17 10
62.4904930591583 200.632080435753 2638.00001144409 17 20 13
69.7947442531586 200.933814048767 2641.99995994568 16 19 10
76.8582448363304 200.550824403763 2637.00008392334 17 20 11
83.4478884935379 199.102833867073 2618.00003051758 19 22 13
89.829720556736 197.426468133926 2595.99995613098 19 22 13
96.9497561454773 197.49903678894 2596.99988365173 18 21 12
104.154996573925 197.72344827652 2599.99990463257 18 21 10
112.488649785519 199.924767017365 2628.99994850159 20 23 12
119.660139083862 199.920460581779 2628.99994850159 15 21 9
127.168864011765 200.448215007782 2635.99991798401 20 23 12
135.734677314758 202.496469020844 2663.00010681152 20 23 12
143.265888094902 202.871516346931 2667.99998283386 20 22 11
148.736074566841 200.432926416397 2635.99991798401 21 21 11
155.746549367905 200.199201703072 2632.99989700317 19 19 9
165.895879268646 203.84293794632 2680.99999427795 19 19 9
174.303531646729 205.129221081734 2697.99995422363 34 31 22
182.197272777557 205.730959773064 2706.00008964539 50 46 35
190.203934907913 206.408396363258 2714.99991416931 29 25 14
197.603926062584 206.401363015175 2714.99991416931 23 21 9
-294.508874416351 201.240018010139 2746.99997901917 102 98 87
-284.629583358765 199.564829468727 2723.99997711182 90 81 64
-276.808023452759 199.281275272369 2720.00002861023 68 56 40
-269.502520561218 199.363842606544 2720.99995613098 66 52 39
-261.997908353806 199.29963350296 2720.00002861023 72 58 47
-254.591405391693 199.308484792709 2720.00002861023 73 59 48
-169.787928462029 204.381361603737 2788.00010681152 19 22 13
-161.545738577843 203.580811619759 2776.99995040894 25 28 19
-151.089668273926 199.774235486984 2724.99990463257 20 21 13
-142.392709851265 198.019951581955 2700.99997520447 21 22 14
-134.825929999352 197.731643915176 2697.00002670288 17 18 10
-127.989411354065 198.542848229408 2707.99994468689 20 21 13
-118.331149220467 194.808036088943 2657.00006484985 16 19 8
-111.333712935448 195.25209069252 2663.00010681152 16 19 8
-95.6398546695709 192.913219332695 2631.00004196167 17 20 9
-87.5198096036911 190.863445401192 2602.9999256134 18 21 10
-80.1083296537399 190.133228898048 2592.99993515015 18 21 12
-73.6523866653442 191.749185323715 2615.00000953674 19 22 13
-66.8217092752457 192.631646990776 2627.00009346008 19 22 13
-59.3802854418755 191.75398349762 2615.00000953674 19 22 13
-52.423682063818 192.415997385979 2624.00007247925 18 21 12
-45.1762340962887 192.051097750664 2618.99995803833 18 21 12
-38.1301529705524 192.56591796875 2625.99992752075 16 19 12
-31.1400350183249 193.667143583298 2641.00003242493 15 18 11
-24.0679029375315 194.768100976944 2655.99989891052 15 18 11
-16.8061517179012 194.622188806534 2654.00004386902 19 22 15
-9.4795823097229 192.936018109322 2631.00004196167 22 25 18
-2.29075830429792 192.276254296303 2621.99997901917 18 21 14
4.87492745742202 192.642882466316 2627.00009346008 19 22 15
12.0082786306739 192.055895924568 2618.99995803833 17 20 13
19.0759729593992 191.248700022697 2608.00004005432 15 18 11
25.9931497275829 189.78126347065 2588.00005912781 14 17 10
48.6048348248005 195.496961474419 2665.99988937378 15 18 11
54.643914103508 191.168680787086 2607.00011253357 15 18 11
62.5164806842804 193.513080477715 2638.99993896484 16 19 12
69.5859715342522 193.14406812191 2634.0000629425 16 19 10
76.5987411141396 192.701458930969 2628.00002098084 16 19 10
82.8134343028069 190.498799085617 2598.00004959106 18 21 12
90.1098549365997 190.935626626015 2604.00009155273 21 24 15
96.6173186898232 189.759090542793 2588.00005912781 19 22 13
104.559414088726 191.368535161018 2609.99989509583 18 21 10
112.792283296585 193.270981311798 2635.99991798401 19 22 11
120.620377361774 194.293275475502 2650.00009536743 16 22 10
128.186643123627 194.802045822144 2657.00006484985 20 23 12
135.433778166771 194.797337055206 2657.00006484985 20 23 12
142.143383622169 194.059237837791 2647.0000743866 19 21 10
149.362161755562 194.054052233696 2647.0000743866 20 20 10
156.343713402748 193.755358457565 2642.99988746643 18 18 8
165.901854634285 196.535333991051 2680.99999427795 17 17 7
174.632847309113 198.142036795616 2703.00006866455 28 25 16
182.069137692451 198.209032416344 2703.9999961853 38 35 26
189.720332622528 198.495700955391 2707.99994468689 21 21 9
199.285015463829 200.687795877457 2737.99991607666 17 14 5
206.822693347931 200.754016637802 2739.00008201599 15 18 9
-278.24205160141 192.8581148386 2733.99996757507 73 65 52
-270.601063966751 192.7260607481 2732.00011253357 47 37 25
-264.125883579254 193.440303206444 2742.00010299683 59 49 39
-257.408052682877 194.013327360153 2750 70 60 50
-250.645726919174 194.586142897606 2757.99989700317 62 52 43
-164.809167385101 199.963197112083 2832.99994468689 25 28 19
-151.871204376221 193.333700299263 2739.00008201599 21 22 14
-141.765058040619 189.809441566467 2688.99989128113 21 22 14
-135.330602526665 191.084802150726 2707.00001716614 17 18 10
-127.143144607544 189.889296889305 2690.00005722046 19 20 12
-119.6269094944 189.611226320267 2686.00010871887 16 19 8
-112.424656748772 189.826965332031 2688.99989128113 15 18 7
-104.033194482327 187.924683094025 2661.99994087219 15 18 7
-96.5520367026329 187.504589557648 2655.99989891052 16 19 8
-88.2962644100189 185.389906167984 2625.99992752075 18 21 10
-80.574594438076 184.122070670128 2608.00004005432 17 20 11
-74.1338282823563 185.819163918495 2631.99996948242 17 20 11
-67.4345791339874 187.163040041924 2651.00002288818 17 20 11
-59.7457401454449 185.753241181374 2631.00004196167 17 20 11
-52.3855872452259 185.119792819023 2621.99997901917 16 19 10
-45.6263460218906 186.745345592499 2644.99998092651 15 18 9
-38.4800136089325 187.0998442173 2650.00009536743 18 21 14
-31.1883091926575 186.748042702675 2644.99998092651 16 19 12
-24.0506380796433 187.384456396103 2654.00004386902 15 18 11
-16.7560894042253 186.820313334465 2645.99990844727 17 20 13
-9.47271473705769 185.620486736298 2628.99994850159 20 23 16
-2.2908397950232 185.126468539238 2621.99997901917 19 22 15
4.87138936296105 185.338228940964 2625 19 22 15
12.0683163404465 185.832187533379 2631.99996948242 18 21 14
19.1498007625341 184.843152761459 2618.00003051758 15 18 11
26.0442942380905 183.07726085186 2592.99993515015 13 16 9
40.0901548564434 182.580724358559 2585.99996566772 18 21 14
47.9502193629742 185.685724020004 2630.00011444092 18 21 14
55.1279708743095 185.683935880661 2630.00011444092 17 20 13
62.0212070643902 184.834659099579 2618.00003051758 13 16 9
69.0600574016571 184.549957513809 2614.00008201599 15 18 9
75.8727565407753 183.770820498466 2602.9999256134 15 18 9
83.0713957548141 183.979853987694 2605.99994659424 16 19 10
89.5593538880348 182.706087827682 2588.00005912781 18 21 12
96.6953933238983 182.844027876854 2589.99991416931 19 22 13
104.162484407425 183.546513319016 2599.99990463257 19 22 11
112.796261906624 186.084136366844 2635.99991798401 19 22 11
119.850791990757 185.868322849274 2632.99989700317 16 22 10
127.51567363739 186.569944024086 2642.99988746643 20 23 12
135.693401098251 187.906622886658 2661.99994087219 19 22 11
142.900183796883 187.831223011017 2661.00001335144 17 19 8
147.843778133392 184.932217001915 2619.99988555908 18 18 8
156.822428107262 187.115088105202 2651.00002288818 19 19 9
167.207166552544 190.709218382835 2701.99990272522 21 21 11
174.509689211845 190.632805228233 2700.99997520447 21 21 13
181.940764188766 190.697282552719 2701.99990272522 16 17 9
189.026281237602 190.408691763878 2697.99995422363 17 18 10
196.88992202282 190.896153450012 2704.99992370605 19 22 13
205.697104334831 192.230194807053 2723.99997711182 17 20 13
-266.061007976532 187.324702739716 2762.00008392334 55 48 38
-173.697397112846 193.52313876152 2851.99999809265 13 14 6
-141.717150807381 182.410046458244 2687.99996376038 22 23 15
-134.685263037682 182.821810245514 2694.00000572205 18 19 11
-126.722067594528 181.94392323494 2680.99999427795 20 21 13
-118.651114404202 180.794298648834 2664.00003433228 17 20 9
-112.930223345757 183.309242129326 2700.99997520447 17 20 9
-105.326443910599 182.905659079552 2694.9999332428 16 19 8
-96.5553447604179 180.26214838028 2655.99989891052 15 18 7
-88.0639106035233 177.754059433937 2618.99995803833 15 18 7
-81.6896110773087 179.453670978546 2644.00005340576 15 18 9
-74.9813839793205 180.678009986877 2661.99994087219 14 17 8
-67.5640851259232 180.273175239563 2655.99989891052 15 18 9
-60.3836439549923 180.47896027565 2658.99991989136 14 17 8
-45.5934107303619 179.396510124207 2642.99988746643 11 14 5
-38.4377688169479 179.669424891472 2647.0000743866 16 19 12
-31.3072949647903 180.213615298271 2654.99997138977 16 19 12
-23.9064693450928 179.060652852058 2638.00001144409 16 19 12
-16.7503338307142 179.5364767313 2644.99998092651 17 20 13
-9.53429657965899 179.604783654213 2645.99990844727 17 20 13
-2.30577192269266 179.129838943481 2638.99993896484 18 21 14
4.90310648456216 179.333433508873 2641.99995994568 19 22 15
12.132927775383 179.604664444923 2645.99990844727 17 20 13
19.3333309143782 179.400503635406 2642.99988746643 15 18 11
25.9849242866039 175.598606467247 2586.99989318848 11 14 7
32.9821780323982 175.258234143257 2582.00001716614 11 14 7
40.572140365839 177.632674574852 2617.00010299683 17 20 13
53.7044480443001 173.896312713623 2562.00003623962 15 18 11
61.3836720585823 175.86275935173 2591.00008010864 13 16 9
68.7982216477394 176.742926239967 2604.00009155273 14 17 8
76.3417333364487 177.758574485779 2618.99995803833 16 19 10
83.9349403977394 178.706094622612 2632.99989700317 15 18 9
95.8773270249367 174.288496375084 2568.00007820129 15 18 9
104.606725275517 177.203476428986 2611.00006103516 19 22 11
112.201005220413 177.946388721466 2621.99997901917 20 23 12
118.398219347 176.517367362976 2601.0000705719 16 24 9
126.941040158272 178.549215197563 2631.00004196167 17 23 11
134.933352470398 179.630666971207 2647.0000743866 19 22 11
141.938343644142 179.354622960091 2642.99988746643 17 19 8
147.905200719833 177.856907248497 2621.00005149841 18 18 10
156.827718019485 179.887592792511 2651.00002288818 19 19 11
166.284516453743 182.325065135956 2687.00003623962 22 22 14
173.546388745308 182.251632213593 2686.00010871887 20 21 15
180.734768509865 182.110100984573 2684.00001525879 15 16 10
189.10263478756 183.121755719185 2698.99988174438 18 21 14
198.061093688011 184.608072042465 2720.99995613098 18 21 14
207.13871717453 186.094060540199 2743.00003051758 19 22 15
213.831782341003 185.408785939217 2733.00004005432 21 24 17
-171.327695250511 183.207035064697 2812.99996376038 11 12 4
-148.775994777679 174.750223755836 2683.00008773804 21 22 14
-140.509098768234 173.582434654236 2664.99996185303 22 25 16
-134.089693427086 174.69410598278 2681.99992179871 18 21 12
-125.639021396637 173.134997487068 2657.99999237061 20 23 14
-117.675110697746 172.096699476242 2641.99995994568 19 22 11
-110.843323171139 172.686606645584 2651.00002288818 19 22 11
-104.040153324604 173.406600952148 2661.99994087219 17 20 9
-97.0311164855957 173.865839838982 2668.99991035461 16 19 8
-88.6384546756744 171.719118952751 2635.99991798401 14 17 6
-82.4029520153999 173.741370439529 2667.00005531311 14 17 8
-74.5894983410835 172.506138682365 2648.00000190735 14 17 8
-67.4391239881516 172.703862190247 2651.00002288818 13 16 7
-60.4991838335991 173.552855849266 2664.00003433228 12 15 6
-52.9885292053223 172.772899270058 2651.99995040894 9 12 3
-45.1981462538242 170.68974673748 2619.99988555908 9 12 3
-38.2357351481915 171.538025140762 2632.99989700317 8 11 4
-31.379085034132 173.363357782364 2661.00001335144 10 13 6
-24.2244526743889 174.146056175232 2673.00009727478 11 14 7
-16.8648846447468 173.495233058929 2663.00010681152 13 16 9
-9.56704374402761 172.974452376366 2654.99997138977 14 17 10
-2.32594506815076 173.430681228638 2661.99994087219 13 16 9
4.92368405684829 172.844305634499 2653.00011634827 14 17 10
12.1883563697338 173.169761896133 2657.99999237061 15 18 11
19.4802768528461 173.495009541512 2663.00010681152 15 18 11
26.7491899430752 173.494279384613 2663.00010681152 11 14 7
33.0215953290462 168.411612510681 2585.00003814697 9 12 5
39.6587550640106 166.651397943497 2558.00008773804 14 17 10
47.1329540014267 168.408989906311 2585.00003814697 16 19 12
53.8529567420483 167.364984750748 2569.00000572205 17 20 13
60.9592422842979 167.623713612556 2572.99995422363 15 18 11
68.7740668654442 169.576033949852 2602.9999256134 10 13 4
76.9564136862755 171.9840914011 2640.00010490417 11 14 5
91.9186919927597 173.02094399929 2655.99989891052 8 11 2
98.1579944491386 171.259015798569 2628.99994850159 11 14 5
105.050884187222 170.799762010574 2621.99997901917 16 19 8
111.947923898697 170.40541768074 2615.9999370575 15 21 9
118.58419328928 169.685199856758 2605.00001907349 14 22 7
125.545933842659 169.485867023468 2601.99999809265 16 22 8
133.561342954636 170.654162764549 2619.99988555908 15 21 7
140.492916107178 170.389264822006 2615.9999370575 17 19 8
147.51498401165 170.254409313202 2614.00008201599 18 18 10
154.170587658882 169.728547334671 2605.99994659424 17 18 10
164.371386170387 172.979936003685 2655.99989891052 19 20 12
174.26273226738 175.644814968109 2697.00002670288 19 20 14
181.885361671448 175.899654626846 2700.99997520447 18 20 15
189.739316701889 176.349669694901 2707.99994468689 18 23 17
199.159324169159 178.166925907135 2736.00006103516 15 20 14
207.447379827499 178.876847028732 2746.99997901917 19 20 14
216.02937579155 179.781839251518 2760.99991798401 23 22 17
-169.749423861504 173.914089798927 2786.99994087219 15 16 8
-159.58896279335 171.173393726349 2743.00003051758 23 24 16
-148.947015404701 167.621061205864 2686.00010871887 21 22 14
-140.988022089005 166.876599192619 2674.00002479553 22 25 16
-132.893949747086 165.882274508476 2657.99999237061 18 21 12
-125.784769654274 166.073486208916 2661.00001335144 20 23 14
-117.055229842663 164.017677307129 2628.00002098084 20 23 12
-110.01056432724 164.20841217041 2631.00004196167 20 23 12
-103.339917957783 165.023103356361 2644.00005340576 18 21 10
-96.7433303594589 166.087225079536 2661.00001335144 16 19 8
-89.3137902021408 165.778011083603 2655.99989891052 14 17 8
-82.1892768144608 166.030362248421 2660.00008583069 14 17 8
-75.070746243 166.344881057739 2664.99996185303 14 17 8
-67.5430148839951 165.722906589508 2654.99997138977 14 17 8
-59.887919574976 164.601340889931 2637.00008392334 13 16 9
-52.7504496276379 164.790362119675 2640.00010490417 11 14 7
-45.3375987708569 164.042830467224 2628.00002098084 11 14 7
-38.1207764148712 163.856863975525 2625 9 12 5
-31.6395238041878 167.478427290916 2683.00008773804 9 12 5
-17.106082290411 168.603539466858 2700.99997520447 10 13 6
-9.72950644791126 168.541550636292 2700.00004768372 11 14 7
-2.33912607654929 167.10601747036 2677.00004577637 12 15 8
4.92384098470211 165.607824921608 2653.00011634827 12 15 8
12.17957213521 165.79481959343 2655.99989891052 15 18 11
19.583310931921 167.105197906494 2677.00004577637 15 17 12
26.9710309803486 167.603850364685 2684.99994277954 11 13 8
33.303689211607 162.734001874924 2607.00011253357 8 11 4
40.0631316006184 161.297157406807 2584.00011062622 13 16 9
47.7543994784355 163.480505347252 2618.99995803833 15 18 11
54.3787553906441 161.918416619301 2594.00010108948 18 21 14
62.0036646723747 163.352280855179 2617.00010299683 15 18 11
68.591296672821 162.039428949356 2595.99995613098 4 7 0
76.2009248137474 163.160726428032 2614.00008201599 8 11 2
90.814121067524 163.779705762863 2624.00007247925 8 11 2
98.3851253986359 164.463341236115 2634.99999046326 11 14 5
105.414785444736 164.2105281353 2631.00004196167 14 17 6
113.192491233349 165.080934762955 2644.99998092651 14 17 6
119.953602552414 164.453223347664 2634.99999046326 13 19 7
125.984132289886 162.951603531837 2611.00006103516 15 21 9
132.749870419502 162.510767579079 2604.00009155273 16 19 8
141.410335898399 164.316385984421 2632.99989700317 17 18 10
147.745326161385 163.375869393349 2618.00003051758 17 18 10
155.417785048485 163.932874798775 2627.00009346008 19 20 12
165.304839611053 166.673675179482 2671.0000038147 19 20 12
175.237342715263 169.22689974308 2711.99989318848 18 21 14
184.382647275925 170.843809843063 2737.99991607666 18 23 17
188.343808054924 167.718350887299 2687.99996376038 18 23 17
196.836054325104 168.710842728615 2703.9999961853 17 22 16
206.547528505325 170.638918876648 2734.99989509583 20 21 15
213.21913599968 170.008704066277 2724.99990463257 23 24 18
-173.530861735344 170.013666152954 2848.99997711182 9 10 4
-163.666486740112 167.870283126831 2812.99996376038 20 21 15
-149.727836251259 161.131322383881 2700.00004768372 25 26 20
-134.247928857803 160.244464874268 2684.99994277954 19 20 14
-127.159431576729 160.546720027924 2690.00005722046 20 21 15
-119.464077055454 160.072892904282 2681.99992179871 17 20 11
-110.557466745377 157.808274030685 2644.00005340576 17 20 11
-105.844542384148 161.631390452385 2707.99994468689 18 21 12
-97.6188406348228 160.261586308479 2684.99994277954 16 19 12
-90.1908352971077 160.085320472717 2681.99992179871 15 18 11
-82.7170461416245 159.789428114891 2677.00004577637 14 17 10
-74.9040022492409 158.717349171638 2658.99991989136 13 16 9
-67.6468387246132 158.719465136528 2658.99991989136 12 14 9
-60.6165044009686 159.318298101425 2668.99991035461 12 14 9
-52.9918298125267 158.305212855339 2651.99995040894 13 15 10
-45.6495210528374 157.948538661003 2645.99990844727 13 15 10
-38.3833423256874 157.770708203316 2642.99988746643 12 15 8
-31.0154650360346 156.995743513107 2630.00011444092 9 12 5
-24.6156826615334 162.130266427994 2716.00008010864 8 11 4
-16.9672705233097 159.922197461128 2678.99990081787 8 10 5
-9.65412799268961 159.92259979248 2678.99990081787 7 9 4
-2.35754740424454 161.056965589523 2697.99995422363 8 10 5
4.99266339465976 160.57938337326 2690.00005722046 9 11 6
12.2258011251688 159.146428108215 2665.99988937378 11 13 10
19.4375962018967 158.608719706535 2657.00006484985 10 12 9
26.1280424892902 155.265137553215 2601.0000705719 7 9 6
40.7310575246811 156.815201044083 2627.00009346008 11 13 8
61.4132098853588 154.721364378929 2592.00000762939 18 21 14
68.0649280548096 153.764367103577 2575.99997520447 8 11 4
75.4161328077316 154.41882610321 2586.99989318848 9 12 5
82.9864665865898 155.371516942978 2602.9999256134 10 13 6
90.6092151999474 156.264290213585 2618.00003051758 13 16 7
97.8653579950333 156.440541148186 2621.00005149841 14 17 8
105.818659067154 157.631263136864 2641.00003242493 14 17 8
113.752275705338 158.642664551735 2657.99999237061 14 17 8
120.867714285851 158.460155129433 2654.99997138977 15 18 11
128.062799572945 158.396810293198 2654.00004386902 17 20 13
134.946048259735 157.975167036057 2647.0000743866 16 19 12
142.542451620102 158.388838171959 2654.00004386902 18 21 14
149.837881326675 158.444225788116 2654.99997138977 19 22 15
156.073227524757 157.425239682198 2638.00001144409 18 21 14
167.104586958885 161.120384931564 2700.00004768372 19 22 15
178.538054227829 164.874762296677 2763.00001144409 19 22 15
184.590145945549 163.556709885597 2740.9999370575 19 22 15
187.648683786392 159.792140126228 2677.99997329712 19 22 15
195.167541503906 159.965604543686 2680.99999427795 22 25 18
204.363480210304 161.451488733292 2706.00008964539 21 24 17
214.790374040604 163.772284984589 2744.99988555908 20 23 16
-174.023121595383 162.69925236702 2857.00011253357 8 9 3
-163.38025033474 159.913495182991 2808.00008773804 19 20 14
-149.288475513458 153.311654925346 2691.99991226196 26 27 21
-146.374642848969 158.099755644798 2776.00002288818 25 26 20
-134.301796555519 152.977913618088 2686.00010871887 19 20 14
-126.454010605812 152.355074882507 2674.99995231628 19 20 14
-118.621192872524 151.675075292587 2663.00010681152 14 17 8
-112.525999546051 153.27313542366 2690.99998474121 14 17 8
-104.635916650295 152.4787992239 2677.00004577637 13 16 9
-97.7671071887016 153.16516160965 2688.99989128113 13 16 9
-90.3952196240425 153.110861778259 2687.99996376038 13 16 9
-82.5649499893188 152.201935648918 2671.99993133545 12 15 8
-75.1315504312515 151.91937983036 2667.00005531311 12 15 8
-61.2769238650799 153.689131140709 2697.99995422363 11 13 8
-53.6727830767632 153.007209300995 2686.00010871887 12 14 9
-45.8061322569847 151.242703199387 2654.99997138977 12 14 9
-38.137573748827 149.591892957687 2625.99992752075 13 16 9
-31.028164550662 149.877727031708 2631.00004196167 11 14 7
-24.0363404154778 151.074811816216 2651.99995040894 9 11 6
-16.8537609279156 151.588082313538 2661.00001335144 8 10 5
-9.58954263478518 151.588469743729 2661.00001335144 6 8 3
-2.33402266167104 152.158290147781 2671.0000038147 7 9 4
4.98538510873914 153.01276743412 2686.00010871887 7 9 4
12.3362233862281 153.240397572517 2690.00005722046 9 11 8
19.2040596157312 149.537101387978 2625 9 11 8
33.7272696197033 150.390088558197 2640.00010490417 5 7 4
41.5230132639408 152.553722262383 2677.99997329712 6 8 3
68.5953721404076 147.876307368279 2595.99995613098 12 15 8
75.8556202054024 148.216053843498 2601.99999809265 11 14 7
83.658404648304 149.466946721077 2624.00007247925 11 14 7
90.5426144599915 149.00878071785 2615.9999370575 13 16 7
98.502978682518 150.259226560593 2638.00001144409 14 17 8
106.903567910194 151.965081691742 2667.99998283386 14 17 8
115.296266973019 153.442859649658 2694.00000572205 14 17 8
121.918298304081 152.528196573257 2677.99997329712 14 17 10
128.356009721756 151.499465107918 2660.00008583069 17 20 13
136.071532964706 152.008324861526 2668.99991035461 15 18 11
142.600253224373 151.207074522972 2654.99997138977 18 21 14
150.632306933403 152.000278234482 2668.99991035461 18 21 14
157.024338841438 151.141732931137 2654.00004386902 16 19 12
165.252596139908 152.048408985138 2670.00007629395 18 21 14
175.50602555275 154.663175344467 2716.00008010864 21 24 17
183.315828442574 154.99983727932 2721.99988365173 22 25 18
187.8642141819 152.660071849823 2680.99999427795 21 24 17
198.449000716209 155.217036604881 2726.0000705719 20 23 16
-134.055480360985 145.379930734634 2680.99999427795 18 19 13
-126.079320907593 144.624277949333 2667.00005531311 18 19 13
-119.114466011524 145.007163286209 2674.00002479553 16 19 10
-111.692786216736 144.847586750984 2671.0000038147 14 17 8
-104.599721729755 145.121663808823 2676.00011825562 11 14 5
-97.0790013670921 144.798994064331 2670.00007629395 10 13 4
-89.556984603405 144.42190527916 2663.00010681152 10 13 6
-83.09256285429 145.834296941757 2688.99989128113 10 13 6
-74.9927759170532 144.37210559845 2661.99994087219 10 13 6
-67.8542256355286 144.645228981972 2667.00005531311 8 11 4
-61.5057498216629 146.870642900467 2707.99994468689 8 11 4
-53.2746128737926 144.59428191185 2665.99988937378 8 10 5
-45.2380515635014 142.209216952324 2621.99997901917 8 10 5
-37.6448445022106 140.583246946335 2592.00000762939 9 12 5
-31.0762040317059 142.9163813591 2634.99999046326 9 12 5
-24.0641999989748 144.001886248589 2654.99997138977 11 13 8
-16.7592242360115 143.514290452003 2645.99990844727 11 13 8
-9.5249405130744 143.351927399635 2642.99988746643 9 11 6
-2.3463221732527 145.630121231079 2684.99994277954 7 9 4
5.0412081182003 147.311478853226 2716.00008010864 7 9 4
12.4833220615983 147.636651992798 2721.99988365173 7 9 6
19.753297790885 146.442994475365 2700.00004768372 7 9 6
26.2099001556635 141.506686806679 2608.99996757507 5 7 4
33.472690731287 142.102479934692 2619.99988555908 4 6 3
48.6338883638382 144.649431109428 2667.00005531311 9 11 6
54.2367547750473 140.30909538269 2586.99989318848 21 24 17
61.2745396792889 140.253275632858 2585.99996566772 25 28 21
68.7029808759689 141.01080596447 2599.99990463257 16 19 12
76.4407962560654 142.202004790306 2621.99997901917 12 15 8
84.0114429593086 142.904862761497 2634.99999046326 12 15 8
91.1335274577141 142.794027924538 2632.99989700317 12 15 6
97.1614345908165 141.1102861166 2601.99999809265 12 15 6
106.505833566189 144.144475460052 2657.99999237061 13 16 7
114.828668534756 145.497232675552 2683.00008773804 13 16 7
122.331403195858 145.710960030556 2687.00003623962 13 16 9
129.324659705162 145.327985286713 2680.0000667572 16 19 12
135.871335864067 144.51102912426 2664.99996185303 14 17 10
142.281904816628 143.639698624611 2648.9999294281 17 20 13
148.604616522789 142.768248915672 2632.99989700317 17 20 13
155.786126852036 142.764165997505 2632.99989700317 16 19 12
162.843227386475 142.651498317719 2631.00004196167 19 22 15
171.892032027245 144.219368696213 2660.00008583069 24 27 20
181.637108325958 146.220713853836 2697.00002670288 23 26 19
189.691245555878 146.757960319519 2707.00001716614 20 23 16
197.944760322571 147.403404116631 2719.00010108948 18 21 14
-161.294251680374 142.74100959301 2772.0000743866 19 20 14
-151.681199669838 140.83968102932 2734.99989509583 23 24 18
-141.109332442284 137.80514895916 2676.00011825562 21 22 16
-133.60895216465 137.602671980858 2671.99993133545 18 19 13
-126.555368304253 137.863501906395 2677.00004577637 18 19 13
-119.74123865366 138.433143496513 2687.99996376038 19 22 13
-111.988447606564 137.92110979557 2677.99997329712 18 21 12
-104.25066947937 137.357354164124 2667.00005531311 16 19 10
-96.4270755648613 136.587396264076 2651.99995040894 15 18 9
-89.2566740512848 136.6927921772 2654.00004386902 14 17 10
-81.4569592475891 135.767892003059 2635.99991798401 13 16 9
-74.6003538370132 136.38798892498 2648.00000190735 12 15 8
-68.3394446969032 138.347089290619 2686.00010871887 10 13 6
-61.8707947432995 140.306025743484 2723.99997711182 9 12 5
-53.3359795808792 137.474596500397 2668.99991035461 8 10 5
-38.096085190773 135.107591748238 2622.99990653992 7 10 3
-31.1595872044563 136.087134480476 2641.99995994568 8 11 4
-24.3639517575502 138.457298278809 2687.99996376038 9 12 5
-16.8293472379446 136.86104118824 2657.00006484985 11 13 8
-9.60087776184082 137.221947312355 2664.00003433228 10 12 7
-2.364736283198 139.385521411896 2706.00008964539 7 9 4
5.05433510988951 140.261143445969 2723.00004959106 7 9 4
12.5157590955496 140.569970011711 2729.00009155273 7 9 6
19.8855139315128 140.002936124802 2717.99993515015 6 8 5
26.8234219402075 137.529894709587 2670.00007629395 5 7 4
34.0101793408394 137.117013335228 2661.99994087219 5 7 4
41.6493229568005 138.352274894714 2686.00010871887 4 6 1
48.8540083169937 137.990534305573 2678.99990081787 8 10 5
55.0977885723114 135.362282395363 2628.00002098084 19 22 15
62.0344206690788 134.845688939095 2618.00003051758 24 27 20
69.0483227372169 134.586453437805 2612.99991607666 20 23 16
76.2678906321526 134.739086031914 2615.9999370575 13 16 9
84.1411948204041 135.921657085419 2638.99993896484 13 16 9
90.8936411142349 135.249823331833 2625.99992752075 12 15 6
98.3962863683701 135.710939764977 2634.99999046326 13 16 7
106.228142976761 136.532351374626 2651.00002288818 14 17 8
114.018492400646 137.1990442276 2664.00003433228 14 17 8
121.378526091576 137.299031019211 2665.99988937378 16 19 12
128.555938601494 137.192830443382 2664.00003433228 18 21 14
136.333748698235 137.704432010651 2674.00002479553 17 20 13
142.446756362915 136.567935347557 2651.99995040894 19 22 15
149.455085396767 136.358246207237 2648.00000190735 19 22 15
156.500205397606 136.199876666069 2644.99998092651 20 23 16
163.404539227486 135.938376188278 2640.00010490417 20 23 16
170.991763472557 136.24307513237 2645.99990844727 18 21 14
179.149851202965 136.959508061409 2660.00008583069 16 19 12
190.256729722023 139.786675572395 2714.99991416931 16 19 12
199.04188811779 140.760019421577 2733.99996757507 17 20 13
205.739498138428 140.240117907524 2723.99997711182 22 25 18
213.007837533951 140.131920576096 2721.99988365173 20 23 16
-170.320808887482 136.345371603966 2796.0000038147 7 8 2
-159.610778093338 133.764803409576 2743.00003051758 13 14 8
-150.520294904709 132.35430419445 2713.99998664856 24 25 19
-142.747551202774 132.016479969025 2707.00001716614 23 24 18
-134.612366557121 131.288290023804 2691.99991226196 18 19 13
-126.416698098183 130.413591861725 2674.00002479553 17 18 12
-119.120568037033 130.416572093964 2674.00002479553 16 19 10
-112.15852200985 130.809560418129 2681.99992179871 18 21 12
-104.91780936718 130.909755825996 2684.00001525879 21 24 15
-96.6840162873268 129.692852497101 2658.99991989136 21 24 15
-88.6199176311493 128.524512052536 2634.99999046326 20 23 14
-81.5826281905174 128.770470619202 2640.00010490417 21 24 17
-74.4331926107407 128.869935870171 2641.99995994568 20 23 16
-67.2725364565849 128.969222307205 2644.00005340576 17 20 13
-61.1227974295616 131.263375282288 2690.99998474121 15 18 11
-53.9168640971184 131.606251001358 2697.99995422363 13 16 9
-38.8232544064522 130.389034748077 2673.00009727478 13 16 9
-24.2557991296053 130.536928772926 2676.00011825562 11 14 7
-16.9057790189981 130.195960402489 2668.99991035461 10 12 7
-9.64436959475279 130.537778139114 2676.00011825562 9 11 6
-2.37965234555304 132.830619812012 2723.00004959106 6 8 3
5.04332548007369 132.537886500359 2717.00000762939 6 8 3
12.5023173168302 132.976710796356 2726.0000705719 6 8 5
19.717738032341 131.464093923569 2694.9999332428 6 8 5
27.0250272005796 131.219625473022 2690.00005722046 5 7 4
34.3176759779453 131.023749709129 2686.00010871887 4 6 3
41.7899303138256 131.461843848228 2694.9999332428 5 7 2
48.7458221614361 130.387559533119 2673.00009727478 7 9 4
55.4136633872986 128.922894597054 2642.99988746643 11 13 8
62.7705529332161 129.214122891426 2648.9999294281 22 25 18
69.1293403506279 127.602830529213 2615.9999370575 18 21 14
76.4447376132011 127.893716096878 2621.99997901917 12 15 8
83.5056155920029 127.745434641838 2618.99995803833 12 15 8
91.9689536094666 129.596784710884 2657.00006484985 11 14 5
99.3696749210358 129.789546132088 2661.00001335144 12 15 6
105.870150029659 128.860309720039 2641.99995994568 14 17 8
112.86573112011 128.61379981041 2637.00008392334 14 17 8
120.152249932289 128.708511590958 2638.99993896484 17 20 13
128.269597887993 129.632145166397 2657.99999237061 17 20 13
136.082202196121 130.16539812088 2668.99991035461 16 19 12
142.181724309921 129.089131951332 2647.0000743866 19 22 15
149.628132581711 129.280671477318 2651.00002288818 19 22 15
157.983332872391 130.203545093536 2670.00007629395 19 22 15
166.193932294846 130.931094288826 2684.99994277954 19 22 15
169.574245810509 127.95253098011 2624.00007247925 17 20 13
191.24248623848 133.063778281212 2729.00009155273 16 19 12
197.954684495926 132.571563124657 2719.00010108948 19 22 15
204.309403896332 131.884172558784 2704.99992370605 20 23 16
211.447909474373 131.732985377312 2701.99990272522 19 22 15
-160.370990633965 126.879841089249 2756.00004196167 2 5 0
-151.300296187401 125.594317913055 2727.9999256134 19 22 15
-143.489181995392 125.275403261185 2720.99995613098 18 21 14
-136.015713214874 125.232577323914 2720.00002861023 21 24 17
-127.743437886238 124.406836926937 2701.99990272522 15 18 11
-118.588790297508 122.567936778069 2661.99994087219 16 19 8
-104.294836521149 122.849337756634 2667.99998283386 18 21 12
-96.9772040843964 122.805625200272 2667.00005531311 19 22 13
-88.7901857495308 121.564500033855 2640.00010490417 21 24 15
-81.7699804902077 121.842749416828 2645.99990844727 23 26 17
-74.4913220405579 121.752478182316 2644.00005340576 22 25 16
-67.5794631242752 122.306697070599 2655.99989891052 20 23 16
-61.3059736788273 124.288320541382 2698.99988174438 19 22 15
-53.7582784891129 123.875215649605 2690.00005722046 18 21 14
-46.121459454298 123.093515634537 2673.00009727478 18 21 14
-38.7225113809109 122.772134840488 2665.99988937378 16 19 12
-31.703669577837 123.786099255085 2687.99996376038 17 20 13
-24.1385418921709 122.635453939438 2663.00010681152 16 18 13
-16.8175045400858 122.26752191782 2654.99997138977 13 15 10
-9.57251712679863 122.313871979713 2655.99989891052 11 13 8
-2.3858267813921 125.721856951714 2730.00001907349 7 9 4
5.06757758557796 125.721827149391 2730.00001907349 8 10 5
12.3329181224108 123.833499848843 2688.99989128113 4 6 3
19.681628793478 123.879171907902 2690.00005722046 4 6 3
26.9051101058722 123.326003551483 2677.99997329712 7 9 6
34.331277012825 123.739764094353 2687.00003623962 6 8 5
41.6978858411312 123.83097410202 2688.99989128113 9 11 6
48.0904653668404 121.435306966305 2637.00008392334 6 8 3
55.6456297636032 122.216954827309 2654.00004386902 9 11 6
62.4166056513786 121.29458039999 2634.0000629425 14 17 10
69.7123780846596 121.477261185646 2638.00001144409 13 16 9
76.0092288255692 120.048053562641 2607.00011253357 9 12 5
83.5713818669319 120.690882205963 2621.00005149841 9 12 5
90.4827117919922 120.366536080837 2614.00008201599 9 12 3
99.7828021645546 123.035028576851 2671.99993133545 9 12 3
106.59397393465 122.480101883411 2660.00008583069 12 15 6
112.354777753353 120.866030454636 2625 13 16 7
121.111236512661 122.474864125252 2660.00008583069 15 18 11
129.237800836563 123.300760984421 2677.99997329712 14 17 10
135.47357916832 122.330859303474 2657.00006484985 14 17 10
142.453655600548 122.097484767437 2651.99995040894 15 18 11
150.64762532711 122.876785695553 2668.99991035461 17 20 13
161.359772086143 125.543430447578 2726.99999809265 18 21 14
166.816800832748 124.066531658173 2694.9999332428 21 24 17
170.482963323593 121.438696980476 2638.00001144409 19 22 15
191.387087106705 125.71157515049 2730.99994659424 19 22 15
196.357518434525 124.142177402973 2697.00002670288 20 23 16
202.576905488968 123.447246849537 2681.99992179871 22 25 18
209.183305501938 123.0284050107 2673.00009727478 18 21 14
-161.829307675362 120.443165302277 2780.99989891052 15 18 11
-151.91376209259 118.627518415451 2739.00008201599 23 26 19
-144.283398985863 118.500776588917 2736.00006103516 19 22 15
-136.468812823296 118.200622498989 2729.00009155273 16 19 12
-127.888113260269 117.163941264153 2704.99992370605 22 25 16
-119.126051664352 115.82388728857 2674.00002479553 17 20 9
-110.783584415913 114.74347859621 2648.9999294281 17 20 9
-103.828072547913 115.04901945591 2655.99989891052 17 20 9
-97.0157459378242 115.571014583111 2667.99998283386 18 21 10
-89.1957730054855 114.879958331585 2651.99995040894 19 22 13
-82.2044834494591 115.228377282619 2660.00008583069 20 23 14
-74.6902003884315 114.84020203352 2651.00002288818 20 23 14
-67.6064342260361 115.101687610149 2657.00006484985 20 23 16
-60.5123415589333 115.406326949596 2664.00003433228 20 23 16
-53.5596422851086 116.100706160069 2680.0000667572 19 22 15
-45.7946546375752 114.975437521935 2654.00004386902 19 22 15
-38.5490916669369 114.97637629509 2654.00004386902 17 20 13
-31.4213074743748 115.410350263119 2664.00003433228 17 20 13
-24.1118930280209 115.237675607204 2660.00008583069 15 17 12
-16.7925469577312 114.848211407661 2651.00002288818 13 15 10
-2.39636842161417 118.791006505489 2742.00010299683 8 10 5
5.08254254236817 118.617683649063 2737.99991607666 9 11 6
12.4065792188048 117.187835276127 2704.99992370605 5 7 4
19.6308586746454 116.2343993783 2683.00008773804 5 7 4
26.9660037010908 116.277202963829 2684.00001525879 8 10 7
34.1915041208267 115.929968655109 2676.00011825562 7 9 6
41.6057892143726 116.232395172119 2683.00008773804 10 12 7
48.4562888741493 115.105032920837 2657.00006484985 8 10 5
55.5001124739647 114.670686423779 2647.0000743866 10 12 7
62.4654032289982 114.192850887775 2635.99991798401 13 16 9
69.8196440935135 114.451333880425 2641.99995994568 11 14 7
77.2063508629799 114.7096529603 2648.00000190735 11 14 7
83.222508430481 113.061770796776 2609.99989509583 10 13 6
91.973215341568 115.095838904381 2657.00006484985 11 14 5
99.6730029582977 115.613557398319 2668.99991035461 11 14 5
106.676504015923 115.308098495007 2661.99994087219 14 17 8
113.470152020454 114.829242229462 2651.00002288818 14 17 8
121.341608464718 115.433104336262 2664.99996185303 15 18 11
129.43372130394 116.166725754738 2681.99992179871 14 17 10
137.516140937805 116.81355535984 2697.00002670288 14 17 10
144.49805021286 116.507321596146 2690.00005722046 16 19 12
152.908757328987 117.327034473419 2709.00011062622 18 21 14
159.233137965202 116.544105112553 2690.99998474121 20 23 16
165.025368332863 115.45791476965 2665.99988937378 20 23 16
172.03776538372 115.281090140343 2661.99994087219 20 23 16
181.115627288818 116.446562111378 2688.99989128113 20 23 16
190.34007191658 117.611832916737 2716.00008010864 20 23 16
196.14340364933 116.655074059963 2694.00000572205 21 24 17
200.768515467644 115.092031657696 2657.99999237061 21 24 17
-153.137132525444 112.046591937542 2760.99991798401 22 25 18
-136.271625757217 110.591448843479 2724.99990463257 19 22 15
-127.98535823822 109.863616526127 2707.00001716614 20 23 14
-118.727587163448 108.161523938179 2664.99996185303 16 19 8
-112.333327531815 109.016187489033 2686.00010871887 16 19 8
-103.830255568027 107.800774276257 2655.99989891052 17 20 9
-96.6541543602943 107.883997261524 2657.99999237061 18 21 10
-89.2313048243523 107.682958245277 2653.00011634827 19 22 13
-82.082599401474 107.806473970413 2655.99989891052 18 21 12
-75.0298872590065 108.092211186886 2663.00010681152 19 22 13
-67.4551874399185 107.606574892998 2651.00002288818 21 24 15
-59.9911734461784 107.201986014843 2641.00003242493 20 23 14
-52.8013296425343 107.243716716766 2641.99995994568 17 20 13
-46.0371971130371 108.300134539604 2667.99998283386 16 19 12
-38.7677848339081 108.341597020626 2668.99991035461 12 15 8
-31.3865914940834 108.017578721046 2661.00001335144 10 13 6
