ply
format ascii 1.0
comment KinectMotionCapture
element vertex 755
property float x
property float y
property float z
property uchar red
property uchar green
property uchar blue
end_header
-191.777719368555 552.502375739589 2733.52416461645 201 203 202
-196.28369416944 552.286134454268 2727.78622428086 199 201 200
-196.738441611609 552.79878324055 2717.57828283477 193 194 196
-197.903910196807 553.186862279146 2708.08953012343 191 192 194
-197.083855589969 553.936043782057 2696.33655023771 193 195 194
-194.298166845029 555.044806129829 2682.30491747066 192 194 191
219.841711835422 590.361208437274 2787.55271593851 203 207 208
201.942997803914 587.97703022179 2793.09220717298 165 166 168
187.204501206196 586.103664986587 2795.98504831924 138 139 141
174.056981080542 584.486640613908 2797.56185846777 138 139 141
150.944620436397 581.233012455762 2807.9636019081 150 151 153
127.927992904816 577.986781284489 2818.43478179197 194 196 195
114.188057141139 576.25726095612 2820.81689849376 149 151 150
106.594359102135 575.535970399593 2817.77848450727 140 142 141
97.4868750739115 574.564353295243 2816.11208901053 140 142 141
86.1206643644672 573.218153691929 2816.51150689236 159 161 160
67.9775052404783 570.748384523595 2823.10869223374 182 184 183
53.6742872815967 568.908538783485 2826.31695146042 164 166 165
41.6741965301597 567.446593274588 2827.4913065255 163 165 164
32.7069551881252 566.485560722253 2825.92662955775 167 169 168
23.7565187331281 565.525759707175 2824.37384657221 157 159 158
16.3133332321226 564.815616828024 2821.4445988018 152 152 152
9.62091447963731 564.230101901467 2817.82548698252 150 150 150
2.93205894393411 563.644775661108 2814.20866469384 162 162 162
-5.96952658745398 562.688364549399 2812.69131195587 152 152 152
-11.1720650178024 562.350921312421 2807.68313497432 174 174 174
-16.3799443005235 562.012985663023 2802.67108380075 218 218 218
-17.9325053764348 562.290614361405 2794.13619665837 169 169 169
-23.1620447465857 561.950734413542 2789.10813929989 139 139 139
-28.397084023148 561.610269910762 2784.07638645801 143 143 143
-35.0884674793357 561.023872595332 2780.45772620062 183 183 183
-41.0531822256033 560.560080920428 2776.13142799146 178 178 178
-47.7401584783621 559.973662661204 2772.51625698083 137 137 137
-51.5479049664545 559.876169687872 2766.05004210452 144 144 144
-55.3698477827123 559.777407166006 2759.57352957645 160 160 160
-58.4916035790386 559.799134844353 2752.37017123928 183 183 183
-62.3441537458376 559.69765381049 2745.87145701982 174 174 174
-66.2109434347593 559.594810113177 2739.36241336472 107 107 107
-69.3840988468955 559.612015386528 2732.12177144225 117 116 114
-73.2814701630717 559.506425389184 2725.59054460236 116 115 113
-79.303588141582 559.03648981691 2721.22260244506 113 112 110
-87.4304723890111 558.2038273044 2719.03243738263 111 110 108
-103.933747542395 555.924181706757 2725.58404151831 134 133 131
-127.340728730249 552.444551126116 2739.47646785678 135 134 132
-146.470295769582 549.695067051944 2749.06257260282 145 145 143
-156.514839399062 548.51363010903 2749.18559860582 153 153 151
-163.08286568298 547.933681701644 2745.65668973719 166 166 166
-168.959184713852 547.473556052316 2741.39449003772 164 164 164
-175.522156235111 546.893498956272 2737.86895044687 164 164 164
-184.132470582038 545.955187627855 2736.56283808553 163 165 164
-190.000393450495 545.494965491722 2732.30672445466 164 166 165
-194.510813254296 545.272639063712 2726.56582549617 188 190 189
-194.968742526598 545.762795028638 2716.35516906592 183 184 186
-196.812504967486 546.012352382748 2707.60904165264 191 192 194
-198.683740795972 546.259455469187 2698.84328024005 184 186 185
-198.571027804906 546.859338217153 2687.81181372321 189 191 188
246.756681994723 586.811580619741 2765.0514879962 205 209 210
214.032802773879 582.1077653434 2783.29990847514 175 176 178
193.841703783955 579.395248348058 2790.88134219531 140 141 143
176.815993990052 577.183049698765 2795.81952731365 139 140 142
156.002562025055 574.358570428636 2804.18458257417 148 149 151
132.96929383525 571.170794737473 2814.64399537829 197 199 198
119.214627629395 569.467055411567 2817.01556425404 144 146 145
110.081275109873 568.503966711657 2815.33016485693 137 139 138
100.203569045357 567.419389172874 2814.33988343106 138 140 139
86.5536922625783 565.723690880269 2816.78745712533 161 163 162
71.434017273134 563.786585767408 2820.6383932178 176 178 177
57.1200171984558 561.975539718293 2823.83927661178 162 164 163
46.61386742591 560.778345149289 2823.62788913204 161 163 162
34.6335415048515 559.3393293541 2824.81668828799 165 167 166
25.6780448812202 558.389663192312 2823.26028841324 156 158 157
17.4845407731281 557.562686205841 2821.0218579904 156 156 156
13.0196760227426 557.34335283295 2815.31370354571 148 148 148
5.58065702913302 556.638397094771 2812.38779691634 154 154 154
-1.8506039326498 555.933950356061 2809.46751682799 162 162 162
-8.53726236919106 555.350863266861 2805.85229860513 162 162 162
-13.0170789214541 555.129930296471 2800.1332971779 212 212 212
-16.04221001074 555.149090229835 2792.9999711468 219 219 219
-21.2761935427461 554.805724063378 2787.96896893919 140 140 140
-25.0598051401125 554.702090998396 2781.52021885946 145 145 145
-32.4860417768433 553.997304488358 2778.60357929055 136 136 136
-39.1808885342557 553.412747512343 2774.98241773387 178 178 178
-48.0361675045544 552.469407783678 2773.49869981941 179 179 179
-51.8412961660459 552.363523774107 2767.03434015922 146 146 146
-54.9439210613114 552.375599303446 2759.84480133047 147 147 147
-58.0651235276359 552.386050354715 2752.64178699569 165 165 165
-62.6297770440778 552.157019895887 2746.86124442724 186 186 186
-65.783798254107 552.164513543836 2739.63442410493 147 147 147
-68.2483501686009 552.289019922456 2731.67267637528 126 125 123
-70.0302089982539 552.52995105605 2722.97167499439 118 117 115
-73.2465650128198 552.532055940292 2715.69934506981 112 111 109
-80.6903139776454 551.823879190474 2712.7699932683 109 108 106
-94.4191031133879 550.054884324034 2716.39502708144 122 121 119
-117.858837703054 546.640827789521 2730.26404192542 124 123 121
-141.188972820749 543.235191597534 2744.21225593928 137 137 135
-154.713356866643 541.481481689313 2747.98583926261 146 146 144
-160.595568772918 541.020789035636 2743.71936482002 159 159 159
-165.79056476809 540.676847306015 2738.71662259455 156 156 156
-172.362722991195 540.098495481091 2735.184432005 151 151 151
-181.666390090108 539.053361371817 2734.61018898762 144 146 145
-188.222792935202 538.475728700354 2731.08971792751 184 186 185
-194.096148960953 538.014498851644 2726.8296605807 185 187 186
-196.584479969845 538.133942308128 2718.85064923336 180 181 183
-199.095927196205 538.251284476314 2710.85516428023 191 192 194
-201.630138556054 538.366533162177 2702.84287204 199 201 200
-201.505166489176 538.942465989158 2691.82017107777 188 190 187
272.124627082263 582.833256829432 2743.89727934705 196 200 201
226.903376396192 576.277236830796 2772.83847073693 189 190 192
198.932681538968 572.400470103354 2787.12566195672 149 150 152
179.57542920282 569.862356878312 2794.07771014868 136 137 139
159.522342544736 567.20932329559 2801.75949324873 141 142 144
134.941801313551 563.839373551894 2813.56640531563 195 197 196
120.41566535714 562.041760835839 2816.61357492421 136 138 137
110.516368341611 560.968806445461 2815.60740615369 135 137 136
98.3547978606234 559.537432492973 2816.66515044466 140 142 141
85.4688411100799 557.988855028533 2818.43192016294 167 169 168
71.1079802124868 556.20391450966 2821.59896537598 180 182 181
60.5668924655411 555.020069790631 2821.36202375559 167 169 168
47.7943526425855 553.480153026228 2823.21135017028 158 160 159
36.5604361574636 552.181443048722 2823.70691150293 156 158 157
28.3476681094181 551.360851395698 2821.45454858188 156 158 157
20.8926150366255 550.659854174026 2818.51703855699 158 158 158
16.4192648079968 550.433948616968 2812.80269951863 157 157 157
8.22986714648488 549.614891762996 2810.56728606358 152 152 152
1.5307946073122 549.033278361368 2806.9430760573 156 156 156
-4.42809122922716 548.569899149343 2802.62100543841 168 168 168
-8.91879438179144 548.342179963591 2796.8943721858 173 173 173
-15.6164990399497 547.760318912689 2793.27115253127 182 182 182
-20.8504279803128 547.413790746559 2788.24017388214 203 203 203
-24.6336314937188 547.301498015818 2781.79167576828 167 167 167
-29.1567951517511 547.070810217754 2776.04120168888 152 152 152
-35.8608897234725 546.487844432815 2772.41363873096 144 144 144
-44.0043337259233 545.671225845691 2770.21155041437 150 150 150
-49.2585001250823 545.322390679359 2765.16559503704 174 174 174
-53.8013144881269 545.089464131448 2759.40115887953 163 163 163
-58.3537093630699 544.855661481127 2753.62947868983 152 152 152
-62.2034262014126 544.737114143968 2747.13273196643 160 160 160
-66.067313644635 544.617269470241 2740.62570609788 162 162 162
-67.8207889633242 544.84382110195 2731.94491321778 154 153 151
-69.6018613344733 545.067968191569 2723.24439694295 133 132 130
-72.1139815284781 545.174252621498 2715.24807365457 123 122 120
-78.8587450131706 544.586338887762 2711.59070939437 121 120 118
-89.0969619723452 543.422559652491 2711.57372138427 114 113 111
-109.070234846333 540.65026006344 2721.78312682931 111 110 108
-133.820925205885 537.080671659677 2737.17108731734 145 145 143
-149.447538658481 535.010891141665 2743.12452308463 133 133 131
-156.035937588121 534.434121213427 2739.58056727294 166 166 166
-163.309217943051 533.743070103874 2736.77487854947 151 151 151
-171.946770697454 532.824119677964 2735.44911855204 169 169 169
-183.303242894423 531.450310098471 2737.09049286862 168 170 169
-187.808145427444 531.217019562223 2731.35353796209 184 186 185
-193.002054835722 530.869092920447 2726.35126876526 189 191 190
-196.169425375164 530.86092763293 2719.11469191358 214 215 217
-200.705584538247 530.624417907188 2713.35506210304 199 200 202
-203.90542975278 530.613103628014 2706.09463323905 205 207 206
-203.770594780578 531.164783288224 2695.07925373732 191 193 190
-201.002331517973 532.164027544 2681.03443413553 191 193 188
294.387635940001 578.205512015492 2725.42909323357 199 203 204
247.544039629896 571.543483967885 2755.66404244177 192 193 195
213.317087401301 566.791735058495 2775.29268368532 150 151 153
186.968562378231 563.23336176047 2788.28735990381 138 139 141
163.043078685749 560.037630160203 2799.33498298017 148 149 151
137.682343880879 556.614133942053 2811.81108148109 191 193 192
122.382361366802 554.727911488678 2815.53186100873 136 138 137
110.951117672219 553.432871521749 2815.8843942254 137 139 138
98.7882193295206 552.0228081554 2816.94128386339 141 143 142
87.4187595493652 550.732534399313 2817.33862969996 169 171 170
74.5655611602696 549.210657613097 2819.12928189775 183 185 184
61.7507989585575 547.691695841736 2820.94810655018 168 170 169
48.9746095760273 546.175709539368 2822.79490853377 157 159 158
36.9872433876082 544.779019463316 2823.97881843777 153 155 154
28.0258245428002 543.849883844982 2822.41852388678 154 156 155
19.8270249694459 543.038060644157 2820.17603694804 156 156 156
15.3581498644524 542.806553598879 2814.46520812669 157 157 157
7.91418394632881 542.111343194851 2811.53547025119 154 154 154
5.65209890389129 542.225496777253 2803.72073711602 148 148 148
-1.05474926215665 541.645434112386 2800.09089824667 157 157 157
-6.28877960111796 541.295940412987 2795.05983107053 176 176 176
-15.1911286692434 540.370713461633 2793.54208278241 172 172 172
-20.4249291491509 540.02099940812 2788.51118111986 204 204 204
-24.207753602929 539.900134276048 2782.06291437351 196 196 196
-28.7306850978979 539.663520776169 2776.31257857922 165 165 165
-33.987407114809 539.311591359639 2771.26504938408 152 152 152
-39.971016924895 538.844924738001 2766.92503917775 139 139 139
-45.2363197140651 538.492061207962 2761.87128486621 163 163 163
-51.2242203929998 538.02471838711 2757.5281606924 177 177 177
-57.2130773803678 537.557178606979 2753.18434227256 162 162 162
-60.3519126649967 537.5433193221 2745.96842239484 157 157 157
-63.5091407433599 537.527899913614 2738.73886680907 171 171 171
-65.2684255406486 537.737133156883 2730.0537747929 170 169 167
-68.4675673634532 537.718029906962 2722.79411085694 145 144 142
-71.6852867573163 537.697302178973 2715.52097141495 122 121 119
-76.3250986801785 537.449606977937 2709.68585037313 117 116 114
-83.7729168442176 536.751137538553 2706.75359789171 118 117 115
-98.8835757623265 534.8178294008 2711.84642026536 120 119 117
-125.059859795214 531.094903350022 2728.67052852592 135 135 133
-144.179790739947 528.501175363588 2738.26440761787 147 147 145
-153.546751982012 527.478485493553 2737.64439500985 147 147 147
-162.892700765644 526.457209506291 2737.03991641999 167 167 167
-172.217309079628 525.437353257613 2736.45062070624 148 148 148
-180.836635388083 524.530274800936 2735.13813358232 192 194 193
-184.666041074886 524.401722849606 2728.6560601708 180 182 181
-190.548606380699 523.939119636446 2724.38931986398 185 187 186
-195.754582764135 523.58693988365 2719.37857599351 200 201 203
-199.615248382045 523.45522821922 2712.87382558623 199 200 202
-202.144003958725 523.5428496496 2704.86564289918 192 194 193
-204.02475443819 523.738658189077 2696.09242981903 193 195 192
-202.589764815286 524.482234617821 2683.55016442982 193 195 190
308.091271539298 572.149537607877 2714.33538134379 208 212 213
269.745936336146 566.898869497001 2737.15146937734 210 211 213
230.0304938025 561.430981955195 2761.44360484366 185 186 188
194.364166355269 556.554620975614 2782.49854882415 135 136 138
163.4843951678 552.38250064335 2799.61612797599 147 148 150
138.119664695027 549.026639321321 2812.08967251606 171 173 172
125.115031269936 547.517298650021 2813.77090419939 132 134 133
114.43951133253 546.355074418175 2813.43691380426 138 140 139
101.505425958177 544.851180078591 2815.16931486188 140 142 141
88.6100549863738 543.350232447545 2816.92950126476 172 174 173
74.9962154796306 541.738047982893 2819.4036221635 186 188 187
62.9347084406682 540.357168522027 2820.5341603436 163 165 164
51.6599551476475 539.092788911229 2821.00029209278 153 155 154
41.1653193227202 537.944322152543 2820.79749813536 149 151 150
32.1923859555433 537.024758282582 2819.22861046714 149 151 150
23.9819903372673 536.219802599055 2816.97804657032 150 150 150
17.2712897196527 535.642056570515 2813.34542671083 154 154 154
7.59766837144937 534.61242744294 2812.50336897574 162 162 162
3.85997520943304 534.487033546139 2806.08779592684 156 156 156
-0.629027890716838 534.247761809345 2800.36204208554 147 147 147
-5.86297791474877 533.895078322238 2795.3310169745 158 158 158
-15.4986370330681 532.868006377844 2794.51619734561 176 176 176
-21.4607772394708 532.403138777355 2790.19176002558 181 181 181
-25.9672279040857 532.162015873022 2784.45364317293 194 194 194
-29.7572720387751 532.031813397355 2778.00009543032 211 211 211
-33.5615125016306 531.900341373154 2771.53625003594 168 168 168
-35.9366189814987 531.990522492506 2763.63946382353 165 165 165
-40.4932668264539 531.744904491667 2757.86464071803 153 153 153
-46.4944358643691 531.276128322874 2753.51189076744 149 149 149
-51.7815978438936 530.918028813354 2748.44226374104 165 165 165
-56.3610435609898 530.670145723916 2742.65090249837 161 161 161
-58.1074880475294 530.8636909073 2733.97503923438 147 147 147
-60.5900414528289 530.944480573535 2726.00031488313 143 142 140
-63.8017300325189 530.913029085026 2718.73119851206 127 126 124
-68.4404792471054 530.659784543053 2712.89711421866 114 113 111
-73.0889227353124 530.405535195072 2707.05570277287 107 106 104
-78.4468955107154 530.040623832708 2701.93470898599 108 107 105
-88.6927954778751 528.908095513513 2701.91230969149 109 108 106
-113.513984577527 525.480303405288 2717.24988236449 137 137 135
-137.523944295957 522.170765329664 2731.94109487922 135 135 133
-151.747756223902 520.39650802049 2736.44228607987 149 149 149
-163.165044107545 519.061574267054 2738.04006519805 154 154 154
-173.861320961408 517.837814470493 2738.92575261064 204 204 204
-180.422090524715 517.267315536585 2735.40185768007 188 190 189
-184.25119432175 517.130274548028 2728.91996011623 149 151 150
-188.094577981652 516.991818242534 2722.42799808322 155 157 156
-193.307058670848 516.636054275481 2717.41222647092 164 165 167
-196.49873183451 516.60306819506 2710.15790640609 195 196 198
-199.708882977131 516.568405960826 2702.89018276991 200 202 201
-201.595520105055 516.746979475966 2694.11261503387 194 196 193
-200.165656239416 517.459611571644 2681.56647713468 193 195 190
310.893360518509 564.415755980293 2712.62209795112 204 208 209
281.857139715444 560.631861108122 2727.3726681938 230 231 233
244.426024159577 555.616583877445 2749.6176492321 214 215 217
204.852085884648 550.276839429766 2774.01301322544 130 131 133
166.236146821366 545.06422194511 2797.86845858596 139 140 142
140.092700856338 541.663129150766 2811.01259764698 160 162 161
126.31643556779 540.065358157076 2813.36904563723 133 135 134
115.637821207311 538.918804969201 2813.03289140571 138 140 139
104.98477091861 537.774252654046 2812.71498477317 142 144 143
92.8382376364265 536.408291611785 2813.78396117974 175 177 176
79.2118358867113 534.822033926006 2816.24910676471 183 185 184
65.6283898495946 533.239076900558 2818.74540858096 156 158 157
55.0985831274162 532.103891737061 2818.51718576344 150 152 151
45.3448011103701 531.081589036172 2817.61676048156 150 152 151
35.6118290665126 530.060863045939 2816.73172325672 147 149 148
25.8999966575821 529.041689883975 2815.86172399275 143 145 144
19.1846012789405 528.465844150789 2812.22600490319 148 148 148
10.9891962972348 527.669630596719 2809.98635231935 155 155 155
5.76416930757517 527.314672425772 2804.96148970761 160 160 160
-0.203696915410667 526.849281210266 2800.63289882374 151 151 151
-6.17256594183302 526.38365939696 2796.30357981823 149 149 149
-14.3412220975478 525.589104973678 2794.08332643302 142 142 142
-19.5749358164092 525.233035232459 2789.0524554726 178 178 178
-25.5424369618167 524.767165769879 2784.72412681884 172 172 172
-30.0583355673651 524.519292737068 2778.97883228443 194 194 194
-33.1359584885362 524.488257252759 2771.80719955448 190 190 190
-35.5104029842253 524.564332716011 2763.9108217806 167 167 167
-39.3471586504932 524.421384513066 2757.42334729225 153 153 153
-43.198182863216 524.277160911099 2750.92552276992 148 148 148
-47.7786356818322 524.023460828948 2745.13340199365 149 149 149
-50.9428443459221 523.984903111403 2737.89896330924 140 140 140
-54.1257717166039 523.944649738421 2730.65094644611 128 128 128
-57.3271400265463 523.902832341507 2723.38925895345 119 118 116
-59.1344788386159 524.074368032643 2714.66943508793 109 108 106
-64.4903543758035 523.706867996087 2709.54965404462 110 109 107
-68.4475845988513 523.553114493706 2702.97479024804 106 105 103
-74.5186150066581 523.076976076102 2698.57135900826 104 103 101
-81.9860052293799 522.386958042644 2695.62496113186 102 101 99
-104.049725482526 519.4575049668 2708.02356501062 139 139 137
-132.945214887094 515.470906679517 2727.81556870848 143 143 141
-151.330462927461 513.090128552871 2736.70778264352 151 151 151
-164.126845096523 511.564400888936 2739.77522820952 151 151 151
-173.44667253561 510.571682237695 2739.18953571129 200 200 200
-178.639104377783 510.215088376842 2734.18858820951 166 168 167
-183.154458823987 509.963510502603 2728.44366938207 161 163 162
-187.679689467925 509.710903929321 2722.69188035458 179 181 180
-192.214448351927 509.457350808463 2716.93288483106 201 202 204
-192.029973281399 509.938421486687 2705.95283837055 168 169 171
-193.906187278027 510.101290354895 2697.18274703769 164 166 165
-195.80992280778 510.261701055108 2688.39298678404 186 188 185
-196.402897519497 510.628897179886 2678.08381021692 189 191 186
315.254289145468 556.885786661316 2709.56980977751 193 197 198
290.864649056012 553.841273544391 2720.28172192755 140 141 143
255.727630343569 549.262908799924 2740.48655140935 166 167 169
209.935444895186 543.157923643881 2770.25118121528 140 141 143
169.758809557262 537.838646604552 2795.44507202315 147 148 150
142.834365933398 534.397623529569 2809.25788358842 143 145 144
127.518032583634 532.607239433188 2812.96700100947 140 142 141
118.363876113329 531.694930809368 2811.26707207258 137 139 138
106.941477778276 530.45661724195 2811.62630480954 149 151 150
94.7894699648622 529.111650372883 2812.69112447419 181 183 182
83.4288580200218 527.878058409012 2813.09517139985 174 176 175
71.342828936082 526.538178064057 2814.20814069483 148 150 149
59.2910848662727 525.20088559778 2815.34568255932 143 145 144
47.2733467701665 523.866164185597 2816.50818357979 142 144 143
37.5353532636962 522.858269233533 2815.61927670426 142 144 143
28.5644894552828 521.959798292182 2814.0519961432 143 145 144
21.0982648159059 521.277969970933 2811.10648470554 152 152 152
14.3818280298138 520.704240034915 2807.46972691741 156 156 156
6.92890393462031 520.023265166769 2804.53386165099 157 157 157
0.221387275079366 519.450018885221 2800.90357270276 158 158 158
-5.7475532845479 518.983943198314 2796.57419954235 156 156 156
-12.450719964064 518.41083563273 2792.94735916712 158 158 158
-18.4195518537145 517.944544709996 2788.61806369368 150 150 150
-22.9319983227687 517.691111380805 2782.87524352269 167 167 167
-26.7278263529482 517.543129574647 2776.41741285499 171 171 171
-30.5379470023457 517.393870419306 2769.94921469257 206 206 206
-34.3622897031957 517.243369503466 2763.47070037178 196 196 196
-38.9208303248634 516.98576431362 2757.69473891159 161 161 161
-42.7714970749367 516.832921752866 2751.19712986484 150 150 150
-45.2054046483434 516.889771425833 2743.25725417748 138 138 138
-46.2360292887136 517.155231964873 2733.86563163258 133 133 133
-50.1425740138046 516.997519138036 2727.32749078039 130 130 130
-54.0634346056152 516.838512142755 2720.77896549568 125 124 122
-56.5853212889935 516.887766934499 2712.77556788138 115 114 112
-61.243406745112 516.621205923256 2706.92710440628 114 113 111
-66.6136096214087 516.249224853129 2701.7972089488 111 110 108
-71.9891039314551 515.876640463989 2696.66318008511 113 112 110
-78.7658261223789 515.295199265013 2692.98297553841 110 109 107
-98.7553141944235 512.739247718785 2703.18172208582 133 133 131
-127.671482795355 508.841172410962 2722.95918337927 152 152 150
-150.222274387728 505.886489432511 2736.23960768438 144 144 144
-162.333493590901 504.490882932892 2738.56907048958 148 148 148
-171.658682434905 503.511112562664 2737.97955698011 172 172 172
-177.540013567881 503.048056700977 2733.71370905876 154 156 155
-182.057614142938 502.790422457831 2727.9674257649 178 180 179
-187.264995467181 502.429137444975 2722.95561730292 186 188 187
-190.443690209547 502.374833280206 2715.71030311533 195 196 198
-191.613933731116 502.625876454405 2706.21739483705 162 163 165
-193.489389468313 502.772033673968 2697.44776853484 179 181 180
-194.72095058411 503.01775097631 2687.91038284732 183 185 182
-194.646202109455 503.464372582036 2676.85091322145 188 190 185
304.538388867248 547.635478894078 2709.16528459691 200 201 203
274.007926665113 543.798849903125 2725.30274798743 136 137 139
221.975098486593 536.970612323777 2760.42091574491 143 144 146
173.282567022073 530.590641108494 2793.02207096251 167 168 170
145.576635615257 527.115124964819 2807.50352174817 137 139 138
128.719440383892 525.143036805908 2812.56508287615 141 143 142
118.798443167686 524.134396539295 2811.5438034078 135 137 136
107.375011605111 522.91469908308 2811.90238143035 150 152 151
98.260100026605 522.01582037505 2810.2306755012 181 183 182
87.6469032470348 520.906156283069 2809.94213072069 171 173 172
74.7934758207061 519.480862113874 2811.73340057152 148 150 149
59.7197463170351 517.741527009506 2815.61864527124 141 143 142
47.7006795339565 516.42813105256 2816.78029111581 136 138 137
37.9618593799194 515.433387451935 2815.8908516 140 142 141
30.4831227121349 514.755668548999 2812.93629074094 146 148 147
25.2448167005674 514.39346150269 2807.90205964288 153 153 151
20.00121347842 514.030755221056 2802.86369147806 160 160 160
15.4918145527971 513.772172319972 2797.12334892977 150 150 150
7.2845367019081 512.990336155639 2794.87516227399 150 150 148
1.29573349672052 512.522263038128 2790.53138014054 150 150 148
-5.42725877285699 511.949883965017 2786.88987698491 146 146 146
-10.6850323626346 511.585532261521 2781.84152256083 145 145 145
-15.2192275771663 511.324437339647 2776.08289745262 143 143 141
-20.4900129781458 510.958822430977 2771.02510409053 158 158 158
-25.7660706916809 510.592695368046 2765.96319164536 163 163 163
-31.0477005299172 510.225977899712 2760.89753133459 176 176 176
-37.7747422556272 509.652494105896 2757.25308704616 203 203 203
-40.9094192780033 509.593775490441 2750.03995436014 202 202 202
-44.7783758789906 509.430639035047 2743.52903446953 195 195 195
-45.8079659216706 509.676587416655 2734.13806309366 191 191 191
-50.4253311627156 509.407858637867 2728.31910759131 181 181 181
-55.7616338274656 509.035905519351 2723.21378726222 145 144 142
-60.3966209191487 508.765416005576 2717.38234286282 131 130 128
-63.6320770889891 508.697761063234 2710.09581348079 115 114 112
-67.5886413575255 508.526780612051 2703.52134519095 111 110 108
-71.559469220948 508.354435547256 2696.93653000474 116 115 113
-78.3364670650448 507.775346833953 2693.25613754698 112 111 107
-95.5462057529193 505.67834593156 2700.53186742744 109 109 107
-123.089376883962 502.071328568509 2718.83575041848 136 136 134
-147.731327799763 498.878212711083 2734.30444535756 193 193 193
-161.229043786393 497.304938757609 2738.09827486987 198 198 198
-169.87046918354 496.438771920202 2736.76997487035 165 165 165
-173.702228429691 496.275945457749 2730.28602170627 184 186 185
-178.23056435579 496.011665894902 2724.53162799046 187 189 188
-182.768730809884 495.746406140632 2718.77039742727 185 187 186
-185.960257503821 495.679755927654 2711.51571854897 169 170 172
-187.81880425587 495.810639733481 2702.75856704512 154 155 157
-189.704550306657 495.939175310813 2693.98139181789 155 157 156
-194.303436354549 495.668179692399 2688.17582079504 180 182 179
-194.896663378898 495.990781913329 2677.8665299212 183 185 180
-194.858924899408 496.409227856173 2666.7797937677 190 193 186
317.439625783104 541.231563815574 2698.72317101857 201 205 206
293.070343476667 538.313444992233 2709.45048117199 132 136 137
230.927563731496 530.282899916 2753.29029344494 139 143 144
174.494849207679 523.007189551303 2792.62743188386 179 180 182
146.782349835924 519.607314693591 2807.1045045496 140 140 142
132.986074653967 518.08862163375 2809.44684748641 134 134 136
122.289451578182 516.988483848596 2809.09757897897 142 142 144
110.855940758138 515.786665096698 2809.44923536887 148 148 150
97.9329356640721 514.380174158455 2811.18986764854 183 183 183
86.5635168905081 513.183268371551 2811.58771613883 165 165 165
75.2236257314394 511.988585777655 2812.00727556496 147 147 147
60.9010412241773 510.384398885322 2815.20268922594 141 141 141
48.1276634450465 508.989412476597 2817.05214228915 137 137 137
39.1367604956852 508.110422644064 2815.47043360281 139 139 137
33.1486802986536 507.642393162323 2811.12717581443 143 143 141
30.8814869001153 507.685550170838 2803.30808543424 146 147 142
25.6224656371624 507.318408920215 2798.25881241564 138 138 136
21.8379629841765 507.154586455753 2791.8091115195 120 120 118
15.0882540896098 506.582582150211 2788.14824281053 117 118 113
9.07737436991418 506.112317318069 2783.78844583911 121 122 117
2.33201463011046 505.54046659759 2780.13102518021 119 119 117
-4.40992302844356 504.968733385942 2776.47579137921 126 126 124
-11.1483892575346 504.397191783072 2772.82307506206 127 128 123
-16.4300972468674 504.027525600729 2767.75734316207 129 129 127
-23.1663331017782 503.455880899919 2764.10624316854 140 140 138
-27.7322188757188 503.185970883046 2758.32489472434 146 146 144
-35.1883894023894 502.513729039508 2755.38642580793 164 164 166
-39.0471012371654 502.342894094812 2748.88289357261 174 174 176
-43.6359085481095 502.070768714921 2743.08491759582 173 173 173
-46.8074231586637 501.997415800036 2735.84500643036 159 159 159
-51.4201509209886 501.723118199131 2730.02938452812 145 144 142
-58.8794259117718 501.04982867625 2727.08895428974 136 135 133
-63.5030413053101 500.774335400765 2721.26543365495 128 127 125
-66.7271260191908 500.696200962849 2713.98738908033 116 115 111
-68.5647577180615 500.81438543935 2705.24504054325 119 115 112
-71.8305224282705 500.732620545688 2697.93676286082 120 116 113
-76.5110858669829 500.451931341243 2692.07193305435 119 118 113
-89.5523879217595 498.988679054099 2694.96185294142 113 114 109
-112.956089856529 496.054252403858 2708.85941804583 127 128 123
-140.399246263547 492.539561192316 2727.2362714949 148 148 146
-155.299359610289 490.79835897243 2732.48269590084 145 145 143
-163.959233758689 489.941317043575 2731.14106822729 175 175 175
-169.178141156686 489.57334794799 2726.12087041227 189 189 191
-173.036934443606 489.399623765678 2719.617264496 132 132 132
-178.270887458748 489.030002664651 2714.58615142429 144 144 144
-182.153516222409 488.853974144057 2708.06525499033 151 151 151
-186.726249377979 488.579690386312 2702.27862610217 158 158 158
-189.287408005523 488.594562505121 2694.24658526243 157 157 155
-194.557883809026 488.221191045371 2689.18897704569 176 178 175
-195.147646105093 488.521794082441 2678.88179192011 181 183 178
-194.439351845534 489.011669844947 2667.04648113887 192 195 188
318.683344046958 533.208061812403 2698.34909168166 200 204 205
298.960034323063 530.963602090059 2705.03696999705 142 146 147
246.067542568161 524.348748264557 2740.76836121889 144 148 149
181.103235914044 516.128807718774 2787.5022700896 192 196 197
151.062894978105 512.499096596719 2803.99578644847 141 141 143
139.553610540542 511.310082703743 2804.29228330804 140 140 142
125.781133716371 509.820067869542 2806.65202344316 152 152 154
113.575690637649 508.535231147074 2807.6787057917 168 168 170
98.3649434874176 506.850066203369 2811.46489785787 158 158 158
86.2365514065306 505.571142880039 2812.54746607162 148 148 148
76.4091048547995 504.596059461786 2811.59387897144 140 140 140
63.5891251045422 503.221643378371 2813.409653464 142 142 142
52.3099834296934 502.050272906897 2813.87307509117 140 140 138
45.5542505833071 501.480498937668 2810.20785078806 134 134 132
41.041837952255 501.209991976964 2804.46526314267 129 129 127
38.008819801914 501.137732243238 2797.32575655406 132 132 130
31.2454923412964 500.567118986252 2793.65502250186 139 139 137
27.4461090918861 500.393443110277 2787.19448443434 137 137 135
21.4186846416369 499.921524315417 2782.82268545701 133 133 131
15.3901121261106 499.449378090883 2778.45005307069 131 131 129
6.42649756986513 498.582367036305 2776.88818699775 134 134 132
-1.05805171957285 497.913527153268 2773.9294574192 132 132 130
-8.53472711710235 497.245195297281 2770.97614388916 130 130 128
-14.5498406224198 496.773661452151 2766.61327132839 129 129 127
-22.7401930305882 496.007968095743 2764.37743605375 131 131 129
-28.0282822488318 495.634334757365 2759.30705817031 132 132 130
-34.7624156451103 495.064891668868 2755.65749344552 124 124 126
-39.3389842610103 494.787917801831 2749.8683650014 123 123 125
-44.6410444520995 494.412783837575 2744.78755718361 127 127 127
-49.9487265639393 494.037085305788 2739.70296553286 134 134 134
-53.8388114538593 493.854672541695 2733.1766316564 149 148 146
-59.871028595206 493.380662786674 2728.80134776389 167 166 162
-63.7830040196219 493.196192862035 2722.25913455189 160 159 155
-68.4142213892724 492.913985294978 2716.43036355019 140 139 135
-69.5417515034509 493.112135377849 2706.96815121854 136 135 130
-72.1020318535741 493.115448116491 2698.93639403328 126 123 118
-76.0819831244714 492.924933695862 2692.34487306292 115 114 109
-84.9485762084052 492.063019311103 2690.85336574144 112 113 107
-102.818801992468 489.959863263748 2698.88559435958 112 113 108
-129.606174395606 486.622421302223 2716.50370080138 122 122 120
-147.988687824608 484.437660127936 2725.39888997906 118 118 116
-158.045956306617 483.399319706632 2725.51371075401 135 135 135
-165.337591034809 482.742269514374 2722.69488877501 132 132 134
-171.255589532901 482.275018438975 2718.40243864859 135 135 135
-175.813193471149 481.996523629376 2712.62675592313 154 154 154
-180.380511252047 481.717032786837 2706.84402638073 155 155 155
-182.929132455648 481.719060011682 2698.82100912525 157 157 155
-187.522476334734 481.437087366094 2693.01940013803 169 169 167
-194.140959424351 480.872662302074 2689.45399268294 174 176 173
-196.738347612127 480.870131060806 2681.39530563333 175 177 172
-195.354718818069 481.42637215224 2668.81485879278 184 187 180
293.99543418348 522.185924719884 2710.03941009813 177 181 182
247.294945305084 516.527625637226 2740.38318502273 138 142 143
187.71392388178 509.206257108876 2782.37825832824 194 198 199
156.882224070424 505.560445950184 2799.53335130624 136 136 138
146.123076483315 504.487276025641 2799.13918852076 139 139 141
130.038080330978 502.727587748571 2803.52657245875 153 153 155
117.058376331995 501.365000608687 2805.22632487363 167 167 169
99.5565782157817 499.41730363657 2811.05605426627 150 150 150
88.1827371574335 498.257379479776 2811.45088426719 144 144 144
79.1056788805911 497.392738646909 2809.80679242583 140 140 140
68.5381444309714 496.334329789789 2809.55160886066 142 142 142
57.9959884505432 495.277872320025 2809.31483257358 139 139 137
49.7264437216325 494.514784818553 2807.02160229475 133 133 131
44.4565021901351 494.140500739751 2801.9643767606 130 130 128
39.1813580885865 493.765754964469 2796.90308295678 124 124 122
33.1581421054032 493.293818639485 2792.53433469825 131 131 129
27.1338710469498 492.821722161869 2788.16482078194 142 142 140
22.5846325531576 492.542033474763 2782.39549077549 141 141 139
13.6103206753933 491.684775280993 2780.82591938606 134 134 132
4.65262808207978 490.828699139115 2779.26840165793 132 132 130
-4.28863863414897 489.97380431693 2777.72279738226 133 133 131
-12.4840088580553 489.215740004629 2775.48336322851 135 135 133
-17.7589337318786 488.840185934203 2770.4225187304 137 137 135
-24.4889922132925 488.273567263539 2766.77592230459 138 138 136
-30.4930872755338 487.80217923749 2762.42103798695 138 138 138
-37.2188173739012 487.235652725333 2758.7778742422 140 140 142
-42.5043389074209 486.858796706257 2753.70904692769 143 143 145
-45.6473213786508 486.764992819268 2746.48971573072 139 139 139
-51.6643619508121 486.292018368205 2742.12543890112 133 133 133
-54.8357885249457 486.195730960218 2734.88547538741 126 125 123
-60.863742451607 485.72158862261 2730.51328131865 120 119 115
-63.3563620512199 485.716581815308 2722.53053071525 121 120 116
-66.5772134493237 485.615917046533 2715.25471591967 109 108 104
-68.4109562943549 485.700631436073 2706.51501696314 112 111 106
-73.0748839095086 485.409590489463 2700.6624888636 126 123 118
-76.3515206700496 485.304037662926 2693.34591483228 121 120 115
-81.0395045431214 485.010749172066 2687.47593645373 111 112 106
-95.4533777665594 483.416930426959 2691.84055659909 115 116 111
-118.116769981531 480.715191787662 2705.04063552281 126 126 124
-139.296096568828 478.206488166044 2716.84744979357 113 113 111
-151.442924818208 476.905159893593 2719.15128190202 136 136 136
-161.495560366319 475.883116518352 2719.26954373738 132 132 134
-168.107667556021 475.322662756235 2715.70848394661 150 150 150
-174.716387676223 474.762269703591 2712.15017429934 156 156 156
-179.285765983389 474.47677197751 2706.36592061142 151 151 151
-184.541311893944 474.09885966338 2701.31911239238 156 156 154
-188.453807359561 473.902846925178 2694.77646372479 166 166 164
-193.05225662691 473.614396688962 2688.97112092238 173 175 172
-195.651391379919 473.597679582285 2680.91139037319 173 175 170
-192.933388148033 474.304797410104 2666.82865652457 183 186 179
236.147776617383 507.159297072525 2750.78193394065 136 140 141
194.326541905716 502.239438750882 2777.25571595795 147 151 152
167.317433705232 499.158846940838 2791.00897802021 130 131 133
153.46161950225 497.716059386575 2793.3085443264 137 138 140
135.060983190302 495.702844521755 2799.72139149695 142 144 143
120.541732452987 494.172326258339 2802.77461075683 135 137 136
104.549373730564 492.454898610702 2807.22936360317 137 139 138
95.4353796456306 491.597870092657 2805.55853476415 133 135 134
84.0702418619013 490.457241683071 2805.96006616836 131 133 130
74.242351430025 489.508454392123 2805.00629048507 130 132 129
60.6780680115753 488.088238565885 2807.5173080088 124 126 123
54.6491840604744 487.615604097028 2803.14444738312 126 128 125
47.1250435316444 486.954295832847 2800.15705541935 130 132 129
40.3536639657172 486.387600667394 2796.48050407008 128 130 129
32.1002213467896 485.633270657352 2794.19899091284 125 127 126
26.8207458796708 485.254749082158 2789.13483256153 122 124 123
20.059394612661 484.688612409541 2785.46555376904 126 128 127
11.8292236134301 483.935854005196 2783.20091866604 138 140 139
1.40963935531024 482.904262165697 2783.05312318559 151 153 152
-6.78965468159198 482.153721356528 2780.81088268409 163 165 164
-12.7884463085857 481.682628544295 2776.45984443516 171 173 172
-18.7882672875639 481.211347791395 2772.10805903505 178 180 179
-25.51414383466 480.647368040934 2768.46450754933 187 189 188
-32.9596390668097 479.991131494882 2765.53415292874 188 190 189
-38.2352378263184 479.611942780865 2760.47250702931 193 193 193
-42.7981494166239 479.324171330031 2754.69322416261 194 194 194
-47.3706423440887 479.035538645887 2748.90669674079 192 192 192
-51.9531180409067 478.745962822511 2743.11292781924 191 191 191
-55.1218405565022 478.638423660904 2735.87486754292 192 192 190
-58.3092618322341 478.529265139516 2728.62324393396 182 181 177
-62.2226880547729 478.327366913596 2722.07989072965 159 158 154
-64.7400570527896 478.306116587464 2714.07941095956 126 125 121
-67.9833134870083 478.192095846186 2706.7869921475 122 121 116
-71.2453579928969 478.076414060411 2699.48123952484 111 110 105
-75.2246416587596 477.868642952783 2692.89011510709 111 110 105
-80.6109387201754 477.479048012627 2687.74846341362 116 117 111
-92.9442783570684 476.187892229957 2689.91743543961 125 126 121
-114.23421586386 473.730633465028 2701.6440315956 119 119 117
-134.048524110256 471.460259718852 2711.971216245 118 118 116
-146.900024737274 470.092335624764 2714.99921009371 125 125 125
-157.652422832175 468.995834596489 2715.84515308875 115 115 117
-164.275856723859 468.436867933755 2712.27588986245 140 140 142
-170.214916694276 467.966999551031 2707.96815856808 145 145 145
-176.833536173507 467.407989766737 2704.40238519369 150 150 150
-182.772117304622 466.937771840539 2700.09499924965 163 163 161
-188.037352315779 466.555803627322 2695.04114665088 160 160 158
-190.61938032358 466.526601434285 2686.99345942991 172 174 171
-193.224527849895 466.495357429344 2678.92929651142 172 174 171
-191.17892785491 467.07806730431 2665.59352968497 184 187 180
223.448477880248 497.684977618594 2762.52504705528 168 172 173
191.685080687932 494.107351864919 2780.24011472014 147 151 152
173.141299461912 492.126258202429 2786.54935578784 126 128 127
160.035468610729 490.802080268901 2788.1581651831 133 135 134
143.909134033634 489.10928690912 2792.51592085072 132 134 133
128.60148318281 487.513624231822 2796.23231870293 123 125 124
113.345459568315 485.921960127408 2799.98645697111 126 128 127
104.206619979223 485.073418821961 2798.2976600853 125 127 124
90.5484408439103 483.672824639277 2800.74070998753 123 125 122
79.9482798773741 482.6437206756 2800.46202319903 124 126 123
67.1186172615243 481.340944612053 2802.2711412465 123 125 122
60.3227407163875 480.774714414508 2798.57683386936 122 124 121
52.7829644767706 480.117157963856 2795.57812624883 124 126 123
45.2509882602499 479.460133427963 2792.58478124874 146 148 147
36.9838773108211 478.712447890737 2790.29339328258 160 162 161
28.7289056361124 477.965626282515 2788.01080971171 159 161 160
19.7477971129176 477.128877179522 2786.43641517154 156 158 157
9.31061672516886 476.111960815479 2786.27593821538 169 171 170
1.10092247672222 475.368433784887 2784.02619390475 179 181 180
-7.09672713753373 474.625733144452 2781.78518519233 183 185 184
-12.3637681508351 474.244499846194 2776.73002710655 183 185 184
-19.0910509457105 473.682766054681 2773.08546757802 183 185 184
-25.0897797126461 473.210976344985 2768.73447136776 187 189 188
-31.812523623864 472.649371278406 2765.09320282488 189 191 190
-37.0904672632641 472.266776795323 2760.0301342981 194 196 193
-42.373823148065 471.883669180235 2754.96313972001 197 199 196
-46.9461544802328 471.589075205593 2749.17669924696 200 200 198
-50.1001215608299 471.471424881754 2741.94928428534 199 199 197
-52.5606421574627 471.440953794485 2733.98967395263 198 198 196
-57.1737516878958 471.142693290544 2728.17394839873 195 196 191
-62.5040217793706 470.755192240938 2723.07262798039 197 198 193
-65.0185356959767 470.719969116179 2715.07414714477 137 136 132
-67.5559199402624 470.682823137629 2707.05878290388 116 115 110
-70.8175024556321 470.555767709537 2699.75330757826 117 116 111
-74.7964286588456 470.33937764312 2693.1623986361 106 105 100
-79.4862159970964 470.034143647967 2687.29105238082 107 108 102
-90.4345893376641 468.941695579158 2687.99465478998 109 110 105
-110.350508385532 466.717979855076 2698.24841593299 117 117 115
-130.17911978794 464.500978561067 2708.56550226135 115 115 113
-143.043336172386 463.159133104961 2711.58441027957 120 120 120
-153.122401493968 462.167150539704 2711.68366487203 124 124 126
-159.75937513132 461.609461823224 2708.10459286819 144 144 146
-167.074011087541 460.965573844501 2705.26916347733 146 146 146
-174.380549894892 460.3220924915 2702.43931146511 154 154 154
-181.679295491826 459.679013858571 2699.61540543431 158 158 156
-186.272154444844 459.379590495505 2693.81405958902 159 159 157
-188.858189381829 459.335974514509 2685.76368912791 172 174 171
-191.466993403872 459.290354265781 2677.69650824211 170 172 169
-188.088567037179 460.010099683348 2662.85755655007 181 184 177
197.528559059442 486.994129541379 2775.79430166581 175 179 180
183.582860511336 485.598023953815 2778.02894534536 118 120 119
167.378696841114 483.934249100248 2782.33042802687 128 130 129
151.995399487443 482.364969206428 2785.99241622581 124 126 125
135.138428747396 480.619746500105 2791.05528921058 125 127 126
122.144571328394 479.32840276584 2792.74543684815 132 134 131
110.70595451777 478.219360365086 2793.09356725 133 135 132
97.0285698821183 476.844139847387 2795.52282319778 125 127 124
84.9021392524811 475.650903272508 2796.60695285266 121 123 120
72.8095701599676 474.46022605075 2797.71593689908 122 124 119
67.4973019484906 474.072958605974 2792.62766761099 124 126 121
59.1900792209588 473.329984430758 2790.30722562483 121 123 120
51.640017200806 472.676508645971 2787.30108229186 115 117 116
39.6401020055306 471.492849114296 2788.47697419469 113 115 114
32.1187952435027 470.841478786798 2785.49168682655 120 122 121
20.9124951716313 469.750121500264 2786.00831816879 123 125 124
10.4722178850247 468.748920787487 2785.84567580742 121 123 122
0.791552223904368 467.837406658463 2784.99881529829 121 123 122
-5.94060374448002 467.277737940347 2781.35102803931 125 127 126
-10.4799272236598 466.980515706313 2775.58850235066 123 125 124
-17.2118121669826 466.420664418475 2771.94061616176 130 132 131
-23.9404851522416 465.86097914176 2768.29535370771 165 167 166
-29.2193224930648 465.475225094036 2763.23132683686 173 175 174
-33.0617975798724 465.26236136908 2756.7393520826 187 189 186
-39.7936765091149 464.702057912258 2753.09176244013 188 190 185
-46.5219897457907 464.141898534338 2749.44646389706 181 183 178
-51.1039529709556 463.840475207657 2743.65300646721 171 173 168
-52.8474795554297 463.882204186407 2734.97878395071 152 153 148
-54.618307506527 463.921681219703 2726.28446420734 147 148 143
-60.6629841714916 463.444735366276 2721.90013326834 129 130 125
-63.8867080013319 463.309559884529 2714.62206138213 119 120 115
-67.1288727704322 463.17282037885 2707.33031886639 129 128 123
-70.3899210769936 463.034397158927 2700.02517322003 115 114 109
-73.6696673184301 462.894339710124 2692.70646476396 106 105 100
-80.4513784906109 462.328629755706 2689.02242880311 116 117 111
-91.3965050584284 461.255234141577 2689.72848137157 128 129 124
-109.234432982993 459.339471843053 2697.78477810658 125 125 123
-129.068603799394 457.176546764251 2708.0984026808 121 121 119
-140.560967782399 456.029628306679 2709.64241538987 110 110 110
-149.276316674597 455.221010389211 2708.26081816781 145 145 147
-156.608192823943 454.581028026175 2705.41291077574 145 145 147
-164.613312168504 453.857912384408 2703.3115705665 152 152 152
-172.606069806645 453.135574139416 2701.21919555972 152 152 152
-178.555974494672 452.663736888995 2696.90359272542 158 158 156
-185.181313824623 452.108603764175 2693.33296762387 165 165 163
-188.441246407086 451.967940921554 2686.02861944559 167 169 168
-191.049417469283 451.908302281154 2677.96182639996 164 166 163
-188.336923701973 452.506867347308 2663.87454878176 175 177 172
200.287127819888 479.490286184543 2774.05063422046 159 163 164
188.641814403192 478.383811241812 2774.24893884611 141 143 142
171.655198445855 476.666232253045 2779.21796926698 124 126 125
158.554406934441 475.390675821099 2780.83067806468 140 142 141
139.388949525009 473.419883642825 2787.92434160804 130 132 131
125.622102687221 472.064569253047 2790.28884532475 128 130 127
112.656527746244 470.799533728624 2791.99962879049 136 138 135
102.754613497011 469.884489678413 2790.99265705543 136 138 135
90.6114974080356 468.71130461704 2792.06479262962 142 144 141
82.2619008879264 467.972843619479 2789.71365583706 143 145 140
76.1735874661706 467.493975785112 2785.29768194659 126 128 123
67.0941851660363 466.670696883684 2783.65210037906 116 118 113
58.0313507037795 465.848655610217 2782.01853545961 114 116 115
46.7556350770715 464.770658486875 2782.48491365661 111 113 112
36.2505226469199 463.780455722141 2782.27532662281 104 106 105
24.2932558138889 462.62141085239 2783.48255438873 115 117 116
12.3703180142067 461.465032107136 2784.71438703096 141 143 142
4.15293378053283 460.736325878207 2782.45914315621 148 150 149
-3.32028492735414 460.093376813388 2779.50875850013 165 167 166
-7.86594645728744 459.78966674504 2773.74160536107 169 171 170
-15.332459732833 459.147021919762 2770.79608315702 169 171 170
-22.7910517962053 458.504903890956 2767.85601140004 163 165 164
-28.7954023164092 458.031583367877 2763.50093210699 159 161 158
-33.3586832211958 457.726067957246 2757.72129163969 161 163 160
-39.3695932268157 457.251992003388 2753.36145340928 164 166 161
-46.8147968477455 456.610450765303 2750.4310901415 173 175 170
-49.9654775154694 456.470184796338 2743.20594301801 182 184 179
-51.7101687379429 456.494901568345 2734.53049558337 188 189 184
-53.4823477548869 456.517331778632 2725.83511007801 183 184 179
-59.5293596180542 456.039763605448 2721.44908315183 171 172 167
-63.4604724999819 455.81026019424 2714.89306316199 126 127 122
-66.7021736280402 455.662117308047 2707.60159898917 106 105 100
-69.2614754368206 455.594738192778 2699.57048757826 108 107 102
-73.9408965279229 455.278653705005 2693.70630659986 120 119 114
-80.7206661832822 454.715431043895 2690.02369068463 95 96 90
-93.0541300080971 453.497092911338 2692.19294151989 103 104 99
-112.273053243637 451.464435156975 2701.71790091897 112 112 110
-132.789424003511 449.27509945883 2712.77159257249 112 112 110
-141.518048926506 448.476170279921 2711.38071482477 143 143 143
-148.858095166264 447.840832889621 2708.52661381048 144 144 146
-155.506855936097 447.286919403734 2704.93931066206 145 145 147
-163.51458289646 446.571483277188 2702.83582455771 146 146 146
-170.831024386897 445.937471055056 2699.99913631922 147 147 147
-176.785506341147 445.464889596179 2695.68021155739 158 158 156
-183.415551537951 444.91176499627 2692.10618524611 164 164 162
