ply
format ascii 1.0
comment KinectMotionCapture
element vertex 762
property float x
property float y
property float z
property uchar red
property uchar green
property uchar blue
end_header
179.392874240875 834.948539733887 2680.0000667572 187 187 185
186.310589313507 833.378195762634 2674.99995231628 194 194 192
193.200886249542 831.807494163513 2670.00007629395 193 193 191
200.063735246658 830.236375331879 2664.99996185303 194 194 192
207.210257649422 829.911053180695 2664.00003433228 189 189 187
214.431524276733 829.896807670593 2664.00003433228 180 180 178
221.48597240448 829.259097576141 2661.99994087219 192 192 190
228.787034749985 829.555571079254 2663.00010681152 186 186 184
235.649943351746 828.294038772583 2658.99991989136 166 166 164
242.764845490456 827.966809272766 2657.99999237061 203 203 201
249.215602874756 825.458705425262 2650.00009536743 169 169 167
256.106376647949 824.507653713226 2647.0000743866 193 193 191
262.98052072525 823.556482791901 2644.00005340576 202 202 200
269.531458616257 821.670472621918 2638.00001144409 206 206 204
276.049464941025 819.784104824066 2631.99996948242 208 208 206
282.534539699554 817.89755821228 2625.99992752075 177 178 173
289.097040891647 816.322326660156 2621.00005149841 221 222 217
295.292884111404 813.812375068665 2612.99991607666 207 208 203
301.792234182358 812.236666679382 2608.00004005432 178 179 174
308.619290590286 811.59496307373 2605.99994659424 177 178 173
315.556228160858 811.264514923096 2605.00001907349 181 182 177
322.115749120712 809.999465942383 2601.0000705719 190 191 186
328.400135040283 808.111548423767 2595.00002861023 183 184 179
335.039258003235 807.157516479492 2592.00000762939 165 166 161
341.529816389084 805.892109870911 2588.00005912781 153 154 149
347.998291254044 804.62646484375 2584.00011062622 156 157 152
354.169815778732 802.737712860107 2578.00006866455 150 152 147
360.16833782196 800.537765026093 2571.00009918213 153 155 150
366.556912660599 799.271643161774 2566.99991226196 156 158 153
372.632473707199 797.382950782776 2561.00010871887 171 173 168
379.416078329086 797.050774097443 2559.99994277954 178 179 174
386.042982339859 796.407163143158 2558.00008773804 152 153 147
392.965853214264 796.386182308197 2558.00008773804 145 146 140
399.575650691986 795.742213726044 2555.99999427795 151 152 146
405.53805232048 793.853163719177 2549.99995231628 158 157 152
411.629348993301 792.275369167328 2545.00007629395 144 143 138
417.528688907623 790.386259555817 2539.00003433228 136 135 130
423.562288284302 788.808465003967 2533.99991989136 144 145 139
429.738312959671 787.542045116425 2529.99997138977 140 141 135
435.719817876816 785.96442937851 2525.00009536743 130 131 125
441.673845052719 784.386813640594 2519.99998092651 136 137 131
447.778433561325 783.120512962341 2516.00003242493 139 140 134
453.318983316422 780.920565128326 2509.0000629425 139 140 135
460.655093193054 781.833171844482 2512.00008392334 134 135 130
467.262744903564 781.500816345215 2510.99991798401 142 143 138
474.808692932129 782.724738121033 2515.00010490417 132 133 128
480.460971593857 780.836522579193 2509.0000629425 100 100 98
486.468881368637 779.570877552032 2505.00011444092 103 103 101
492.454767227173 778.305292129517 2500.99992752075 105 105 103
499.21727180481 778.284788131714 2500.99992752075 108 110 107
504.765689373016 776.397347450256 2494.99988555908 111 113 110
508.436262607574 771.709561347961 2480.00001907349 104 106 103
510.155975818634 764.221727848053 2456.00008964539 102 104 101
-134.527161717415 836.147129535675 2707.00001716614 237 242 238
-127.091482281685 835.538744926453 2704.99992370605 236 241 237
-119.976289570332 837.092041969299 2710.00003814697 244 245 240
-112.251952290535 834.320425987244 2700.99997520447 238 237 233
-104.809284210205 833.401501178741 2697.99995422363 216 217 212
-97.4188446998596 832.791030406952 2696.00009918213 210 210 208
-90.13931453228 833.106756210327 2697.00002670288 207 209 206
-82.7927887439728 832.804083824158 2696.00009918213 208 210 207
-75.4795297980309 832.809925079346 2696.00009918213 199 201 198
-68.1661143898964 832.815170288086 2696.00009918213 196 197 192
-60.7848614454269 831.893086433411 2693.00007820129 191 192 187
-53.2608963549137 828.4991979599 2681.99992179871 187 186 181
-45.8993911743164 826.958358287811 2677.00004577637 185 185 177
-38.6226512491703 826.652467250824 2676.00011825562 188 184 175
-31.4333066344261 828.50855588913 2681.99992179871 161 153 142
-24.1482965648174 828.201591968536 2680.99999427795 127 110 94
-16.8623737990856 827.585279941559 2678.99990081787 137 116 97
-9.58726834505796 826.968491077423 2677.00004577637 130 106 82
-2.32299440540373 826.35098695755 2674.99995231628 138 112 89
4.93043148890138 825.733125209808 2673.00009727478 138 113 91
12.1821109205484 825.732588768005 2673.00009727478 142 120 99
19.4264948368073 825.422406196594 2671.99993133545 132 110 89
26.6554318368435 824.802875518799 2670.00007629395 126 99 78
33.898863941431 824.800729751587 2670.00007629395 132 101 80
41.2038639187813 826.033651828766 2674.00002479553 125 97 76
48.4761148691177 826.339185237885 2674.99995231628 123 96 75
55.7120367884636 826.026499271393 2674.00002479553 127 99 77
62.9188716411591 825.404345989227 2671.99993133545 134 103 82
70.2723115682602 826.635122299194 2676.00011825562 143 113 89
77.7342244982719 828.792095184326 2683.00008773804 166 139 118
85.1389095187187 830.021739006042 2687.00003623962 163 137 120
92.324361205101 829.088747501373 2684.00001525879 175 157 143
99.419116973877 827.537178993225 2678.99990081787 199 186 177
106.645874679089 827.220857143402 2677.99997329712 217 212 208
114.122219383717 828.757464885712 2683.00008773804 213 212 210
121.942199766636 832.455575466156 2694.9999332428 209 207 208
129.587233066559 834.608733654022 2701.99990272522 229 228 226
136.611297726631 832.745969295502 2696.00009918213 224 223 221
143.602535128593 830.882728099823 2690.00005722046 201 200 198
150.673165917397 829.636812210083 2686.00010871887 192 191 189
157.957077026367 829.625964164734 2686.00010871887 192 191 189
165.056109428406 828.687965869904 2683.00008773804 204 203 201
172.138586640358 827.749490737915 2680.0000667572 190 189 187
179.13755774498 826.501846313477 2676.00011825562 177 176 174
186.114519834518 825.25360584259 2671.99993133545 174 173 171
193.069443106651 824.00506734848 2667.99998283386 165 164 162
199.927270412445 822.447299957275 2663.00010681152 174 173 171
206.83541893959 821.197867393494 2658.99991989136 160 159 155
214.20456469059 821.8013048172 2661.00001335144 146 145 141
221.251279115677 821.168720722198 2658.99991989136 151 150 146
228.544607758522 821.462452411652 2660.00008583069 148 147 143
235.399782657623 820.211589336395 2655.99989891052 169 168 164
242.689609527588 820.504367351532 2657.00006484985 170 169 165
249.420091509819 818.943917751312 2651.99995040894 143 142 138
256.219923496246 817.69210100174 2648.00000190735 168 167 163
263.097107410431 816.748678684235 2644.99998092651 187 186 182
269.548863172531 814.569771289825 2638.00001144409 167 166 162
276.172041893005 813.008248806 2632.99989700317 174 173 169
282.337367534637 810.211360454559 2624.00007247925 171 170 166
289.225608110428 809.57555770874 2621.99997901917 199 198 194
295.53747177124 807.395756244659 2615.00000953674 162 161 157
302.505344152451 807.068169116974 2614.00008201599 171 170 166
309.112042188644 805.8140873909 2609.99989509583 168 167 163
315.8178627491 804.868638515472 2607.00011253357 164 163 159
322.135299444199 802.996635437012 2601.0000705719 169 168 164
328.419893980026 801.124513149261 2595.00002861023 155 154 150
335.18847823143 800.487101078033 2592.99993515015 143 142 138
341.945856809616 799.849450588226 2591.00008010864 144 143 139
348.287910223007 798.28554391861 2585.99996566772 147 148 143
354.602456092834 796.721458435059 2581.00008964539 143 145 140
360.749363899231 794.848680496216 2575.00004768372 145 147 142
367.148965597153 793.593168258667 2571.00009918213 156 157 152
373.235434293747 791.7200922966 2565.00005722046 165 166 161
379.585325717926 790.464341640472 2561.00010871887 160 161 156
386.516898870468 790.443122386932 2561.00010871887 147 148 142
393.294364213943 790.112972259521 2559.99994277954 142 143 137
400.222361087799 790.091454982758 2559.99994277954 151 150 145
405.877590179443 787.600934505463 2552.00004577637 147 146 141
412.136077880859 786.344885826111 2548.00009727478 133 132 127
418.043524026871 784.471452236176 2542.00005531311 140 139 134
424.419552087784 783.523976802826 2539.00003433228 136 137 131
430.439293384552 781.959295272827 2533.99991989136 133 134 129
436.776667833328 781.011819839478 2530.99989891052 133 134 129
442.571640014648 779.138743877411 2525.00009536743 134 135 130
449.045687913895 778.499901294708 2523.00000190735 135 136 131
455.327838659287 777.552664279938 2519.99998092651 134 134 132
462.693750858307 778.456687927246 2523.00000190735 136 136 134
469.889402389526 779.052138328552 2525.00009536743 132 132 130
477.284282445908 779.956221580505 2528.00011634827 115 115 113
483.546108007431 779.009103775024 2525.00009536743 93 93 93
489.014476537704 776.827991008759 2517.99988746643 96 96 94
494.444757699966 774.647295475006 2510.99991798401 110 110 108
499.237984418869 771.541297435761 2500.99992752075 115 117 114
502.560675144196 766.276121139526 2483.99996757507 104 106 103
-147.787258028984 820.882260799408 2680.99999427795 225 230 226
-140.201613306999 819.055497646332 2674.99995231628 246 251 247
-133.194923400879 820.596277713776 2680.0000667572 243 248 244
-126.39582157135 823.667645454407 2690.00005722046 229 231 228
-119.232289493084 824.595153331757 2693.00007820129 215 214 210
-111.927576363087 824.603617191315 2693.00007820129 214 210 207
-104.622639715672 824.611365795136 2693.00007820129 207 206 202
-97.3175168037415 824.618756771088 2693.00007820129 204 204 202
-89.9119153618813 823.707044124603 2690.00005722046 196 198 195
-82.4917256832123 822.48854637146 2686.00010871887 194 196 193
-75.2610489726067 823.106586933136 2687.99996376038 193 195 192
-68.0193901062012 823.724329471588 2690.00005722046 189 191 186
-60.6990233063698 823.422908782959 2688.99989128113 183 185 180
-53.2052256166935 820.364832878113 2678.99990081787 184 185 179
-45.8170250058174 818.224906921387 2671.99993133545 181 182 174
-38.53889554739 817.615687847137 2670.00007629395 171 168 161
-31.318411231041 818.230628967285 2671.99993133545 191 184 176
-24.1230521351099 820.069968700409 2677.99997329712 114 98 83
-16.8573223054409 820.071578025818 2677.99997329712 135 116 99
-9.58797428756952 819.766342639923 2677.00004577637 132 107 85
-2.32056039385498 818.235635757446 2671.99993133545 145 120 98
4.92710573598742 817.92938709259 2671.0000038147 142 117 95
12.17389293015 817.928671836853 2671.0000038147 143 120 102
19.4061156362295 817.31504201889 2668.99991035461 134 112 91
26.637427508831 817.007124423981 2667.99998283386 129 102 81
33.8632687926292 816.698670387268 2667.00005531311 135 104 83
41.1760732531548 818.227052688599 2671.99993133545 127 99 78
48.4615564346313 818.836271762848 2674.00002479553 125 98 77
55.695291608572 818.526148796082 2673.00009727478 129 101 79
62.876395881176 817.60311126709 2670.00007629395 136 105 84
70.1986700296402 818.516850471497 2673.00009727478 145 114 93
77.6240006089211 820.348620414734 2678.99990081787 170 143 122
85.0500538945198 821.873843669891 2684.00001525879 168 142 125
92.0558720827103 819.417655467987 2676.00011825562 183 167 154
99.3521139025688 819.716811180115 2677.00004577637 213 200 192
106.494300067425 818.79073381424 2674.00002479553 215 211 208
114.045381546021 820.926129817963 2680.99999427795 206 206 206
121.543720364571 822.44861125946 2686.00010871887 200 200 202
129.260793328285 825.195252895355 2694.9999332428 222 221 219
136.418357491493 824.267029762268 2691.99991226196 217 216 214
143.612787127495 823.644638061523 2690.00005722046 214 213 211
150.627791881561 822.103202342987 2684.99994277954 196 195 193
157.733023166656 821.17360830307 2681.99992179871 202 201 199
164.760157465935 819.937527179718 2677.99997329712 196 195 193
171.765297651291 818.700850009918 2674.00002479553 179 178 176
178.748428821564 817.463755607605 2670.00007629395 174 173 171
185.848861932755 816.838562488556 2667.99998283386 171 170 168
192.865744233131 815.906882286072 2664.99996185303 155 154 152
199.866011738777 814.974665641785 2661.99994087219 169 168 166
206.849679350853 814.042091369629 2658.99991989136 153 152 147
214.380234479904 815.252244472504 2663.00010681152 148 147 142
221.515998244286 814.931035041809 2661.99994087219 148 147 142
228.731945157051 814.915716648102 2661.99994087219 145 144 139
235.415652394295 813.063085079193 2655.99989891052 173 172 167
242.61449277401 813.046932220459 2655.99989891052 146 145 140
249.436736106873 811.805963516235 2651.99995040894 145 144 139
256.236881017685 810.564637184143 2648.00000190735 151 150 145
262.815982103348 808.710873126984 2641.99995994568 177 176 171
269.259929656982 806.550621986389 2634.99999046326 161 160 155
276.085078716278 805.614531040192 2631.99996948242 150 149 144
282.678365707397 804.065942764282 2627.00009346008 156 155 151
289.795696735382 804.047465324402 2627.00009346008 170 169 165
296.347379684448 802.498281002045 2621.99997901917 143 142 138
303.103089332581 801.561117172241 2618.99995803833 135 134 130
309.605151414871 800.011456012726 2614.00008201599 144 143 139
316.079676151276 798.461616039276 2608.99996757507 145 144 140
322.774350643158 797.523677349091 2605.99994659424 145 144 140
329.199284315109 795.973420143127 2601.0000705719 140 139 135
336.242944002151 795.953214168549 2601.0000705719 138 137 133
342.494308948517 794.09658908844 2595.00002861023 139 138 134
348.847329616547 792.545735836029 2589.99991416931 137 138 133
354.623258113861 789.7709608078 2581.00008964539 135 137 132
361.050516366959 788.525938987732 2576.99990272522 137 138 133
367.741316556931 787.892818450928 2575.00004768372 147 148 143
374.129801988602 786.647617816925 2571.00009918213 143 144 139
380.347818136215 785.096287727356 2565.99998474121 136 137 131
387.14212179184 784.76870059967 2565.00005722046 134 135 129
393.776923418045 784.135043621063 2562.99996376038 139 140 134
400.556802749634 783.807218074799 2562.00003623962 129 128 123
406.21742606163 781.337797641754 2553.99990081787 129 128 123
412.481337785721 780.092120170593 2549.99995231628 137 137 129
418.558746576309 778.540551662445 2545.00007629395 132 131 126
425.444483757019 778.518438339233 2545.00007629395 128 129 124
431.820213794708 777.57865190506 2542.00005531311 133 134 129
438.351809978485 776.944696903229 2539.99996185303 131 132 127
443.820536136627 774.475574493408 2532.00006484985 124 125 120
451.203405857086 775.371015071869 2535.00008583069 120 120 118
458.060085773468 775.348901748657 2535.00008583069 116 116 116
465.649902820587 776.550054550171 2539.00003433228 116 116 116
472.516626119614 776.527941226959 2539.00003433228 103 103 103
479.382961988449 776.505947113037 2539.00003433228 95 95 95
485.291361808777 774.954676628113 2533.99991989136 98 98 100
491.172462701797 773.403763771057 2529.00004386902 102 102 102
495.844513177872 770.017981529236 2517.99988746643 110 110 108
-163.854226469994 821.232795715332 2706.00008964539 238 243 239
-155.069306492805 813.65704536438 2680.99999427795 236 238 235
-147.356882691383 811.239957809448 2673.00009727478 226 228 225
-140.002086758614 810.643494129181 2671.0000038147 209 211 206
-133.005768060684 812.17086315155 2676.00011825562 198 200 195
-125.982075929642 813.697814941406 2680.99999427795 187 189 184
-118.88674646616 814.920842647552 2684.99994277954 204 203 199
-111.56165599823 814.625680446625 2684.00001525879 196 195 191
-104.397185146809 815.544307231903 2687.00003623962 183 182 178
-97.0355272293091 814.944505691528 2684.99994277954 187 186 182
-89.7513926029205 814.951479434967 2684.99994277954 190 189 185
-82.3135152459145 813.440322875977 2680.0000667572 185 186 181
-75.0425979495049 813.446044921875 2680.0000667572 187 188 183
-67.7462443709373 813.147783279419 2678.99990081787 184 183 179
-60.4777745902538 813.152611255646 2678.99990081787 179 178 174
-53.1495921313763 812.246322631836 2676.00011825562 177 176 172
-45.8204299211502 811.035811901093 2671.99993133545 174 173 169
-38.5273173451424 810.128390789032 2668.99991035461 172 167 163
-31.2855765223503 810.130953788757 2668.99991035461 177 170 164
-24.0798052400351 811.347126960754 2673.00009727478 172 159 151
-16.8522801250219 812.562823295593 2677.00004577637 132 118 109
-9.59226954728365 812.867343425751 2677.99997329712 132 114 100
-2.32333852909505 811.957180500031 2674.99995231628 133 111 97
4.92931669577956 811.046481132507 2671.99993133545 135 112 96
12.1747981756926 810.742259025574 2671.0000038147 135 110 90
19.393015652895 809.527039527893 2667.00005531311 135 108 87
26.6194399446249 809.221684932709 2665.99988937378 135 105 81
33.8530875742435 809.219479560852 2665.99988937378 138 108 82
41.1637164652348 810.734331607819 2671.0000038147 131 103 79
48.4289042651653 811.034560203552 2671.99993133545 136 110 85
55.6994192302227 811.334252357483 2673.00009727478 134 109 87
62.9045888781548 810.722708702087 2671.0000038147 122 100 79
70.2301189303398 811.628401279449 2674.00002479553 131 110 91
77.5138214230537 811.926424503326 2674.99995231628 140 124 109
84.7711116075516 811.920404434204 2674.99995231628 129 115 104
91.8906256556511 810.699820518494 2671.0000038147 193 186 178
99.2480516433716 811.603307723999 2674.00002479553 188 183 177
106.50210082531 811.595797538757 2674.00002479553 193 192 188
114.053703844547 813.712179660797 2680.99999427795 204 204 204
121.416814625263 814.310669898987 2683.00008773804 194 194 196
128.982380032539 816.12241268158 2688.99989128113 213 212 210
136.124178767204 815.202355384827 2686.00010871887 209 208 206
143.569752573967 816.102623939514 2688.99989128113 220 219 217
150.638610124588 814.878046512604 2684.99994277954 194 193 191
157.685503363609 813.65305185318 2680.99999427795 202 201 199
164.771929383278 812.731027603149 2677.99997329712 184 183 181
171.841740608215 811.808407306671 2674.99995231628 188 187 185
178.961962461472 811.188995838165 2673.00009727478 175 174 172
185.722649097443 809.051692485809 2665.99988937378 175 174 172
192.734569311142 808.127880096436 2663.00010681152 147 146 144
199.65472817421 806.900262832642 2658.99991989136 162 161 157
206.708505749702 806.279122829437 2657.00006484985 145 144 139
214.234068989754 807.478189468384 2661.00001335144 145 144 139
221.531271934509 807.766556739807 2661.99994087219 143 142 137
228.833541274071 808.054387569427 2663.00010681152 140 139 134
235.608980059624 806.52129650116 2657.99999237061 170 169 164
242.448255419731 805.291295051575 2654.00004386902 129 128 123
249.453529715538 804.667711257935 2651.99995040894 146 145 140
256.157279014587 803.133606910706 2647.0000743866 137 136 131
263.03243637085 802.206039428711 2644.00005340576 151 150 145
269.379884004593 799.760937690735 2635.99991798401 148 147 142
276.417940855026 799.439549446106 2634.99999046326 147 146 141
282.912015914917 797.600746154785 2628.99994850159 154 153 149
290.145426988602 797.885477542877 2630.00011444092 143 142 138
296.366453170776 795.439422130585 2621.99997901917 138 137 133
303.238123655319 794.813334941864 2619.99988555908 143 142 138
309.743195772171 793.277025222778 2615.00000953674 138 137 133
316.58411026001 792.650401592255 2612.99991607666 147 146 142
323.537647724152 792.326986789703 2611.99998855591 146 145 141
330.105602741241 791.093289852142 2608.00004005432 140 139 135
336.909890174866 790.465950965881 2605.99994659424 138 137 133
342.778980731964 787.715315818787 2596.99988365173 139 138 134
349.272340536118 786.481022834778 2592.99993515015 137 138 133
355.46875 784.639954566956 2586.99989318848 134 136 131
361.912429332733 783.405482769012 2582.99994468689 135 136 131
368.334025144577 782.17077255249 2578.9999961853 139 140 135
374.733418226242 780.936121940613 2575.00004768372 131 132 127
381.407111883163 780.307590961456 2572.99995422363 129 130 124
388.371467590332 780.285656452179 2572.99995422363 137 138 132
394.874393939972 779.353797435761 2569.9999332428 132 133 127
401.204258203506 778.118669986725 2565.99998474121 126 127 121
406.716704368591 775.367140769959 2556.99992179871 133 134 128
413.150638341904 774.435102939606 2553.99990081787 132 133 127
419.732332229614 773.806273937225 2552.00004577637 123 124 118
426.804184913635 774.086952209473 2552.99997329712 130 131 126
433.54132771492 773.76127243042 2552.00004577637 131 132 127
440.272659063339 773.435473442078 2551.00011825562 124 125 120
446.296870708466 771.896839141846 2546.0000038147 110 111 106
453.53975892067 772.480666637421 2548.00009727478 110 110 108
460.250824689865 772.154808044434 2546.99993133545 110 110 110
467.506319284439 772.738456726074 2549.00002479553 104 104 104
473.655670881271 771.503329277039 2545.00007629395 96 96 96
480.726957321167 771.783947944641 2546.0000038147 95 95 95
486.462652683258 769.94264125824 2539.99996185303 100 100 100
-171.015337109566 813.035905361176 2703.00006866455 219 224 220
-162.654921412468 807.934582233429 2686.00010871887 238 243 239
-154.964834451675 805.840373039246 2678.99990081787 226 228 225
-147.477850317955 804.648280143738 2674.99995231628 212 214 211
-140.27439057827 804.959654808044 2676.00011825562 193 195 190
-133.114889264107 805.57119846344 2677.99997329712 187 189 184
-125.944331288338 806.182444095612 2680.0000667572 165 167 162
-118.629798293114 805.890560150146 2678.99990081787 196 195 191
-111.320465803146 805.598318576813 2677.99997329712 188 187 183
-104.094043374062 805.907011032104 2678.99990081787 176 175 171
-96.8258455395699 805.914461612701 2678.99990081787 179 178 174
-89.4906148314476 805.319786071777 2677.00004577637 185 184 180
-82.1046158671379 804.122924804688 2673.00009727478 183 182 178
-74.8521685600281 804.12882566452 2673.00009727478 184 183 179
-67.5742775201797 803.833305835724 2671.99993133545 182 181 177
-60.3694058954716 804.439663887024 2674.00002479553 178 177 173
-53.0939772725105 804.143190383911 2673.00009727478 175 174 170
-45.806709676981 803.545236587524 2671.0000038147 172 171 167
-38.5446399450302 803.247511386871 2670.00007629395 171 166 162
-31.2644764780998 802.347660064697 2667.00005531311 169 161 158
-24.0545850247145 803.252279758453 2670.00007629395 172 161 155
-16.8094765394926 803.253769874573 2670.00007629395 167 156 150
-9.57149639725685 803.856372833252 2671.99993133545 128 111 101
-2.31917016208172 803.255200386047 2670.00007629395 135 117 103
4.92046261206269 802.352607250214 2667.00005531311 133 110 92
12.1529195457697 802.051067352295 2665.99988937378 135 110 90
19.3726569414139 801.448225975037 2664.00003433228 138 111 90
26.6214367002249 802.048146724701 2665.99988937378 132 102 78
33.8556170463562 802.045822143555 2665.99988937378 137 105 80
41.1359779536724 802.945554256439 2668.99991035461 133 106 79
48.3962707221508 803.243041038513 2670.00007629395 126 100 75
55.6618981063366 803.539931774139 2671.0000038147 124 102 79
62.909297645092 803.535580635071 2671.0000038147 130 109 90
70.130281150341 803.229749202728 2670.00007629395 124 107 89
77.2877559065819 802.321672439575 2667.00005531311 119 107 95
84.4604820013046 801.71400308609 2664.99996185303 150 140 131
91.7598158121109 802.309215068817 2667.00005531311 188 183 177
99.2553904652596 804.407835006714 2674.00002479553 180 177 170
106.549791991711 804.700970649719 2674.99995231628 185 184 179
113.934464752674 805.595219135284 2677.99997329712 184 183 179
121.154181659222 805.285811424255 2677.00004577637 192 191 187
128.512129187584 805.878221988678 2678.99990081787 199 197 198
135.728657245636 805.567681789398 2677.99997329712 197 195 196
143.2064473629 806.760668754578 2681.99992179871 201 200 198
150.425121188164 806.449174880981 2680.99999427795 206 205 203
157.520458102226 805.535614490509 2677.99997329712 186 185 183
164.476126432419 804.019927978516 2673.00009727478 175 174 170
171.661347150803 803.706884384155 2671.99993133545 178 177 173
178.639978170395 802.491188049316 2667.99998283386 183 182 178
185.596540570259 801.275014877319 2664.00003433228 165 164 159
192.53109395504 800.058484077454 2660.00008583069 150 149 144
199.518665671349 799.142241477966 2657.00006484985 148 147 142
206.800818443298 799.428582191467 2657.99999237061 143 140 133
214.249059557915 800.316095352173 2661.00001335144 143 140 133
221.629917621613 800.902247428894 2663.00010681152 139 136 129
228.763431310654 800.585806369781 2661.99994087219 144 141 134
235.891163349152 800.2690076828 2661.00001335144 143 140 133
242.738917469978 799.049496650696 2657.00006484985 135 132 125
249.470517039299 797.528982162476 2651.99995040894 146 143 136
256.271362304688 796.308815479279 2648.00000190735 142 139 132
263.249069452286 795.689761638641 2645.99990844727 142 139 132
270.011126995087 794.468998908997 2641.99995994568 138 135 128
276.855885982513 793.548583984375 2638.99993896484 138 135 128
283.468782901764 792.026579380035 2634.0000629425 138 138 130
290.385037660599 791.406095027924 2631.99996948242 138 137 132
296.724826097488 789.282143115997 2625 133 132 127
303.373456001282 788.060009479523 2621.00005149841 133 132 127
310.11837720871 787.138044834137 2618.00003051758 136 135 130
317.088931798935 786.817371845245 2617.00010299683 134 133 128
324.425131082535 787.398278713226 2618.99995803833 134 133 128
331.012278795242 786.175072193146 2615.00000953674 131 130 126
337.577193975449 784.951567649841 2611.00006103516 131 130 126
343.328028917313 781.924247741699 2601.0000705719 132 131 127
349.967151880264 781.001091003418 2598.00004959106 128 127 123
356.452107429504 779.777109622955 2594.00010108948 133 135 130
363.055020570755 778.85365486145 2591.00008010864 127 129 124
369.641244411469 777.930021286011 2588.00005912781 123 125 120
376.065135002136 776.705622673035 2584.00011062622 133 135 130
382.763385772705 776.082217693329 2582.00001716614 132 137 131
389.148414134979 774.857580661774 2578.00006866455 119 124 118
395.664989948273 773.933470249176 2575.00004768372 121 126 120
401.852130889893 772.408127784729 2569.9999332428 129 134 128
407.69362449646 770.281732082367 2562.99996376038 127 134 127
414.143830537796 769.357442855835 2559.99994277954 116 123 116
421.070724725723 769.334614276886 2559.99994277954 115 120 114
428.331583738327 769.912779331207 2562.00003623962 115 115 113
435.432881116867 770.190238952637 2562.99996376038 100 100 98
442.539155483246 770.467638969421 2563.99989128113 96 96 94
450.001060962677 771.345973014832 2566.99991226196 105 105 103
456.944644451141 771.322846412659 2566.99991226196 103 103 101
462.442189455032 768.895983695984 2559.00001525879 93 95 92
468.813121318817 767.971515655518 2555.99999427795 93 95 92
475.53962469101 767.648041248322 2555.0000667572 97 99 96
483.015567064285 768.526256084442 2558.00008773804 95 97 94
-179.744526743889 812.008202075958 2723.99997711182 204 209 205
-170.268461108208 802.18368768692 2690.99998474121 206 211 207
-162.303388118744 798.916816711426 2680.0000667572 201 206 202
-154.68692779541 797.139823436737 2674.00002479553 208 210 207
-147.54381775856 797.747135162354 2676.00011825562 196 198 193
-140.284702181816 797.757744789124 2676.00011825562 172 174 169
-133.075013756752 798.065960407257 2677.00004577637 184 186 181
-125.718638300896 797.479271888733 2674.99995231628 149 150 145
-118.461452424526 797.488451004028 2674.99995231628 189 188 184
-111.204020678997 797.496855258942 2674.99995231628 181 180 176
-103.907510638237 797.206819057465 2674.00002479553 168 167 163
-96.6162234544754 796.916246414185 2673.00009727478 171 170 166
-89.397020637989 797.221302986145 2674.00002479553 182 181 177
-82.1414887905121 797.227799892426 2674.00002479553 187 186 182
-74.8297795653343 796.637415885925 2671.99993133545 185 184 180
-67.5034821033478 795.748353004456 2668.99991035461 185 184 180
-60.3062175214291 796.34952545166 2671.0000038147 184 183 179
-53.0979745090008 796.950042247772 2673.00009727478 181 180 176
-45.8273179829121 796.655595302582 2671.99993133545 176 175 171
-38.5475568473339 796.062588691711 2670.00007629395 164 161 156
-31.2551148235798 794.872581958771 2665.99988937378 174 171 166
-24.0203645080328 794.874608516693 2665.99988937378 172 165 159
-16.772972419858 794.279932975769 2664.00003433228 180 169 163
-9.54714417457581 794.579029083252 2664.99996185303 121 107 96
-2.31413380242884 794.281363487244 2664.00003433228 129 113 100
4.91529982537031 794.281303882599 2664.00003433228 132 111 94
12.1447220444679 794.280588626862 2664.00003433228 132 106 89
19.3886645138264 794.875681400299 2665.99988937378 135 108 87
26.6334377229214 795.172214508057 2667.00005531311 139 111 87
33.8454805314541 794.573485851288 2664.99996185303 140 110 86
41.1082543432713 795.166969299316 2667.00005531311 133 105 81
48.363670706749 795.461714267731 2667.99998283386 135 109 86
55.6452609598637 796.054184436798 2670.00007629395 133 112 91
62.9140287637711 796.347737312317 2671.0000038147 131 112 95
70.0830221176147 795.448362827301 2667.99998283386 132 116 100
77.2645771503448 794.846475124359 2665.99988937378 124 114 102
84.4034105539322 793.946027755737 2663.00010681152 174 165 156
91.7666703462601 795.131981372833 2667.00005531311 181 176 170
99.1143211722374 796.01925611496 2670.00007629395 173 170 165
106.318704783916 795.713245868683 2668.99991035461 178 177 173
113.687634468079 796.599447727203 2671.99993133545 180 179 175
121.027387678623 797.187030315399 2674.00002479553 190 189 185
128.42570245266 798.072159290314 2677.00004577637 193 192 190
135.485216975212 796.869933605194 2673.00009727478 189 188 186
142.843157052994 797.455787658691 2674.99995231628 197 196 194
149.987235665321 796.848893165588 2673.00009727478 204 203 201
157.120183110237 796.241402626038 2671.0000038147 176 175 171
164.241939783096 795.633375644684 2668.99991035461 170 169 165
171.481043100357 795.621156692505 2668.99991035461 173 172 168
178.518921136856 794.714152812958 2665.99988937378 184 183 179
185.33119559288 792.912483215332 2660.00008583069 153 152 147
192.472472786903 792.600691318512 2658.99991989136 149 148 143
199.457749724388 791.69237613678 2655.99989891052 144 143 138
206.971108913422 792.870283126831 2660.00008583069 144 144 136
214.344695210457 793.451488018036 2661.99994087219 141 141 133
221.645474433899 793.734073638916 2663.00010681152 136 136 128
228.779420256615 793.420135974884 2661.99994087219 142 142 134
235.818907618523 792.807817459106 2660.00008583069 133 133 125
242.664322257042 791.598916053772 2655.99989891052 133 133 125
249.393582344055 790.091753005981 2651.00002288818 142 142 134
256.288886070251 789.180278778076 2648.00000190735 136 136 128
263.565450906754 789.460480213165 2648.9999294281 137 137 129
270.642548799515 789.144277572632 2648.00000190735 134 134 126
277.608871459961 788.529694080353 2645.99990844727 134 134 126
284.025758504868 786.424815654755 2638.99993896484 135 134 129
290.845572948456 785.511672496796 2635.99991798401 134 133 128
297.196447849274 783.406257629395 2628.99994850159 131 130 125
303.971976041794 782.492518424988 2625.99992752075 130 129 124
310.612291097641 781.280696392059 2621.99997901917 132 131 126
317.715138196945 781.260311603546 2621.99997901917 127 126 122
324.817419052124 781.239569187164 2621.99997901917 128 127 123
331.28634095192 779.729008674622 2617.00010299683 132 131 127
337.85691857338 778.516054153442 2612.99991607666 130 129 125
344.009339809418 776.409149169922 2605.99994659424 126 125 121
351.06635093689 776.387572288513 2605.99994659424 128 127 123
357.848048210144 775.770008563995 2604.00009155273 128 129 124
364.338099956512 774.556279182434 2599.99990463257 118 119 114
370.66313624382 773.044526576996 2595.00002861023 125 127 122
376.8150806427 771.234810352325 2588.99998664856 133 135 130
383.971780538559 771.510183811188 2589.99991416931 127 129 124
390.529572963715 770.5939412117 2586.99989318848 118 120 115
397.377967834473 770.273208618164 2585.99996566772 126 128 123
403.282225131989 768.165230751038 2578.9999961853 126 131 125
409.625351428986 766.950845718384 2575.00004768372 118 123 117
416.593492031097 766.927719116211 2575.00004768372 109 114 108
423.890054225922 767.500102519989 2576.99990272522 108 113 107
431.196987628937 768.072426319122 2578.9999961853 101 101 99
438.514292240143 768.644511699677 2581.00008964539 95 95 93
445.84196805954 769.216597080231 2582.99994468689 97 97 95
453.179985284805 769.788503646851 2585.00003814697 103 103 101
459.282249212265 768.275916576386 2579.99992370605 98 98 96
464.272707700729 764.976859092712 2569.00000572205 98 100 97
469.386637210846 761.975586414337 2559.00001525879 94 96 93
-178.569808602333 799.35896396637 2706.00008964539 207 212 208
-170.217633247375 794.645130634308 2690.00005722046 211 213 210
-162.375867366791 791.998684406281 2680.99999427795 200 202 199
-154.756173491478 790.237963199615 2674.99995231628 197 199 194
-147.609859704971 790.839970111847 2677.00004577637 192 194 189
-140.347525477409 790.850639343262 2677.00004577637 166 167 162
-133.035212755203 790.565490722656 2676.00011825562 184 185 180
-125.634029507637 789.6888256073 2673.00009727478 151 152 147
-118.248879909515 788.811683654785 2670.00007629395 186 185 181
-111.046068370342 789.11566734314 2671.0000038147 166 165 161
-103.759862482548 788.828313350677 2670.00007629395 164 163 159
-96.6234877705574 789.722263813019 2673.00009727478 167 166 162
-89.4371867179871 790.320158004761 2674.99995231628 180 179 175
-82.178421318531 790.326654911041 2674.99995231628 186 185 181
-74.8634561896324 789.741814136505 2673.00009727478 185 184 180
-67.5338953733444 788.860738277435 2670.00007629395 185 184 180
-60.2656304836273 788.570106029511 2668.99991035461 183 182 178
-53.0026853084564 788.279056549072 2667.99998283386 180 179 175
-45.7107350230217 787.396430969238 2664.99996185303 176 175 171
-38.4494252502918 786.808788776398 2663.00010681152 171 170 166
-31.1988741159439 786.22043132782 2661.00001335144 165 164 159
-23.986155167222 786.518037319183 2661.99994087219 156 153 146
-16.7427659034729 785.633146762848 2658.99991989136 172 167 161
-9.529959410429 785.929679870605 2660.00008583069 177 167 157
-2.30996659956872 785.634636878967 2658.99991989136 142 130 118
4.90829395130277 785.930097103119 2660.00008583069 129 111 97
12.1274124830961 785.929381847382 2660.00008583069 137 115 101
19.3610526621342 786.519050598145 2661.99994087219 135 112 96
26.5855304896832 786.517322063446 2661.99994087219 133 106 87
33.809956163168 786.514937877655 2661.99994087219 139 112 93
41.0651415586472 787.103116512299 2664.00003433228 143 118 98
48.3492203056812 787.986099720001 2667.00005531311 133 110 92
55.6494854390621 788.868486881256 2670.00007629395 131 112 95
62.8952383995056 788.863956928253 2670.00007629395 139 121 107
70.0095221400261 787.381529808044 2664.99996185303 120 106 93
77.1834701299667 786.785125732422 2663.00010681152 179 170 161
84.3781009316444 786.483585834503 2661.99994087219 179 172 164
91.635949909687 786.77237033844 2663.00010681152 168 165 160
98.8990366458893 787.060618400574 2664.00003433228 172 168 165
106.007993221283 786.166548728943 2661.00001335144 177 176 174
113.440841436386 787.635445594788 2665.99988937378 177 176 174
120.719574391842 787.922084331512 2667.00005531311 188 187 185
128.195360302925 789.389908313751 2671.99993133545 185 184 182
135.292515158653 788.493812084198 2668.99991035461 181 180 178
142.53331720829 788.483381271362 2668.99991035461 192 191 187
149.661615490913 787.881791591644 2667.00005531311 196 195 191
156.89642727375 787.870526313782 2667.00005531311 162 161 157
164.00782763958 787.267804145813 2664.99996185303 165 164 160
171.172305941582 786.960124969482 2664.00003433228 186 185 181
178.264051675797 786.356508731842 2661.99994087219 160 159 155
185.274943709373 785.457015037537 2658.99991989136 146 145 140
192.414000630379 785.147905349731 2657.99999237061 144 143 138
199.622303247452 785.133719444275 2657.99999237061 148 147 142
207.219362258911 786.596059799194 2663.00010681152 149 149 141
214.521020650864 786.876261234283 2664.00003433228 142 142 134
221.827670931816 787.156045436859 2664.99996185303 138 138 130
228.881508111954 786.54932975769 2663.00010681152 142 142 134
236.101418733597 786.532998085022 2663.00010681152 126 126 118
243.046745657921 785.63004732132 2660.00008583069 133 133 125
249.881282448769 784.431397914886 2655.99989891052 138 138 130
256.693720817566 783.232450485229 2651.99995040894 132 132 124
263.981550931931 783.509910106659 2653.00011634827 136 136 128
271.172106266022 783.491492271423 2653.00011634827 134 134 126
278.047382831573 782.586812973022 2650.00009536743 137 137 129
284.690678119659 781.091213226318 2644.99998092651 130 129 124
291.416734457016 779.890537261963 2641.00003242493 126 125 120
298.120588064194 778.689622879028 2637.00008392334 133 132 127
304.686546325684 777.193188667297 2631.99996948242 131 130 125
311.461865901947 776.286959648132 2628.99994850159 127 126 121
318.341612815857 775.67595243454 2627.00009346008 123 122 118
325.210005044937 775.064468383789 2625 126 125 121
331.813871860504 773.862302303314 2621.00005149841 129 128 124
338.395535945892 772.65989780426 2617.00010299683 125 124 120
344.955027103424 771.457314491272 2612.99991607666 121 120 116
351.761788129807 770.844995975494 2611.00006103516 125 124 120
358.832091093063 770.822882652283 2611.00006103516 113 112 108
365.621566772461 770.210027694702 2608.99996757507 123 122 118
372.542589902878 769.892394542694 2608.00004005432 134 135 130
378.875374794006 768.393635749817 2602.9999256134 115 116 111
385.92192530632 768.370747566223 2602.9999256134 114 115 110
392.515033483505 767.462134361267 2599.99990463257 126 127 122
399.552434682846 767.438888549805 2599.99990463257 125 127 122
406.120181083679 766.53003692627 2596.99988365173 105 107 102
412.671238183975 765.621185302734 2594.00010108948 97 99 94
419.852674007416 765.892624855042 2595.00002861023 100 102 97
427.039057016373 766.164064407349 2595.99995613098 99 101 96
433.895885944366 765.845119953156 2595.00002861023 98 98 96
441.256523132324 766.411364078522 2596.99988365173 96 96 94
447.937101125717 765.797197818756 2595.00002861023 101 101 99
455.307602882385 766.363203525543 2596.99988365173 99 99 97
461.086302995682 764.273464679718 2589.99991416931 93 95 92
-186.67858839035 795.280933380127 2717.00000762939 203 208 204
-177.593007683754 787.68390417099 2690.99998474121 206 208 205
-169.59735751152 784.476816654205 2680.0000667572 199 201 196
-161.903336644173 782.440185546875 2673.00009727478 189 191 186
-154.536247253418 781.866490840912 2671.0000038147 170 172 167
-147.40027487278 782.463192939758 2673.00009727478 182 183 178
-140.200704336166 782.76664018631 2674.00002479553 161 162 157
-132.846280932426 782.191455364227 2671.99993133545 181 182 177
-125.455439090729 781.32289648056 2668.99991035461 152 153 148
-118.124894797802 780.746638774872 2667.00005531311 184 183 179
-110.971286892891 781.340837478638 2668.99991035461 163 162 158
-103.68999093771 781.056225299835 2667.99998283386 162 161 157
-96.522368490696 781.649351119995 2670.00007629395 167 166 162
-89.2433673143387 781.363666057587 2668.99991035461 181 180 176
-82.0310562849045 781.663000583649 2670.00007629395 188 187 183
-74.7011080384254 780.790686607361 2667.00005531311 188 187 183
-67.4378722906113 780.503332614899 2665.99988937378 187 186 182
-60.1347573101521 779.63000535965 2663.00010681152 185 184 180
-52.8875328600407 779.341518878937 2661.99994087219 181 180 176
-45.6284731626511 778.759837150574 2660.00008583069 176 175 171
-38.3801721036434 778.177499771118 2657.99999237061 169 170 165
-31.1543699353933 777.887463569641 2657.00006484985 159 160 155
-23.9339284598827 777.596712112427 2655.99989891052 162 161 156
-16.7188663035631 777.305543422699 2654.99997138977 157 154 149
-9.51277744024992 777.30655670166 2654.99997138977 183 174 165
-2.30580032803118 777.014255523682 2654.00004386902 173 163 153
4.90128947421908 777.599692344666 2655.99989891052 129 113 100
12.1055468916893 777.306258678436 2654.99997138977 122 103 89
19.3407200276852 778.476119041443 2658.99991989136 134 112 98
26.557607576251 778.474271297455 2658.99991989136 132 109 93
33.7744429707527 778.472006320953 2658.99991989136 132 106 89
41.022039949894 779.054701328278 2661.00001335144 140 117 101
48.280406743288 779.636859893799 2663.00010681152 126 105 88
55.5703639984131 780.511140823364 2665.99988937378 137 120 104
62.7351403236389 779.628276824951 2663.00010681152 117 101 88
69.8835030198097 778.74493598938 2660.00008583069 177 167 158
77.131375670433 779.032051563263 2661.00001335144 175 166 159
84.3845158815384 779.318630695343 2661.99994087219 170 165 159
91.6773229837418 779.897451400757 2664.00003433228 168 164 161
98.8693907856941 779.597401618958 2663.00010681152 175 171 168
105.976171791553 778.711378574371 2660.00008583069 175 174 172
113.364301621914 779.87402677536 2664.00003433228 175 174 172
120.592847466469 779.865205287933 2664.00003433228 185 184 182
128.01305949688 781.026780605316 2667.99998283386 179 178 176
135.049179196358 779.846012592316 2664.00003433228 177 176 174
142.330318689346 780.128240585327 2664.99996185303 189 188 184
149.616613984108 780.410051345825 2665.99988937378 187 186 182
156.849220395088 780.398666858673 2665.99988937378 159 158 154
163.9584004879 779.801368713379 2664.00003433228 160 159 155
170.992106199265 778.9106965065 2661.00001335144 184 183 179
178.277149796486 779.190599918365 2661.99994087219 149 148 144
185.567229986191 779.469966888428 2663.00010681152 148 147 142
192.86236166954 779.748737812042 2664.00003433228 144 143 138
199.937209486961 779.149055480957 2661.99994087219 149 148 143
207.46773481369 780.305027961731 2665.99988937378 149 149 141
214.778006076813 780.58248758316 2667.00005531311 142 142 134
222.176492214203 781.152069568634 2668.99991035461 140 140 132
229.327544569969 780.843257904053 2667.99998283386 140 140 132
236.472755670547 780.534088611603 2667.00005531311 128 128 120
243.246600031853 779.053747653961 2661.99994087219 133 133 125
250.086963176727 777.865767478943 2657.99999237061 136 136 128
257.001966238022 776.970028877258 2654.99997138977 133 133 125
264.198780059814 776.951849460602 2654.99997138977 136 136 128
271.395146846771 776.933312416077 2654.99997138977 134 134 126
278.381139039993 776.329219341278 2653.00011634827 138 138 130
285.140544176102 775.139451026917 2648.9999294281 128 127 122
291.988104581833 774.241983890533 2645.99990844727 125 124 119
298.705875873566 773.051738739014 2641.99995994568 133 132 127
305.285662412643 771.568477153778 2637.00008392334 129 128 123
312.193274497986 770.962715148926 2634.99999046326 124 123 118
319.089591503143 770.356714725494 2632.99989700317 121 120 116
325.850605964661 769.457876682281 2630.00011444092 133 132 128
332.468301057816 768.266141414642 2625.99992752075 116 115 111
339.193046092987 767.366886138916 2622.99990653992 112 111 107
346.033096313477 766.759872436523 2621.00005149841 123 122 118
352.727025747299 765.860140323639 2618.00003051758 112 111 107
359.953939914703 766.130268573761 2618.99995803833 128 127 123
367.185711860657 766.400039196014 2619.99988555908 135 134 130
374.2795586586 766.37727022171 2619.99988555908 126 125 121
380.790591239929 765.184104442596 2615.9999370575 110 111 106
388.020843267441 765.453457832336 2617.00010299683 115 116 111
395.557850599289 766.307353973389 2619.99988555908 125 126 121
403.264313936234 767.453670501709 2624.00007247925 118 119 114
409.58434343338 765.96736907959 2618.99995803833 97 99 94
415.876835584641 764.481246471405 2614.00008201599 95 97 92
422.141700983047 762.994885444641 2608.99996757507 99 101 96
428.872555494308 762.385845184326 2607.00011253357 99 101 96
436.093658208847 762.654066085815 2608.00004005432 95 95 93
443.319708108902 762.92210817337 2608.99996757507 101 101 99
447.961270809174 758.803904056549 2595.00002861023 104 104 102
-185.455501079559 782.745957374573 2698.99988174438 204 209 205
-177.606120705605 780.43931722641 2690.99998474121 204 206 203
-169.73651945591 777.841985225677 2681.99992179871 197 199 194
-162.097126245499 776.114344596863 2676.00011825562 190 192 187
-154.663518071175 775.256097316742 2673.00009727478 158 160 155
-147.356182336807 774.977445602417 2671.99993133545 173 174 169
-140.001535415649 774.408221244812 2670.00007629395 160 161 156
-132.607698440552 773.548364639282 2667.00005531311 181 182 177
-125.276908278465 772.978007793427 2664.99996185303 152 153 147
-118.045277893543 772.987306118011 2664.99996185303 182 181 177
-110.854983329773 773.285984992981 2665.99988937378 158 157 153
-103.503562510014 772.424042224884 2663.00010681152 162 161 157
-96.2766706943512 772.43173122406 2663.00010681152 172 171 167
-88.9492481946945 771.568715572357 2660.00008583069 188 187 183
-81.852987408638 772.735476493835 2664.00003433228 195 194 190
-74.5667815208435 772.161304950714 2661.99994087219 190 189 185
-67.3165693879128 771.876752376556 2661.00001335144 188 187 183
-60.0038878619671 770.72137594223 2657.00006484985 182 181 177
-52.7127832174301 769.565403461456 2653.00011634827 178 177 173
-45.5119088292122 769.569277763367 2653.00011634827 169 170 165
-38.3109338581562 769.572496414185 2653.00011634827 164 166 163
-31.1450492590666 770.445346832275 2655.99989891052 163 168 164
-23.9087454974651 769.577324390411 2653.00011634827 144 146 141
-16.701266169548 769.288778305054 2651.99995040894 159 160 154
-9.49918106198311 768.999755382538 2651.00002288818 157 152 146
-2.30337213724852 769.000113010406 2651.00002288818 168 161 153
4.89244190976024 769.000053405762 2651.00002288818 173 163 153
12.0836850255728 768.709361553192 2650.00009536743 154 140 131
19.2985702306032 769.578337669373 2653.00011634827 130 113 103
26.5496745705605 771.026968955994 2657.99999237061 132 114 102
33.7516516447067 770.734548568726 2657.00006484985 137 117 106
41.0097949206829 771.601915359497 2660.00008583069 131 113 101
48.247866332531 771.888554096222 2661.00001335144 140 124 111
55.512111634016 772.464692592621 2663.00010681152 123 109 98
62.6457259058952 771.299719810486 2658.99991989136 172 162 153
69.83632594347 771.004617214203 2657.99999237061 168 161 155
77.0793184638023 771.288990974426 2658.99991989136 166 161 157
84.3275710940361 771.572887897491 2660.00008583069 162 158 155
91.5810763835907 771.856129169464 2661.00001335144 169 165 164
98.8398119807243 772.138953208923 2661.99994087219 170 166 165
106.063917279243 772.131085395813 2661.99994087219 166 165 163
113.287799060345 772.1226811409 2661.99994087219 175 174 172
120.46617269516 771.823763847351 2661.00001335144 172 171 167
127.686858177185 771.814346313477 2661.00001335144 164 163 159
134.907260537148 771.804392337799 2661.00001335144 167 166 162
142.287626862526 772.664070129395 2664.00003433228 181 180 176
149.571716785431 772.943139076233 2664.99996185303 169 168 164
156.802088022232 772.931635379791 2664.99996185303 156 155 151
163.909047842026 772.339582443237 2663.00010681152 148 147 143
171.004816889763 771.747052669525 2661.00001335144 155 154 150
178.357303142548 772.314131259918 2663.00010681152 151 150 146
185.789927840233 773.170530796051 2665.99988937378 148 147 142
193.093717098236 773.446679115295 2667.00005531311 149 148 143
200.25223493576 773.142158985138 2665.99988937378 143 142 137
207.405015826225 772.837340831757 2664.99996185303 147 146 141
214.632466435432 772.822022438049 2664.99996185303 138 137 132
221.942722797394 773.096084594727 2665.99988937378 140 139 134
229.343980550766 773.659765720367 2667.99998283386 134 133 128
236.666962504387 773.933053016663 2668.99991035461 134 133 128
