ply
format ascii 1.0
comment KinectMotionCapture
element vertex 799
property float x
property float y
property float z
property uchar red
property uchar green
property uchar blue
end_header
-111.738425255191 241.179440445523 2688.68907947933 18 19 11
-76.5240988316493 240.489248191992 2628.98948882267 13 10 3
-77.9422909585932 240.013952587622 2619.31315825975 13 8 2
-87.5673057474109 239.489570463311 2618.50860115552 19 14 8
-99.2084363509529 238.95583710273 2619.94817014695 34 25 16
-120.290500871857 238.375685812511 2631.83496578606 37 20 13
-134.530132205229 237.836762805228 2636.33124085091 82 59 51
-143.338282668394 237.327364741719 2634.88388539712 113 89 79
-140.736377146818 236.869996038288 2620.7110914868 149 122 111
-139.528878287866 236.402309365926 2607.9977779015 141 114 103
140.403762909347 253.843031860345 2864.12566751846 24 29 23
154.622786836871 253.587843885589 2842.31874065976 28 33 27
123.711930081239 252.810337558191 2859.43097960901 19 22 15
119.253953531038 252.33880666119 2853.72654113747 17 20 11
149.513613019527 252.248373526742 2817.61111176147 16 19 10
130.316120867859 251.609362422425 2824.68829837022 14 17 8
106.588143916404 250.927568525905 2835.89183188824 13 16 7
100.558284874732 250.436776958758 2831.51817242932 15 18 9
95.2902239365914 249.953672510079 2826.4617589808 18 21 12
81.6486042236964 249.386615698034 2828.92103519285 17 20 11
61.2228361554585 248.756325513698 2837.57823028558 19 22 13
28.7779726150714 248.0169851961 2857.28373818519 15 18 9
0.256583705946056 247.325370740347 2873.65822069399 15 18 9
-16.8547947640776 246.747572908947 2879.77791242933 18 20 15
-24.1543835362523 246.262153375518 2876.95419373723 19 21 16
3.68912334675642 246.083794405549 2841.55687167098 23 25 20
-14.8787403866626 245.496130017874 2849.0907494383 24 27 20
-20.7391842960056 245.019225394315 2844.83997296441 25 28 21
-26.6006882321888 244.542249832715 2840.58842769513 25 28 21
-33.2019890042776 244.05939190462 2837.03559474531 23 26 19
-30.961471426675 243.644307682173 2825.07140491665 19 22 13
-29.5047553865435 243.219770620669 2813.77400937503 18 21 12
-36.8790464817113 242.72838151372 2810.89610713769 18 21 12
-44.2454472458766 242.237639923142 2808.02363357247 17 20 11
-45.782265981807 241.786803095953 2799.49646856681 16 19 10
-45.1701081769682 241.34792958858 2788.82209322596 16 19 10
-48.9386144083248 240.878465428125 2782.38244034179 16 19 10
-56.3270213916867 240.386008300164 2779.4940053091 17 20 11
-61.5510456784942 239.90677003043 2774.46953455188 17 20 11
-91.1493151090173 239.290726465082 2793.76915053502 19 22 13
-107.741734151928 238.755427548464 2800.26526229961 22 25 16
-108.598030209551 238.305798175566 2790.99639219332 23 26 17
-87.4726494387534 237.961267793144 2759.37396080388 22 25 16
-72.8872287938942 237.573392426949 2734.12656629247 20 23 14
-78.8960962459231 237.084734555329 2729.76813489245 20 23 14
-75.0572527924085 236.637099001114 2715.25703635767 20 23 14
-106.345348221927 236.046621778804 2737.03719527466 28 27 22
-116.503278579505 235.546280310534 2737.08176917854 27 26 21
-107.820170898239 235.11273698667 2717.43631270864 21 22 16
-108.261538041812 234.642780341231 2707.23309383633 21 22 16
-98.3523945872029 234.200451397849 2686.00629910414 22 23 15
-120.297009171091 233.664365691902 2698.50336810195 18 19 11
-117.371799197227 233.196895753963 2684.56489332401 20 21 13
-80.2139179680836 232.799614596756 2633.68651940513 15 12 5
-81.6177832057703 232.305808979041 2624.02048095312 13 8 2
-84.4162433548978 231.807163682741 2615.81351963215 17 12 6
-91.3128987010432 231.300920168585 2612.04645939581 33 24 15
-107.006958015941 230.784864271471 2617.95887213966 31 16 9
-124.664181473896 230.2719931477 2626.15327131932 65 42 34
-137.539192276404 229.768134265478 2629.16859880073 95 70 63
-137.634345587256 229.272398389813 2617.98089604122 140 113 102
-137.102050060453 228.773450907819 2606.01299143793 148 124 112
210.295182504588 246.933897883177 2804.8302421358 13 18 12
146.476845669749 245.96189979019 2849.96152798374 25 30 24
125.67703703852 245.352589722792 2858.34738488134 14 17 10
128.955492145796 244.934001903741 2845.90056374302 15 18 9
144.530458980462 244.603154967076 2822.60583787199 15 18 9
142.278651952544 244.133913882483 2814.79560047989 13 16 7
126.956723123895 243.571013527501 2818.50687906603 15 18 9
101.737554755935 242.944476831513 2831.10006372666 14 17 8
102.572389697469 242.498207569849 2820.58677985639 18 21 12
79.7786359194217 241.897904443305 2831.23292782773 17 20 11
55.5632402411712 241.296038956533 2843.31856259102 18 21 12
25.4000602749613 240.666659215567 2860.97355869149 15 18 9
42.1434260172773 240.316814324626 2836.05566063671 16 19 10
27.1654837698558 239.782019694231 2840.01644479765 17 19 14
30.2367684711484 239.346652495853 2827.41935641993 18 20 15
8.57995192540928 238.781916677234 2837.65454350363 20 22 17
-1.80309247943233 238.278761699884 2837.5359131795 21 24 17
-18.8505669057553 237.746824479854 2843.70216261294 23 26 19
-27.6808790102134 237.25593837243 2842.23883547914 24 27 20
-32.8000025024622 236.781771279134 2837.29014075607 25 28 21
-32.7679008317254 236.327412228328 2827.43022853647 21 24 15
-27.6303920295375 235.889102593808 2812.62527635924 19 22 13
-26.9541038486751 235.430145260291 2801.99728876804 19 22 13
-37.2699700431274 234.932593028678 2801.92738574128 18 21 12
-20.6280421570875 234.517556376086 2775.70029190434 17 20 11
-26.6205487663018 234.029508856407 2771.35372392 15 18 9
-41.2961299888643 233.519607534228 2775.5341166071 16 19 10
-52.3132894770957 233.02213931863 2776.19086816011 19 22 13
-53.9526842163416 232.546036649662 2767.58921564409 20 23 14
-64.2222196259232 232.052405757799 2767.5529186544 22 25 16
-88.7598015943354 231.538930188366 2781.87580914793 22 25 16
-100.359290288221 231.05124688445 2783.34550402394 22 25 16
-94.8782450790877 230.584080039616 2767.55440592287 21 24 15
-83.0964268008143 230.116140975404 2745.2149501565 20 23 14
-84.8370547301447 229.631967978651 2736.53987066277 22 25 16
-88.7161598157795 229.144985776039 2730.01995357651 24 27 18
-101.02683409378 228.656647736514 2732.209422635 27 26 21
-113.997947298079 228.171651096552 2735.1551789754 25 26 20
-97.6510550037104 227.675913760547 2707.47876214762 20 21 15
-75.888084238543 227.164466374667 2673.84761462602 19 20 14
-83.3921376049451 226.667975625861 2670.87561910818 20 21 13
-102.624868014824 226.187113700316 2680.3981350667 18 19 11
-97.6883314437882 225.675958804882 2664.21208822534 21 22 14
-81.8480218734137 225.139192977038 2636.16852542955 16 13 6
-79.825227433628 224.61924941485 2622.81064121239 13 8 2
-86.0351171433715 224.114136602016 2618.30640114021 17 12 6
-92.2459718267947 223.608982955437 2613.80146133119 34 25 16
-101.166265163769 223.111628842139 2612.27287211991 27 12 5
-117.493933908099 222.639202520145 2618.96122548807 124 101 93
-132.410679905031 222.167500902953 2624.20202280176 73 48 41
-135.872412121078 221.657982859898 2616.74951743817 138 111 102
-134.006392512795 221.125574029227 2603.27792066088 155 133 122
198.228525647415 239.146038290858 2815.80547647295 13 18 12
142.393989692145 237.948305814092 2844.49082038436 13 16 9
144.079850620813 237.486197128699 2833.35934655495 15 18 11
154.985197902402 237.056751317931 2814.08982312179 15 18 11
140.388348533304 236.525370788241 2817.09214478407 13 16 9
117.394863297811 235.968478751431 2827.59342856814 15 18 11
107.509268027384 235.461724121615 2826.60035487549 13 16 9
101.460890936646 234.968235642677 2822.21325762722 14 17 10
87.8009475327808 234.453361156302 2824.6595149184 17 20 13
65.0775518562185 233.918565113631 2835.35699878533 16 19 12
72.716064109509 233.462502464309 2818.65958309672 14 17 10
56.8861345531055 232.950503370503 2823.23819004518 14 17 10
51.6438102476902 232.462897120472 2818.20041082846 16 18 13
45.6459795637891 231.97361921784 2813.84997707661 14 16 11
27.6813043169444 231.467387726928 2820.58649489501 12 14 9
4.56627005706922 230.960688632132 2832.23525054069 11 14 7
-4.32291983654887 230.475413255052 2830.72927006046 14 17 10
-25.0557050468294 229.983228596972 2840.39963803577 19 22 15
-35.354801302133 229.502878230445 2840.34197902663 20 23 16
-36.0495200096089 229.026674132566 2831.19010518348 18 21 12
-27.960096113123 228.547644905235 2813.5844120085 18 21 12
-16.2930717727969 228.060722941232 2792.39638566674 19 22 13
-13.4961497825381 227.569680234949 2779.60012389718 17 20 11
-22.4017896260036 227.083221588014 2778.08221250375 16 19 10
-21.8549948700209 226.588521722635 2767.35987684534 17 20 11
-39.4400445649683 226.113514617676 2774.37175148559 18 21 12
-49.0199236495152 225.63210517657 2773.60042635877 21 24 15
-49.2286400172726 225.135819155904 2763.56543315836 22 25 16
-60.2291917302591 224.658474583229 2764.23432597228 23 26 17
-71.9149318715679 224.185221264326 2765.6418629011 26 29 20
-82.8536939594335 223.712975690095 2766.35557416037 23 26 17
-95.8939331790671 223.249192843032 2769.25132702907 22 25 16
-96.1433842046411 222.749762844724 2759.18708295804 22 25 16
-89.3690191511836 222.223825324567 2741.86287459246 25 28 19
-92.5284619114679 221.726892143479 2734.62956905134 28 31 22
-104.125464514539 221.261074841629 2736.10117690325 24 25 19
-118.485804932316 220.809678924325 2740.51039071872 23 24 18
-106.998745915819 220.248719652128 2717.9564920303 19 22 15
-78.2491592782215 219.597321294801 2677.03813285408 15 18 11
-83.6663398085036 219.096270400276 2671.87352852856 16 17 9
-76.6201572841378 217.994275810915 2642.39219888283 19 19 11
-80.0526446714156 217.475428339325 2634.96084646434 15 12 5
-79.4003073828729 216.93016774712 2623.07972811092 14 9 3
-84.9284732544153 216.420305033654 2617.83462350937 21 14 8
-91.8209582411254 215.919087387619 2614.0706119126 34 24 15
-95.3236023254691 215.394713268672 2606.58837341362 18 5 0
-109.645795284572 214.94689398304 2611.02496477532 216 196 187
-124.588784712671 214.508430959855 2616.24690602573 65 42 34
-132.768680704113 214.022259715782 2614.02006666533 121 98 90
-133.5834627551 213.477580495966 2603.54577287299 116 96 87
177.566142151535 231.434427258278 2834.13615769404 19 24 18
162.103102784716 230.924595448883 2837.74570551928 22 27 21
162.999661773582 230.432760851835 2827.27693593077 21 26 20
170.82490102349 229.941912104484 2810.71500090554 16 19 12
142.278114960417 229.430547479823 2825.83665437014 15 18 11
127.716896004396 228.931630333462 2828.86496971269 12 15 8
105.525259899644 228.437189700617 2838.71281074342 15 18 11
94.1429346989189 227.946844096322 2839.10488195584 12 15 8
118.669872839138 227.439201475328 2807.47741264229 14 17 10
92.0198365065845 226.957291184483 2821.5041363988 18 21 14
82.1852210317275 226.467851199867 2820.54810675001 17 20 13
71.6146855518254 225.981100630748 2820.29364323588 15 18 11
66.3518398502272 225.488460970784 2815.24066764888 15 18 11
62.5882235989823 224.992758413642 2808.80442671301 14 17 10
38.5545819572641 224.536328186885 2821.02284999148 15 17 12
37.8136844166717 224.036473462109 2811.83738033161 12 14 9
25.8539219045564 223.561880178254 2813.04597133169 10 13 6
5.74837806212969 223.112482913136 2821.93622005793 12 15 8
-8.34326302456812 222.652122945067 2825.30484324193 19 22 15
-18.6916725829311 222.18368444183 2825.21149630294 15 18 11
-26.0667574395796 221.707032561563 2822.33309329793 15 18 9
-23.8814264711129 221.195235868242 2810.32811317381 17 20 11
-18.0827315799357 220.664750299651 2794.76696538442 18 21 12
-13.0860778009732 220.131566883977 2779.85971831747 17 20 11
-16.8949652890176 219.632458230965 2773.39064204336 15 18 9
-36.6901386496596 219.208633844894 2782.50601448716 18 21 12
-50.6122546591399 218.762358293592 2785.99760135782 19 22 13
-52.9416558699753 218.258650803999 2778.13093970744 20 23 14
-51.6970121625304 217.73303350857 2766.67900193768 21 24 15
-55.5181333947139 217.233112173706 2760.20134752199 21 24 15
-72.9378124675757 216.815145633989 2767.33309730006 28 31 22
-84.5860579120421 216.366471183049 2768.7679394316 25 28 19
-84.1203533041728 215.840169452763 2757.9866597246 22 25 16
-85.1121604959542 215.320410188712 2748.61919948348 21 24 15
-84.0174701916831 214.78281218119 2737.05879108395 25 28 19
-85.7837158727033 214.26265924573 2728.36495848982 28 31 22
-103.717403037044 213.865720814633 2736.35953045064 26 27 21
-115.281410522033 213.424173030924 2737.85547457471 25 26 20
-96.826164488244 212.735514655972 2708.00106681942 22 25 18
-93.8190034379855 212.166065679157 2694.12148358174 17 20 13
-104.728371878466 211.715356678917 2694.85661201028 17 18 10
-93.5056343183942 211.063848781221 2672.11093688758 16 16 8
-116.81846690839 210.729953501382 2686.08725284631 17 17 9
-78.2570541126544 209.800848685397 2633.75326738581 13 10 3
-82.3961574909939 209.275693742828 2627.04497311309 16 9 3
-89.958464163717 208.784797946237 2624.03048239283 22 15 9
-94.7945435931559 208.265591865427 2618.05200206783 34 24 15
-97.6079212021004 207.723338649673 2609.83400587917 23 10 2
-109.222154817724 207.278253059193 2611.29322761256 213 195 185
-124.167050113446 206.875000244081 2616.5139656055 68 48 39
-129.664220737797 206.364788256154 2611.29132835097 134 114 105
-128.480814778207 205.772652565176 2598.55991894994 123 105 95
181.89027614031 223.815419931465 2831.05674530691 26 31 25
162.52003602869 223.346303912021 2838.00956378497 21 26 20
178.952365788321 222.787849936919 2814.10016909156 24 29 23
162.726389421962 222.313506336939 2818.39186398793 16 19 12
148.87341366269 221.836453589651 2820.69837957974 16 19 12
121.20103427048 221.409933769802 2835.21930222727 17 20 13
108.241123022513 220.940353080495 2836.93822056051 16 19 12
114.463382245349 220.399668070185 2821.68407193226 13 16 9
108.397449912913 219.903562544584 2817.28423525878 13 16 9
82.5354157114617 219.493967290327 2830.64752823764 14 17 10
88.670917521168 218.946239026053 2815.33045163366 14 17 10
47.8038446080258 218.621427342337 2842.51920071864 13 16 9
66.0087756010093 218.01129200625 2816.18943082459 14 17 10
26.8776624567515 217.697297535227 2842.16630124915 16 18 13
29.9590206938141 217.162246950058 2829.57571599947 14 16 11
33.73470696223 216.618419192084 2816.2533828701 11 13 8
-2.08407262912069 216.313017195089 2839.69133158164 7 10 3
-9.46472620741545 215.840758012871 2836.80861946432 10 13 6
-15.354657476716 215.359254063141 2832.53644367741 20 23 16
-15.3308601482927 214.836678150931 2822.67016593099 19 22 15
-21.977783739842 214.35892714343 2819.08428589326 14 17 8
-26.4164308657073 213.865017944434 2813.39374638341 15 18 9
-23.5375972328615 213.313660581805 2800.65655860602 15 18 9
-17.790368114732 212.7345339092 2785.05785580263 17 20 11
-20.1265147025098 212.215901222917 2777.18593420847 20 23 14
-36.2828551342553 211.813354951866 2782.76380445379 19 22 13
-63.2374948415384 211.511611152701 2799.0407005606 18 21 12
-77.0742776445967 211.102052394998 2802.59462774852 18 21 12
-51.2889150635678 210.325274323692 2766.93731847326 20 23 14
-57.2613626732004 209.837429157084 2762.60529271075 22 25 16
-80.3980673393256 209.520140758632 2775.47462952521 20 23 14
-90.5972689975976 209.080256648379 2775.48959121088 21 24 15
-85.8459864950438 208.485670580898 2760.40386377563 25 28 19
-81.8705387213972 207.893284029062 2745.99105943545 26 29 20
-87.1396472772066 207.397594161928 2740.93352832188 20 23 14
-86.0775487055783 206.829421892997 2729.34933861515 20 23 14
-106.819216761964 206.511474622385 2740.24948087868 22 25 18
-122.571304410781 206.142477252223 2746.1202780483 22 25 18
-110.363713689621 205.436526792912 2722.85293713136 17 20 13
-96.1860876249483 204.694990998663 2697.3081322662 17 20 13
-87.6821471211588 204.014256269448 2677.53183608956 18 19 11
-84.1079063339394 203.389554176746 2662.82802455816 10 10 2
-108.141874626123 203.130588026469 2677.51728449361 19 19 11
-112.84192719405 202.616360888734 2671.63714368578 19 14 8
-90.1831638898598 201.716182975506 2636.18303856071 19 12 6
-90.2172116455997 201.124594579089 2625.03914701024 21 14 8
-90.9719230707839 200.539742381212 2614.60819621246 27 17 8
-97.1834837122234 200.033366539764 2610.10273844875 21 8 0
-114.201951505106 199.692605054291 2617.52602038179 173 156 148
-124.418950701293 199.252291055852 2617.52807807494 44 25 18
-126.558844969021 198.685588228182 2608.56314386187 131 114 106
-120.70128860577 197.985998876991 2590.57344173034 115 101 92
180.746933809252 216.200348018828 2832.65941346888 27 32 26
175.401516664646 215.694173906701 2827.54680600304 24 29 23
177.819433585065 215.139536670575 2815.71050988035 20 25 19
149.201293985593 214.780141423736 2830.78120739852 17 20 13
145.428597380654 214.265929471657 2824.33829016673 16 19 12
138.560430626373 213.771916081872 2820.59223834362 17 20 13
134.000046466183 213.261629015602 2814.81336610247 17 20 13
132.493299321975 212.727749859123 2806.30758000964 13 16 9
112.630356581472 212.332778811406 2814.13893450235 13 16 9
121.78242989173 211.713898052638 2796.06783356071 12 15 8
83.0095270545761 211.480909120698 2821.0697519613 13 16 9
81.5226105030034 210.948733547079 2812.57835011726 14 17 10
41.5079209055826 210.750927840862 2839.15061673969 14 17 10
49.1107571745513 210.14210394454 2822.42656500285 16 18 13
10.852211843599 209.95131393324 2847.80156588247 14 16 11
-3.27254465212223 209.547457855053 2851.14676368011 7 9 4
2.79511716033953 208.949847873729 2835.78025575362 6 9 2
-14.2698590730126 208.578925887276 2841.93433885052 14 17 10
-5.31013085399978 207.944530242816 2823.72372426143 18 21 14
-16.406294637457 207.515117527908 2824.32354862932 16 19 12
-29.6846902387646 207.112288503704 2827.04696559756 13 16 7
-15.7211990545338 206.408846702662 2803.81749047672 14 17 8
-26.0635257140374 205.972841519269 2803.72871744209 15 18 9
-23.958664622437 205.393089712948 2791.6653532579 17 20 11
-23.3601649178017 204.826830835351 2780.9801371597 21 24 15
-37.3284308069963 204.436112365693 2784.43855040524 19 22 13
-71.5240843926974 204.304723368973 2807.81868810144 17 20 11
-82.4483697449796 203.889690270423 2808.54318364774 19 22 13
-60.2371915480004 203.040957750579 2776.47027947218 21 24 15
-60.4411193922225 202.477656584631 2766.43871260678 20 23 14
-77.1327924401668 202.137815623206 2772.86386305801 19 22 13
-83.063236519326 201.652999812158 2768.56230189542 17 20 11
-83.3076899297562 201.086524752647 2758.50104662879 24 27 18
-86.4232934391802 200.55867459241 2751.29936449559 28 31 22
-86.7316156039246 199.987092663307 2741.19178353863 19 22 13
-89.189211945818 199.444819527597 2733.23199515933 14 17 8
-105.008535418286 199.1082902246 2739.05421610267 21 24 17
-118.667749152181 198.743462665935 2742.73709347068 21 24 17
-96.7003228579713 197.807042635466 2709.25171307813 17 20 13
-80.4741819920192 196.94788739942 2681.48621465664 17 20 13
-89.7700187685382 194.687521483263 2647.56314781384 12 7 1
-94.5523865350808 194.160714992719 2641.62327124493 22 15 9
-94.5697065216906 193.54535488029 2630.49168007989 27 18 13
-94.6275716083329 192.926737144093 2619.33038592903 26 16 7
-104.892249016523 192.498501075451 2619.2979418459 64 51 43
-115.806758343282 192.085522032091 2620.02953464593 39 24 17
-122.651330165171 191.595441026307 2616.30031273413 39 22 15
-117.412650066852 190.863639908573 2599.09714193795 116 99 92
192.104765689158 208.481600886426 2823.56216049395 87 92 86
178.157597245243 208.050433003674 2825.80062621436 20 25 19
161.922261605675 207.645384555488 2830.08588736745 18 23 17
159.689810470755 207.106143001067 2822.28903243206 17 19 14
148.935343478488 206.651827699759 2821.90139733034 14 16 11
141.287885503149 206.167303449383 2818.82550536375 14 16 11
135.184709709804 205.666926167978 2814.39864847336 14 16 11
116.823783175867 205.301369283241 2820.84862782193 11 13 8
129.849788126919 204.588456728249 2799.40957421087 12 14 9
142.00313029992 203.875261544477 2778.57323840311 10 12 7
123.671856045983 203.512203908812 2785.04472598146 10 12 7
92.5364776416981 203.310407099672 2803.23215710747 13 15 10
74.3810188835163 202.961809051243 2809.83117033144 13 15 10
49.5191561030275 202.704508505588 2822.68494921458 10 12 7
27.7685897318865 202.417394035726 2832.853875733 9 11 6
15.8844348896423 201.443487800147 2824.23386524035 6 9 2
-1.22014450788055 201.1099385022 2830.35942845841 9 12 5
-14.5505730184792 200.729681865193 2833.04523999386 18 21 14
-15.2639365589422 200.172900122489 2823.87944197172 17 20 13
-13.0593494863798 199.570429296069 2811.88825620307 14 17 8
-34.4324924455273 199.3144774115 2822.33064837508 15 18 9
-32.2565079418953 198.709764137781 2810.31871663537 14 17 8
-21.3597500163356 197.965256193965 2789.80633411369 15 18 9
-25.1384176793725 197.442300937139 2783.3590440479 18 21 12
-27.4784556294641 196.894881345183 2775.4841557108 16 19 10
-66.0540583223617 196.938387877555 2803.10086943602 16 19 10
-63.2758921947996 196.312037774663 2790.29003130566 23 26 17
-54.7930650069417 195.583595439536 2771.73322461648 24 27 18
-64.340413145834 195.157817865888 2770.98576365279 20 23 14
-73.1512275065023 194.721250146018 2769.5368459829 20 23 14
-74.1000416515885 194.145737805457 2760.20026991853 19 22 13
-81.4800719921493 193.684125328078 2757.31835800423 23 26 17
-90.9785232221325 193.26255997018 2756.60607031199 22 25 16
-89.8570050179415 192.643288611109 2745.06469633802 20 23 14
-68.3531709529055 191.62946054949 2712.47818706428 19 22 13
-76.5145301822223 191.175275271579 2710.26494741356 21 24 17
-84.6636645741674 190.722155021599 2708.06057520292 19 24 17
-88.6138873987887 190.185966533391 2701.4888541104 15 18 11
-73.1026267396806 189.251036439128 2674.43977658527 15 18 11
-59.8092527389151 188.34804335195 2649.4881773443 16 19 10
-52.8609418153569 187.565989235157 2631.05373214189 11 11 3
-55.6428700292582 186.983491419915 2622.85862492105 21 21 13
-72.1822066303197 186.697652362311 2629.39418636691 20 15 9
-90.025543505742 186.447448395384 2637.45529289635 34 25 20
-93.4659169572991 185.882382111225 2630.01769511714 43 34 29
-94.2048166995351 185.254010442585 2619.59798611107 94 83 77
-101.758611356308 184.779229320499 2616.58974755683 89 79 70
-109.304703176709 184.305172188164 2613.58739109723 100 85 78
-111.454980438099 183.703783350906 2604.614754339 95 80 73
-104.906659966284 182.889806387622 2585.89048030341 80 67 59
177.674943171318 201.013310634069 2836.53130865755 4 9 3
175.458545181476 200.461053451713 2828.74602506289 24 29 23
180.213495209992 199.814579240428 2814.89802457802 19 24 18
179.4812192969 199.236064507112 2805.71840649146 17 19 14
176.39879478745 198.686817990397 2798.54066814666 12 14 9
154.803896234118 198.3952677243 2807.58708801392 12 14 9
134.832488299823 198.088889314612 2815.33996803505 13 15 10
124.133277611834 197.655001988843 2814.99249287925 9 11 6
112.695519477315 197.23454674862 2815.34473358345 10 12 7
133.282912570755 196.33263367785 2787.03488455689 10 12 7
94.4662819105395 196.330801304985 2812.00656905591 10 12 7
109.613433731839 195.500751078099 2788.39918238859 11 13 8
105.001094148036 194.97417185647 2782.5825640291 12 14 9
85.3184893213772 194.691678028223 2790.54521904344 11 13 8
91.2415362903687 193.993214859519 2775.0733658894 8 10 5
24.4778178061487 194.51148925892 2826.72287560456 6 8 3
-6.10292675095736 194.445292684386 2845.31305948479 6 9 2
7.36892037449799 193.626044846493 2822.96163114233 9 12 5
6.62704369539391 193.04711080695 2813.77505113173 18 21 14
5.11344688950643 192.478928963878 2805.2641258231 17 20 13
-26.6696499746555 192.462286916581 2825.45302311832 13 16 7
-23.7357012571828 191.814961403139 2812.75530334439 14 17 8
-51.6502303628423 191.745691522321 2829.57286377371 11 14 5
-37.0353701161139 190.872422657911 2805.5793886734 12 15 6
-17.4435250266844 189.889421375912 2776.54772940193 14 17 8
-15.4451874859922 189.239545761795 2764.40649435443 16 19 10
-64.2042191199592 189.606931730962 2801.9343543452 17 20 11
-62.8730337844394 188.976446667033 2790.54491574962 23 26 17
-52.2271603801792 188.147972179913 2769.85023637721 24 27 18
-66.8062646309784 187.840755957594 2774.10159392006 19 22 13
-70.5997526384436 187.308168741669 2767.64351148254 18 21 12
-71.5540729626927 186.712487412199 2758.30284171148 18 21 12
-71.8292349976242 186.098592685028 2748.21937939465 20 23 14
-86.3197977996528 185.798860072132 2752.53466595222 20 23 14
-91.5707958219518 185.295002826398 2747.49051665852 18 21 12
-63.7133848743157 184.028622828836 2708.39235853982 20 23 14
-54.3299528457011 183.171201810588 2688.01769295871 21 24 17
-63.9480426009511 182.753394224291 2687.21869578016 18 23 16
-84.0140304272354 182.588727308628 2697.37409835122 14 17 10
-85.2084486372879 181.973961303627 2687.85927983115 15 18 11
-77.4191640045725 181.134116065735 2668.79914506516 15 18 9
-79.3972963542882 180.529235160077 2659.95128213914 18 18 10
-64.1758816352123 179.485174085161 2632.69153633653 22 22 14
-78.6280921188813 179.189340043321 2637.03464505518 23 18 12
-84.8122744028492 178.68373710063 2632.54903836196 67 58 53
-90.9974249615435 178.178152800588 2628.06272984016 86 77 72
-93.10219411008 177.56335931927 2619.12330946398 66 55 49
-93.8780913125812 176.909635898482 2608.67635732076 82 72 63
-93.3387086727593 176.215902142994 2596.71260368607 68 55 47
-93.5180681974892 175.537324409398 2585.46293191501 49 34 27
178.993822792715 192.791221934133 2826.32953304731 5 10 4
191.515193382282 191.975321906399 2805.75946867255 20 25 19
197.72946989549 191.256061923973 2790.4986286903 17 19 14
169.86366954882 191.118346001886 2804.88079920882 12 14 9
166.783135575531 190.557692211444 2797.70437357393 12 14 9
119.108702355213 190.790736081569 2829.842324009 13 15 10
161.332403467001 189.417930920156 2782.63103533458 8 10 5
97.9179857822396 188.741990028487 2809.52960855946 11 13 8
113.060414574194 187.8341843653 2785.91869869778 9 11 6
124.302051202386 186.990174416811 2765.65582211045 9 11 6
106.821524511304 186.706823345912 2771.5091073762 11 13 8
91.6585280123625 186.383372123642 2775.33710673402 9 11 6
54.0844102036631 186.524259560269 2799.97490711339 8 10 5
3.25590804226072 186.959552076523 2837.23794434339 6 9 2
-1.90381984286581 186.458981342479 2832.25997536676 8 11 4
4.06351166385699 185.719835548149 2816.82001895368 16 19 12
4.7795602759293 185.087262137588 2806.21968067091 16 19 12
16.5211865530837 184.207820725746 2785.08404115388 13 16 7
-6.41509519603445 184.091372505447 2796.86435500699 14 17 8
-42.4515859782812 184.282013452473 2821.38173493754 12 15 6
-43.2132538882355 183.681932406968 2812.18070072758 12 15 6
7.01974516338266 181.891979045157 2753.4820138789 14 17 8
-22.3032411166983 181.942683739699 2771.74952907481 19 22 13
-69.5998204095152 182.438015006815 2807.8678323107 23 26 17
-76.1951373057743 181.973690072567 2804.31943107343 22 25 16
-67.6642759962149 181.138314259807 2785.79690370503 20 23 14
-64.2482389901482 180.420744729974 2772.21297311376 17 20 11
-70.1949671336739 179.933063856889 2767.89959277329 17 20 11
-66.1535189068483 179.1901786019 2753.53387126454 16 19 10
-71.422047148443 178.681510751389 2748.4769895741 19 22 13
-81.6596763544009 178.302600868565 2748.46410867984 20 23 14
-93.9926781949378 177.982152620537 2750.63824240664 17 20 11
-78.8038242711471 176.925851751633 2724.58986722088 16 19 10
-52.5085249396102 175.552607925232 2686.82912750361 16 21 14
-50.226930110032 174.819340975573 2673.65777268708 16 21 14
-72.4320566906438 174.763991472223 2685.96842600251 13 18 11
-86.882118074191 174.500543806225 2690.31355117011 13 18 11
-94.343617184147 174.042906105249 2687.37260093927 17 20 11
-94.8826092347597 173.385627186171 2677.09736838715 17 18 10
-100.282805307292 172.866979826826 2671.94498732796 23 23 15
-76.1459209714444 171.47086473602 2635.0895239284 17 14 7
-74.8037158316328 170.737958594862 2622.47251841197 15 10 4
-78.9718466488751 170.167149885558 2615.74265580697 13 6 0
-79.071997617808 169.469645505145 2604.55060261823 160 153 145
-75.1435329999719 168.642168580889 2588.86721730044 123 116 108
209.817814957841 184.555959173808 2800.46282729193 0 6 2
186.49394433533 184.389970404511 2810.72688213731 21 26 22
175.669981350935 183.977476678016 2810.28907974231 19 21 16
165.644512361122 183.550990031258 2809.19472070156 14 16 11
144.076597967795 183.370135487402 2818.26126265794 12 14 9
163.335763337847 182.325102506213 2791.45819581377 12 14 9
155.621730642478 181.849807259821 2788.33408915858 9 11 6
100.587858421289 181.784286871113 2817.60558617528 9 11 6
82.3726046669431 181.560645667625 2824.1618856615 9 11 6
154.393475742825 179.278812376555 2749.14159809823 9 11 6
153.431762772247 178.642055725493 2739.79536118548 8 10 5
86.0662586970968 178.916865456958 2781.12621402183 8 10 5
81.4554541594568 178.378404974734 2775.31094274615 8 10 5
20.831689086644 179.207772225415 2821.5318350043 7 9 4
-0.0131496488942062 179.086764429882 2831.12285307179 9 11 6
13.3753620657782 178.116909855324 2808.71025025877 16 18 13
13.3261804127338 177.475842079976 2798.79046830659 16 19 12
14.7165644594631 176.793881565923 2787.44368338682 14 17 10
19.0046432719715 176.031672176457 2773.25665177244 14 17 10
-10.5111347417817 176.153675483225 2791.38447479074 14 17 10
-46.4690336378202 176.462847684963 2815.95972251804 15 18 11
-21.0028534539337 175.132447586678 2781.30355801291 15 18 11
-43.7024965335135 175.098281610456 2793.25583306348 20 23 16
-53.2572549574082 174.711384024547 2792.50290268382 20 23 16
-72.1836067272479 174.589359733004 2801.01459448813 19 22 15
-73.0242673595258 173.963362682002 2791.75587102127 18 21 14
-62.4078737159992 173.005203761673 2771.03945874099 16 19 12
-59.7683850555759 172.267309371658 2758.12752536137 17 20 13
-73.5973858498593 172.007173858779 2761.6875562747 18 21 14
-76.7069598913204 171.43386169083 2754.49001475747 18 21 14
-89.764886841347 171.157626829767 2757.37389538046 18 21 14
-108.436067006239 171.057048063177 2766.07038067563 17 20 13
-98.1303879440429 170.073852220157 2745.12859794741 17 20 13
-51.3897047367333 167.94523750369 2686.36661468534 22 25 18
-45.606366998491 167.068268918523 2669.55754253407 20 23 16
-58.0527601735901 166.763096909741 2671.6492593627 14 17 10
-69.068541514119 166.416376901509 2672.30777353377 13 16 9
-72.4225983979541 165.823692039437 2664.93290306007 14 17 10
-102.767670476743 166.117693922911 2686.16612316096 12 15 8
-84.0123957658232 164.794693714376 2655.290962901 25 26 20
-60.6069306356631 163.296740340885 2619.14009338522 21 22 16
-57.2566761864428 162.459385664513 2604.27283225004 11 12 6
152.050609991154 176.894658334963 2831.41980330837 18 20 15
148.278183422399 176.336369855238 2824.97685857528 15 17 12
162.225191200465 175.340164195808 2802.96898800407 13 15 10
158.373810094885 174.775404838305 2796.46877466599 13 15 10
165.24110569082 173.938588299683 2780.44569007659 10 12 7
147.570377524069 173.720567976724 2786.16171962367 10 12 7
156.64326297303 172.817971199845 2768.03177663386 10 12 7
144.345803275804 172.465103900727 2768.99618030375 9 11 6
118.341438296417 171.808365723297 2772.37416084893 8 10 5
84.3002709412657 172.057029271096 2793.39784621619 8 10 5
63.9431711736873 171.947915380964 2802.1074602862 7 9 4
93.8556175954921 170.452131251819 2764.4978792622 7 9 4
61.5663757953291 170.680220974553 2784.32139538334 7 9 4
54.7484745871532 170.201486197506 2780.61156503948 9 11 6
13.7807515040453 170.704782858566 2808.9665818295 16 18 13
13.7328126949674 170.041322221019 2799.04758741717 15 18 11
17.3389524220582 169.266392632747 2785.60117580536 15 18 11
6.90552115167886 168.902540913821 2785.44672456556 15 18 11
-23.3113286643765 169.136620181921 2804.30222446582 16 19 12
-26.3202421752804 168.559476536622 2797.17763450821 16 19 12
-41.7448594929664 168.362120940188 2802.05136020263 20 23 16
-46.2078772429193 167.830330572333 2796.34325650872 19 22 15
-47.0564385743251 167.183831548439 2787.07899628694 19 22 15
-65.2802923355302 167.086107540684 2794.86473586927 18 21 14
-71.9033026486753 166.624072192801 2791.29627068031 17 20 13
-45.4843910831808 165.089023825669 2754.85965164378 16 19 12
-73.6829217053634 165.324809223789 2772.7079151072 17 20 13
-66.0547018966755 164.387006853412 2754.76556146999 18 21 14
-84.841300660474 164.325779460886 2763.37887115914 18 21 14
-90.0705341767392 163.813959186542 2758.35016460902 18 21 14
-98.1341151569275 163.398724481281 2756.20800379011 17 20 13
-68.1157285746412 161.665835747033 2714.96891018015 16 19 12
-63.6238062270618 160.8001622061 2699.69379392204 23 26 19
-52.1935021303852 159.681227220636 2677.09622060107 21 24 17
-74.3964393943406 159.75155442814 2689.40909757618 12 15 8
-82.5754242004266 159.327296426545 2687.18293787925 13 16 9
-89.3544212346955 158.853501058334 2683.50162949742 14 17 10
-80.8367500319025 157.084996521201 2652.61356413512 22 25 18
-58.8081352357572 155.519978341718 2617.93431999071 14 17 10
192.77664841487 168.889878703091 2806.55699202544 9 15 11
158.668525636548 169.14837337986 2826.29715314495 18 20 15
160.292633864171 168.429113264975 2815.119610942 14 16 11
157.244871276413 167.836452551048 2807.96648538547 14 16 11
164.943953832261 166.935708782864 2791.3110204813 14 16 11
148.025927973493 166.734936034232 2796.33745625105 11 13 8
165.574793445959 165.537420956739 2770.76415189506 10 12 7
168.501048969345 164.755008394311 2758.05987644099 10 12 7
155.409149843231 164.443287453516 2759.68391353534 9 11 6
112.035718739002 165.046992724315 2788.76585756532 9 11 6
88.4809736190939 164.384590049436 2790.21389229068 8 10 5
75.6242381553225 164.092412874387 2792.00850353553 7 9 4
92.0251167856598 162.885795124303 2766.83798954079 7 9 4
104.557977536523 161.786814064051 2745.03948966171 7 9 4
26.1127414331646 163.593590788978 2807.98940292941 9 11 6
26.0673927527328 162.907768864149 2798.07187841526 15 17 12
15.6198968940076 162.558572527855 2797.90730568762 13 16 9
11.1032861190612 162.01603300311 2792.16029681957 16 19 12
5.84096614658236 161.497365225714 2787.10757050728 18 21 14
-12.6354202542642 161.424663237139 2794.71037053128 20 23 16
-29.5749390852629 161.308155242281 2800.95698351059 20 23 16
-42.8023576379819 161.071257115021 2803.71819530197 19 22 15
-47.2604020932184 160.533855027698 2798.01337395405 18 21 14
-48.103444690895 159.868087623769 2788.75301678198 17 20 13
-46.0873210444202 159.096949444548 2776.62435552036 16 19 12
-51.32657961746 158.580683014454 2771.588653549 17 20 13
-61.6000320066732 158.246504701337 2771.55032471592 19 22 15
-56.0920921606722 157.33702637098 2755.77648271621 18 21 14
-69.932994720062 157.135356842559 2759.32818192775 18 21 14
-68.7794116153526 156.378830294639 2747.80935725987 19 22 15
-85.4100939452778 156.288521440961 2754.27998511352 19 22 15
-77.9254270815073 155.286500187774 2736.23324160166 19 22 15
-76.1668340924595 154.494847257751 2723.91749248222 19 22 15
-83.5961709385127 154.054609121072 2720.99994549508 20 23 16
-89.6161980377681 153.560071653961 2716.63339444732 18 21 14
-79.5711303427766 152.4284464232 2695.50164267616 13 16 9
-70.3249436627509 151.316388319986 2675.02590074884 13 16 9
-53.5418233453446 149.887653282326 2646.42595247803 14 17 10
-42.440724606563 148.672962737176 2623.58924614674 15 18 11
-54.2107047961471 148.387277317164 2624.93637125816 21 24 17
-70.7588059869055 148.304756249333 2631.46690338862 15 18 11
166.916976507411 159.906745820581 2800.11651237101 14 16 11
147.673040637885 159.816111528216 2807.1628085742 14 16 11
149.209822890501 159.061712378282 2795.9217839222 11 13 8
155.290168616226 158.153663022856 2780.56289839848 10 12 7
168.162076074252 157.013204164308 2759.00997061981 10 12 7
158.112524207303 156.624252620188 2757.89863798719 9 11 6
120.790555105558 157.15632486098 2781.48587666729 9 11 6
92.7189142826892 157.39462689626 2796.95606474306 8 10 5
85.1250859262236 156.944154855212 2793.91922251286 8 10 5
96.3278813312578 155.842340322217 2773.6268832629 7 9 4
93.9401273421816 155.204859809589 2765.71694837452 7 9 4
75.0916516786826 155.147262913114 2773.05008946151 7 9 4
54.8268139458195 155.149039820828 2781.82714793321 9 11 6
24.9887172076546 155.506149502696 2799.72280056672 14 16 11
7.13916486949051 155.443055295356 2806.54501801617 12 15 8
7.81798963919256 154.706521694685 2795.91716879681 15 18 11
1.830656092634 154.212840455496 2791.57432234008 17 20 13
-10.7633805841434 153.966910258667 2793.55960379196 19 22 15
-25.5142182626165 153.807388733578 2797.68721621087 19 22 15
-34.3767709417508 153.429039515856 2796.20108721797 19 22 15
-38.8586514581351 152.883679784395 2790.4789462936 18 21 14
-36.0989979491695 152.05499365019 2777.65366309905 17 20 13
-39.1769445792722 151.449465286861 2770.4788857859 16 19 12
-57.4089855476676 151.443486770167 2778.25915499601 17 20 13
-59.7595514114673 150.81005984961 2770.37649358253 20 23 16
-64.998520029433 150.290747570605 2765.34098637797 18 21 14
-63.1015825704997 149.479399597096 2753.12542635788 19 22 15
-80.4761023864107 149.456446212644 2760.29220834159 19 22 15
-69.3927122074203 148.258178821276 2738.6777845131 19 22 15
-78.2262340917348 147.883070110946 2737.21271697672 20 23 16
-79.9902364256606 147.21052814357 2728.51973875229 20 23 16
-86.7035350117407 146.746341701093 2724.88610524873 16 19 12
-68.1814564145791 145.193361983488 2695.0757678869 14 17 10
-66.58320420533 144.358171059036 2682.64385826283 13 16 9
-55.2839491795427 143.090362090596 2659.95023612055 13 16 9
-47.5675087523155 141.967523844812 2640.83586162005 14 17 10
-65.5461543035179 141.983716137775 2648.79993487534 14 17 10
-58.6164521595138 140.884296419359 2630.35039225216 22 25 18
-90.9666928806772 141.564575209137 2653.83738374507 24 27 20
188.20360338345 152.962609763481 2801.92588822516 14 16 11
195.165138314842 151.991931903711 2785.97044170722 12 14 9
158.858057451686 151.810133577363 2797.93882338907 14 16 11
150.393569213024 151.38332378046 2795.50597771259 10 12 7
153.414609943082 150.541736547646 2782.87011434628 10 12 7
154.093800737985 149.779438206889 2772.24239996292 10 12 7
146.366741082568 149.322758282604 2769.10894407666 9 11 6
118.931792405876 149.601649386048 2783.80555836229 9 11 6
92.3746592677155 149.86223286095 2797.9036849814 8 10 5
90.0602009787042 149.216418813591 2790.0468414992 8 10 5
99.7498591154202 148.107805846843 2771.1279300515 9 11 6
85.3619560454963 147.919244451122 2774.28316331467 9 11 6
78.4943503977451 147.442912988259 2770.53731333508 7 9 4
61.198398891309 147.377900339028 2776.52580149539 7 9 4
57.3398323906567 146.786630068597 2770.02024502808 10 12 7
16.4315526543541 147.680179527396 2798.42033027614 13 16 9
11.1772093570219 147.155559148466 2793.37365075181 12 15 8
-10.2812073678653 147.292362857581 2803.75621553572 13 16 9
-22.1050616388878 147.043344991636 2805.06476638118 13 16 9
-30.2351339323876 146.6449857876 2802.874490068 14 17 10
-42.7312047337938 146.431483993052 2804.93065885286 16 19 12
-39.1838326414211 145.543418290212 2791.44107227175 16 19 12
-42.2226029136594 144.929555496375 2784.29465252095 16 19 12
-42.3876334236486 144.189546692658 2774.29038810421 17 20 13
-54.84412107011 143.979642800303 2776.37556426394 18 21 14
-52.1695548007768 143.110771409751 2763.48839596729 19 22 15
-63.1620669597464 142.840168155108 2764.16416401103 21 24 17
-78.4104244113306 142.763505666769 2769.16657005537 18 21 14
-85.05763468649 142.306604430131 2765.58058780277 16 19 12
-73.2452728817235 141.011257065293 2743.25908270443 15 18 11
-73.5741951267947 140.258393987544 2733.13565008486 14 17 10
-83.8158202372175 139.959414162053 2733.12057181269 14 17 10
-71.528298442211 138.612782803005 2709.90792946192 13 16 9
-78.9855680231142 138.180453187825 2706.9701734974 11 14 7
-67.5665600845827 136.853236882615 2684.36306188734 12 15 8
-71.5846537501377 136.250730895507 2677.74180386259 13 16 9
-81.1723062806706 135.915478538525 2676.96558391332 14 17 10
-74.1260010796994 134.772885602886 2658.60035065372 19 22 15
-78.8944045923934 134.199684167651 2652.6703620709 22 25 18
-79.5460772827676 133.421327308808 2642.31312611169 21 24 17
211.126554561463 144.408554210658 2782.68147869339 13 15 10
203.324610655975 143.950397742377 2779.49343566014 11 13 8
200.931672421032 143.283554259957 2771.57988834907 13 15 10
193.899182935859 142.795344026852 2767.71445038863 14 16 11
204.516440162497 141.611258070916 2748.23226192538 12 14 9
189.02457058253 141.454443171512 2751.82269821408 10 12 7
134.679489312138 142.864201768335 2790.24683242788 9 11 6
130.05202324732 142.293859536631 2784.41902689121 9 11 6
99.6274309971659 142.776616521603 2801.89015284001 8 10 5
92.0297881985652 142.33561851794 2798.85059342717 8 10 5
102.537223003929 141.142680528967 2779.28874750971 8 10 5
82.8725197866302 141.203364085649 2787.26611804384 9 11 6
94.771641463125 139.938172483902 2766.24240192512 9 11 6
92.3621662053367 139.270407524912 2758.31686190581 6 8 3
83.967611181722 138.857507744843 2755.93478276635 6 8 3
55.522685113691 139.316913554636 2772.37052496502 9 11 6
-3.9291179357297 140.398921493557 2808.32606408586 11 14 7
-12.8248009754084 140.038570065584 2806.81630382693 11 14 7
-25.3750103135071 139.844624779732 2808.83332548874 11 14 7
-28.3701176160578 139.22262672549 2801.71851674978 12 15 8
-39.4122577989089 138.966120359402 2802.35837978341 14 17 10
-34.416478157441 137.974231529548 2787.44817560218 14 17 10
-35.2912079866017 137.246688095227 2778.16424029498 16 19 12
-42.707223017229 136.821733266228 2775.25642798911 17 20 13
-31.3685879329904 135.511235973884 2753.82646817306 18 21 14
-33.0756813625042 134.80886942095 2745.17459336053 18 21 14
-62.7587250981993 135.447941735728 2764.41911205005 22 25 18
-87.2963686900601 135.856603227622 2778.74662867743 18 21 14
-51.9335023005285 131.757030109493 2711.72663989666 10 13 6
-46.0134449361733 130.655246352469 2695.01553998692 10 13 6
-48.6100052732659 129.97382358858 2686.95401434454 14 17 10
-70.8628131836475 130.29091525373 2699.2319889344 11 14 7
-79.7347101221035 129.934193463959 2697.7394901127 14 17 10
-92.0735275734828 129.759389632204 2699.90985121976 13 16 9
-100.206386747833 129.370288990401 2697.71760153362 13 16 9
-86.1717968063878 127.815874157642 2672.06498933761 22 25 18
-97.1114748036084 127.569784699143 2672.77947663697 21 24 17
-105.269176481517 127.179004706061 2670.56891510657 14 17 10
156.312095876641 139.68561841281 2840.49634634861 18 20 15
238.575333763872 134.718790874507 2749.42020070474 13 15 10
213.703045007144 134.975941770668 2761.03399074398 10 12 7
177.391324232388 135.733991190985 2782.88465135664 11 13 8
187.292885982636 134.526287893361 2764.11855697156 12 14 9
208.578809073606 132.813175347115 2735.07594173311 11 13 8
159.510461201803 134.156226233884 2768.67910935248 11 13 8
118.294966705605 135.184155602452 2795.62213209634 10 12 7
112.175847696733 134.677386114564 2791.18368525097 9 11 6
97.7351949209333 134.543573716219 2794.3012509181 8 10 5
104.459537732274 133.459195805755 2778.17328285723 8 10 5
96.8200668538919 133.019757639434 2775.10311480056 9 11 6
92.9372541587603 132.408749371828 2768.57988177258 8 10 5
101.7493916657 131.207787929298 2750.25940575911 8 10 5
89.6009322565354 130.974443457237 2751.33272280135 9 11 6
35.8673010234196 132.703981818063 2791.4367665729 10 12 7
-19.0678851339474 134.527180853199 2833.14061968262 13 16 9
-21.2587011011252 133.863508145442 2825.37361117756 11 14 7
-32.3189323232931 132.852240611523 2816.11536015194 9 12 5
-16.2541644299523 131.286965328545 2790.69937563988 9 12 5
-49.9624343841842 132.165043677099 2813.20290465373 10 13 6
-26.7364363999913 130.22754228798 2780.62511354108 10 13 6
-16.0227260014345 128.895254797395 2759.97705874137 11 14 7
-29.2832652723405 128.76366046855 2762.7147940018 11 14 7
-17.9804424345522 127.383801568029 2741.25822731678 12 15 8
-11.0986022317778 126.217240500562 2724.00897957303 12 15 8
-40.1358790782795 126.903405207459 2742.48683036493 15 18 11
-37.6373403869117 124.315505811776 2708.46625362316 12 15 8
-39.4876862535103 123.584895561311 2699.71038900193 16 19 12
-80.8873348897259 124.985467189775 2731.46224297998 17 20 13
-53.1207017511026 122.653113002365 2692.29317319783 15 18 11
-64.1400509580417 122.418601561172 2692.94966930491 15 18 11
-74.4302887878849 122.148009544859 2692.89919994781 15 18 11
-78.4230606604677 121.530269429258 2686.29651554434 15 18 11
-86.5980699225988 121.145480625964 2684.07343772333 16 19 12
-96.8384268190692 120.879417830441 2684.05944553777 15 18 11
-108.985529169884 119.879430408978 2675.24868667822 11 14 7
220.510534408377 128.471714968727 2775.81682188655 17 19 14
171.655712876816 129.885913639938 2808.34010305519 14 16 11
175.531930084265 128.915365980355 2795.08848552853 11 13 8
149.330702019892 129.326281017298 2808.21004568379 11 13 8
165.382356183905 126.980424951488 2774.1347555955 12 14 9
139.325110757155 127.403377586664 2787.36075281032 10 12 7
124.034259495446 127.327913005181 2791.09702914625 9 11 6
114.864879335768 126.965153902583 2789.38855333168 8 10 5
126.895311044994 125.577934158686 2768.45970303841 9 11 6
111.662512111766 125.507466604727 2772.23838253411 9 11 6
90.4642594451825 125.737335989454 2781.57498056285 9 11 6
91.8514248093225 124.858930973076 2770.22486732125 8 10 5
100.670955483635 123.603185942871 2751.90947328291 8 10 5
78.8338284538925 123.879617106979 2762.01821012533 9 11 6
24.3803201306783 125.823916140754 2802.83681854271 11 13 8
3.56365928276237 126.085744235192 2812.45020250154 11 14 7
61.1628612985853 122.31667082977 2747.96519565711 10 13 6
37.339805106245 122.726839598618 2760.34037183969 9 12 5
-7.68064897846443 124.261127786379 2793.17350834167 10 13 6
-42.9482964943659 125.312363595074 2817.01756161736 10 13 6
-54.6763036362989 125.135783095448 2818.39596100172 11 14 7
-45.9877078816289 123.869923762999 2799.98559821491 11 14 7
-11.2615759455013 121.18594122236 2755.97866010254 10 13 6
-17.301394865896 120.686387531569 2751.59773613309 10 13 6
-12.5221671171956 119.593527923006 2736.52974294943 10 13 6
-15.0016424224386 118.892580152612 2728.55329032437 9 12 5
-39.7287294143378 119.427323162886 2742.7441140159 13 16 9
-35.0387011562472 118.327416632248 2727.61142252383 12 15 8
-71.7417681221402 119.558481067241 2754.12122483892 11 14 7
-35.8048409189662 116.677802136292 2707.28561738467 12 15 8
-60.3178452467725 117.23069477138 2721.63172609957 16 19 12
-62.1285818899995 116.486565041488 2712.90450657084 17 20 13
-54.8188465093169 115.207126201586 2694.7295463189 14 17 10
-60.2207078868067 114.66228069459 2689.57582534582 14 17 10
-71.9215321921283 114.489560198753 2690.97394970023 15 18 11
-68.9495830138522 113.447041236149 2677.06644443235 15 18 11
-79.9330907865588 113.234655923382 2677.74903483321 16 19 12
-59.7105664240338 109.357139093917 2623.22207658195 24 27 20
187.545933018877 122.288632751171 2804.99916356632 17 19 14
172.070762268493 122.230030303575 2808.60220265839 16 18 13
146.610265105431 122.670952129336 2821.02584981309 13 15 10
143.585004355708 122.010953381176 2813.88869523874 12 14 9
142.844055138031 121.234066132918 2804.7017848927 11 13 8
158.146413108571 119.643186133827 2781.20335119946 13 15 10
125.2378670887 120.487753779518 2800.58074858031 11 13 8
108.464579987612 120.525982315801 2805.71361363003 10 12 7
119.072086779405 119.158574174534 2786.22342830546 9 11 6
131.85192648426 117.664971618527 2764.60196990524 9 11 6
143.766151548157 116.201813102168 2743.58849428994 10 12 7
85.6100850589541 118.425009191669 2786.66489293867 9 11 6
132.020060384443 115.125106021018 2733.83301176853 9 11 6
104.827006583532 115.729227729662 2748.70662816904 10 12 7
71.7902392379117 116.665783747586 2769.22687221995 10 12 7
38.1673086436143 117.655934884469 2790.55750212158 11 13 8
60.3035440713313 115.611180959698 2759.65954335525 10 13 6
77.8368771976563 113.797512072752 2732.83652722332 11 14 7
61.3309663199795 113.858615454831 2738.16304039206 12 15 8
2.27295735287925 116.3139985586 2784.29218212778 13 16 9
-38.8891835104017 117.802662088742 2813.74658350355 14 17 10
-73.9985445176696 118.97636570673 2837.70600237095 12 15 8
-31.0271399107771 115.69852422789 2786.0869440156 12 15 8
-31.9052180354036 114.911588461584 2776.8005751007 13 16 9
