ply
format ascii 1.0
comment KinectMotionCapture
element vertex 799
property float x
property float y
property float z
property uchar red
property uchar green
property uchar blue
end_header
-90.6599165359439 248.030495016014 2643.48283024353 20 13 7
-86.5684785823038 247.63271728913 2627.91976428603 19 10 5
-106.382885356542 246.998009291338 2638.255456957 33 20 14
-117.963007402275 246.447630160197 2639.73887356284 44 29 22
-131.538668515232 245.881295864488 2643.4810048605 73 53 44
-138.996539253217 245.373532989568 2640.54243102004 117 90 79
-144.42964813688 244.884120655787 2635.36633884283 136 108 97
-143.167539168615 244.45146262423 2622.69249624116 154 124 113
-135.944641200329 244.064635680729 2603.22407032181 163 137 124
193.112879307949 261.732167867867 2808.50603410261 17 23 19
177.616340947656 261.090474807906 2812.09062988934 31 38 31
165.266763055401 260.498566022124 2813.01604117515 21 27 17
157.580462163348 259.976721600015 2809.91180211526 15 21 11
117.5881106803 258.991921368946 2835.26094472487 12 18 8
146.834345911987 259.000082814582 2799.64639850776 14 20 10
105.498669860246 258.009108434858 2826.4920729317 15 18 9
58.2614483217347 256.950452088345 2858.94042472922 15 18 9
45.4874763647735 256.375572148175 2860.79330658416 17 20 11
60.0540766442745 256.169046986926 2838.0035550982 19 22 13
65.4267171118055 255.83320107453 2823.36957388209 20 23 14
58.6680156685255 255.335304025173 2819.70285612753 19 20 12
52.6646011800693 254.847297007768 2815.34838099389 17 18 10
28.669599354445 254.132878201355 2827.59321385963 21 23 18
16.7373407626488 253.574979591771 2828.82161555764 23 26 19
1.85863571765488 252.983575872476 2832.85405214825 26 29 22
-16.6835720247951 252.351908754738 2840.40630560845 28 31 24
-29.2256304209788 251.795970516297 2842.42769697335 24 27 20
-34.3431635592006 251.328531240409 2837.48048368661 26 29 22
-31.3656191667171 250.952590366871 2824.81544748754 20 23 14
-40.1892440178258 250.441423414958 2823.35686535993 18 21 12
-38.7483984309491 250.043601849131 2812.04810030731 20 23 14
-51.2188685558328 249.493537738809 2814.12141729146 20 23 14
-68.7440017930851 248.893128082057 2821.17609146192 19 22 13
-64.4378888519788 248.522247259142 2807.00411532857 18 21 12
-56.5785264686434 248.182698091418 2789.23235214696 17 20 11
-62.5027515726331 247.70128739574 2784.93531649977 16 19 12
-69.1468589574253 247.212878089069 2781.35142400404 16 19 12
-72.2047811657389 246.758484558732 2774.19192834931 17 20 13
-72.4239626574483 246.328854812912 2764.1499808614 20 23 16
-76.9523655510425 245.857962643055 2758.39449206584 22 25 18
-92.1401394118935 245.293155463385 2763.43834389892 24 27 20
-114.349106295694 244.672648818901 2775.74335066428 24 26 21
-124.002063181557 243.734032388801 2765.03555757153 19 21 16
-122.179253355461 243.315991131545 2752.76854750152 19 22 15
-119.008113889091 242.904566829444 2739.00863614328 20 23 16
-111.715091148456 242.519206913448 2720.82608922792 25 28 21
-113.535594363682 242.062579762518 2712.09324595996 23 26 19
-117.460491585103 241.58941896199 2705.54020318534 25 26 18
-97.9366453422401 241.271327058131 2673.99225026049 22 22 14
-96.4621709778657 240.825113418584 2661.47258168176 22 19 12
-86.8092382334964 240.425715457325 2640.06027179179 20 13 7
-85.4603086579449 239.969335867344 2627.44924714682 17 10 4
-91.6548384265525 239.466311262431 2622.95615240095 17 8 3
-105.319815364474 238.922565777974 2626.6339456448 34 21 13
-124.351481602718 238.35458321654 2636.30177602907 46 28 18
-137.228555261217 237.823411123949 2639.31546975535 102 75 64
-148.045073478372 237.305258608186 2640.11756567759 127 99 87
-148.10858326656 236.83723191238 2628.95323681245 147 115 102
-147.544679792515 236.368721117385 2617.00839965248 155 126 112
195.873104565118 254.066032075179 2806.7627454439 16 22 18
188.905673054962 253.553224089989 2802.94434480549 29 36 29
166.462978248007 252.867384446934 2812.60951302843 20 26 16
128.677071736483 252.019236755767 2835.85344249321 14 20 10
118.003637457949 251.476439198985 2835.52410155493 11 17 7
121.167530488971 251.082022353237 2822.99405987639 13 19 9
108.974739766055 250.524232390871 2824.03359682284 16 19 10
62.4836992966959 249.619489529226 2855.7883196976 14 17 8
55.0223956848268 249.120861004622 2852.84730356089 17 20 11
85.4964923940651 248.993579328983 2815.65180655118 18 21 12
106.682184782743 248.76222143838 2786.54403731707 18 21 12
77.934372105525 248.052180117521 2802.75428706854 17 18 10
60.5966180129358 247.455959321341 2808.70978096805 17 18 10
38.8252894981132 246.824833535822 2818.86161960328 18 20 15
21.6304754499577 246.240265290128 2824.92079281395 20 23 16
13.4448257961322 245.737077031433 2822.68969630636 24 27 20
-8.105521251909 245.123970829815 2833.00182039559 26 29 22
-19.9319908889173 244.596094912591 2834.3067683584 22 25 18
-30.9858739397142 244.076801661591 2834.9370821461 27 30 23
-33.1711548692168 243.627434917674 2827.17487713291 21 24 15
-30.2390632198204 243.214325456626 2814.47670300415 19 22 13
-27.3610582560146 242.796839128249 2801.73959259007 19 22 13
-50.0851604352412 242.196943451036 2813.67127118485 18 21 12
-63.2483545089133 241.669015983173 2816.47756655072 18 21 12
-61.1319868409208 241.243903081991 2804.42303252884 17 20 11
-54.72527665986 240.842073118194 2788.06826303558 16 19 10
-68.586500225843 240.311718873658 2791.60386073991 15 18 11
-70.178304247539 239.856483634935 2783.03681344833 16 19 12
-75.3812229784785 239.378976531127 2778.02735685065 19 22 15
-75.5881372291178 238.92786382517 2767.99419333216 21 24 17
-87.2283483301035 238.415375645654 2769.43424202462 23 26 19
-97.4141717991346 237.912643834688 2769.45858350919 25 28 21
-104.035174442455 237.428469040847 2765.89175605929 23 25 20
-124.766575335309 236.882309650082 2776.79789079238 20 22 17
-108.121324095358 236.499165429542 2749.33833103787 18 20 15
-123.877356607558 235.977740727971 2755.20549641735 20 23 16
-110.211553898754 235.569463179009 2730.52667900361 21 24 17
-110.607783992475 235.103151936025 2720.35619940669 24 27 20
-116.597521025154 234.616178265304 2716.01164458674 22 25 18
-119.125904718194 234.139337494157 2708.00057789672 22 25 16
-112.014057556549 233.686654832584 2689.68635193469 20 21 13
-102.235052800579 233.233807474189 2668.36516360471 20 20 12
-94.6161199980842 232.768151243054 2649.18343250259 19 14 8
-81.6177832057703 232.305808979041 2624.02048095312 15 10 4
-88.5046635658691 231.80033120985 2620.26051069142 15 8 2
-96.0673772990774 231.294206127236 2617.24594222201 30 17 9
-119.86941448696 230.770054403993 2632.1016962704 38 21 11
-136.135174040049 230.26179731727 2638.83474744262 91 67 55
-148.972583702305 229.760993881719 2641.87734826948 120 93 82
-147.689537097629 229.268795645048 2629.21867670142 142 113 99
-148.46021502993 228.772421508928 2618.7763051237 153 125 111
-138.612642648738 228.271230691733 2596.2695414302 149 131 117
216.538332121085 246.528309433067 2789.59192169046 10 16 12
196.317096483992 245.909017601041 2797.16240578708 20 27 20
145.211092939847 245.058651943807 2831.74739649502 17 23 13
130.636579133445 244.49952632521 2834.76576914902 14 20 10
116.879184000749 243.949838839255 2837.14120526755 11 17 7
112.374457523086 243.468432408592 2831.40282675437 11 17 7
102.502778500232 242.949695116582 2830.41978055202 15 18 9
86.547303700196 242.39234008476 2834.90714733734 14 17 8
77.4959199242078 241.883316933186 2833.28346876324 18 21 12
80.6003265133302 241.450581544858 2820.71011000248 18 21 12
91.9723549954057 241.063021553431 2800.54406926175 17 20 11
81.3673208529879 240.541714902156 2800.26442189755 17 18 10
45.9680394583448 239.885665286997 2822.76936659888 16 19 12
21.9878255981918 239.303016445805 2835.02558701723 16 19 12
14.5615368134111 238.812216855249 2832.10999353102 20 23 16
16.8347571924743 238.368975496318 2820.16907356259 22 25 16
3.44888375574115 237.849699066093 2822.81398772518 22 25 16
-9.89414263836919 237.333938532027 2825.48998043207 23 26 17
-26.8888045170725 236.806335727163 2831.69453676303 25 28 19
-28.3476238894149 236.344760859061 2823.22386077033 22 25 16
-32.0374775102728 235.872830086554 2816.84121234817 21 24 13
-24.0249360278151 235.440273195659 2799.18031533909 20 23 12
-30.6989886313558 234.953771285906 2795.57472457656 19 22 11
-54.1114225723078 234.417559560869 2808.24277598851 17 20 11
-61.4540233574865 233.933774872867 2805.38788525107 16 19 10
-57.2128416624416 233.479682128609 2791.16812310994 16 19 10
-66.0178119909158 232.991064715401 2789.72347273877 16 19 10
-76.2442126874052 232.50090292202 2789.71816811778 17 20 11
-74.9753119293344 232.033259701369 2778.28440292883 20 23 16
-88.0450135546789 231.540029856576 2781.15864871602 22 25 18
-93.2346075503807 231.060418136182 2776.15913532 24 27 20
-92.7474245056728 230.586295114791 2765.39369008568 24 27 20
-95.133366480209 230.106650618174 2757.48616271286 21 24 17
-97.5422794061012 229.625153529884 2749.56167934642 20 22 17
-111.232775246772 229.138625264323 2753.22126320956 19 21 16
-100.325261588462 228.656669331081 2731.48267651956 23 26 19
-99.3140669809507 228.16827972781 2719.86198955783 23 26 19
-104.6212420487 227.679318126736 2714.77719177439 23 26 19
-112.713032533534 227.19202109484 2712.61421627365 20 23 16
-116.636921211243 226.701560281367 2706.06181698592 20 23 14
-118.503893317355 226.207338696686 2697.29509700404 19 22 13
-119.022092808895 225.708794917378 2687.03603592353 19 20 12
-102.427203540323 225.176363527821 2658.30417490305 18 15 8
-88.7141340622266 224.637695931225 2632.42363062158 14 11 4
-89.4429484280352 224.12213107213 2622.01180410885 13 8 2
-94.2840178278681 223.614317261169 2616.02946967488 25 16 7
-111.323275374936 223.141002746573 2623.43700926421 35 18 8
-129.642366507113 222.67769234052 2632.38689410588 80 56 44
-143.173988779226 222.2045909701 2636.16171681927 111 84 73
-143.24777340034 221.685460188336 2624.98938617917 143 113 102
-145.367116994099 221.171096151694 2616.03961469453 156 128 116
-139.521124248455 220.620257303894 2598.04257777746 151 133 119
222.417195942917 238.781017443884 2785.16854861636 10 16 12
172.674220108115 238.080335230859 2818.27231211701 18 25 18
150.273755670363 237.511850884831 2827.96839398653 17 23 13
143.404740140411 237.011346274618 2824.22169398851 15 21 11
134.229776971063 236.502584016209 2822.50843139632 12 18 8
127.374140155797 236.003175276642 2818.77114098787 12 18 8
128.941709795816 235.531442603774 2807.55386653147 14 17 8
110.619860219845 234.995962353852 2814.03131290547 15 18 9
90.084070101609 234.459751892875 2822.60922719852 15 18 9
83.2901033729101 233.965417531843 2818.91666845466 16 19 10
83.3091589820722 233.487321358713 2809.0471786334 15 18 9
48.587187368577 232.932972104272 2830.80830367575 16 17 9
50.1393944593986 232.46006957336 2819.57988665402 17 20 11
24.6444223415065 231.939039540152 2833.20870633162 15 18 9
-17.9380477689475 231.402998532311 2862.85826182633 15 18 9
17.2426373108334 230.975582057099 2820.42730556964 12 15 6
11.2898658879792 230.490044072849 2816.10955518116 10 13 4
-4.30036070979334 229.997710035173 2820.86202752724 21 24 13
-21.312625310302 229.509299539886 2827.05402178627 20 23 12
-30.154541248663 229.027943496119 2825.58233105728 18 21 10
-32.3680675783224 228.547771246411 2817.79978879179 18 21 10
-25.8149801603804 228.063332274056 2801.55041837345 21 25 11
-27.3710009492834 227.576903718122 2793.0094475877 21 25 11
-44.9712890807306 227.100577091717 2800.00997439947 15 18 9
-62.5024159925376 226.629942067545 2807.06096096144 16 19 10
-58.2547917344087 226.137413697663 2792.84596896477 16 19 10
-59.8414186668943 225.648588694104 2784.28250451687 19 22 13
-67.2095990708788 225.16778385808 2781.4090856614 20 23 14
-79.5891466860894 224.697849717955 2783.5487201873 22 25 16
-81.2076741560566 224.206515094864 2774.96211764726 25 28 21
-87.1294376566427 223.723884900904 2770.66686029191 25 28 21
-83.8169081606142 223.215237034208 2757.00895312706 23 26 19
-89.0613077413684 222.727989156103 2751.96967131419 21 24 17
-99.9591288675241 222.259183477975 2752.71307897407 22 25 18
-101.677782386786 221.759871951838 2744.05385251952 23 26 19
-99.2143831967036 221.242057466014 2731.01538287302 28 29 23
-89.8111759230411 220.690914094285 2710.65630966871 26 29 22
-101.421442447498 220.224111039014 2712.11859170493 23 26 19
-103.267807545786 219.714554268383 2703.36673250706 20 23 16
-116.225688131991 219.25777571409 2706.32222438488 17 23 13
-125.687786886254 218.786482827482 2705.63633197538 16 22 12
-125.49195004195 218.263807003853 2694.65943773323 16 19 10
-105.439188350472 217.622547298907 2662.25793888986 14 15 7
-97.8659378279532 217.042386053383 2643.0425117376 11 11 3
-93.7906124737633 216.476672948101 2627.46720926412 10 10 2
-95.2184999871197 215.941667704577 2617.78354786759 23 19 8
-109.546419169121 215.493328521202 2622.21598553472 32 20 8
-123.822341011609 215.049290474354 2626.68643344607 53 31 18
-137.373094930382 214.604497042423 2630.44723612878 86 62 50
-138.804506970298 214.069385504386 2620.76101918932 135 107 96
-141.604711361908 213.542570744102 2612.55294522289 144 117 106
-137.099360475993 212.952379127887 2596.05392233985 130 112 100
211.943818468965 230.978059176212 2794.82834096748 11 17 13
162.223158184598 230.432106534606 2827.94906522266 17 24 17
146.045142529306 229.926653347346 2832.27537028582 17 23 13
147.683348777692 229.432630646168 2821.1091889109 16 22 12
139.266695615784 228.933406905942 2818.71065311151 13 19 9
135.468951407432 228.434808914072 2812.24965742526 13 19 9
143.140706433173 227.931459021067 2795.57639508964 15 18 9
127.067160174174 227.434584773625 2799.97847570168 15 18 9
88.2137316309515 226.960282901725 2824.92079700183 14 17 8
90.5343603998827 226.459286277623 2813.01395184515 14 17 8
85.2372410315008 225.963854288877 2807.93641087899 15 18 9
87.4806978507689 225.456601298629 2795.97388491636 15 16 8
60.3309810886383 224.996708896925 2810.87352781991 13 14 6
38.5545819572641 224.536328186885 2821.02284999148 16 19 10
13.1293580725362 224.091793501271 2834.70261911582 13 16 7
13.9209048601336 223.591574966409 2824.15768147524 8 11 2
19.1334886776557 223.075840327705 2809.4067606059 5 8 0
2.03641412061994 222.621106660686 2815.53744489728 19 22 11
-17.2131481494662 222.178896509113 2823.81291823079 23 26 15
-15.0115384577991 221.668410262352 2811.82004001522 18 21 10
-26.820618057835 221.206251748135 2813.13792725857 16 19 8
-15.1523502118958 220.653013225814 2791.95076093114 18 22 8
-13.0860778009732 220.131566883977 2779.85971831747 19 23 9
-34.3717179198673 219.71151153688 2790.3647119494 19 23 9
-47.5800114829819 219.260734017457 2793.1387045126 15 18 9
-54.955034643426 218.784277568681 2790.26034722238 17 20 11
-52.9416558699753 218.258650803999 2778.13093970744 20 23 14
-63.9267268949617 217.801260153852 2778.81115587303 21 24 15
-79.9022498416717 217.37567581379 2784.5196934027 22 25 16
-80.0875811686186 216.858876577541 2774.50154861396 26 29 22
-83.1604437614575 216.357367055439 2767.33098370385 25 28 21
-83.4098308895128 215.835437485156 2757.26667198874 23 26 19
-90.7789753751125 215.359712029407 2754.39228550097 21 24 17
-94.6098090718772 214.859205511972 2747.90758734836 23 26 19
-97.0468583462525 214.347024615533 2739.96255192291 26 29 22
-98.8052587822705 213.827552040272 2731.27440996047 29 30 24
-94.2955394319354 213.255186618612 2716.01397526993 26 29 22
-91.9449286297778 212.694823286868 2702.89352739571 24 27 20
-108.416488042295 212.291917124929 2709.47792348104 20 23 16
-107.499950179575 211.740048187921 2697.78800181257 17 23 13
-103.86597080686 211.159142288362 2683.12771789303 15 21 11
-94.098463050305 210.514358833636 2661.79722294865 13 19 9
-124.237606704403 210.250636304917 2683.17689997522 12 15 6
-89.9208117669208 209.351522478595 2635.17686108415 11 11 3
-87.2310822178584 208.756503635636 2621.06703546052 9 9 1
-92.755609957095 208.24382897307 2615.82455397565 24 20 9
-102.349923912185 207.775376668361 2615.04253585654 34 22 10
-119.350527846205 207.392460571553 2622.47855416069 44 25 11
-130.897145815394 206.952938484239 2623.98682009941 78 56 43
-135.030683500015 206.428581685858 2617.2825645596 126 99 88
-136.503723001222 205.87050273142 2607.56576017357 130 106 94
-132.677841175612 205.243220528393 2591.80931890322 116 100 87
206.918029193569 223.238372585458 2799.79168138611 7 13 9
168.078394573848 222.816872231464 2823.50923301667 19 26 19
151.88313360906 222.345043059478 2827.82320689921 20 26 16
167.409258188235 221.77808898194 2804.49217278264 15 21 11
145.075050043153 221.328974535884 2814.23688988476 14 20 10
144.334099146794 220.809168522398 2805.05128048894 14 20 10
135.138346726986 220.319460674703 2803.32304383978 13 16 7
107.633749713472 219.906711486548 2817.96595974227 14 17 8
137.352525781924 219.254210147683 2781.45529096878 14 17 8
111.445428193117 218.840949320535 2794.7858979696 14 17 8
82.6237100847846 218.45171763765 2810.9441970609 14 17 8
65.2540741112526 218.015159585678 2816.87738782779 14 15 7
56.979930516698 217.535344489394 2814.58225856369 14 15 7
65.2259025996171 216.963508503351 2797.08958042544 15 18 9
34.4828129275143 216.614009833642 2815.56064188623 13 16 7
40.4358436051746 216.051491904719 2800.11121315193 8 11 2
21.7732506394563 215.640498535538 2807.57731455068 7 10 1
15.0492814452061 215.15639311174 2803.93584480197 15 18 7
9.0680197630375 214.667460508114 2799.59742402209 19 22 11
0.136991946089626 214.199698659995 2798.06120304785 17 20 9
3.71677262378345 213.640026502291 2784.59677351992 15 18 7
-7.41690379015614 213.188972115505 2785.16929456208 15 19 5
-11.2153386625446 212.681905496169 2778.70775530346 16 20 6
-20.1265147025098 212.215901222917 2777.18593420847 16 20 6
-42.818073977819 211.869220513729 2789.14248643254 19 22 11
-55.2741434569122 211.441349049944 2791.226861682 20 23 12
-59.752565424799 210.944429638917 2785.50776777004 17 20 11
-65.6798035599744 210.460232007977 2781.20853379586 18 21 12
-70.1734473189524 209.962128847551 2775.47810480974 24 27 18
-73.9618844271022 209.456170877692 2769.02381875931 22 25 16
-75.625814777968 208.927204957929 2760.40411209203 21 24 17
-77.3173351975041 208.396052476761 2751.7643937198 22 25 18
-87.5385200337859 207.95447336566 2751.76341074508 24 27 20
-90.6712488373984 207.436736550032 2744.54936534674 24 27 20
-96.6390660837133 206.949550277614 2740.22069957084 22 25 18
-98.3965061876852 206.413210660375 2731.53316833871 22 23 17
-95.2837342928237 205.816090183841 2717.73000449452 23 26 19
-96.4142760318634 205.265544444717 2708.26181667979 23 26 19
-105.224508712441 204.808475708983 2706.81321684053 19 22 15
-105.701601479317 204.245904615166 2696.58363059102 14 20 10
-97.9248036904168 203.571352181234 2677.5152810861 16 22 12
-129.489526389053 203.417958426585 2700.33215753531 19 22 13
-74.4020473109603 202.087147411935 2630.33329504559 14 15 7
-84.0251806171675 201.629507791713 2629.5304399322 9 9 1
-84.7612325561795 201.046111210485 2619.11302316715 9 9 1
-88.2527680238345 200.499781270077 2611.63872633091 26 22 11
-96.50595661271 200.023194698215 2609.35880415075 35 25 13
-112.851138203497 199.671899984851 2616.03478116123 158 140 128
-125.092048412387 199.262821727261 2618.27522514868 91 71 60
-128.571706789755 198.717722810792 2610.80954450404 130 108 97
-126.05125004359 198.07314095991 2596.57675836672 113 93 82
177.042578773232 215.14433912941 2816.38241220295 26 33 26
181.737375014114 214.570905193461 2802.49117491707 20 25 18
162.422990525443 214.152372849921 2809.48474054451 16 21 14
160.898624594394 213.617021567356 2800.96617476049 14 19 12
149.361775450483 213.151206433759 2801.24635252047 14 19 12
149.287770912024 212.05050427736 2781.42507132548 13 16 9
140.819962876725 211.562389764711 2778.98950853711 13 16 9
148.309429600239 210.944235201736 2762.18352001269 13 16 9
93.6362990887387 210.84600485387 2801.5972426986 13 16 9
47.5473110185614 210.698129395889 2833.64725562036 15 16 10
55.1323383591638 210.087865668159 2816.91058099528 15 16 10
65.6393749452033 209.443216686843 2797.35122359205 14 17 10
94.0079369800801 208.619222757635 2761.09621831307 12 15 8
18.4621917257664 208.248909838508 2811.31538952872 6 9 0
16.1995663644836 207.721801326146 2803.49672210894 14 17 8
11.6950630325219 207.216424987385 2797.75867842355 18 21 12
11.604649855419 206.662018165949 2787.80915133744 15 18 7
12.9480672425415 206.088235142283 2776.42886722413 14 17 6
-6.27507261965521 205.746021292129 2784.724295703 13 16 5
-15.9207830780079 205.298695601234 2783.90512617228 14 17 6
-21.174636781923 204.800544055077 2778.85893563454 15 18 7
-35.8759430260682 204.418232670133 2783.02132597268 20 23 12
-54.1458442896658 204.085801243635 2790.77249589848 20 23 12
-63.6791734589495 203.647841069658 2790.03484140074 20 23 12
-62.396264542439 203.0694026283 2778.61066982515 20 23 12
-56.1361885250529 202.419681320998 2762.14834647879 23 26 17
-74.9869345674359 202.108285237294 2770.71388728298 22 25 16
-75.93253027112 201.552771489324 2761.37974563228 17 20 11
-75.4882073964058 200.974291416243 2750.582701557 20 23 14
-76.5020767574296 200.413306484434 2741.19903916244 26 29 20
-90.9703729209799 200.050473530349 2745.53014766576 24 27 20
-95.5274887170638 199.541514581141 2739.7539459357 19 22 15
-95.1800433065117 198.95534318057 2728.8866343611 19 22 15
-96.9728741886864 198.399214079955 2720.17334736093 21 24 17
-107.862311530259 197.987608965038 2720.92312233731 21 24 17
-98.5549726311197 197.245998021381 2700.49388182359 17 20 13
-103.902878305103 196.741000995948 2695.37918185485 16 19 10
-109.256343584687 196.235623682651 2690.26074416015 12 15 6
-65.0225464596952 194.865379499951 2632.1556747091 13 16 7
-96.6357660158916 194.809393671519 2654.93788814164 12 12 4
-90.4463333185985 194.086511824203 2637.18894674318 8 8 0
-83.6552012621008 193.344582806761 2618.64076246722 17 14 7
-87.8281182749094 192.799449601617 2611.9075602984 24 17 7
-98.7925972937669 192.382325372219 2612.60290800604 26 16 4
-115.131293883529 192.07243114423 2619.2840903108 177 159 149
-123.99801818726 191.621984188369 2617.79457202894 91 71 62
-125.465897105154 191.025040896653 2608.08160628138 131 111 102
-117.601053767895 190.234738339901 2587.84116547004 117 99 89
245.16964242825 207.418221169278 2768.15507908412 42 48 44
172.800425281343 207.539953498463 2820.67947562149 6 13 6
200.7553276746 206.697455314312 2786.59457917106 18 23 16
194.520385828388 206.18625415359 2782.07214743183 15 20 13
182.891326971176 205.731467183643 2782.2855362626 11 16 9
167.450711831576 205.320382592898 2785.91184006284 11 16 9
170.446763286647 204.711198212962 2773.25903860407 13 16 9
164.986657838042 204.192350075635 2768.06322694265 12 15 8
161.044403915386 203.655485325447 2761.49727925183 11 14 7
150.252717542873 203.198207115095 2761.08264801936 10 13 6
162.203856758029 202.468481877169 2740.09964724424 11 14 7
75.1361637960706 202.95247433862 2809.14321260576 14 15 9
60.8119540432197 202.56183934336 2812.34388944816 15 16 10
79.5641365658844 201.748659781254 2785.17447430165 11 13 8
33.802458480499 201.77251489311 2817.46263106572 10 13 6
10.6605999399174 201.51385356444 2829.09319757804 6 9 2
38.9591351910514 200.557387905018 2792.78675739365 5 8 1
8.44705276427549 200.406884094779 2811.42628888471 12 15 8
-7.12773463935035 200.056370533183 2816.19067178078 18 21 14
-3.47235863266726 199.430375596292 2802.78070698217 15 18 9
8.2125745122732 198.679163955209 2781.60432443574 13 16 7
-13.1970105191801 198.420277682723 2792.0205785856 13 16 7
-23.552328808458 197.999201502995 2791.92246325964 14 17 8
-24.4098196955769 197.43081104965 2782.65212544766 15 18 9
-38.3752723310147 197.070005693094 2786.11272959671 16 19 8
-45.0508825122014 196.594575833541 2782.50606579502 16 19 8
-56.7776362775727 196.203713658552 2783.88428839987 22 25 14
-71.3493154110296 195.86457302375 2788.14057238827 24 27 16
-81.5635422700474 195.455345030076 2788.14479726454 21 24 13
-68.85862515763 194.645779373941 2765.23745403069 19 22 13
-76.9529032267333 194.196767038926 2763.07286914657 19 22 13
-79.3469985947486 193.64531461059 2755.15906748349 22 25 16
-83.1816593646955 193.118256430312 2748.67116603743 25 28 19
-79.9645951377004 192.457096878011 2734.94328155997 23 26 17
-100.755437069544 192.249535150893 2745.80804127928 20 23 14
-96.8780734141181 191.571427446201 2731.32369947406 19 22 15
-102.86322621867 191.082022790752 2726.98245554548 21 24 17
-107.45375184553 190.564544296227 2721.18169668589 19 22 15
-109.967580458338 190.003743134674 2713.18105048525 15 18 11
-95.1705268096004 189.081550904985 2686.84933020536 16 19 10
-94.3299036352898 188.439777827079 2675.10421545399 18 19 11
-64.5990621835204 187.175154671644 2632.42371499365 15 15 7
-97.5912761402533 187.249849558102 2656.67729561505 19 14 8
-94.1325082236593 186.538074483089 2641.88903981658 11 6 0
-86.6428467585945 185.729533111207 2622.61186038233 10 3 0
-92.164516017637 185.207616888719 2617.37140426044 34 24 15
-103.79229244097 184.826166603542 2618.82113084886 39 27 15
-113.358753933273 184.40014006309 2618.05981294632 30 13 3
-120.883569969988 183.927888654254 2615.07288890271 89 72 62
-119.002814575324 183.229749366969 2601.611134954 116 97 90
-111.823828623942 182.396338532803 2582.10861424102 119 105 96
191.09373124981 199.670938134726 2805.49292159162 7 14 7
197.305599517398 198.995939924028 2790.23056001533 18 23 16
208.855498167945 198.240761307649 2770.19159909485 15 20 13
197.18598397505 197.801232523005 2770.37573827514 10 15 8
184.00914482757 197.386114359758 2771.93767680798 9 14 7
156.313353303442 197.186236659179 2786.44277548847 11 14 7
160.827152706492 196.520039858421 2772.41985986998 11 14 7
185.353762831046 194.312531721052 2719.78644753541 10 13 6
101.884718377298 194.42233173647 2775.38020055332 13 14 8
85.2351496866532 194.092603238552 2780.6005934671 10 12 7
29.7180716399166 194.423260906713 2821.87535518878 9 12 5
-2.27700699336131 193.204846970633 2822.14243671182 12 15 8
-14.1216719146628 192.825395288186 2823.43524079978 18 21 14
-8.2295218544548 192.124638228652 2807.94097819818 15 18 9
-10.4982551290997 191.568596851159 2800.11773647099 14 17 8
1.14066627475973 190.747247917747 2778.90793824932 13 16 7
-14.3743042254569 190.436941063042 2783.71588735013 14 17 8
-24.0027912541614 190.017472594584 2782.90963903048 15 18 9
-36.5166012578206 189.657408531739 2784.95220592227 15 18 7
-43.1968796514866 189.183836310407 2781.34246192006 16 19 8
-61.4287492422882 188.946909555651 2789.12168556709 22 25 14
-68.7868771554332 188.491840565994 2786.25538985687 23 26 15
-81.879647901115 188.158513180768 2789.1137222839 21 24 13
-81.3335219267839 187.53784446852 2778.39055823137 16 19 10
-80.1146197985807 186.898405104142 2766.91967778727 19 22 13
-86.7636772935827 186.427732632232 2763.33228669156 20 23 14
-87.7377683711016 185.830576606864 2753.9772772099 22 25 16
-93.691085156653 185.34310131001 2749.6591216635 21 24 15
-100.349878363738 184.871826836268 2746.06466989308 20 23 14
-108.41006096003 184.43370177366 2743.92485669101 19 22 15
-106.656183874677 183.764577657051 2731.60660402196 21 24 17
-111.233117780187 183.242270669877 2725.81567363396 18 21 14
-101.20989671057 182.363541099057 2704.66936574421 14 17 10
-75.9409001108313 180.442738886648 2656.28098179547 14 14 6
-75.2013322265082 179.764856437627 2644.46242700668 18 15 8
-86.870699928532 179.401268253361 2645.88209366464 20 13 7
-81.3890010435942 178.594535100253 2628.85471282762 21 14 8
-90.9974249615435 178.178152800588 2628.06272984016 24 15 10
-95.8231242206886 177.636173886381 2622.09165897323 79 69 60
-108.116929415372 177.295697999575 2624.29410574118 67 55 43
-112.937634708762 176.754270121426 2618.32636342069 91 74 64
-115.747245958992 176.1559201272 2610.1108134046 105 88 78
-110.523193591563 175.32867319571 2592.89655520226 113 96 88
-92.6605991503673 174.132280430536 2561.3749132557 91 77 68
208.616201536789 191.689562338442 2790.98203982726 0 4 0
199.279798676601 191.229728276841 2789.15199398884 20 25 18
200.780690629074 190.584351650099 2777.88550391291 17 22 15
186.822180936553 190.205907477796 2780.11601517616 10 15 8
187.50840817127 189.570487950831 2769.49433880141 8 13 6
162.864971877902 189.390153907391 2781.27181292782 11 14 7
183.410426332317 188.388192782119 2752.9310549237 10 13 6
137.511479951228 188.613479377815 2783.88568663175 10 13 6
206.997126008627 186.02216397494 2700.85051513728 11 14 7
143.941321696123 186.605540445928 2747.7774919919 10 11 5
93.2645702484485 186.97636131597 2783.915173362 9 10 5
94.6623274688636 186.322756581347 2772.5738770408 9 11 6
72.0546324757887 186.156207214256 2783.35710004437 9 11 6
56.9007601037193 185.218947098938 2777.30742814876 5 7 2
12.2272175197691 185.54517789512 2809.15089252304 12 14 9
6.99945550224701 185.039085279237 2804.12328170548 17 20 13
6.93030074498191 184.418922878028 2794.18912671364 14 17 10
41.3962544181881 183.024106419348 2751.23514633556 13 16 9
5.21647123325986 183.203000082553 2775.64888552011 12 15 8
2.11835070143662 182.641508664514 2768.45941229386 13 16 9
-32.3435966109606 182.80791493823 2791.64801637633 14 17 8
-33.2043729120648 182.199819943708 2782.37509578631 17 20 9
-57.2825813077462 182.143522359805 2795.79827505366 19 22 11
-66.8046934301292 181.746133317034 2795.06895753338 22 25 14
-66.9441845348335 181.120631350161 2785.08378717628 22 25 14
-76.4530648900994 180.72446358763 2784.36406783239 20 23 12
-84.5095129998366 180.29398954935 2782.22700059327 21 24 15
-82.5645459573821 179.609406022069 2770.04719480721 18 21 12
-78.5352332915998 178.865589927134 2755.67267125639 19 22 13
-93.0054702314236 178.600026975153 2760.00286554131 22 25 16
-99.6480128324411 178.132312265204 2756.42050668996 21 24 15
-104.172947818346 177.608086561392 2750.66726170983 19 22 13
-104.492909812424 176.968352774609 2740.5511920666 18 21 14
-97.1459606202567 176.113279393082 2722.4053583955 21 24 17
-94.7704910922713 175.387781636407 2709.30209470372 16 19 12
-77.5965025650149 172.884731518527 2658.7479218114 17 17 9
-64.4423603091791 171.815700221973 2633.69454949091 25 22 15
-67.9016786499256 171.226093244084 2626.24338833079 19 12 6
-80.9671438338571 170.923169526674 2629.12166914283 61 54 48
-88.5283272553736 170.457781985334 2626.10812189568 69 60 55
-92.6799225953217 169.888450148083 2619.39054816873 40 31 24
-98.2018058975642 169.360277934598 2614.1496107175 42 32 22
-99.6733302014923 168.703975096665 2604.433701684 49 36 27
-99.1553771658815 167.980709494227 2592.45426368725 49 36 27
207.485437899824 183.965579976764 2792.59356937714 25 31 27
203.57974896833 183.405128740768 2786.05400895855 23 28 22
171.829043613376 183.422353158601 2803.79648583199 23 28 22
169.515676233467 182.833563342923 2795.94072201206 10 15 9
184.0902529816 181.881213398667 2773.15297508888 12 17 11
184.601569014514 180.568698510258 2752.51989576501 10 12 7
103.568396055174 179.798671394761 2785.17250806929 10 11 6
124.565853323168 178.65779839738 2755.92367630573 9 10 5
109.165058386946 177.709924937969 2749.69524569212 10 12 9
59.5476989065347 177.612471784102 2775.48231791372 6 8 5
38.6138428065452 177.484185377506 2785.0087685264 13 15 10
17.0268267605849 177.38188671883 2795.29689781738 16 19 12
37.5918528776458 176.205765404284 2765.7344089443 15 18 11
41.8116899455629 175.437945524706 2751.49787901468 13 16 7
5.62588704588363 175.728348773438 2775.90781919757 13 16 7
-35.4994102295825 176.170131026253 2805.38333213935 14 17 8
-44.3339668873957 175.762691763479 2803.91735071295 17 23 13
-48.7907690135649 175.237416651873 2798.21378585843 19 25 15
-60.5041826046415 174.911953974408 2799.60171582464 21 27 17
-67.8486273973629 174.46792876978 2796.7456897164 18 24 14
-60.0591877113901 173.595821308623 2778.9205405665 17 23 13
-65.998205696161 173.108204946116 2774.61274981141 18 24 14
-66.2113252018646 172.454334326937 2764.5740609623 17 23 13
-80.0204912772049 172.195828051427 2768.14847873909 17 23 13
-94.4937181691199 171.9624442581 2772.47696301474 16 22 12
-79.1258830286958 170.837767833749 2746.55769431987 16 22 12
-78.739902859563 170.153836168845 2735.71811671615 15 21 11
-101.654523539219 170.182283261819 2748.74990369331 15 21 11
-88.6296201904642 169.104198322364 2724.83812857871 21 24 15
-66.6193283745611 167.729709633442 2691.38189789054 22 23 15
-76.2066333065121 167.341049170708 2690.6053649233 13 14 6
-99.6933529936563 167.402434608858 2704.45792306616 13 14 6
-89.0739331332246 166.365882924426 2682.50768189705 14 15 7
-73.7205015274691 165.161261043374 2655.34282468083 17 18 10
-67.4787293861381 163.528080781763 2626.51100132755 19 16 9
-75.065704748706 163.065577478172 2623.47877156114 15 12 5
-87.4242952335709 162.768312962454 2625.63447296375 21 18 11
-86.1330757027174 162.00076973273 2612.98033144763 27 24 15
-82.1779012989738 161.133830095773 2597.31610873723 72 68 59
172.211532415161 176.410340151139 2813.91912488649 28 33 27
155.237249105084 176.167095002834 2818.90456329811 23 28 22
145.262474509841 175.75792890893 2817.8473359149 8 13 7
145.303481119379 175.101300443395 2807.99285454101 5 10 4
169.07423038937 173.84184354662 2777.04843631923 15 17 12
159.801525012131 173.408065090877 2775.26469812236 12 14 9
128.38479540312 172.882858992264 2783.36535715927 10 12 7
110.862436481086 172.677134547933 2789.18900501926 10 12 7
119.852848643495 171.767856515075 2770.99924154208 9 10 5
119.71268570072 171.096513955457 2761.01335196358 7 8 3
148.835438494491 169.618143659624 2724.06643000942 7 9 8
77.9973643478957 170.218670894442 2769.05736461607 6 8 5
73.3650277548517 169.672473867725 2763.22615062977 6 8 5
58.328286551343 169.424281875262 2767.1460563485 13 15 10
30.0185565104569 169.567818997967 2783.6782050953 16 19 12
37.2665046440286 168.680391992139 2766.69577067277 16 19 12
20.8868609603505 168.486730732816 2772.11252719198 14 17 8
-7.17082958596382 168.651163815928 2788.82749058934 15 18 9
-36.5605326808307 168.870938048719 2807.04749771295 17 20 9
-46.8497879062202 168.519124660225 2806.99762374155 18 24 14
-58.567681240457 168.214687359443 2808.38241274402 19 25 15
-62.2781284163629 167.66243554661 2801.98442877242 20 26 16
-56.6085372214382 166.810442432992 2786.3280624593 18 24 14
-58.935515870044 166.207319588088 2778.46265341762 17 23 13
-62.7219196284117 165.649041400591 2772.00957637362 17 23 13
-69.3867256225853 165.183717220126 2768.41079594492 17 23 13
-78.189657068338 164.789847750172 2766.96780904334 17 23 13
-77.7251514234489 164.087005890719 2756.18506044894 16 22 12
-78.0105607107191 163.404954319683 2746.09352997534 16 22 12
-75.5036993186771 162.623048695143 2733.08552380991 15 21 11
-74.4606006374981 161.885625975569 2721.48640891319 14 20 10
-87.5187782277851 161.636654219862 2724.37054041173 22 25 16
-68.3069123048943 160.251251686998 2693.82605678539 24 25 17
-65.3175771539789 159.427011231222 2679.93226060378 20 21 13
-76.3100358625519 159.100984982111 2680.60778666646 15 16 8
-81.7207778727909 158.574893638176 2675.44742844969 15 16 8
-73.3021535571192 157.538309859628 2655.60748230195 13 14 6
-83.5948880440573 157.187753015388 2655.55509250425 15 16 8
-67.0561390104671 155.830435048278 2626.7783560162 15 15 7
-62.9963176696831 154.930100033804 2611.18982494957 10 10 2
-65.8330218027499 154.28671432085 2602.95470108675 15 15 7
205.20276755177 167.86698385944 2785.9165348933 11 16 10
149.465441641952 168.730637924371 2824.56396623511 24 29 23
139.507799128287 168.33597806515 2823.51893726336 12 17 11
151.102333470927 167.329891848946 2803.5110628122 10 15 9
159.527619306637 166.403730586031 2786.14687278973 6 8 3
148.753887878662 166.027169142833 2785.74537184904 12 14 9
153.253145014645 165.203862898608 2771.71111844051 11 13 8
139.445055640247 164.918393023702 2774.05114353565 10 12 7
130.227856753829 164.4996634641 2772.30771940416 10 12 7
135.736785985857 162.224525926384 2736.7659133231 7 9 8
118.751018377523 161.336306754411 2731.85887761361 7 9 6
88.6768399697075 161.586629184938 2749.58255423106 7 9 6
48.1978678613744 161.491359412174 2767.17292655933 14 17 10
14.7944239722069 161.89385506477 2788.65969046671 15 18 9
7.31289447932948 161.44813412151 2785.70428014455 16 19 10
-22.1749075894868 161.747049899578 2803.85327961891 19 22 13
-33.2330275103885 161.43305536073 2804.4815618875 21 24 13
-52.284579995979 161.398357559021 2812.90264086992 21 27 17
-59.6229253787255 160.96468420413 2810.0510887883 18 24 14
-59.7033977309394 160.276479884744 2800.1080903076 16 22 12
-57.6520095496034 159.508235866012 2788.00500771938 17 23 13
-50.6058922662005 158.554785905683 2770.87563290997 18 24 14
-66.6286857862757 158.428981879246 2776.55171591562 16 22 12
-71.1317644643574 157.888260108621 2770.81423148363 15 21 11
-73.5029352886252 157.267517408073 2762.91669734266 17 23 13
-66.6440853939663 156.298993784489 2745.65149205559 17 23 13
-75.4761065775464 155.913402120458 2744.18745931097 17 23 13
-76.5106474532735 155.232546895041 2734.78820452758 16 22 12
-86.0390303908618 154.875039555775 2734.05483764524 16 22 12
-92.7343929582893 154.410003103552 2730.43390756189 23 26 17
-93.119942633977 153.697669511243 2720.26992427623 23 26 17
-76.7770726703292 152.317651767951 2692.58611252047 17 18 10
-68.9324260114355 151.260626981274 2673.56501081151 17 18 10
-68.1181691348649 150.476984623446 2661.80006397234 16 17 9
-88.1060261811286 150.537092964579 2672.01324374422 17 18 10
-97.6611242060541 150.178098100801 2671.26020851332 22 23 15
-108.570057462903 149.87813559709 2671.99641597649 23 23 15
-64.6275299076216 147.2777017713 2613.67396784528 18 18 10
-21.0086735846224 144.650845330634 2555.11674969456 19 19 11
214.855029057409 159.10561063948 2768.16678771946 14 19 13
155.347203658836 160.273457503873 2810.25792193495 14 19 13
160.74823487634 159.39742007036 2795.64208007985 12 17 11
158.413115913802 158.763987010554 2787.77032194663 8 10 5
161.408048041621 157.953736648719 2775.11598510183 12 14 9
148.335949150862 157.667701082907 2776.75421143382 11 13 8
130.740026830202 157.536999924379 2782.52491162395 10 12 7
110.934563420038 157.488282652366 2790.39939347651 10 12 7
111.61765095659 156.751716406928 2779.77492873948 8 9 4
136.380419668062 155.183065555139 2747.07771271782 7 8 3
78.2905841658583 156.468257315366 2790.19737244562 7 9 6
93.1906199576615 155.231125581893 2766.40907862373 7 9 6
107.219435719606 154.010229462783 2743.22404319821 7 9 4
59.8983375939568 154.246301131447 2766.97230376191 10 12 7
-16.5587589708078 156.306638647112 2828.89437841011 12 15 8
12.2481321554777 154.543503895338 2791.71703920426 13 16 9
-8.47547845843089 154.595738668115 2801.39681563202 15 18 11
-21.0386804013982 154.352351236465 2803.40446272009 18 21 12
-29.1729010975423 153.945956481368 2801.21113843965 19 22 13
-30.7289245287146 153.289568602711 2792.66901038396 20 26 16
-36.6766055552494 152.799450654776 2788.354926934 17 23 13
-41.1751428084151 152.25280417609 2782.62099914506 15 21 11
-42.0686644231838 151.563221591428 2773.32363355061 16 22 12
-50.9224678559221 151.185912641622 2771.84414681932 17 23 13
-69.1004749615543 151.184483233883 2779.66360937183 16 22 12
-67.1475165042987 150.377698880333 2767.48897776163 15 21 11
-67.3863367383907 149.654397109456 2757.43101174654 17 23 13
-62.6782950282319 148.722779895676 2742.31252548589 18 24 14
-75.0703113830271 148.49440011585 2744.4440501998 19 25 15
-77.5187748449189 147.853363521069 2736.49038218373 18 24 14
-98.3279885470849 147.987705989443 2747.34355562681 17 23 13
-95.8435413283651 147.13727770683 2734.31865939101 22 25 16
-79.3955945984008 145.677436545119 2706.71091018127 20 23 14
-73.5699494895394 144.662526526097 2689.93180884528 14 17 8
-71.302665555611 143.794557871381 2676.74939746439 15 18 9
-79.5033614586826 143.38427147855 2674.50786417589 16 17 9
-92.5360581449057 143.191951980976 2677.41045980341 17 18 10
-111.734190315639 143.283750968304 2686.9612518813 21 22 14
-107.469776576765 142.316811893053 2671.52069684756 22 23 15
-84.0809579179549 140.461780358123 2635.35595127816 19 19 11
192.070498072505 152.099906196008 2788.66805885755 11 16 10
171.963541304092 152.074891133165 2796.32439627391 15 20 14
165.01238390684 151.591268288414 2792.51794091574 14 19 13
171.105056269234 150.639753193571 2777.16777107147 10 12 7
162.593338919794 150.209087440074 2774.70066847349 11 13 8
143.416179248756 150.170074605547 2781.7956336409 10 12 7
122.030811272597 150.221456331069 2790.99597819033 10 12 7
112.107091706688 149.856040990974 2789.97568881662 10 12 7
133.204201623175 148.3260566181 2760.79712645881 9 10 5
126.247638722792 147.842234842572 2756.98675152844 8 9 4
129.066381406642 146.984179954577 2744.20444905629 9 11 8
102.600609118956 147.252423166045 2758.36854942669 8 10 5
98.6716180922507 146.655223684299 2751.81191068488 8 10 5
98.4537683585107 145.910129392895 2741.76933072664 8 10 5
54.2075288374573 146.164510449992 2762.80597918336 9 12 5
11.9156547731514 147.125666844211 2792.67377755356 11 14 7
-2.18192884230684 146.961460975449 2796.03959295054 12 15 8
-14.7640146902452 146.740702642166 2798.03366531373 13 16 9
-27.3074030534959 146.523195833939 2800.05551230202 13 16 7
-25.2184779657061 145.696426721697 2787.97934457722 14 17 8
-23.1790452410605 144.865625772156 2775.86727836011 16 19 10
-32.7937738260005 144.526675999049 2775.07111719602 17 20 11
-38.7721253434885 144.033670128547 2770.73478542472 18 21 12
-59.1692896959293 144.167763077726 2780.65162434193 18 21 12
-50.0135076696675 143.016161571267 2761.34547696285 20 23 14
-58.1467665056037 142.618141659908 2759.15289237564 19 22 13
-62.6964169736 142.061720695809 2753.38156753974 20 23 14
-65.8319094048443 141.440418131192 2746.16499414782 20 23 14
-68.9860864266008 140.817676586136 2738.93486860876 19 22 13
-92.6807933814888 141.134395199701 2752.63765117842 15 18 9
-101.452049727943 140.775072533523 2751.21809569569 14 17 8
-72.2314805613722 138.645591571397 2710.63338054917 17 20 11
-50.9443177840885 136.860873971808 2677.88619140448 15 18 9
-61.9760392423063 136.587870996248 2678.53352363536 12 15 6
-59.0456352838813 135.650391560178 2664.5964333969 14 17 8
-79.0890743065202 135.814880244546 2674.76984931495 15 18 9
-87.9699681567479 135.447203053811 2673.27047847162 20 21 13
-92.6941773773451 134.87764159292 2667.37254571148 18 19 11
-88.4872276752573 133.864356465204 2651.89039349627 22 23 15
187.042492739902 143.821862452995 2783.74618393626 1 6 0
196.207498499109 142.705078894235 2765.68193602702 15 20 14
172.292547697968 142.882559711828 2776.75428060701 14 16 11
163.778338382221 142.459324353659 2774.28540916589 10 12 7
150.699055196547 142.220915461121 2775.91896316468 10 12 7
136.897684535821 142.016546943763 2778.26426959311 10 12 7
131.482227197802 141.474771721024 2773.10041369266 10 12 7
135.135971069763 140.55848667898 2759.68808982517 10 11 6
145.518143594618 139.355177009014 2740.03538607273 9 10 5
124.976292667289 139.437040613485 2748.61203742291 10 12 9
133.753550037647 138.288561327813 2730.26654188652 9 11 6
116.280795919629 138.249437860487 2736.12669871732 9 11 6
113.032632974708 137.606117999597 2728.82833654358 9 11 6
119.425501549215 136.541800810124 2712.46017734593 8 10 5
73.141706773983 137.775269702579 2745.61100414048 9 12 5
33.7422275427786 138.734676915578 2772.63511139819 11 14 7
10.7417726902557 138.988497432781 2784.37078028327 11 14 7
3.99504974644227 138.524766776373 2780.7126245811 12 15 8
-20.3176251700921 138.857666938765 2793.96780542703 12 15 6
-27.7346658038216 138.432364754886 2791.05895340315 12 15 6
-15.4976849485329 137.102150782888 2769.0450871101 15 18 9
-25.1350725266939 136.774553825833 2768.2325574625 18 21 12
-33.3051146375023 136.380962292076 2766.01333032495 18 21 12
-35.6948075804591 135.715770758202 2758.10214396275 18 21 12
-56.7970899814767 135.939772622787 2768.74331979416 21 24 15
-68.4916600005232 135.723547115622 2770.14546317568 20 23 14
-75.8656214242739 135.302462112343 2767.26815602834 21 24 15
-81.8073366720322 134.812468996129 2762.95839793102 20 23 14
-82.7800686781586 134.07754928119 2753.60367586897 15 18 9
-73.5317062585004 132.034315762456 2723.24391260705 10 13 4
-75.3388558546277 131.324455918274 2714.51946698904 15 18 9
-66.6558613212371 130.076579447549 2694.87009821493 15 18 9
-70.6480497203474 129.467404671048 2688.26758569193 14 17 8
-64.8996496904322 128.351958308395 2671.4316840363 16 19 10
-67.562260220436 127.66561330735 2663.32254674442 15 18 9
-87.5565556733011 127.888778631744 2673.53188509372 19 20 12
-83.308549195894 126.837108019325 2658.07900690406 15 16 8
-58.4901075618798 124.675589107604 2620.47899986167 20 21 13
177.39792228381 138.052373138292 2812.54411792648 0 4 0
199.103060306288 136.373878858683 2783.80557588672 15 20 14
222.9644086425 134.584328539117 2752.92414983383 12 17 11
199.709129816338 134.782307085601 2763.23977190242 10 15 9
172.712590297463 135.153267397313 2777.01962806216 12 14 9
135.120748526889 135.998478340365 2800.41311087154 13 15 10
165.614308972171 133.889325454862 2763.22168497108 12 14 9
160.138430730441 133.339230554093 2758.0142810043 10 12 7
145.554028239869 133.193448812303 2761.02728433131 9 11 6
165.054684716944 131.525753882724 2733.16108900958 9 10 5
99.9344727924254 133.663727439576 2782.30451695793 10 11 6
138.932181462984 131.100523527395 2736.45430675406 9 11 6
137.175685661322 130.375947903687 2727.76650661434 8 10 5
129.410709676441 129.926248230766 2724.60559972803 8 10 5
117.92637673753 129.651349578046 2724.92481463537 8 10 5
112.417352916904 129.098957850535 2719.69337109721 8 10 5
79.4856412257738 129.84793041067 2740.28882208686 11 14 7
27.5023632247953 131.529457179225 2779.1914178242 12 15 8
17.7773017568001 131.207408412194 2778.31535960548 12 15 8
-30.3752973350948 130.408924127245 2784.16362194988 10 13 4
-19.6505865090399 129.077542729921 2763.52354618436 10 13 4
-11.9218402969845 127.884324278596 2745.65277254948 11 14 5
-24.4711489248197 127.715196258187 2747.67086733675 12 15 6
-67.8979584479924 129.140484108938 2780.42368205404 13 16 7
-78.841632245819 128.91140123001 2781.13506437692 14 17 8
-88.3262545349421 128.610130145903 2780.43341089326 13 16 7
-87.81699975979 127.785040714422 2769.68248269033 11 14 5
-93.0295556251033 127.258537769398 2764.66579175468 11 14 5
-89.752325249437 126.276741059453 2750.98019338901 13 16 7
-75.2414534227077 124.680704299152 2725.67263727273 16 19 10
-79.8550581385897 124.107646451172 2719.8548663686 13 19 9
-87.2839766835747 123.68775509871 2716.9377256773 13 19 9
-96.8022715364214 123.384532831011 2716.21165235045 15 18 9
-101.421236533529 122.811424497694 2710.39028988536 15 18 9
-98.4082057959437 121.808587711094 2696.51276651459 16 19 10
-90.6060689856778 120.526745913375 2677.45970976667 16 19 10
-97.3892640649419 120.064451777664 2673.77512191142 12 15 6
-89.7194136902777 118.77201279099 2654.62611422635 22 23 15
-20.4106000545967 113.896399217507 2568.98081497959 17 18 10
225.168409820649 128.261711660115 2771.7815427395 4 9 3
195.653231236398 128.795300597036 2787.44210627802 19 24 18
206.408740495557 127.500820997693 2768.05958049801 9 14 8
171.596997022571 127.495784122246 2778.64249176225 13 15 10
154.667706528548 127.48315811571 2783.66171455784 13 15 10
101.168247674625 129.207960068436 2821.46541763532 11 13 8
129.360846292997 127.074004023991 2786.3112541333 10 12 7
163.424442073695 124.631969389475 2745.5306593011 9 11 6
163.966084768089 123.782653473302 2734.80279260309 10 11 6
149.37994904488 123.66644929082 2737.81498376596 10 11 6
113.781020036645 124.590249252997 2760.18290742406 9 11 6
126.349212251184 123.148425739117 2738.40857798941 8 10 5
88.7068876803911 124.201049397961 2763.00155195505 8 10 5
93.7448775463214 123.128644584262 2748.12124455999 8 10 5
103.17572848804 121.824374432795 2729.01372721121 9 11 6
65.0793404232757 122.938890075386 2754.51289098417 9 12 5
38.0764905473057 122.688575006211 2759.63918039066 11 14 7
63.5705954843866 120.530461107747 2724.99906660149 11 14 7
55.9186359652744 120.095582333016 2721.91986835685 10 13 6
