ply
format ascii 1.0
comment KinectMotionCapture
element vertex 788
property float x
property float y
property float z
property uchar red
property uchar green
property uchar blue
end_header
13.6742754215016 -147.521183169917 2815.92336314867 11 14 7
21.0813895042024 -150.534410119118 2799.04554392362 13 16 9
17.3093641520978 -151.46371999603 2792.60101074452 14 17 10
6.88348310089326 -151.137994386196 2792.45552566485 16 19 12
-2.78125777091853 -150.949664091874 2791.62578030417 21 24 17
2.97527755404792 -153.697977033608 2776.02283641263 20 23 16
-12.5426808325462 -152.388617199337 2780.83682346192 18 21 14
-22.1728965779131 -152.196613341041 2780.03241918656 18 21 14
-24.51445292176 -153.40766328338 2772.15306871486 18 21 14
-29.777164940801 -154.057721644176 2767.09968715747 19 22 15
-36.4897634268031 -154.426129733246 2763.46675183062 19 22 15
-59.0418038536176 -151.690713098715 2775.5400556761 16 19 12
-48.4687185418675 -155.443845920404 2754.77779669102 14 17 10
5.66125557833708 -167.832799050453 2690.20457885331 13 16 9
-21.9211403042352 -164.108299952279 2707.28212593193 14 17 10
-1.00259961782934 -170.015227919808 2675.48157711076 14 17 8
-15.7082146645853 -168.836416543958 2679.64875130049 13 16 5
-21.8789004916367 -169.359073306986 2675.17284209596 14 17 8
-41.4398419194186 -167.17649233803 2684.4712162236 16 19 12
-33.5203999320068 -170.546167612432 2665.49262121385 23 26 19
293.649879475717 -174.510299550079 2756.90033638802 3 7 6
264.512895702417 -171.046650222844 2771.61457164338 15 20 16
270.684367200381 -173.805678617939 2756.31236956294 17 20 13
265.090351738025 -174.490163716974 2751.0186446909 17 20 13
226.061614050797 -169.20247220456 2774.6277351775 18 21 14
184.890479254171 -163.481770982624 2800.39164839966 18 21 14
172.518802602041 -162.897392924584 2801.30699794758 15 18 11
186.39014600395 -167.051711957794 2779.22857466551 16 19 12
188.616999931249 -169.12113869971 2767.24580571713 14 17 10
202.291423346504 -173.29228709165 2745.02425121321 13 16 9
218.143620482013 -177.893300087556 2720.67382964152 12 15 8
236.153517506519 -182.925763661344 2694.18027549712 10 13 6
247.94321178478 -186.847143233685 2673.0637790064 9 12 5
196.739574905023 -179.10844286692 2708.85682964468 8 11 4
179.790515585638 -177.682565217084 2713.86930237852 9 12 5
78.477232845557 -162.110952963725 2786.24893829192 11 14 7
54.4192109436752 -159.23877788043 2798.46625336459 22 25 18
45.3994915145302 -159.188158396001 2796.86836365155 17 20 13
30.4405212574599 -158.002180359343 2800.851911543 11 14 7
43.7402959933273 -162.204037935406 2778.35861066793 13 16 9
35.4623078560099 -162.294795368974 2776.0626650665 14 17 10
5.06002788428495 -158.115888068565 2794.80372402133 15 18 11
5.70094681999356 -159.908253167995 2784.14304805927 15 18 11
-12.7692697653545 -157.994757615116 2791.76038119631 15 18 11
-4.10815398478492 -161.359970532835 2773.31946395003 15 18 11
-16.6793929573548 -160.584577930946 2775.32644514554 16 19 12
-26.3041999166205 -160.378584412983 2774.52573819801 17 20 13
-35.9080772239666 -160.17055641044 2773.74050838391 18 21 14
-35.3760440672013 -161.970786571251 2763.00085895887 17 20 13
-41.3670296136535 -162.480140227595 2758.65528570559 15 18 11
-25.8167754279519 -167.308393758392 2732.84979159849 14 17 10
3.91772001594459 -175.030737024845 2692.60959810498 14 17 10
16.3031578299275 -179.307442758154 2669.45309576165 15 18 11
-11.9802429555704 -175.355402778615 2687.25865859456 16 19 12
-33.0354475168977 -172.838716485801 2697.9458695323 15 18 7
-66.018598486151 -167.850588047129 2720.99557651012 17 20 11
-51.6103796398211 -172.569057338684 2695.59778932129 17 20 13
-23.2782107988101 -180.203618531851 2655.57679508594 23 26 19
286.989047620341 -181.176574612347 2763.15420432331 1 5 4
281.392544702625 -181.864258772144 2757.85836556091 14 19 15
280.482559466678 -183.399904942296 2748.54507413429 18 21 14
273.30274451161 -183.806719983774 2744.57354355635 19 22 15
196.148008793151 -173.133201113962 2791.21189469682 19 22 15
181.424974991232 -172.103925407608 2794.13035312533 15 18 11
192.192200955262 -175.762638786907 2774.74434572454 14 17 10
208.243302843334 -180.426150782023 2750.53809236008 13 16 9
218.03376675191 -183.960197347524 2731.67967739135 12 15 8
200.212249175212 -182.363235918456 2737.29558971755 10 13 6
226.663929503024 -189.050815288012 2703.32670012921 9 12 5
252.165900609593 -195.611446646774 2669.9050257045 8 11 4
139.559669443642 -176.10527586157 2761.29095879671 9 12 5
149.978233478471 -179.793250390382 2741.65205070914 9 12 5
66.8535866580355 -167.339116380574 2797.55799140655 11 14 7
53.3138000809155 -166.415838212518 2800.09863747244 24 27 20
42.8043227654982 -166.06566868894 2799.89267549004 18 21 14
37.5326996503862 -166.724215643872 2794.83279109254 15 18 11
32.9983612598714 -167.527766134641 2789.0713145486 18 21 14
28.454142685491 -168.331837824946 2783.30296748558 18 21 14
-5.62076927828326 -163.336504354371 2805.56127011405 18 21 14
-21.8696410734538 -161.811336238035 2811.08182665271 16 19 12
-15.3150491074188 -164.78752304905 2794.82092571936 17 20 13
-8.10492868259982 -167.915495079898 2777.7997203812 18 21 14
-17.7469982098324 -167.697786255023 2776.98655877009 18 21 14
-18.6437914155959 -169.229316789033 2767.68285137419 19 22 15
-18.8474431901218 -170.909446471474 2757.64582768099 16 19 12
-25.5907578052201 -171.275563404341 2753.9906371818 13 16 9
-40.9756467466655 -169.883013956966 2758.90151048351 15 18 11
-39.7851441024151 -171.859356147906 2747.40327097103 16 19 12
-1.40686734196827 -181.476850981036 2698.59792224653 17 20 13
-13.9832353056202 -180.675706093571 2700.60131576735 17 20 13
-43.599364004669 -176.336954102113 2719.91308220192 17 20 13
-36.8914809246248 -179.505045392753 2702.5275910823 16 19 10
-22.3061066464558 -186.15623903363 2666.13222492297 17 20 13
-12.3292723912685 -190.084152497245 2644.93684552395 20 22 17
3.85047690527651 -195.353996706124 2617.11508137753 19 24 20
266.168477905862 -185.208541462755 2781.38885110189 10 14 13
293.57196351387 -191.932586982462 2748.10976076546 15 20 16
298.887054141955 -194.642032562771 2733.4220376923 14 17 10
307.255012483225 -197.933692419589 2716.00401355194 12 15 8
255.654283293831 -190.118615726026 2750.27455373255 11 14 7
208.960505746328 -183.148978080673 2780.68715683321 12 15 8
195.747292523609 -182.382427646071 2782.22871240705 10 13 6
193.368925215095 -183.64126754847 2774.32243481592 11 14 7
219.418521839448 -190.270271712267 2741.29739949422 11 14 7
213.846148444651 -190.958679224914 2736.01934355103 12 15 8
204.445864604163 -190.920189887824 2734.14551313296 12 15 8
186.676340867256 -189.278002248751 2739.7993459829 13 16 9
162.890587818771 -186.46332852166 2750.978706673 13 16 9
174.071115970063 -190.357476006524 2730.6560816987 11 14 7
152.651998242526 -187.972810763725 2739.84348439709 10 13 6
129.059149743569 -185.1413744843 2751.16277061757 11 14 7
81.5227180815201 -177.61011385024 2784.67276486324 13 16 9
58.949934159569 -174.902027405075 2795.4955617674 27 30 23
40.9546726747894 -173.067401325066 2802.22176387426 25 28 21
37.9242313723811 -174.169853886005 2795.07890716794 22 25 18
43.7862904371884 -177.041861162908 2779.5518331512 19 22 15
21.4428254203982 -174.313394656155 2790.54126592966 18 21 14
-10.4007865750722 -169.6562441087 2810.70996819566 19 22 15
-5.29287786780031 -172.38129837238 2795.87226994258 20 23 16
-17.8623032508627 -171.557545590656 2797.88081080167 20 23 16
-28.9298545486594 -171.026834997934 2798.50624018487 19 22 15
-20.2744786524267 -174.502112939268 2780.0606044729 17 20 13
-6.61766656098939 -179.025403878232 2756.58916836686 15 18 11
-8.30526026950507 -180.432785416161 2747.94815275536 12 15 8
-33.1484858884394 -177.073144593324 2762.06909374195 14 17 10
-44.1873718816252 -176.538707811587 2762.7153220901 16 19 12
-38.6739633167348 -179.438003766201 2746.93536566287 16 19 12
-27.502641750178 -183.539899173045 2725.36968324841 17 20 13
-14.0212729593077 -189.970180918092 2690.64578112545 16 19 12
-38.6206276795358 -186.58807584752 2704.9433286398 17 20 11
-28.446719309676 -190.563023963134 2683.89057423249 21 24 15
-26.836727432467 -192.739886602387 2671.46037911252 17 20 13
-23.1673055643216 -195.372720172388 2656.81539479612 20 22 17
261.859426713767 -192.165271973655 2785.64069945075 9 13 12
275.162185857149 -196.368461710702 2764.38459191791 9 14 10
278.96744689363 -198.821027284877 2751.07403003573 16 19 12
275.694281351731 -199.956675190293 2743.75504920725 14 17 10
253.734160633409 -197.564577029748 2752.55030494124 13 16 9
219.450197769622 -192.809071875709 2772.18577407481 13 16 9
196.925713661204 -190.251639136725 2781.80778482465 13 16 9
189.146795734451 -190.49109464427 2778.63783605528 12 15 8
192.912097634627 -192.94692722603 2765.29829039438 12 15 8
198.739502596601 -197.576990629848 2739.85630799043 13 16 9
190.898092224547 -197.821608696497 2736.6407364874 15 18 11
159.495219404902 -193.460021503529 2754.65736964274 15 18 11
181.303534177749 -199.498455130986 2724.73650204968 11 14 7
197.657098005328 -204.508254091143 2699.51242468206 11 14 7
93.1911722624532 -187.3862666603 2774.55493635174 12 15 8
61.5906297273052 -182.827338474881 2793.66431071206 25 28 21
53.2990803737348 -182.895954174095 2791.3586464478 27 30 23
43.5299291941984 -182.663586979092 2790.45372935944 25 28 21
53.0926607671622 -186.331029503952 2771.42955068373 20 23 16
18.131083134783 -180.990882707459 2794.28216810034 18 21 14
-4.84667312480158 -178.043122230631 2806.04793701685 19 22 15
-4.90465014969343 -179.756079263689 2796.1163497815 16 19 12
-20.4108519220951 -178.304771608699 2800.93957844502 17 20 13
-38.0558164566236 -176.395406368507 2807.92009685541 16 19 12
-34.4753670934463 -178.864511368565 2794.44648041807 16 19 12
-16.4067607477361 -184.365977053368 2766.75777921916 15 18 11
-25.3133701698889 -184.271632599845 2765.24210683966 14 17 10
-39.9865939167678 -182.961479117634 2769.4334274476 16 19 12
-33.7071348007625 -186.053095365756 2752.97249216678 16 19 12
-26.7851798404897 -189.303049051828 2735.74177167248 16 19 12
-47.1626894990638 -186.771330676961 2745.68500314219 16 19 12
-34.6045006348932 -191.247177709331 2722.65272303189 16 19 12
-14.3309846452051 -197.412277163581 2691.6186054593 16 19 12
-43.8996241197658 -192.889191949626 2710.96573153028 19 22 13
-52.0991135587976 -192.945659879589 2708.72686499358 22 25 16
-6.68489352870649 -204.648104037859 2651.42517466808 20 23 16
-40.3377251719888 -199.192116721476 2675.22682226026 21 23 18
-40.8787114452844 -200.941783265812 2664.9449053719 18 23 19
250.467484038781 -197.747385892867 2795.88088992814 8 12 11
250.468545665863 -199.479308303236 2785.99200500818 8 13 9
259.040234066017 -202.85776080969 2768.72122951344 18 21 14
241.000815795974 -201.157440669208 2774.17970450905 17 20 13
215.24668727996 -197.953939755254 2786.40419056028 18 21 14
248.562865345419 -206.138131466959 2747.52305925341 16 19 12
221.312451269787 -202.629873921936 2761.134767358 12 15 8
206.522577159829 -201.516875253689 2764.00519589407 15 18 11
195.626135817463 -201.152409857031 2763.51878784174 15 18 11
194.726664114422 -202.745036326874 2754.21282928304 14 17 10
189.971537376703 -203.585770388376 2748.29111021225 14 17 10
181.393441017256 -203.671774568748 2745.77763383214 13 16 9
186.515571955489 -206.479676477271 2730.94982593814 13 16 9
192.329381098238 -209.444760180134 2715.38730307275 9 12 5
220.753286352057 -216.965458126448 2679.13849714819 9 12 5
207.51237049053 -216.152012626542 2680.66020802071 10 13 6
65.7307216154828 -191.072408355842 2790.44831114829 18 21 14
44.7245641460037 -188.543045742786 2799.93581047146 18 21 14
49.8825028798073 -191.347041534047 2785.13368572089 24 27 20
44.5735308874591 -192.017545864934 2780.04666575874 20 23 16
14.0769288472082 -187.487189502767 2798.72112879194 17 20 13
1.44757371721971 -186.620138183853 2800.68644461415 16 19 12
2.1097192780859 -188.510018166956 2790.04066235356 15 18 11
-28.8330932933452 -183.800902051019 2809.6275999327 14 17 10
-44.2582263112383 -182.307150761787 2814.50981205183 14 17 10
-42.8448724205914 -184.348393803856 2803.17279342813 14 17 10
-32.0194796338367 -188.396534250475 2782.59194324441 15 18 11
-34.3508022061834 -189.675987866624 2774.71995945101 17 20 13
-19.3517464093012 -194.66454936044 2749.74911450646 16 19 12
-13.131438105624 -197.80784602058 2733.24533224498 15 18 11
-29.9835277672438 -196.002059216464 2739.56476682011 15 18 11
-48.2034891341832 -193.880325798994 2747.36486454855 17 20 13
-49.9217215752901 -195.322192587368 2738.70116911431 18 21 14
-60.2117493349708 -194.901132950697 2738.65464987056 22 25 16
-76.8645275106641 -193.077258019442 2745.11866121528 18 21 12
-31.1807444955239 -204.956901089987 2688.01148530299 17 20 13
-34.4939796660038 -206.10123176937 2680.66341316565 14 16 11
-52.5932290064737 -203.967399681122 2688.55078442333 19 21 16
260.317760471778 -207.344103639694 2788.15163328094 4 8 7
270.495328436887 -211.075340424529 2769.57283949666 16 21 17
251.626042078638 -209.186207454306 2775.66571840827 15 18 11
204.733803258942 -201.808197450266 2805.93652118385 17 20 13
243.543877625316 -212.949505349751 2752.49603235149 17 20 13
244.934108549916 -215.02288185234 2741.14208863393 13 16 9
233.934542886058 -214.651147668125 2740.58096037801 11 14 7
217.574911153307 -213.204454037237 2744.78549607923 13 16 9
202.806008315421 -212.059765066847 2747.67128765561 16 19 12
172.785007151207 -207.838438420679 2764.21859088183 16 19 12
169.596569076233 -208.988849717467 2756.9609560228 9 12 5
182.882492064587 -215.303091592405 2724.56603208979 11 14 7
185.631230875645 -217.697882685127 2711.72490396743 12 15 8
89.3616998317457 -203.372197398755 2769.22753043557 19 22 15
30.1672992538968 -192.882845342257 2814.06345598933 16 19 12
39.0973742319125 -196.500643036737 2795.81623361346 16 19 12
25.6487284847315 -195.460650263222 2798.4235407945 17 20 13
6.3168618945415 -193.17128970087 2806.65318591408 17 20 13
-4.0736057467976 -192.7455816383 2806.53387920182 17 20 13
-24.7481209437459 -190.132565806248 2816.26221680599 15 18 11
-38.7277271247937 -188.918159367624 2819.72083398308 16 19 12
-31.4315784042072 -192.236476455151 2802.7607337802 17 20 13
-31.513696272464 -193.995032022746 2792.81141536674 18 21 14
-26.5385268666296 -196.854191115037 2777.87651781684 17 20 13
-18.7286546631589 -200.346903914901 2760.05290675224 16 19 12
-33.4225391881089 -198.973393043291 2764.2295708389 15 18 11
-1.92074430560574 -207.667832061971 2722.79523883242 18 21 14
-15.2138831479085 -206.612134816509 2725.51535583374 20 23 16
-63.5767146957487 -197.822088924561 2763.37309215527 21 24 17
-95.2494959532131 -192.642599932857 2784.90361012237 21 24 17
-91.867693667429 -195.197966672503 2771.28555324658 17 20 11
-54.4650554604345 -205.357494038635 2723.0055289181 19 22 13
7.43996107654032 -221.087398388067 2649.23006522088 14 17 10
-19.275060297919 -217.015948439638 2665.70281685935 15 17 12
275.61640552153 -219.868060158695 2765.82987197637 5 10 6
265.340996101523 -219.639963080778 2764.55793585642 14 17 10
248.062605313416 -218.014883945851 2769.33238369807 13 16 9
212.165773926057 -212.659552454954 2790.27205599266 12 15 8
223.000867304934 -216.613936389159 2770.9337494996 13 16 9
236.060353283136 -221.04345795049 2749.50014164232 16 19 12
240.520432555325 -223.768857864628 2735.42785288479 17 20 13
231.836535531191 -223.848168533981 2732.8377132489 15 18 11
214.724630602861 -222.20870603048 2737.73292309788 11 14 7
189.256867660141 -218.844166971422 2750.16611183151 10 13 6
140.247597409975 -210.617875335749 2783.84697105097 10 13 6
135.605717139532 -211.460039697638 2778.00733951636 11 14 7
179.500081395352 -222.345036309224 2728.25385919618 10 13 6
132.343478192767 -214.403402412072 2760.80624119034 10 13 6
109.555947680233 -211.474514244493 2771.47448211232 9 12 5
85.3601398753479 -208.222288495713 2783.59413275198 13 16 9
51.522546073052 -202.911349820066 2804.79103435371 26 29 22
44.7582341546759 -203.269041191993 2801.12066513839 23 26 19
37.9972322761168 -203.626155336327 2797.45299284237 23 26 19
34.2125935383537 -204.615752902817 2790.99901058179 22 25 18
23.0044273516379 -204.022261737717 2791.52282322712 21 24 17
-3.68741938434991 -200.095345884079 2806.7766059327 20 23 16
-28.0473996696058 -196.63413379286 2820.01333962395 19 22 15
-33.2051895090477 -197.296841597561 2815.03595432177 19 22 15
-29.5825387640527 -199.869738091412 2801.59240484236 20 23 16
-15.0686452668976 -204.837760431447 2777.50499605693 20 23 16
-11.5951394592404 -207.42291855998 2763.95326612194 19 22 15
-36.4757606117756 -203.783360483658 2778.04851612424 17 20 13
-27.2458945286111 -207.649999886238 2758.78232165685 22 25 18
-17.3881058179275 -211.684452555007 2738.73514058918 20 23 16
-19.8499070235418 -213.001939037048 2730.76808292898 19 22 15
-60.3215277040035 -205.815592778945 2760.75191700799 17 20 13
-72.001378897496 -205.037807753792 2762.17005971661 17 20 13
-99.3179195558915 -200.717902200722 2779.44334677193 15 18 11
33.3336068815506 -234.608460231189 2623.46787692044 18 21 14
-26.633321130193 -222.878413042082 2673.92554283928 23 25 20
-56.7186036258514 -217.907004263025 2694.13545083499 14 16 13
287.803994544957 -230.108864067138 2756.08631631869 6 11 7
257.924558281184 -225.931431009861 2771.5009840035 17 20 13
253.156083023514 -226.790452669122 2765.56949567543 15 18 11
232.030964235867 -224.33373638248 2773.73535280314 12 15 8
206.331017007031 -220.921302870328 2786.00046878756 13 16 9
217.894208857015 -225.098194973497 2765.95381273766 16 19 12
215.462433984162 -226.430813669388 2758.00844515923 16 19 12
226.09186261256 -230.462996178494 2738.52094831135 15 18 11
226.647099468484 -232.438188273869 2727.79723352632 10 13 6
209.560961431236 -230.758462066922 2732.71132628814 9 12 5
168.880311501225 -224.136729389018 2758.83536635953 10 13 6
172.527044410966 -226.745313562525 2745.40909379015 10 13 6
167.01182892225 -227.443290161821 2740.17212988656 11 14 7
139.553416802967 -223.507070435678 2754.87055458945 11 14 7
98.6402764514724 -216.680153359828 2782.06213332134 11 14 7
42.1348841550833 -206.47191020869 2823.90521902174 21 24 17
54.9121448707162 -210.99310968048 2802.26685015896 26 29 22
55.6158198964991 -212.954633673749 2791.65081060273 24 27 20
33.9145671003687 -210.096822084406 2801.87112077756 23 26 19
37.5765251453517 -212.703067591581 2788.45589707944 23 26 19
28.5818105851918 -212.574836149306 2786.87682152644 22 25 18
10.7372822363772 -210.509097665394 2793.71346393026 22 25 18
-18.8245012498649 -205.853173999385 2811.83090180021 20 23 16
-26.9463026166739 -205.874253091096 2809.64853225645 20 23 16
-16.7485644850003 -209.941178727902 2789.84762329695 22 25 18
-11.0291630746766 -213.043753333902 2774.21626031005 22 25 18
-23.5779287102484 -212.095653316104 2776.24011322724 21 24 17
-39.7165567284361 -210.331779511127 2781.84179692393 20 23 16
-45.6655150921823 -210.839401323797 2777.52669884444 18 21 14
-41.5172732017537 -213.626338397767 2763.22774633907 16 19 12
-50.3751804424331 -213.484006974228 2761.74791675076 15 18 11
-36.276047363436 -218.562549695735 2737.35927947926 16 19 12
-55.8908455990736 -215.972069532105 2746.62067774736 17 20 13
-19.8501503816153 -226.13308755018 2699.82341758842 18 21 14
-17.4527024813396 -228.619127874152 2686.72716899258 23 26 19
-10.1525581849997 -232.257058685668 2668.53330973211 16 19 12
-33.2890272242377 -228.843946578999 2681.42171257152 25 27 24
-36.618152819218 -230.022632761691 2674.06194710895 21 23 20
271.730155944177 -234.667402593879 2770.34849386326 4 9 5
264.598269830958 -235.052471463907 2766.41181807428 18 21 14
244.197237761555 -232.70947662288 2773.86667398906 17 20 13
220.760025442722 -229.717127335772 2784.06456262485 15 18 11
230.026596216403 -233.471602146985 2766.0605809359 14 17 10
228.366092310535 -234.979409469756 2757.43840014704 12 15 8
209.69464854383 -232.942902265514 2763.67544585498 14 17 10
217.265804435347 -236.38794178032 2746.91406234518 14 17 10
233.200654522419 -241.617246105155 2722.62037524253 13 16 9
213.79860297025 -239.415747846697 2729.56395459329 13 16 9
193.707387923294 -237.045921801032 2737.2435393848 11 14 7
179.021613420578 -235.804404835109 2740.19008291828 10 13 6
151.4831830695 -231.79885257665 2754.83085188021 10 13 6
152.061951936837 -233.796334561817 2744.12408304977 11 14 7
132.985443286296 -231.566502510245 2751.30350443657 9 12 5
60.5526906398803 -219.584927005057 2797.66643755521 17 20 13
53.7641731070364 -219.939560821228 2793.97853666052 12 15 8
23.8646533583791 -215.226031495436 2811.85172856724 12 15 8
29.7896912330478 -218.35616803612 2796.36900175819 12 15 8
41.5734862993888 -222.802994414516 2775.24556731119 13 16 9
14.8210399493722 -218.728690462136 2790.4564610901 13 16 9
-10.3353261599779 -214.972207969297 2804.35240993375 12 15 8
-14.0737868307219 -215.973866836485 2797.93184204657 13 16 9
-17.8262901749981 -216.976513957299 2791.50108931996 16 19 12
-15.0207268831155 -219.463217766794 2778.70068892042 16 19 12
-28.2855267820215 -218.324719959899 2781.44176882775 16 19 12
-30.6198331984362 -219.65976794547 2773.56734038566 15 18 11
-31.5296087668375 -221.327281602251 2764.2535330167 18 21 14
-39.685315669896 -221.341757513446 2762.04661807254 16 19 12
-58.6168664276085 -218.868964411314 2770.56738980423 16 19 12
-23.6936220576531 -228.833111741094 2725.43143060262 17 20 13
-21.9039037563595 -231.177513684338 2713.13067438343 18 21 14
-26.5769123523849 -232.029130070315 2707.26842938492 19 22 15
-29.1282455540696 -233.380784231271 2699.23629500403 23 26 19
-43.0339431122582 -232.067249762057 2702.74899222214 19 21 16
-21.591745351452 -239.09216906889 2670.08735411386 23 25 22
-23.5476520193425 -240.619008316965 2661.25093315815 20 22 19
265.073689348169 -241.064656084534 2776.60688891552 6 11 7
271.274343727263 -244.21616721541 2761.32385412596 13 16 9
258.662024902332 -243.457554177944 2762.06593403881 12 15 8
235.18237462363 -240.409088613497 2772.23304825481 10 13 6
232.764358301623 -241.768183997572 2764.29781491088 10 13 6
239.615675866472 -245.094139419191 2748.2505395266 10 13 6
215.506303607596 -241.869403246799 2759.19737879184 10 13 6
223.06478619711 -245.364937319383 2742.42655237006 10 13 6
207.510883970175 -243.937905725897 2745.98004236388 10 13 6
216.506503488627 -247.770310565353 2727.77924759666 9 12 5
206.329782914666 -247.493184947638 2726.57880698953 9 12 5
193.890635575574 -246.719527443697 2727.44649881131 9 12 5
180.726988416974 -245.777835804882 2729.02457853053 10 13 6
191.061348612793 -249.955321580195 2709.32244428912 10 13 6
45.1905978941971 -223.57102359631 2812.44747439081 18 21 14
57.147291780542 -228.069252361322 2791.44941210207 14 17 10
63.0315568681175 -231.246812759992 2775.93688801833 14 17 10
58.4347440165414 -232.10106865365 2770.12986557145 13 16 9
18.2423035688184 -224.960630885339 2797.8454830882 13 16 9
8.47455104453854 -226.487262976232 2787.05149377206 15 18 11
-1.9313070902649 -225.997740700526 2786.9213533942 16 19 12
-10.8464425626069 -225.840400045158 2785.39981938714 17 20 13
-17.5537890852233 -226.18396695974 2781.7711116231 17 20 13
-20.6164316426294 -227.365510623276 2774.60421645077 17 20 13
-13.5341998151879 -230.89874967519 2757.48824918174 15 18 11
-14.4934553461264 -232.58968850069 2748.13845407889 17 20 13
-16.9273630741307 -233.946616482973 2740.19141721691 17 20 13
-13.6292469748067 -236.652805075447 2726.51193049619 16 19 12
-23.2982605907182 -236.328146585417 2725.68007273834 17 20 13
-35.8058865666249 -235.326070554632 2727.73431654895 18 21 14
-39.7215754981155 -236.348539219486 2721.18516670759 19 22 15
-42.2300511479505 -237.710372902553 2713.18404911938 18 21 14
-19.2610409714944 -245.171720203311 2679.15694606277 23 25 20
-26.1314277289826 -245.526056057147 2675.4096979292 24 26 23
305.541107607133 -257.342985676211 2742.86855135883 11 16 12
266.203709910752 -250.937001188996 2766.25984646907 13 16 9
263.75930205363 -252.312035403052 2758.3054006048 11 14 7
241.820933585868 -249.537218630046 2767.11836355466 10 13 6
238.609482162445 -250.745265116193 2759.84375389462 11 14 7
218.341569492233 -248.292968567987 2767.39566453747 14 17 10
224.409153494354 -251.49976902576 2752.01588414045 11 14 7
196.522160072008 -247.371899849074 2766.40459185262 10 13 6
208.687522499022 -251.918773458798 2745.55725696947 9 12 5
225.340663031869 -257.477933606428 2720.54756652607 9 12 5
211.321605979549 -256.352445269445 2722.74180343071 10 13 6
192.016623146749 -254.050072600298 2729.75596643944 11 14 7
197.835589524961 -257.277899657122 2714.19614579424 12 15 8
193.743904402908 -258.328128078411 2707.51927194975 11 14 7
114.782859553771 -244.607666328863 2759.03910204224 11 14 7
65.0866920079656 -235.363007422785 2794.69754071939 22 25 18
67.2643559927772 -237.738085135064 2782.67785922652 20 23 16
67.9010796750235 -239.779443855645 2772.01288083392 19 22 15
68.4975055517563 -241.824067147886 2761.3186731664 19 22 15
24.5624395152708 -233.714810849865 2792.50186087916 18 21 14
4.509025302466 -231.009368801499 2801.4458793695 17 20 13
16.2344985609102 -235.592177058737 2780.27947742428 17 20 13
14.6249957128655 -237.126620791869 2771.69413347198 17 20 13
0.531960397673448 -235.772432174925 2775.07123147333 17 20 13
-25.9320511862053 -231.520095410615 2790.49182506399 17 20 13
-8.57501059564103 -237.481979021017 2763.52029366226 15 18 11
-24.0345794491086 -235.778628155494 2768.37860417246 13 16 9
-20.6161060769636 -238.510673780463 2754.78623603639 14 17 10
20.2733159082813 -250.138463627499 2704.08568317065 14 17 10
-17.550662364251 -243.133160827738 2731.04719724301 15 18 11
-22.9030789064339 -243.822120605467 2725.92858991906 18 21 14
-25.4001943621121 -245.197372501761 2717.93563961213 19 22 15
-65.703976702421 -237.472490434127 2748.04387107581 23 26 19
-48.9412324870049 -243.482827756151 2720.64098164421 16 19 12
-55.7006948597192 -243.825418923881 2716.97449893057 18 20 15
-43.3866347502621 -248.819336398601 2693.76262054709 18 20 17
264.321984535304 -256.401658721534 2778.45464484794 7 12 8
246.246481852906 -254.418995461708 2783.8880971295 14 19 12
257.921421253751 -258.837818534639 2763.92122383597 13 18 11
259.367824633267 -261.071089293245 2752.60719083383 11 16 9
235.91164131108 -257.900746704325 2762.7922285556 12 17 10
215.649925404145 -255.398898476913 2770.34888235342 15 18 11
235.632026802172 -261.697018234608 2742.8082427148 13 16 9
235.43852416545 -263.599748078991 2732.77715435746 12 15 8
227.528655611519 -263.808080992828 2729.5124343259 12 15 8
234.177610358463 -267.24440708081 2713.31790276709 11 14 7
212.496664253041 -264.392756270763 2722.31786586062 11 12 6
225.929007222287 -269.367653452995 2699.91675092907 11 12 6
203.561957903783 -266.339112190106 2709.65527577548 10 13 6
185.071522580003 -264.156026939377 2716.02428081332 10 13 6
171.9344323429 -263.162944631653 2717.62216699258 9 12 5
137.009252369326 -257.205692078522 2739.26925898193 12 15 8
79.7369045779996 -246.096620782698 2781.79596177776 23 26 19
51.1962147439631 -241.476348200852 2798.18335838924 21 24 17
51.1365617347952 -243.366491803652 2788.24965871222 19 22 15
65.1742731014422 -248.52404318958 2765.05142644239 20 23 16
42.7513650666445 -245.263551805303 2775.98566961557 18 21 14
10.8112843542783 -239.756105523773 2796.08904104249 17 20 13
7.77744654137091 -240.958127460792 2788.94321779471 18 21 12
11.3407747262544 -243.714762470099 2775.45573345366 17 20 11
8.98323237143961 -245.093942061534 2767.56394277164 16 19 10
10.2561538107802 -247.339713452825 2756.12408569061 16 19 10
-5.99890994536167 -245.433732053914 2761.64208243898 16 19 10
-7.66788843332944 -246.988826088197 2753.01351872818 17 20 11
-23.8451482907813 -245.075775394577 2758.58765851348 18 21 12
-8.20009579840963 -250.799944538198 2732.84634773278 17 20 11
1.55482377175975 -255.144108430319 2712.72302588141 17 20 11
-26.8128570585466 -250.270347340221 2730.47245548738 18 21 12
-45.0312014928898 -247.824502581764 2738.27507257558 18 21 12
-16.1146721733896 -256.885614338386 2698.6701734851 19 22 13
-55.6554214840537 -249.199785284014 2728.09601495847 23 24 18
-53.1804822613879 -251.81061551882 2715.05560386749 19 21 16
-63.4747159749631 -251.27552743551 2715.00631873754 15 19 18
267.088480402016 -264.74454428094 2776.71247401693 4 9 5
238.034820155285 -260.325901342438 2791.4916550288 14 19 12
252.862486930558 -265.490612414328 2768.86604202795 14 19 12
255.104608053472 -267.92128758344 2756.892805278 12 17 10
229.327666628322 -264.17508940759 2769.10379711019 12 17 10
210.632739799215 -261.966520961828 2775.32439649213 15 18 11
240.678252688817 -270.592795834542 2739.01049195528 13 16 9
249.717020612235 -274.585701944697 2720.84016341708 13 16 9
247.144709627149 -275.999426665312 2712.7925073937 12 15 8
228.464166308908 -273.789383917308 2719.02383563428 11 14 7
219.78227215534 -273.820259329132 2716.43539325614 11 12 6
213.3974147531 -274.369048719093 2711.80409413919 10 11 5
197.139820571477 -272.666062459835 2716.08389721151 10 13 6
188.510372031113 -272.692091753947 2713.53349832416 10 13 6
156.488737241873 -267.335792189317 2732.34165276616 9 12 5
139.671324585707 -265.442090017739 2737.45192859907 12 15 8
78.629818045524 -253.279123703897 2783.4273980661 23 26 19
35.1214863699454 -245.094093569286 2813.68498732724 22 25 18
38.8425119843419 -247.873620385781 2800.31170526677 19 22 15
49.201725638174 -252.228872252115 2780.62639293014 20 23 16
29.0493965128484 -249.428624308846 2789.49918609999 17 20 13
13.4175287160727 -247.670645679422 2794.23287012954 17 20 13
8.16564672767583 -248.358988757815 2789.18714557285 17 20 11
11.7309631079259 -251.151010271164 2775.70092327743 16 19 10
14.5053517862985 -253.772243531692 2762.87724231706 16 19 10
16.4951757770457 -256.222222449718 2750.72101221443 16 19 10
-4.8792430816591 -253.049042448122 2761.17984868866 16 19 10
-35.6054670330037 -247.57912694721 2780.92794405663 17 20 11
-28.524301041424 -251.260119541342 2763.81016126259 17 20 11
-25.1332388606471 -254.065540662404 2750.19755050756 17 20 11
-21.080464968489 -257.052337460207 2735.82867336097 17 20 11
-58.7104516280126 -249.790193138218 2762.93211704653 17 20 11
-48.2163161754641 -254.368958844809 2742.10844363031 18 21 12
-29.2662614751582 -261.081974629805 2712.58251315617 18 21 12
-21.8467149572037 -264.97035710111 2694.4739425273 23 24 18
-1.04484675693883 -272.238799122817 2662.58191899391 16 18 13
-72.2662846696081 -256.416568726573 2724.66373666942 7 11 10
234.49175542436 -265.288198517127 2804.9547308668 12 17 11
218.848396018123 -263.73853089859 2808.44399261787 13 18 11
232.953204046333 -268.797795538011 2786.52993462087 14 19 12
225.123272264319 -268.988600076031 2783.32325124589 14 19 12
211.861787756183 -267.957919527021 2784.83115180587 13 18 11
223.435808143617 -272.511156847021 2764.79043933114 14 17 10
250.362387049634 -280.569183015687 2731.15857779675 14 17 10
259.37760240103 -284.618722481557 2712.97088863735 13 16 9
246.791489573583 -283.771118958748 2713.73241659138 12 15 8
225.812540008107 -280.991475289275 2722.00587059851 11 14 7
198.041225338043 -276.624888695419 2736.47935098067 10 11 5
197.052168342164 -278.398417971924 2727.10753382297 10 11 5
199.069670589019 -280.878296815103 2714.97121682985 10 13 6
185.134232357612 -279.663946419007 2717.22652090614 10 13 6
181.813873800714 -280.913983773341 2709.8724549718 9 12 5
112.969710132395 -266.810655765858 2762.55298428428 12 15 8
70.0146255651215 -258.68303739311 2791.97630675002 23 26 19
37.7538035578877 -253.013093354916 2811.84769457349 21 24 17
25.7970412339459 -252.110442843173 2813.06573096237 18 21 14
16.1072665110886 -251.736395630727 2812.21877872163 19 22 15
19.7935627549555 -254.554163995957 2798.82012689831 16 19 12
15.2846354060103 -255.422917086498 2793.07703557371 15 18 11
8.55362228685008 -255.758852607283 2789.43091556625 15 18 9
-4.7918682878425 -254.492288829385 2792.11414976007 16 19 10
11.9645562449979 -260.527493954571 2765.9418842016 16 19 10
26.3911542574653 -266.039207150476 2741.78843915496 17 20 11
-5.94588060590828 -260.132977163322 2762.84110659368 17 20 11
-29.4067310482458 -256.358028230884 2775.49589672917 17 20 11
-36.1030917946994 -256.689533081638 2771.87521388545 16 19 10
-17.5207295538986 -263.290146854867 2743.31804679101 16 19 10
-30.7661995726043 -262.013269775311 2746.07384025931 16 19 10
-38.9443000899656 -261.988934024675 2743.85088829496 16 19 10
-32.7993604989354 -265.557080791762 2727.29031769569 17 20 11
-19.5968102507609 -270.930334716316 2703.48556673198 17 20 11
-21.4475907021128 -272.531880703014 2694.72497560978 17 18 12
-20.4899425854697 -274.856484232624 2683.05617086854 15 17 12
249.772583125044 -280.270378589746 2772.72701448812 13 18 11
277.750098640602 -288.599230103407 2738.62059091712 14 19 12
219.260735467381 -277.283100188982 2779.03135993076 13 18 11
223.067865207409 -280.127463676902 2765.72016817798 13 16 9
239.182866656694 -285.816898087816 2741.55474599282 13 16 9
254.399105045013 -291.339679838838 2717.97367204199 13 16 9
246.438056240897 -291.536446300322 2714.67190894119 12 15 8
207.068588181003 -284.431359480942 2739.27853328084 11 14 7
219.079110356446 -289.253758793973 2718.31785027989 11 12 6
196.699753050838 -286.054869353328 2728.04831565089 10 11 5
189.605058766396 -286.420794440348 2724.13869797934 10 13 6
190.088775085337 -288.574738841822 2713.36223101506 10 13 6
187.51112280953 -290.015960214836 2705.31056370008 9 12 5
123.911576863613 -276.943095566589 2753.14166898969 12 15 8
62.8977047884822 -264.379568178621 2799.13949466801 23 26 19
47.1248619451798 -262.563647530725 2803.77127636552 20 23 16
23.1970795020282 -258.765228143339 2816.08769641128 17 20 13
21.7026188884808 -260.356548319724 2807.5854609395 18 21 14
21.6650443344482 -262.310322799068 2797.66744410285 15 18 11
22.3314777528887 -264.447374044231 2787.02351823054 14 17 10
6.72843057192951 -262.616144714876 2791.7784659688 15 18 9
-3.66988225491549 -262.044729724508 2791.65421014845 16 19 10
-18.4420867455808 -260.385546233284 2795.77525093164 17 20 11
7.77832043601068 -268.86294611623 2760.39460408105 17 20 11
1.73339660906402 -269.380313747557 2756.00988922478 17 20 11
-39.1932017885579 -261.186892203827 2785.66900128178 16 19 10
-39.3380943281314 -263.148116375102 2775.67285513595 16 19 10
-22.1842668047643 -269.476571625652 2748.55185901039 16 19 10
-13.813139879854 -273.632357589896 2729.89671824563 16 19 10
-18.4527976237414 -274.5153456731 2724.05878556477 16 19 10
-10.2197695389294 -278.682438671145 2705.3034767313 17 20 11
-7.78336766155618 -281.395874671374 2692.23431490084 17 20 11
-23.1824640397711 -279.543881241593 2697.13721610279 14 15 9
284.720159903242 -293.998099727602 2753.52716720053 10 15 8
296.304871140197 -298.675992725284 2733.49357334519 12 17 10
241.524771529713 -288.091811337817 2770.41378711143 14 19 12
235.213143472976 -288.634668334116 2765.83560355858 12 17 10
232.776915160456 -290.077875147317 2757.88644743608 11 14 7
249.642530709491 -296.028649376412 2733.02880106383 12 15 8
247.876880950234 -297.660937431217 2724.32976728248 12 15 8
229.943597943903 -295.502805404284 2729.86750090325 12 15 8
225.104327582092 -296.412489605535 2723.88443507759 11 14 7
208.792466052036 -294.608332285261 2728.12541104227 12 13 7
213.872902707009 -297.871842704819 2713.26507032561 12 13 7
204.450495604553 -297.695285327308 2711.37590162466 10 13 6
208.681828163868 -300.785013478582 2697.13594409893 10 13 6
144.108249157037 -287.342132063808 2745.49786287285 9 12 5
54.2758551376474 -269.656657717268 2807.68392533932 23 26 19
47.5134379196485 -269.990885151031 2804.01534295924 16 19 12
39.2615623374186 -269.959691441523 2801.73865013582 14 17 10
1.24484672767844 -262.620022167594 2827.32739627915 16 19 12
27.9904836405924 -271.173653647755 2792.32681906466 14 17 10
14.5802372442798 -269.858745611357 2794.96335525463 13 16 9
-0.262604278889356 -268.173251464213 2799.03361749118 16 19 10
-5.49015054183966 -268.867867723941 2794.00550264631 17 20 11
-11.4563224573836 -269.379034803625 2789.67790813828 17 20 11
-13.7669771781976 -270.809201052332 2781.81984904531 17 20 11
-16.8296134314194 -272.056989737831 2774.65291737595 16 19 10
-32.9933682374728 -269.990796974769 2780.23762295599 15 18 9
-49.0963690259902 -267.919144764402 2785.86639807307 17 20 11
-23.2379407245187 -276.546611224046 2750.22258489047 16 19 10
-22.7817373646448 -278.724172767877 2739.42605356953 16 19 10
-18.7758645123624 -281.829656429581 2725.02257568586 17 20 11
-10.5375564314119 -286.05092753614 2706.27082001147 18 21 12
-8.81070315740429 -288.611527018669 2693.92339650922 18 21 12
-14.9586097043994 -289.135504828176 2689.46399379958 12 13 7
328.259017561066 -311.921714125052 2717.06660692612 14 19 12
259.972053929492 -298.089707781847 2765.20895266791 15 20 13
242.71228758326 -296.082193293752 2769.9988388754 13 18 11
244.173712915591 -298.451060443442 2758.69500878499 13 18 11
254.118946105803 -302.833915068261 2739.94478446831 13 16 9
267.064082599996 -307.956647409387 2718.42477098047 13 16 9
252.145001643556 -306.496180381463 2721.20358918888 13 16 9
245.729704434678 -307.048092917203 2716.55020778715 12 15 8
232.414966913099 -305.948550640943 2718.01955842242 11 14 7
217.610047532486 -304.478118326428 2720.88118526962 11 12 6
221.906511954372 -307.600746368371 2706.68827657662 11 12 6
236.780106777736 -313.305664087883 2682.85789043859 8 11 4
175.754421190093 -300.594888958887 2727.61256698219 10 13 6
59.1712978011527 -278.194477760923 2803.77868172907 20 23 16
54.6425562621096 -279.082221472057 2798.02113048397 21 24 17
44.8770516195096 -278.674280871496 2797.11945168495 18 21 14
29.9206557611065 -276.966560645108 2801.10750853999 18 21 14
1.65372304483125 -271.913730417137 2817.69554851815 15 18 11
-4.27695998117539 -272.422560195321 2813.39369250242 14 17 10
-4.3046928896211 -274.419030889075 2803.48259381994 16 19 10
-6.57555321651326 -275.85995340083 2795.65332804978 14 17 8
-12.5370965594396 -276.370865002143 2791.32909018688 14 17 8
-11.9170845260621 -278.56030836277 2780.65124708546 16 19 10
-17.1708409521352 -279.259318202992 2775.60410967964 16 19 10
-18.7948557298925 -280.89303690882 2767.00774287249 15 18 9
-18.9966436536131 -282.903010561777 2756.97039959977 17 20 11
-32.2405400601447 -281.544694669607 2759.72774631677 15 18 9
-36.0764020013591 -282.619544115959 2753.23619944526 16 19 10
-14.7904210720353 -290.263270197442 2721.6932186729 18 21 12
-5.1281557056706 -294.915500889238 2701.5014638698 17 20 11
-11.2662448317851 -295.439041841058 2697.04918023084 16 19 10
-14.5588090467501 -296.715314985194 2689.71542459571 21 22 16
327.895859258317 -319.799371000623 2717.99848046636 14 19 12
247.087105526495 -302.794423745595 2776.84164335979 15 20 13
242.340134579138 -303.707075474205 2770.92576679534 13 18 11
253.914603264813 -308.511499219934 2750.88410699281 13 18 11
262.285792270956 -312.582852864211 2733.46447552761 12 15 8
236.548900354804 -308.492571765812 2745.70624295141 12 15 8
245.619600490705 -312.755930604445 2727.5573983821 11 14 7
256.139243501821 -317.398866167168 2707.98722201269 10 13 6
248.928076326262 -317.767187445496 2703.99286404251 10 13 6
199.673845179303 -307.882566477483 2737.50454564516 10 11 5
205.549675800231 -311.411805076273 2721.98412591713 10 11 5
222.755823585083 -317.749026315658 2696.13634457045 9 12 5
197.382939545026 -313.627235588424 2708.64185419741 11 14 7
179.676015571779 -311.367602564635 2714.34419443456 9 12 5
45.2415611200312 -280.062286176107 2827.01989679734 22 25 18
61.0629952953179 -286.013820888975 2802.64033384052 21 24 17
57.2794632115095 -287.095244663827 2796.18668869916 20 23 16
43.7721378747598 -285.734730389663 2798.75308129802 17 20 13
13.1797839207444 -280.043810822362 2817.36401020693 18 21 14
-6.87318695414318 -276.976464570057 2826.31018319852 14 17 10
-6.85472088796968 -278.991128970194 2816.43218850695 14 17 10
-10.5628541812772 -280.065189982026 2810.03323885176 16 19 10
-18.7003905329706 -280.007098735837 2807.83986369502 15 18 9
-27.5594263503178 -279.758604364274 2806.35975371366 15 18 9
-15.1874389650961 -284.99659305027 2784.423668409 17 20 11
-2.19696156609794 -290.433199930028 2761.69989704505 17 20 11
2.68009362931121 -293.793612049612 2746.69133546475 16 19 10
-4.10839778500471 -294.122483807166 2743.00387847086 16 19 10
-47.7513717118172 -284.761103182933 2775.64018887324 15 18 9
-1.10242971489516 -299.152940309705 2719.21965806916 16 19 10
10.0271042085609 -304.243684854899 2697.61896866162 17 20 11
13.1730554751579 -307.24711875047 2683.82766880023 17 20 11
-8.7257115028252 -303.579061282183 2695.14423189081 16 19 10
-47.6090279776211 -295.320031692409 2723.81452720173 21 22 17
277.999780409803 -317.912315812293 2751.00436372508 15 20 13
248.207612214467 -312.828120596865 2766.48718130121 13 18 11
251.992070880188 -315.816451230983 2753.15882558087 13 18 11
226.245877832937 -311.658885780804 2765.39389674772 12 15 8
226.904714246074 -313.896503870939 2754.74395425325 12 15 8
216.726181486982 -313.497756806688 2753.54311046807 11 14 7
233.484693211673 -319.703292414791 2728.60653183123 11 14 7
249.343885929433 -325.731287282645 2704.2539535619 10 13 6
214.60973754614 -319.288096133817 2724.80665869644 10 11 5
199.097994694358 -317.56370959002 2728.39221708247 10 11 5
223.93078877923 -325.878373500455 2695.71159406231 8 11 4
224.325318728978 -328.138408648236 2684.87023110215 11 14 7
147.584027807162 -311.034113638116 2744.19212007106 9 12 5
31.3945100275665 -285.85230030725 2830.53883273891 20 23 16
43.4335743180889 -290.933647094487 2809.5975289063 18 21 14
59.101687345104 -296.977300779719 2785.10635357631 17 20 13
24.7366203545654 -290.24652556721 2807.16310698821 18 21 14
7.61874643578331 -287.894544289787 2813.29292994291 14 17 10
12.7798619144515 -291.272928615719 2798.49019869132 13 16 9
3.84721398619625 -291.020420428948 2796.95674605057 16 19 10
-28.622267775916 -284.635678015067 2817.91582366561 16 19 10
-30.1121083242661 -286.291505697945 2809.41661063445 17 20 11
-5.28952146347184 -294.85984161309 2775.49226665181 17 20 11
1.84049831031263 -298.832359057598 2758.40871685327 17 20 11
0.163598222663541 -300.503519880752 2749.77382270464 16 19 10
-0.0903069138513679 -302.561816903162 2739.69815930772 16 19 10
2.51098595594001 -305.393679392027 2726.74822510012 15 18 9
2.89693175110894 -307.651194144418 2715.90035759239 15 18 9
24.7959406188119 -315.704458369611 2683.56466283459 16 19 10
15.7238012547003 -315.461349101088 2681.92974779069 16 19 10
-49.0271795403034 -300.126466438529 2736.34841968179 17 18 13
-64.3004672237377 -298.122329796514 2741.34329292684 18 19 14
224.431833138346 -312.685835326374 2797.42200013763 15 20 13
222.871713592615 -314.365806872332 2788.87201254503 13 18 11
253.958357135891 -324.057886375562 2752.07211622106 13 18 11
241.391888920971 -323.07810179842 2752.84826002003 12 15 8
213.388708258186 -318.273666597921 2767.15616806234 13 16 9
207.105877828268 -318.814310152917 2762.59887173526 12 15 8
220.051436216364 -324.141571139152 2741.0781281094 11 14 7
234.420355804262 -329.861603958482 2718.11714666814 11 14 7
220.373581337754 -328.493769861762 2720.29251815677 11 12 6
209.420304160575 -327.890363138941 2719.76611887977 11 12 6
201.534092378784 -328.053525068207 2716.51877694713 7 10 3
193.656150521691 -328.21590791209 2713.2771395286 9 12 5
60.3385473805509 -300.524519584858 2804.51173979541 19 22 15
19.0908170410262 -291.9638290542 2832.70488011505 18 21 14
22.1334754680935 -294.792984698855 2820.07462045281 17 20 13
35.5525550427167 -300.336223889226 2797.66101183912 18 21 14
31.0293956739671 -301.239586468599 2791.90742811575 14 17 10
22.053216448354 -300.980100249292 2790.34215957663 13 16 9
2.75644507941397 -298.001649249413 2798.60073634998 16 19 10
-6.89153061152759 -297.541938257328 2797.78481350046 16 19 10
-15.7841098019371 -297.274723601793 2796.28018755703 17 20 11
-0.510478864429231 -303.430032985131 2771.50247818356 17 20 11
5.14996644638988 -307.062870777594 2755.82539629735 16 19 10
6.37489400184243 -309.531371803774 2744.34961925614 16 19 10
-14.2008922491723 -306.146294173543 2754.15343822541 16 19 10
-13.7226208503514 -308.420754384431 2743.37270816303 14 17 8
-2.47257241460064 -313.632644967578 2721.85847419177 15 18 9
-9.29401252762441 -313.958211555662 2718.14714872437 17 20 11
-36.1704289143623 -308.795621338853 2734.50842851467 16 19 10
-28.6391559192047 -313.038304245121 2716.47935066895 15 18 9
-12.6482375638794 -319.644193108784 2689.74896824301 18 19 14
270.308464156319 -329.50974012589 2768.8374840085 15 20 13
237.354297443804 -323.492573422493 2786.97326805747 16 21 14
223.275548184087 -322.100205948518 2789.12558460253 13 18 11
233.360693542459 -326.70013709123 2770.47539159004 12 17 10
256.543046109652 -334.599530440617 2740.30613056046 11 14 7
235.457589994824 -331.466836290636 2748.50386949026 12 15 8
211.368822960282 -327.551166469396 2759.4691456375 12 15 8
235.600215047016 -337.96401805844 2717.69637485868 11 14 7
212.119081498383 -336.339343239191 2717.9743200522 10 11 5
183.449904283196 -333.3381963858 2723.14415913416 9 12 5
149.902207493458 -326.851353775776 2743.32213282305 11 14 7
111.988405968242 -319.177763158674 2767.75184385376 19 22 15
84.7826227302133 -314.227896491984 2782.63853894562 19 22 15
15.7255372407645 -298.298423187356 2836.40870862411 17 20 13
20.275566042999 -301.551362820022 2822.39895410786 16 19 12
37.4306557553838 -308.145854877665 2796.5128565474 17 20 13
42.56183797601 -311.608811877214 2781.68799766097 13 16 9
21.7004923915258 -308.195308825131 2791.28495255565 13 16 9
2.40329567763808 -305.167712764655 2799.54376439381 14 17 8
-2.08846812524155 -306.073501048097 2793.81263322247 16 19 10
1.48571136691489 -309.148946135595 2780.33140038975 18 21 12
-1.58559815509496 -310.452640737831 2773.15789810826 16 19 10
4.81145296459173 -314.326206427531 2756.77854152938 14 17 8
-1.9626607380594 -314.646276580127 2753.10125735036 14 17 8
-21.0638840647313 -311.60066407076 2761.50193125904 15 18 9
-14.0538937436376 -315.680885096458 2744.33082400882 14 17 8
-3.51903640665574 -320.759394800191 2723.5341394538 15 18 9
-20.397981685486 -318.302873316236 2729.83740191832 16 19 10
-23.5976683570591 -319.61571327917 2722.57078997835 16 19 10
-9.67181473842427 -325.703226837372 2698.05172256889 15 18 9
50.4185805283131 -344.741093425486 2626.64915559364 14 15 10
287.199480247199 -341.469645231323 2755.08402669241 15 20 14
257.324925155313 -336.147184989406 2770.50803263131 16 21 15
222.118584597476 -329.441974257594 2790.71976276228 13 18 11
230.654563763603 -333.706273454981 2773.41861389359 12 17 10
249.19478450325 -340.52999963565 2747.30042962972 11 14 7
249.022126182109 -342.649703221614 2737.28335274681 12 15 8
237.238992411222 -341.821965039739 2737.39154562728 11 14 7
239.335920118757 -344.535639415716 2725.31162162516 10 13 6
241.383848884703 -347.253522227674 2713.19615592804 10 13 6
208.955567149785 -341.098710924659 2731.71356794022 10 11 5
185.830049285529 -337.300378733674 2742.14149300034 10 11 5
187.141608046236 -339.818379315263 2730.72826604361 8 11 4
187.650237947201 -342.142367626505 2719.9689981607 10 13 6
172.236788773863 -340.311201928222 2723.62635258939 13 16 9
125.958765676293 -330.348912449003 2755.59053996418 20 23 16
56.6049648091007 -314.216151182227 2809.14664402672 20 23 16
44.5945838615884 -313.144288593829 2810.32666822363 17 20 13
-7.74488006891128 -301.335392314373 2849.02235430242 16 19 12
16.9511253215169 -309.996479669247 2816.2408155354 17 20 13
34.7784756317333 -316.880595391103 2789.60525592188 13 16 9
18.3836851207584 -314.606739422581 2795.02382512097 13 16 9
-2.38212606340049 -311.130413221033 2804.69035315288 13 16 7
-9.06750603493522 -311.441144174475 2801.0774412541 16 19 10
-3.26645004050086 -315.149757159797 2785.50190723693 17 20 11
-7.05363807285275 -316.262902354045 2779.04545114521 15 18 9
-7.93519994869274 -318.178217997477 2769.75084131818 14 17 8
-35.0448580832636 -312.878879966474 2785.94402631951 14 17 8
