ply
format ascii 1.0
comment KinectMotionCapture
element vertex 760
property float x
property float y
property float z
property uchar red
property uchar green
property uchar blue
end_header
-23.9483218140863 608.921066391358 2876.89592505228 172 173 177
-37.0429048979646 610.447364650299 2876.92059386851 173 174 178
-51.9101676507447 612.17585049113 2875.84118224526 177 178 182
-93.8199941323861 616.984486404991 2857.23296190446 180 180 182
-159.460174483717 624.49725406142 2823.53074779239 169 169 169
-183.373538179147 627.258439735322 2817.11150884364 141 141 139
173.125334245594 577.736088708336 2687.22524454323 188 189 191
185.311271619639 576.461052526422 2706.48691042217 185 184 189
191.204216971299 575.876094310215 2720.56000480116 185 184 189
193.155105771352 575.723352819317 2731.39817805238 178 177 182
190.333947332867 576.094449756899 2738.39584791602 178 177 182
189.131625628574 576.287100705632 2746.64651968845 184 183 188
186.339021497948 576.654155652801 2753.6164321067 184 183 188
184.365754759248 576.93066996278 2761.20302156708 184 182 185
179.981511153654 577.471916688556 2766.89355356649 183 181 184
177.223969148019 577.833814387425 2773.82941101535 180 178 181
170.413932793562 578.641513884269 2777.63834367583 177 175 178
166.856511456144 579.090791596753 2783.93866907997 171 169 172
164.124337125832 579.448813155566 2790.84990894404 170 168 171
162.223149349191 579.714884484081 2798.36646639768 177 175 178
157.055467638786 580.340524528762 2803.40558140311 174 172 175
152.71124422555 580.875179845999 2809.05768480919 167 165 168
150.845179926346 581.136351551482 2816.54008829266 161 159 162
145.68928058348 581.759946037669 2821.5678055656 159 157 160
139.705568973946 582.474631872138 2825.98684223545 158 156 159
132.058294144183 583.37266847796 2829.19724181759 158 156 159
129.393545598497 583.720846700171 2836.04264387965 158 156 159
125.07299294397 584.251427018869 2841.67184415542 157 155 158
120.756780028634 584.781414313571 2847.29648481272 154 152 155
114.76905617469 585.495708384893 2851.719901445 149 149 151
110.458139337591 586.024733180649 2857.33942527524 149 149 151
103.625745703844 586.832184788813 2861.1705956824 152 152 154
95.0986916180403 587.826743599946 2863.82311597181 153 153 155
86.5567578745336 588.823030806295 2866.49015652523 149 149 151
78.8478071061674 589.727322492589 2869.76053888599 146 146 148
68.5787338712647 590.914647532317 2871.2802627004 144 146 145
59.1388993817259 592.01046551815 2873.40731204458 145 146 148
48.8266741970946 593.202906218251 2874.96913029061 154 155 157
39.3473897397039 594.303327239904 2877.13433586736 162 163 165
27.2772404623316 595.690644139208 2877.5791774718 163 164 166
14.3172698029104 597.176633745767 2877.47579391984 166 167 169
0.461946734171548 598.762127717608 2876.82989252662 166 167 169
-12.5682590329541 600.256617762524 2876.7949971138 170 171 175
-24.7673135905373 601.659448110288 2877.36555068615 172 173 177
-37.8638854043354 603.161950836941 2877.39537346788 174 175 179
-59.6849437695406 605.631445550004 2871.77605051231 178 179 183
-111.192274935265 611.391187326764 2846.97036730594 182 182 182
-172.505446571965 618.239665040083 2816.15443576937 151 151 151
-195.57234935183 620.851004724666 2810.33404294997 145 145 143
179.52439819901 569.698053530339 2693.39484775662 185 186 188
187.748018754073 568.903875748846 2709.43519771845 183 184 186
192.848776449812 568.440958097401 2722.85966144856 182 183 185
193.204569910748 568.482497117418 2732.41925474126 179 180 182
189.58186129158 568.947229010383 2738.78212726017 177 178 180
187.573967230182 569.239430659277 2746.40078358204 182 183 185
185.582252561483 569.529415732163 2754.00370113675 187 187 189
183.606971014471 569.817021266907 2761.59098989539 182 180 183
177.602449681237 570.534065137982 2766.03034241172 181 179 182
174.027902778618 570.991516620375 2772.34646567564 182 180 183
167.209942654187 571.794937324358 2776.16389916056 181 179 182
163.644519989207 572.250766801006 2782.47120165337 173 171 174
160.08745708852 572.705260590311 2788.77006234867 161 159 162
160.632743566985 572.720951995365 2798.14564438194 173 171 174
156.281649878981 573.259493867961 2803.80365779925 176 174 177
152.757837788501 573.709252106957 2810.07053770273 164 162 165
148.417908084523 574.246032769019 2815.71772542502 162 160 163
143.256054993798 574.870525241791 2820.75122213557 163 161 164
138.094969365881 575.494685088376 2825.78400590622 158 158 160
131.273839571908 576.296411986228 2829.60483726366 159 159 161
126.110290641584 576.920587527089 2834.6400648104 154 154 156
120.947466926167 577.544406283368 2839.67462494062 149 149 151
117.457763555755 577.988773652945 2845.90843114901 150 150 152
113.138274114528 578.521798118575 2851.53587655241 153 153 155
108.823377333716 579.054155153146 2857.15886002215 149 149 151
101.145402206733 579.947069273202 2860.40050255443 149 149 151
92.6122819774022 580.931850436083 2863.06015390419 153 153 155
83.2188230078157 582.009025815404 2865.1439070406 151 151 153
76.3497895744898 582.815346991905 2869.01162838768 147 147 149
65.2253282702682 584.078710498576 2869.95261742996 145 146 148
55.7777917885911 585.162231456941 2872.08913246148 141 142 144
45.4579324388376 586.339595044054 2873.66075993704 144 145 147
35.1154975572157 587.519686698018 2875.25440204239 150 151 153
23.0355971950114 588.886840230401 2875.71156891305 156 157 159
9.20679259455159 590.442396187212 2875.04375911436 161 162 164
-1.21463649471742 591.631873074454 2876.71479434426 169 170 172
-14.2485349366446 593.102857811739 2876.6870398863 167 168 170
-24.7211075574421 594.298559316372 2878.40760356133 177 178 180
-39.5515272963061 595.963713489629 2877.30130451542 169 170 172
-64.8523245561488 598.757106947513 2869.42122867432 176 177 179
-139.886203127472 606.909183715517 2829.36491444672 185 185 185
-188.168696537086 612.1827998341 2807.09708179151 134 134 134
184.336441240668 561.865340078408 2698.27622109898 185 186 188
190.184820165487 561.361699695134 2712.38121401644 184 185 187
193.696237109457 561.097703260642 2724.5206975034 182 183 185
192.454846864953 561.322978321585 2732.80500524228 180 181 183
188.829961229843 561.793586700515 2739.16917102815 178 179 181
185.213328796886 562.262902310368 2745.52499449099 182 183 185
180.800305590109 562.813985335446 2751.24298910106 186 187 189
178.005685873791 563.19743539117 2758.21214199381 184 182 185
172.796513062733 563.830016144323 2763.29143244186 182 180 183
170.020985136509 564.210604072441 2770.24238776803 182 180 183
165.632121097207 564.757609496122 2775.93699463537 181 179 182
162.062420345119 565.219475432398 2782.24731530383 175 173 176
159.31814898933 565.595415347249 2789.16791936782 169 167 170
158.22369397577 565.80000148755 2797.3097139057 164 162 165
155.507975850825 566.172017485415 2804.20254414259 194 192 195
151.159366442072 566.712899772329 2809.85774472167 178 176 179
148.464484145973 567.082023723181 2816.73031211579 172 170 173
142.47613762541 567.792415895737 2821.15492376416 161 159 162
136.48439406824 568.503042965751 2825.58253616036 160 160 162
127.998720043455 569.472571636993 2828.19766488122 158 158 160
121.99509452954 570.184241312343 2832.63725998149 156 156 158
118.490737540122 570.636100564271 2838.88417231124 153 153 155
114.995116721212 571.086698023118 2845.12293382898 153 153 155
110.669691008672 571.623360322568 2850.75573636731 149 149 151
104.66896204632 572.334075153305 2855.19259627468 152 152 154
96.1391659856217 573.307986731715 2857.85089103768 154 154 156
89.2822949066394 574.107850753188 2861.7074893518 150 150 152
79.8810916970134 575.172704946645 2863.80075369894 146 146 148
75.5476364351671 575.709701356865 2869.441480317 146 146 148
63.5714524748892 577.043288121597 2869.80061642093 145 146 148
53.2685287316546 578.202758991834 2871.3584089666 145 146 148
42.9429048945496 579.364927701023 2872.93800645964 150 151 153
32.5947060640828 580.529765440347 2874.53962677331 159 160 162
21.3667231282941 581.78671978083 2875.58436159804 164 165 167
7.53420756872636 583.316119137846 2874.92410277062 169 170 172
-3.75240302241453 584.580081128468 2876.02601999615 174 175 177
-15.9287876069252 585.937520595519 2876.58043286047 171 172 174
-29.0003924746882 587.389009601317 2876.59334074337 173 174 176
-43.8404900613349 589.025971414559 2875.50048091988 170 171 173
-80.4476522792408 592.940645449082 2860.26089534307 181 182 184
-159.869523023684 601.337883728059 2817.44080301497 185 186 188
-197.721038058264 605.388894462184 2801.99981835765 150 150 148
185.180911806105 554.459083739979 2699.94920011401 185 186 188
189.43995322268 554.151681083156 2712.76960618618 184 185 187
192.948805283387 553.91774131941 2724.90685643533 183 184 186
192.504611880431 554.077072339224 2733.82652958601 180 181 183
190.481826471115 554.393235104655 2741.45643179394 178 179 181
187.672114972252 554.78742000543 2748.43932228644 182 183 185
182.459384708964 555.421245311119 2753.52196139282 185 186 188
177.247380199089 556.054654795513 2758.60394127354 184 182 185
172.03610090412 556.687707495326 2763.68525373774 183 181 184
169.258372267614 557.076769524824 2770.63714193326 183 181 184
164.867146118159 557.626945756016 2776.33328792495 182 180 183
160.480724379462 558.176237917265 2782.02513157287 177 175 178
156.098728491278 558.724808261163 2787.7123491281 172 170 173
154.996073543343 558.944033485897 2795.85978482974 163 161 164
152.272372375143 559.32525254009 2802.75918213889 185 183 186
149.56104531434 559.70473473495 2809.64654848353 188 186 189
145.213194981379 560.248250340821 2815.30094392772 168 166 169
140.869707261707 560.790993132571 2820.95078361203 159 157 160
134.874199844184 561.499604968367 2825.38276926993 161 161 163
128.045107557593 562.291986635885 2829.21288872121 164 164 166
122.041377378793 563.001163330782 2833.65295621668 156 156 158
119.371236528709 563.374539332548 2840.5003265379 151 151 153
115.041128262398 563.914740383628 2846.13725589539 153 153 155
109.039570228016 564.623230463421 2850.57526790076 148 148 150
101.354809691139 565.501415775515 2853.82548751476 146 146 148
91.9751980285302 566.550646876306 2855.89928238081 152 152 154
85.1087630104232 567.346514289631 2859.7663063668 157 157 159
77.3894414122527 568.228466884389 2863.05028882283 149 149 151
72.2023460561139 568.854726293964 2868.1085903236 143 143 145
61.9179359560098 569.996131586553 2869.65033079045 148 149 151
51.6109936489522 571.140171030959 2871.21405674541 151 152 154
40.4280752268904 572.373222906058 2872.21757461577 158 159 161
30.0742402682959 573.522761132498 2873.82705294932 165 166 168
18.8404750993558 574.761810266178 2874.88017599878 169 170 172
5.86160406691771 576.178181627937 2874.8058503428 173 174 176
-5.4287482032267 577.424010651896 2875.91416315545 175 176 178
-20.1983029776334 579.023112691064 2874.75718677665 172 173 175
-34.144599677207 580.539494433198 2874.21183830106 171 172 174
-53.3313604553789 582.588419649436 2870.2895068406 172 173 175
-96.911221779274 587.11486381262 2850.5472071259 183 184 186
-171.142712429972 594.75760417228 2811.18663669006 181 183 182
-209.018618324316 598.712386258039 2795.78409506926 159 159 157
170.731142185633 548.392134859909 2679.76962951198 186 188 185
180.471211153908 547.591765571369 2697.13885751974 184 185 187
187.104376946951 547.088375455114 2711.88175564613 184 185 187
190.606983939605 546.884943269973 2724.02069833339 184 185 187
190.955837650312 546.984262073328 2733.57864307391 182 183 185
189.730206026882 547.234545194308 2741.84394393074 179 180 182
186.918315345567 547.637171998124 2748.82775067405 181 182 184
181.70343581196 548.271504128793 2753.91244912912 184 185 187
176.489261311697 548.905364081435 2758.99651726336 186 184 187
172.084717587359 549.460609912072 2764.70513851918 186 184 187
170.117604572014 549.779484144014 2772.27935646334 184 182 185
166.541143771605 550.253540752982 2778.59492602561 183 181 184
161.343432564652 550.884322775861 2783.6631007829 182 180 183
156.146531606914 551.514737294232 2788.73052526774 176 174 177
152.587721079831 551.985949633118 2795.02898822955 169 167 170
149.037269509281 552.455914839731 2801.31899710757 153 151 154
144.67274896676 553.004522954043 2806.98885580378 182 180 183
141.962028943376 553.391948382592 2813.87444534481 170 168 171
137.610838039539 553.938538717693 2819.53170358163 164 162 165
132.435716904163 554.564998682446 2824.5780848622 158 158 160
126.431010755738 555.272041151912 2829.01909910554 154 154 156
122.087818192716 555.817062965213 2834.66864669853 162 162 164
118.583189625978 556.280072077568 2840.91418076406 165 165 167
112.57893230329 556.98651420807 2845.35517588864 159 159 161
106.571487271051 557.693240262359 2849.7992944921 155 155 157
97.2007954003136 558.728344255415 2851.86631985332 155 155 157
88.6535905620427 559.683280678145 2854.54470630952 151 151 153
82.6231913823552 560.392340263594 2859.01127382584 147 147 149
75.7436702880065 561.184474775046 2862.89150635826 147 147 149
68.8571779958904 561.977311210264 2866.77855764908 149 149 151
57.7155403300846 563.186908138317 2867.74454974917 147 148 150
49.1022293946366 564.149293752582 2870.48747954984 153 154 156
37.0601096027272 565.448103010915 2870.91756885154 160 161 163
27.5539715413773 566.498807927787 2873.11678847257 165 166 168
14.59968066467 567.888227680043 2873.0220377947 166 167 169
2.47070425029916 569.19733793864 2873.53685452315 168 169 171
-10.5498671002637 570.594700615993 2873.50674737477 173 174 176
-23.6043679753131 571.996150704636 2873.51006647016 171 172 174
-39.2885050461524 573.656889186919 2871.83492683265 170 171 173
-64.5558989798123 576.261499197895 2863.94958310586 173 174 176
-115.980748426825 581.442724131208 2839.14783671232 179 180 182
-188.511584837591 588.706837522036 2800.98827101203 172 174 173
-216.824289325419 591.621120306309 2791.83013038769 166 166 164
169.200064788085 541.144718179451 2679.52702054408 186 188 185
178.142263827368 540.469834809002 2696.2530891044 184 185 187
186.359933390729 539.859875710254 2712.2724588901 185 186 188
191.454880284171 539.538154347445 2725.681824083 185 186 188
191.005905708378 539.730740393432 2734.60099208864 182 183 185
188.177461815444 540.143974988019 2741.59966858894 180 181 183
185.361414096245 540.55538148822 2748.58630569703 181 182 184
183.362752751582 540.889938200411 2756.18953373484 184 185 187
178.15223257255 541.523573343103 2761.27000630089 187 185 188
173.751592577892 542.081232965587 2766.97473218005 187 185 188
170.97722028594 542.486442114764 2773.92090093858 184 182 185
168.215243898471 542.889852687913 2780.85502620946 183 181 184
161.39160838476 543.672966478253 2784.68109679281 183 181 184
155.377831258336 544.38016646508 2789.13143321238 179 177 180
150.179485255863 545.010704185475 2794.20027443881 172 170 173
144.981927436265 545.640965636416 2799.26837382049 155 153 156
140.607538054921 546.193677862755 2804.94742583357 163 161 164
136.237848973149 546.745561666342 2810.62193282021 189 187 190
134.351985381822 547.06359864521 2818.11559263087 172 170 173
131.654095808436 547.457455836484 2824.98749073366 159 159 161
128.138356479881 547.927749481648 2831.24331914115 154 154 156
121.302069701985 548.710394255932 2835.08202193722 158 158 160
116.961466903338 549.257831638715 2840.72864083579 164 164 166
110.116976737965 550.041245220617 2844.57537608746 162 162 164
104.941606423249 550.667087941294 2849.6220960352 146 146 148
94.7271218690324 551.768748858265 2851.10027360266 151 151 153
87.0159340463665 552.634285197669 2854.37860541475 158 158 160
80.137817092409 553.421187822339 2858.25855472757 155 155 157
72.4067769897743 554.288873044114 2861.55628254327 148 148 150
63.8172415403084 555.2380302892 2864.27755808208 147 147 149
55.2127438497836 556.188939378355 2867.01309458366 145 146 148
45.7421380601253 557.222237676887 2869.17994066622 149 150 152
35.399307141541 558.33866344059 2870.7833858329 154 155 157
25.0339426697348 559.457870947894 2872.40879601055 161 162 164
12.9314774288334 560.742498727537 2872.90090525153 164 165 167
-0.919906976095231 562.19416765155 2872.27087199054 168 169 171
-13.9480823103924 563.568488619498 2872.251721265 169 170 172
-27.0103117311793 564.946866770838 2872.26578710083 169 170 172
-44.4321519064403 566.741287777512 2869.46263547982 170 171 173
-77.5139591605374 570.029152073747 2856.48293762807 174 175 177
-145.477146233916 576.64562406414 2820.96857200221 175 176 178
-201.525177309087 582.132559541316 2793.62764499315 145 147 146
-224.629301614776 584.480637243128 2787.8831237052 171 171 169
169.252242000927 533.7437739006 2680.56906413269 188 190 187
175.813748194138 533.330558720764 2695.36979348481 185 186 188
185.615445497676 532.62487853734 2712.66382863623 186 187 189
191.505426888431 532.267088082146 2726.70629097634 183 184 186
187.859143731461 532.762874119499 2733.08764572882 183 184 186
183.42039327594 533.329318566912 2738.8289174657 181 182 184
179.789145048805 533.822649008612 2745.19570524656 181 182 184
179.386879759961 534.02490133908 2754.06739940914 184 185 187
176.587512716502 534.441988860155 2761.03663270723 187 185 188
172.991432907244 534.930148653648 2767.3692619488 187 185 188
169.404046482085 535.41708153238 2773.69377771091 185 183 186
166.63795584314 535.829236923594 2780.63069601404 185 183 186
161.439900998653 536.460445564817 2785.69914895447 185 183 186
154.609107562251 537.239125046249 2789.53298284978 180 178 181
149.408655345121 537.870105194948 2794.60385018778 171 169 172
144.208991310867 538.500809074191 2799.67397568104 164 162 165
139.010072673081 539.1312715623 2804.7433966621 152 150 153
134.636528209599 539.686517832599 2810.42157297065 170 168 171
133.572898142776 539.941040090649 2818.52503950235 203 201 204
130.872871365586 540.343392861715 2825.39780423713 158 158 160
127.355040055395 540.81955227292 2831.65484305565 157 157 159
119.684583165385 541.673024993963 2834.89451144703 156 156 158
114.505658090977 542.299817083607 2839.94462100738 147 147 149
107.655305429848 543.078780469521 2843.79783554102 151 151 153
103.311960289945 543.629171234268 2849.44640327444 165 165 167
94.7736203906246 544.562026672772 2852.11925027504 153 153 155
88.7462410308562 545.265929086992 2856.5835812932 151 151 153
81.8717448189759 546.047258009599 2860.46042110435 154 154 156
73.2988427813468 546.983998804194 2863.16701456528 150 150 152
63.0157601172057 548.077648909419 2864.71449506443 145 145 147
55.259114236748 548.94039496388 2868.0383798028 146 147 149
45.7885868249175 549.960444880097 2870.20710616014 145 146 148
35.4457732134459 551.06100584764 2871.81287895055 150 151 153
22.5141975167915 552.399797241072 2871.70305461242 159 160 162
9.54877732995918 553.742665325867 2871.62657366214 164 165 167
-5.1696331141815 555.247557749249 2870.43239650542 170 171 173
-16.4848153721748 556.440644024618 2871.57316121826 167 168 170
-29.5526929876031 557.795733908262 2871.59627779065 168 169 171
-49.5753688431839 559.792521173343 2867.09481900785 170 171 173
-89.6042179954208 563.635305398333 2849.59566930824 174 175 177
-161.93779846569 570.462493830651 2811.3051407031 172 173 175
-210.18376612116 575.074651539388 2789.09880069819 137 139 138
-228.069998624119 576.887901073224 2786.75401467547 170 170 168
176.42785729406 525.728904643471 2687.38136363292 188 190 187
181.419416890625 525.490802577487 2700.88103504441 185 186 188
188.052728987764 525.109000775388 2715.60547934694 186 187 189
190.758719325027 525.06359472757 2727.09520863736 183 184 186
187.11040470344 525.565314317162 2733.47804152979 183 184 186
181.067083283143 526.273349359174 2737.95759244914 181 182 184
176.626696470882 526.842548792804 2743.6997440847 181 182 184
176.216310048988 527.062159286068 2752.57693712357 184 185 187
173.408917175865 527.48848474179 2759.55277482645 187 185 188
171.422794509842 527.842836953907 2767.14062600477 186 184 187
167.83112972832 528.335835810625 2773.4681558471 185 183 186
164.248159946419 528.82743064244 2779.78759678253 185 183 186
158.229387348586 529.530572366108 2784.24349358859 186 184 187
153.024168363615 530.162684161072 2789.3189271407 185 183 186
148.638242538071 530.723071950703 2795.00830056851 169 167 170
144.256996022776 531.282604479206 2800.69315377928 166 164 167
138.235425908888 531.985155373 2805.15191588453 156 154 157
133.03521130566 532.615692784905 2810.22261270472 159 157 160
130.314869894971 533.028980111671 2817.11393404832 178 176 179
127.606923311749 533.440586935835 2823.99319552256 174 174 176
124.911328769586 533.850548135719 2830.86043445998 152 152 154
117.234969571682 534.696951566947 2834.1070087683 166 166 168
112.05017551447 535.324660441608 2839.1628108149 154 154 156
106.030084628079 536.025668572262 2843.6203320451 145 145 147
101.682801523111 536.579445252576 2849.2723097992 158 158 160
93.980428827432 537.428361503792 2852.54434450166 159 159 161
87.9509887444314 538.130047014207 2857.01104950586 156 156 158
79.3868146481627 539.055351521975 2859.7103284282 152 152 154
71.6540445828424 539.907556087281 2863.01239999868 149 149 151
62.2147167871177 540.910860114297 2865.15228186913 149 149 151
53.606582618269 541.841133245949 2867.89481727494 151 152 154
43.280494209244 542.923870543715 2869.48661602268 152 153 155
32.0785279628724 544.08484607188 2870.51970151676 152 153 155
18.2840471322501 545.476416874425 2869.84204464141 153 154 156
6.16615676350563 546.720426781719 2870.35513672416 156 157 159
-8.55964158101097 548.196930022661 2869.17282961249 158 159 161
-21.6048953683092 549.525373891806 2869.17741865841 161 162 164
-36.4104093381572 551.011484287752 2868.07285040779 163 164 166
-54.7181986427918 552.810624252732 2864.73151474929 170 171 173
-99.0928071959232 556.93369849167 2844.42145720466 164 165 167
-181.004606787949 564.40882052027 2799.95912361408 148 149 151
-214.487679519216 567.57375493383 2787.39605729592 138 140 139
176.480175396282 518.349761069073 2688.42004518169 187 189 186
181.471264962956 518.146893162821 2701.91497574639 184 185 187
187.308812907072 517.871559725471 2715.99698032089 184 185 187
188.417775743565 517.98578126088 2726.21483216346 183 184 186
185.56257254988 518.427421557355 2733.23588269465 183 184 186
179.515149313696 519.133526492136 2737.71979204682 179 180 182
175.070654737007 519.706103762826 2743.46552351034 180 181 183
175.461039230476 519.875608080186 2752.97185418132 183 184 186
171.844529569312 520.377740811143 2759.32304321578 188 186 189
170.663306287959 520.676057702668 2767.53714656214 186 184 187
164.636880104005 521.378172380287 2772.00045744732 184 182 185
161.858626779075 521.808460795981 2778.94677342433 184 182 185
155.019229026266 522.578039827736 2782.79083441751 187 185 188
149.806079245767 523.211298847558 2787.87397380748 187 185 188
146.230762285082 523.706895338995 2794.18488609278 171 169 172
143.484680995672 524.132272910435 2801.09998058357 167 165 168
137.461029169229 524.832580062048 2805.56114148427 161 159 162
132.258750060737 525.463643097365 2810.6338107018 150 148 151
127.057131583659 526.094445943115 2815.70586235847 151 149 152
125.997718104479 526.375562293474 2823.80121116108 195 195 197
122.46790147173 526.864377753231 2830.06828102363 167 167 169
117.282210246218 527.492671480823 2835.12488753061 163 163 165
109.5948913531 528.332407310961 2838.38333044682 164 164 166
105.240948108182 528.89003101789 2844.04135322949 150 150 152
100.053624280295 529.518058810341 2849.09962023987 151 151 153
94.0272239170437 530.217061331549 2853.56370330206 154 154 156
85.4721977625186 531.130880013362 2856.25593362507 157 157 159
78.589888137313 531.902815427408 2860.14192062762 154 154 156
69.16360211572 532.891430183006 2862.27136073346 146 146 148
59.7184850612882 533.882255020937 2864.41883584208 143 143 145
49.4052958493389 534.947592008868 2866.00039725464 145 146 148
39.0696591954911 536.015581947046 2867.60385720394 150 151 153
26.1513146332955 537.304957042799 2867.48853570291 151 152 154
10.6325387576214 538.81783026671 2865.67104437473 152 153 155
-1.50246360404571 540.042637659515 2866.20430488466 152 153 155
-14.5270924079695 541.34474646913 2866.1923053275 153 154 156
-24.1410749439823 542.355473716754 2868.50452478816 158 159 161
-40.6784692196234 543.961071241863 2866.26792266015 160 161 163
-65.0507143511936 546.241459319856 2858.95884995998 168 169 171
-109.447984409524 550.246605798466 2838.68838745448 156 157 159
-186.167939876074 557.039518031031 2797.67343779796 145 146 148
-210.953599708675 559.369884276722 2790.76716741395 146 148 147
173.367036720696 511.220209277052 2686.89720743557 187 189 186
177.556316159905 511.116476750963 2699.75644798416 184 185 187
185.769610883398 510.690770102691 2715.75259177681 184 185 187
185.279941090403 510.954076208976 2724.70205618269 183 184 186
184.814253395667 511.214093630997 2733.62819207657 183 184 186
180.366859562399 511.790250200089 2739.37627352599 179 180 182
176.727270857429 512.301425169182 2745.74904395327 180 181 183
176.316266415842 512.553870756758 2754.62199768223 182 183 185
171.894347358545 513.126049230817 2760.34537026324 187 185 188
169.903772382976 513.50292861516 2767.93431314454 185 183 186
163.064671736694 514.267870623452 2771.77876445658 183 181 184
160.282303891035 514.706933375568 2778.72786937041 185 183 186
155.06819289725 515.340814806622 2783.81187126728 188 186 189
149.038097338804 516.040148781743 2788.27923688219 185 183 186
144.642294018169 516.607636146902 2793.97770733647 175 173 176
140.25096041147 517.174248742962 2799.67153074723 166 164 167
136.686671242271 517.673703231615 2805.97092206226 162 160 163
130.657942128677 518.37193788993 2810.43743109776 155 153 156
123.799748330841 519.137281953252 2814.30078276799 147 145 148
121.904131392865 519.500303365688 2821.79747911642 172 172 174
120.02479987122 519.861124320565 2829.27832903235 198 198 200
117.329608346918 520.287428047405 2836.14275234873 159 159 161
109.642254243932 521.119384431211 2839.40238002763 157 157 159
104.452206356383 521.74807996321 2844.46325337791 160 160 162
99.2628395510629 522.376601180734 2849.52347616706 154 154 156
92.394391350846 523.142042151378 2853.39665844559 153 153 155
81.30997338833 524.252227866446 2854.32052346831 148 148 150
72.7305133827389 525.158335528178 2857.03815665203 146 146 148
63.2907005188805 526.135387571218 2859.18273807607 142 142 144
53.8320141050299 527.114655056555 2861.34539593085 141 141 143
43.505407317971 528.165761959875 2862.94238439413 137 138 140
34.0078612745218 529.149531983694 2865.14330280432 141 142 144
22.7848067193048 530.275897729934 2866.20244461148 143 144 146
8.96904690616207 531.616797336279 2865.55306941901 146 147 149
-5.74159106840133 533.032862811418 2864.36464051125 148 149 151
-18.7757371279993 534.312171109957 2864.36546163524 150 151 153
-30.1215739547138 535.453219433291 2865.54435797457 156 157 159
-46.6722990558122 537.02576488197 2863.32587863576 155 156 158
-77.9780608258593 539.821876679098 2851.48937864561 159 160 162
-150.146038508021 546.009133508262 2813.1289856353 154 155 157
-192.199700676032 549.709214312695 2794.82744021839 150 151 153
-209.161037335443 551.331430479308 2793.00936291653 155 157 156
168.67130544261 504.187904335174 2684.09737801934 187 189 186
174.435265204917 503.997681768264 2698.23987739673 184 185 187
180.254307017517 503.800397296043 2712.32872323045 183 184 186
182.939592948742 503.838919379302 2723.82660776101 182 183 185
181.668632217133 504.177031045492 2732.12394007173 183 184 186
178.815554793816 504.634708235357 2739.14050943568 179 180 182
175.974831296334 505.090533172443 2746.1450849308 179 180 182
175.561319898497 505.359701173359 2755.017718697 182 183 185
172.751233780176 505.811251000208 2761.99250268114 187 185 188
168.335877659473 506.385301639937 2767.70941930581 185 183 186
162.303310194977 507.083266626537 2772.17944189587 184 182 185
158.706070973927 507.59349594785 2778.51029842591 185 183 186
155.117337068496 508.102446648092 2784.83289803144 188 186 189
149.903863293517 508.736306716417 2789.91627031802 188 186 189
142.235379305324 509.559721980053 2793.15842206781 180 178 181
137.838023585243 510.13007168493 2798.85767318313 170 168 171
134.267962788125 510.635783810768 2805.16220877595 163 161 164
129.881898603531 511.204356225223 2810.85050991237 159 157 160
123.021479439068 511.964863581374 2814.71644842577 155 153 156
120.295512176556 512.403627043275 2821.60959096174 142 142 144
118.412126127881 512.775956821846 2829.09276608383 170 170 172
116.545150057539 513.146116370755 2836.56030445585 184 184 186
108.855762976947 513.970486189769 2839.82307220253 154 154 156
105.335544159397 514.468896025573 2846.07885540612 161 161 163
96.7963105474201 515.360055232783 2848.75875256137 156 156 158
89.0822053959868 516.186921984702 2852.0456966722 152 152 154
77.1482986281637 517.345630623527 2852.38903565168 142 142 144
69.4028615651256 518.176093447789 2855.70656131598 141 141 143
59.9550510014941 519.140957748743 2857.86054807509 140 140 142
49.6412153215404 520.174739458831 2859.44741529621 140 140 142
39.3050995480988 521.211169468743 2861.05635340396 139 140 142
29.7976853193456 522.182958070484 2863.268504075 140 141 143
21.1253019815905 523.089369726802 2866.07836657095 140 141 143
8.16135402239615 524.336299877616 2866.01426541962 141 142 144
-6.55110019289751 525.723345780824 2864.83192914581 143 144 146
-20.4461640697131 527.047074741981 2864.26417971675 145 146 148
-30.9346911583899 528.101611250102 2866.02145053906 153 154 156
-49.2133655259499 529.777049768345 2862.66948633746 157 158 160
-96.9594901331194 533.803216243112 2840.05374188701 162 163 165
-168.30198220583 539.719698769092 2802.33022126307 153 154 156
-196.493359606607 542.201511383298 2793.11551995002 147 148 150
-208.239221928178 543.372350187135 2794.68724449919 152 154 153
159.858052398653 497.151702884512 2668.38262130647 186 188 185
168.724347844931 496.778241536775 2685.13985105538 187 189 188
174.487770019585 496.626003696758 2699.27727013922 184 185 187
179.511102901157 496.524477785671 2712.72520431295 183 184 186
181.396888667165 496.648386111301 2723.5874749593 182 183 185
179.322449826416 497.058983132786 2731.25471244641 183 184 186
175.662010730648 497.584239615185 2737.64576853647 179 180 182
173.616443433223 497.990653162536 2745.28529231191 179 180 182
172.391901706151 498.335899155372 2753.53513757257 181 182 184
171.187661354037 498.678366408516 2761.76557180629 186 184 187
166.768029581988 499.255858572442 2767.48588771819 185 183 186
162.353098378763 499.832492795259 2773.20166269908 186 184 187
157.130073579079 500.468205579099 2778.29424546384 186 184 187
154.351892239496 500.923192858192 2785.23683947711 187 185 188
149.953014734618 501.497141562249 2790.93740765872 190 188 191
145.558606135914 502.070304052278 2796.63331651053 186 184 187
139.527961082798 502.764416552054 2801.10233735554 179 177 180
135.139020246472 503.336417993145 2806.79298824101 171 169 172
129.106083305836 504.03037715556 2811.26430762739 162 160 163
122.243627381734 504.786040474135 2815.13298461986 162 160 163
118.687401585294 505.295138766213 2821.4232813786 156 156 158
115.969589529008 505.741024870752 2828.30693510877 139 139 141
112.432307548052 506.247469634164 2834.57881256907 181 181 183
107.235365419429 506.877741920714 2839.64629895901 188 188 190
102.03925426009 507.50770305949 2844.71300617168 153 153 155
95.1679641917975 508.263448107846 2848.5904435203 147 147 149
84.0905587975751 509.335805807465 2849.5129359232 145 145 147
73.8287305297924 510.347804161743 2851.05171642769 140 140 142
64.3879692725014 511.298747674971 2853.20076060774 139 139 141
57.4656661582686 512.060098164762 2857.12802618329 137 137 139
45.450879771495 513.207037076815 2857.55341938049 135 135 137
35.1049633705118 514.228735097488 2859.17392919585 134 135 137
24.7365564719679 515.253150465085 2860.81637078508 138 139 141
17.7594522185935 516.020747814217 2864.79746926082 139 140 142
8.20913394804856 516.984441290879 2867.05342073555 139 140 142
-7.36038135919692 518.40746086363 2865.29993258537 140 141 143
-20.3981292801809 519.639340546925 2865.31134033959 141 142 144
-35.1922816329315 521.0068606102 2864.21267959262 144 145 147
-56.9323445172887 522.907414925033 2858.59701606962 151 152 154
-117.67021475276 527.79785156676 2827.49886151038 163 164 166
-184.722805301135 533.183395488551 2792.67943786479 130 132 131
-209.475094142972 535.33317903061 2785.76671963837 129 130 132
160.701443361766 489.637715625567 2670.07293280756 186 188 187
169.568891114162 489.312800815504 2686.82150530041 187 189 188
176.127195645222 489.143501025007 2701.58936336235 184 185 187
179.563338706266 489.186947093214 2713.75781721819 185 186 188
183.04299942091 489.224759647651 2725.88389003156 183 184 186
179.373979334001 489.756981745069 2732.28277549981 185 186 188
174.912283544254 490.343698173756 2738.0434982608 178 180 179
172.864279553358 490.761459113498 2745.68342672724 178 180 179
170.027700314053 491.233184419165 2752.6815368452 182 184 183
168.81738262656 491.590098584742 2760.91587071545 186 186 188
164.391708021059 492.171271500752 2766.64164323674 186 186 188
163.213961704736 492.523725714497 2774.84429243285 183 183 185
158.80536204471 493.102274311708 2780.55349715405 182 182 184
154.401419628594 493.680058882844 2786.25819008592 185 185 187
150.002408905444 494.256972822505 2791.95845229472 183 183 185
147.244757417994 494.717286848188 2798.87953472852 195 195 197
142.858866737217 495.292163500667 2804.56706965145 185 185 187
136.832585386883 495.983055842675 2809.031895371 173 173 175
129.154851284788 496.791348796128 2812.28580553347 164 164 166
122.292293131563 497.541924198818 2816.15533603272 162 162 164
117.90747590821 498.115794030445 2821.84161596224 162 162 164
112.697220525242 498.748334352508 2826.92198739589 157 157 159
106.655745995958 499.440126528173 2831.40210501372 144 144 146
101.445154245311 500.072296472942 2836.48286520705 182 182 184
97.0712905742435 500.644195746993 2842.15855934478 154 154 156
90.1885232948878 501.39618538553 2846.04828662357 149 149 151
80.779086215705 502.330413237454 2848.16869599914 150 150 152
71.351238642575 503.266742595868 2850.30741450761 133 133 135
61.0610308278776 504.266233191248 2851.87588712103 142 142 144
54.1308661038791 505.023473958374 2855.81156680651 131 131 133
42.1084937484242 506.150051971544 2856.24750231471 145 145 147
32.6043376042984 507.095218196578 2858.4603524352 135 136 138
21.3787288189904 508.166386793974 2859.53018874509 136 137 139
14.3937228896491 508.929892509334 2863.51940060157 134 135 137
4.83586970612171 509.88131382646 2865.78498601809 135 137 136
-8.16956074482622 511.085354942082 2865.76841657496 138 140 139
-21.2091311243343 512.293552516094 2865.78513426284 140 142 141
-37.7269377335909 513.758120408894 2863.5502632526 143 145 144
-68.1031716032399 516.241817253387 2852.25381242769 148 150 149
-143.569577903393 522.043836583519 2811.55743277403 173 175 174
-201.142940544692 526.544029475829 2783.04286620436 123 125 122
-222.456210100695 528.383345784795 2778.4290130234 135 137 136
144.177763235138 483.264927411424 2657.66562618706 185 187 186
168.830952830294 481.955430170998 2687.22479577545 188 190 189
175.386636448334 481.826985409933 2701.98888024527 184 185 187
178.820612021652 481.900588881523 2714.1553670394 185 186 188
179.906345647524 482.126447859644 2724.37978586623 183 184 186
178.626655493745 482.506702311434 2732.6795579369 185 186 188
174.162785662326 483.096641253942 2738.44196326727 178 180 179
172.915479349744 483.472325010876 2746.70991540962 177 179 178
170.078653842981 483.952425451416 2753.70703223353 181 183 182
170.481668650714 484.215483718502 2763.18699358282 186 186 188
166.0598754393 484.799191179768 2768.90887505972 185 185 187
163.264148685664 485.273461812354 2775.8660418573 182 182 184
156.417247358566 486.018584262572 2779.72083084074 182 182 184
152.007261839743 486.600079104149 2785.43097628658 185 185 187
147.602250800296 487.180668435931 2791.13665367681 184 184 186
145.657201509894 487.594826343203 2798.67487913034 195 195 197
142.087453608173 488.117730958847 2804.97622512892 195 195 197
136.881610585358 488.750746987268 2810.05214471453 186 186 188
129.203820014818 489.55126317437 2813.30726035367 169 169 171
122.341117115317 490.296756021137 2817.17768578765 169 169 171
117.128030572041 490.930066037729 2822.26075484483 155 155 157
111.085641397911 491.61970321909 2826.74209922572 150 150 152
105.039960941552 492.309620934715 2831.22633259368 145 145 147
95.6554236144629 493.228136379297 2833.32467627627 129 129 131
90.4319693476525 493.862045786258 2838.41795204655 143 143 145
86.0471537273448 494.438067777962 2844.10391229591 169 169 171
79.9874463519834 495.129062630193 2848.60225324347 143 143 145
68.0322286352966 496.226637135983 2848.97545206638 138 138 140
56.046993241563 497.327776418125 2849.37826985594 129 129 131
46.5682944467725 498.256907620015 2851.56821042163 133 133 135
36.2237691424734 499.24686891077 2853.19236737424 127 127 129
28.4051243960115 500.062530929959 2856.58477690292 132 133 135
19.7241016621832 500.938643857236 2859.40735874381 133 134 136
9.32192794334741 501.935341927201 2861.08776573122 132 133 135
-3.66874516076088 503.113817176523 2861.0603206484 132 134 133
-16.6934295649508 504.29631473092 2861.06605479441 135 137 136
-28.8928930127588 505.42272128284 2861.6778697171 137 139 138
-46.2893410137966 506.915218165447 2858.89378970342 138 140 139
-81.8624075776722 509.68726869168 2844.21345827064 144 146 145
-164.277828352055 515.762290790417 2799.04125279949 167 169 168
-210.626953626166 519.312806849881 2777.94238691895 112 114 111
-232.829927630638 521.167857916824 2772.79278849949 136 138 135
156.073234961069 475.014303345864 2668.32801452526 190 192 191
172.841102464926 474.296163319307 2691.45957863367 189 191 190
177.819548504856 474.306145151365 2704.93560530896 180 181 183
178.873254995727 474.557994508697 2715.18832402959 185 186 188
179.95857651872 474.805753389145 2725.40991528466 183 184 186
178.678590824028 475.199784835133 2733.7079445981 185 186 188
175.015446147294 475.742306452203 2740.09913559069 177 179 178
172.16398070085 476.232773485186 2747.10925791329 177 179 178
171.739727690204 476.56885593421 2755.98300617558 185 185 187
172.146309800263 476.850540901522 2765.45667212277 185 185 187
167.72795699323 477.436805608798 2771.17442142542 185 185 187
162.503647255035 478.073712334018 2776.2681036891 182 182 184
157.280061385476 478.710409866441 2781.36109805913 182 182 184
152.057329359303 479.346616460967 2786.45331711046 185 185 187
147.652077731682 479.930302501688 2792.15877571607 180 180 182
143.251295817999 480.51311377331 2797.85958727817 190 190 192
141.316521089298 480.936885641723 2805.38618900078 197 197 199
136.930878513558 481.517434546284 2811.07230135336 180 180 182
130.07725248526 482.256905143117 2814.93494124796 170 170 172
121.563986039693 483.104072801715 2817.59555455478 169 169 171
115.520514064545 483.791648194266 2822.07794106258 163 163 165
109.474128828905 484.479400905203 2826.56353211553 154 154 156
101.760493413154 485.275721556185 2829.85452447226 151 151 153
91.5340014857984 486.236486477379 2831.36544990538 136 136 138
84.6290047853029 486.981194818332 2835.27832750058 132 132 134
80.2305145023623 487.561859675453 2840.9771806786 171 171 173
76.6766079575141 488.086734594232 2847.26284260768 160 160 162
65.5553278798178 489.108704500836 2848.23601267167 130 130 132
53.5644617679889 490.189295362516 2848.64745889511 138 138 140
41.5432830792408 491.273471730857 2849.08847601922 121 121 123
32.8819541845902 492.136870845388 2851.89338068265 136 136 138
25.9051995671999 492.88941655101 2855.87635659102 132 133 135
18.9212638864782 493.642674190784 2859.86602033589 134 135 137
8.51702631589735 494.623812350055 2861.55043866462 134 135 137
-10.4624322990854 496.177624757727 2857.49543054851 129 131 130
-23.5022492127648 497.338075623929 2857.51978783302 131 133 132
-39.1537903289048 498.675064344255 2855.86013000406 135 137 136
-56.5730281603858 500.132976004381 2853.10413015167 130 132 131
-95.6208505994964 503.045788568705 2836.18516514671 132 134 133
-172.875938343852 508.536333779783 2794.47718971205 153 155 154
-214.042503303666 511.612597643089 2776.80385284288 122 124 121
161.653256741028 467.213692419254 2673.85893820617 185 187 186
172.103539553114 466.941870700992 2691.86204142779 185 187 186
176.286378452452 467.034123885031 2704.69904876731 180 181 183
178.130752013871 467.261360557822 2715.58683261843 183 184 186
180.011030207334 467.483910421267 2726.43999318952 181 182 184
180.328781496755 467.796784357161 2735.99725973883 184 185 187
175.868322962633 468.39219013409 2741.75546960482 177 179 178
172.215606770749 468.938809169069 2748.13603720321 177 179 178
171.791033986342 469.291325264419 2757.00767411982 183 183 185
173.004056477461 469.543860373324 2767.1017505013 184 184 186
167.778763998149 470.181421708115 2772.19631189043 184 184 186
160.122042395575 470.965407696306 2775.4326110471 182 182 184
154.892502508905 471.603032733671 2780.53138075931 182 182 184
151.293029910513 472.141612769089 2786.8602648429 185 185 187
146.885458420641 472.728493775716 2792.56721704947 182 182 184
142.482775568072 473.314568547543 2798.26977177006 181 181 183
139.725447371673 473.799684139705 2805.18720535238 190 190 192
136.158063686937 474.333435816437 2811.48460045766 194 194 196
127.65371325121 475.169218894517 2814.13804267093 175 175 177
122.439492733493 475.803467945763 2819.22209899258 170 170 172
115.569721009373 476.539414447906 2823.10095481947 169 169 171
111.183523785707 477.122290536561 2828.78761183084 160 160 162
101.809495091975 478.013400533125 2830.87923295642 155 155 157
91.5829992131556 478.95830333814 2832.39250672725 148 148 150
82.1702395183035 479.853781719871 2834.52228050606 134 134 136
76.927925124048 480.490481527357 2839.63387224172 145 145 147
71.6865479919626 481.126856787162 2844.74458123019 167 167 169
60.5538704272988 482.131675309845 2845.73194197627 131 131 133
47.7076283455853 483.245357360961 2845.57065115952 126 126 128
34.8272896602286 484.363101955433 2845.44261833211 124 124 126
25.3031675885915 485.271380988877 2847.68108466657 128 128 130
18.308775943936 486.020944418792 2851.6816773408 130 131 133
11.3074125630059 486.771268809188 2855.68908058258 134 135 137
1.73929008333351 487.684564073764 2857.9704985759 135 136 138
-14.689559830992 489.034587731207 2855.66388399854 128 130 129
-31.1678970202771 490.390555201847 2853.40553252379 130 132 131
-47.6957212152671 491.752436967326 2851.19544824706 135 137 136
-72.0225797410583 493.61539603392 2843.90266396 130 132 131
-115.419370526207 496.70402709282 2824.19141848492 129 131 130
-186.66305752667 501.588676012631 2786.522625362 140 142 141
-215.723623752954 503.778561840763 2776.79727873542 135 137 134
141.887666385183 460.482727438282 2649.13681871635 177 179 176
161.707810379876 459.754747557434 2674.90719442945 188 190 189
174.531347215189 459.405634411647 2694.81611075725 183 185 184
177.132977618049 459.617987284013 2706.37137434941 178 179 181
181.364626574239 459.736637977042 2719.15601104064 182 183 185
183.25212423994 459.982762812198 2729.99818035656 181 182 184
181.979306574808 460.403399571718 2738.28515945696 184 185 187
175.920414873883 461.091385676224 2742.78279727736 178 180 179
172.267455658066 461.643696355574 2749.16276497955 178 180 179
170.232720013254 462.103686900781 2756.78327626494 183 183 185
169.827981393941 462.47000746499 2765.63317726794 183 183 185
163.786040021155 463.154782234518 2770.11479563783 183 183 185
157.740974983804 463.839803369532 2774.59947944009 182 182 184
154.130609919032 464.385578040729 2780.93777869779 182 182 184
151.3435019065 464.883381629108 2787.88290879745 185 185 187
146.935732614863 465.473324466353 2793.58960488686 187 187 189
143.351284689705 466.015229144121 2799.90307786714 176 176 178
138.954828730641 466.603332974249 2805.59881145451 181 181 183
134.563240150305 467.19063324956 2811.2901682699 200 200 202
127.703353150987 467.920734056614 2815.16007241012 192 192 194
123.315172432747 468.50717548847 2820.84783426277 179 179 181
116.447400089178 469.237815064352 2824.72582687859 170 170 172
110.40257028259 469.920608251707 2829.21026854093 166 166 168
100.194793576735 470.84762936826 2830.70793464402 153 153 155
90.798353301778 471.728149292718 2832.82337600909 147 147 149
81.3833561737862 472.610802212465 2834.95692934777 142 142 144
73.6257543107053 473.396495036367 2838.29348966684 136 136 138
66.6969198347318 474.133607156829 2842.23082340155 128 128 130
58.0778229320398 474.971413427929 2844.99791152574 167 167 169
46.0693627789954 476.011718812079 2845.43244522618 147 147 149
30.6487030311375 477.25734663312 2843.55735972848 123 123 125
18.5722202779299 478.305696627416 2844.05825188658 125 125 127
9.86354727043048 479.153969826263 2846.91274339967 121 122 124
3.69434992602535 479.850364571042 2851.51901140329 128 129 131
-4.18462276792697 480.649926418338 2854.97370707401 133 134 136
-19.7716808977391 481.915306091939 2853.26060047223 125 127 126
-34.5469842117936 483.134312144459 2852.16551049912 128 130 129
-54.5187465731276 484.670827381601 2847.68152186862 136 138 137
-86.6100819580415 486.947685514118 2835.28460639609 121 123 122
-146.435545527362 490.920886437958 2804.83323272776 126 128 127
-198.719411951322 494.448285044265 2779.71202838208 130 132 131
-220.005203901644 496.091987443346 2775.09980118294 143 145 142
139.581079306288 453.058091844342 2648.27358588647 181 183 180
155.44781082535 452.621897733455 2670.84141054809 188 190 189
169.046562671813 452.29579464544 2691.39437319325 183 185 184
174.013795725487 452.413009611701 2704.86568551925 181 182 184
179.827414639971 452.482004376423 2718.92056041603 186 187 189
180.91360579973 452.795050053906 2729.13163874885 180 181 183
180.433603114003 453.188107231329 2738.05232642265 183 184 186
175.171795925858 453.831775530438 2743.18224485078 178 180 179
172.319526555039 454.34752359977 2750.18942895603 178 180 179
169.479696413617 454.861379178039 2757.18454043196 183 183 185
167.459062412891 455.330442251015 2764.78970766067 183 183 185
161.411083616685 456.01364886505 2769.27755305396 183 183 185
156.981321365929 456.609961362662 2775.00514704387 182 182 184
153.36896708444 457.161693744493 2781.34487891814 182 182 184
150.579720521833 457.668140504448 2788.29085517266 185 185 187
146.986292594473 458.217087174738 2794.61186678246 191 191 193
143.401622634704 458.764710335253 2800.92471505713 171 171 173
139.00496914313 459.355846477643 2806.62019662278 173 173 175
132.968527035423 460.036006550467 2811.0970361913 202 202 204
127.753236318997 460.671186596421 2816.18201763548 196 196 198
123.364900316147 461.260684498933 2821.86948194301 183 183 185
117.325104469081 461.940707160041 2826.34967213368 174 174 176
109.622096312626 462.712631264975 2829.63371726368 168 168 170
100.244351247041 463.577896634742 2831.73318646799 153 153 155
91.6817438463688 464.398953141312 2834.44631744749 152 152 154
83.9405184226125 465.175075967358 2837.76769231973 136 136 138
74.5129707037115 466.045941611403 2839.91578857691 136 136 138
65.9065953654152 466.871854066953 2842.67200190034 134 134 136
55.6020586169725 467.794073855798 2844.26612394825 143 143 145
42.7443481925827 468.86140743987 2844.1230716485 161 161 163
28.1615618947502 470.028280893014 2842.84451460778 118 118 120
12.6894565926552 471.248062880187 2841.0239974669 117 117 119
3.11783035456781 472.135765112293 2843.31267738314 120 121 123
-4.76970304643176 472.928710740881 2846.77685183675 127 128 130
-12.6679916719232 473.72283532993 2850.25153213742 133 134 136
-24.853330062296 474.762912934659 2850.86174220797 125 127 126
-40.4971538310339 476.003150348608 2849.20905858179 129 131 130
-61.3413685610427 477.545277691281 2844.17335142413 137 139 138
