ply
format ascii 1.0
comment KinectMotionCapture
element vertex 762
property float x
property float y
property float z
property uchar red
property uchar green
property uchar blue
end_header
105.128515662763 521.898168123812 2853.68852618241 187 187 189
99.1136589886108 522.593356626529 2858.14170990094 185 185 187
91.4119830667501 523.426410877251 2861.41539709345 178 178 180
82.8557363503406 524.32971007269 2864.11039422794 171 171 173
70.9018284078788 525.511828179868 2864.46979691832 150 150 152
60.6130164091181 526.558494778134 2866.02991087326 143 143 145
49.4523299418077 527.67749927093 2867.0282082372 142 143 145
39.9683463320435 528.659618503312 2869.21590293651 144 145 147
24.4915269846429 530.135477211526 2867.36221888477 142 143 145
11.5351830091837 531.405449071746 2867.28716131059 154 155 157
1.9741639703259 532.396660671329 2869.55000948189 173 174 176
-4.16861308889027 533.106471866079 2874.12805880631 184 185 187
-12.898270555906 534.030082606024 2876.99191550024 170 171 173
-23.3685355648459 535.098225434061 2878.72937864126 162 163 165
-38.1867335650172 536.527214940305 2877.64551042081 168 169 171
-52.1795695447409 537.88930436546 2877.16918047545 164 165 167
-82.7194039401933 540.625815410003 2865.99782156276 162 163 165
-143.849299534324 545.907148513454 2835.23151749554 161 163 162
146.511814872985 505.867864022327 2666.17728095028 164 166 161
156.188230217148 505.383117129947 2683.56340693744 174 176 173
160.372153908096 505.312214237961 2696.42345145964 174 176 175
159.819797088863 505.599505083085 2705.43128223333 179 181 180
164.086737946686 505.517871198407 2718.21047551764 187 189 188
166.798729766577 505.552466376209 2729.68242110088 186 187 189
164.731901828072 505.95042809489 2737.34396834179 174 175 177
160.266542033721 506.53116578958 2743.10955100978 177 178 180
156.612518757611 507.049097400642 2749.49531870886 175 175 177
152.967168145529 507.565745740212 2755.87300183332 172 172 174
150.951921054187 507.956379309952 2763.48441162771 165 165 167
151.391221872438 508.156926276834 2772.93757957502 169 169 171
151.858415290119 508.353809516297 2782.36359125608 186 186 188
148.270512353972 508.862449068764 2788.68541168434 180 180 182
143.872410698914 509.43309920149 2794.38535912101 168 168 170
140.299583863488 509.939425390127 2800.69255067255 163 163 165
137.55771087724 510.380665771848 2807.60112173965 161 161 163
132.355065526368 511.012305697274 2812.67406937717 158 158 160
127.979462446487 511.579352932367 2818.35220790281 157 157 159
121.952097933113 512.274644026297 2822.81779692765 153 153 155
120.072580945472 512.646486048248 2830.29720210516 156 156 158
114.880805458846 513.27601854424 2835.35966728395 158 158 160
109.689775368689 513.905309649097 2840.42142795052 159 159 161
104.499618495716 514.534313764573 2845.48236391643 171 171 173
100.986137273171 515.031743243908 2851.73193932684 175 175 177
97.4809506929191 515.527992667629 2857.97311460454 176 176 178
89.7753920279891 516.3537230303 2861.25173988576 174 174 176
81.215286801358 517.247041685562 2863.95204369743 167 167 169
68.4118720385358 518.475001905976 2863.73133445641 145 145 147
57.2698060305585 519.573260720144 2864.71420763121 138 138 140
44.4021949421982 520.808812672405 2864.55612423579 139 140 142
34.9066397407549 521.779181670651 2866.75704637618 141 142 144
21.1253019815905 523.089369726802 2866.07836657095 140 141 143
11.5826867801991 524.065242157505 2868.32486874005 163 164 166
1.1644763055676 525.111372851842 2870.01389434275 179 180 182
-4.98040046606718 525.81886715825 2874.59403330573 177 178 180
-15.4341078902247 526.869220485289 2876.31734595878 167 168 170
-26.7732699624159 527.990852169417 2877.49248393899 162 163 165
-44.1938712954282 529.598244789224 2874.71574484322 169 170 172
-59.9340753530813 531.073724578496 2873.12366170636 165 166 168
-97.4416253295347 534.289746040576 2857.46452571133 162 163 165
-159.474154782036 539.472789544331 2826.19183040905 156 158 157
142.60854731089 498.669286578482 2664.03234551219 158 160 157
151.48116169806 498.29474682162 2680.78312200579 177 179 178
158.038799090956 498.084518315671 2695.55769179207 172 174 173
156.683150064554 498.446911639475 2703.93519417105 180 182 181
162.540072577133 498.282326392351 2717.98159097852 189 191 190
165.247923374405 498.34461520295 2729.4538933936 186 187 189
163.979907587902 498.695371276164 2737.74609465046 169 170 172
161.122252532474 499.161379949975 2744.76597828108 172 173 175
158.276929875051 499.625568569344 2751.77388466143 179 179 181
155.444066897842 500.08795057274 2758.76968541218 181 181 183
151.001968310094 500.667891738395 2764.51194924281 172 172 174
149.815570366262 501.007402046554 2772.72510273652 161 161 163
150.278614222779 501.223884819501 2782.15233819067 182 182 184
149.953014734618 501.497141562249 2790.93740765872 194 194 196
144.740093682643 502.130931951057 2796.02024138179 183 183 185
140.348386538755 502.703576973303 2801.71354413054 175 175 177
135.961401222268 503.27536137446 2807.40228523431 167 167 169
132.40351348726 503.785081962087 2813.6941403476 158 158 160
126.375066711376 504.478252230493 2818.16077969021 157 157 159
119.51558615264 505.233350512598 2822.02692345503 154 154 154
113.479232504675 505.92709174817 2826.50166789179 155 155 155
109.10388370748 506.496524648776 2832.17920131064 160 160 160
104.73319188494 507.065223041664 2837.85221884473 160 160 160
101.203353098509 507.570434628006 2844.11688736587 169 169 169
98.5198111871157 508.011574616556 2850.96754965142 173 173 173
95.008748329251 508.514196361369 2857.21361833338 172 172 172
87.2972663671034 509.33283059585 2860.49917434095 159 159 159
75.3564544435741 510.471033539671 2860.8524009749 149 149 149
62.5396961504534 511.676646127308 2860.64824502708 140 140 140
50.5365164082705 512.822180806216 2861.06232019967 141 141 141
39.3527430566132 513.906856953697 2862.08861689549 143 145 144
28.9939872828211 514.930085128082 2863.72165024181 144 146 145
18.6127846056379 515.955907216 2865.37659031573 146 148 147
9.91987737948064 516.854291845796 2868.20801972727 179 181 180
1.21226083349057 517.754353912598 2871.0538077864 182 184 183
-5.79179442141431 518.525096541898 2875.06086629204 163 165 164
-17.1084247253392 519.625518949172 2876.21676461514 162 164 163
-30.1775053656894 520.861083259881 2876.25874163654 164 166 165
-49.3356761007666 522.564502990975 2872.35908540047 167 169 168
-70.2886456317966 524.408272346153 2867.3871286522 165 167 166
-112.163132852036 527.861447885515 2848.94415235381 161 163 162
-169.87324874199 532.539157968112 2820.53914681845 153 155 154
99.126157921166 493.87882611109 2620.06423223257 192 194 189
145.036539447319 491.005742821256 2667.00504764405 151 153 150
153.121151228617 490.734127818847 2683.10620082262 176 177 179
158.091549796783 490.674243633159 2696.60054492325 176 177 179
154.343981718427 491.216380990885 2703.07562639502 178 179 181
160.993831606081 491.034891796501 2717.75438015315 184 185 187
164.498284398944 491.069077680524 2729.85637008666 175 176 178
164.834102559797 491.321796097013 2739.40458692506 170 171 173
161.978115047357 491.795879670654 2746.42162119417 172 173 175
159.13450191157 492.268196866605 2753.42662859419 183 183 185
156.303327197418 492.738710126564 2760.41955107861 187 187 189
151.862901831946 493.321447766115 2766.15974005716 176 176 178
149.052670855049 493.788878469013 2773.13232070146 166 166 168
147.884240372813 494.139657038823 2781.32596679605 167 167 169
148.36913498498 494.37234365454 2790.72910920594 186 186 188
144.789336620145 494.891047636396 2797.04139415681 194 194 196
139.577010539075 495.524792504081 2802.12364379297 186 186 188
134.365536685866 496.15822354401 2807.20509353788 175 175 177
129.154851284788 496.791348796128 2812.28580553347 162 162 164
123.944933077262 497.424170940415 2817.36580049373 160 160 162
118.735824580442 498.05668461691 2822.44503699069 155 155 157
112.697220525242 498.748334352508 2826.92198739589 153 153 155
108.320035103402 499.320963676661 2832.60121002215 157 157 159
103.947275532074 499.892871183463 2838.27580655572 161 161 163
100.415134359936 500.404017582946 2844.54154637512 169 169 171
96.0538113369145 500.974263902312 2850.20536961193 173 173 175
91.6970417158689 501.543772324439 2855.86444247216 173 173 175
83.9778079496192 502.355570427489 2859.15870651304 155 155 157
73.7165954878223 503.351553119985 2860.69890477891 146 146 148
60.050403880644 504.594949309406 2859.91575495132 144 144 146
48.0415511724654 505.719911409458 2860.33850408117 142 142 144
38.55091494487 506.663432203017 2862.53817191875 143 144 146
28.1904305546608 507.671032129148 2864.17556949698 140 141 143
17.8074166777056 508.681249417666 2865.83461450158 148 149 151
10.823049044185 509.444615696869 2869.82321312947 183 184 186
1.2603074649391 510.396535336296 2872.09357914339 177 178 180
-7.46221825414528 511.287875590408 2874.95512346991 158 159 161
-20.5047244989918 512.496400754572 2874.97504593978 160 161 163
-32.718450921144 513.64567029 2875.59730722587 165 166 168
-51.0169742103099 515.243459407101 2872.27686768641 162 163 165
-76.3081011101772 517.358465243565 2864.48745442909 164 165 167
-124.277238588222 521.148785120404 2842.12768523833 166 167 169
-182.013559760793 525.668738483638 2813.77168046822 152 154 151
96.8134135989134 486.365658447806 2619.22019863755 190 192 187
139.55089527694 483.87635835897 2663.58671455793 162 164 161
151.58790489077 483.391602490944 2682.87980266105 182 183 185
158.939709704183 483.210381401695 2698.278374493 176 177 179
155.991099867661 483.705311143512 2705.38430304459 180 181 183
162.644131356829 483.564063417059 2720.053611912 186 187 189
166.953188432136 483.574566099727 2732.77736542534 182 183 185
166.491584188862 483.899052384589 2741.68991792178 181 182 184
163.639219200744 484.38105285484 2748.70218485683 184 185 187
159.992204974896 484.915083885774 2755.07861297817 186 186 188
156.353948716639 485.447791406933 2761.44687776437 187 187 189
152.724240291155 485.979214947058 2767.80684419811 182 182 184
149.102891629963 486.50930279984 2774.15836883434 173 173 175
147.119571218776 486.928626165039 2781.73417246612 164 164 166
145.969004625456 487.29066960698 2789.90807666977 167 167 169
143.201623094207 487.760541310325 2796.83774640231 197 197 199
139.626282005008 488.2841085138 2803.14488643055 200 200 202
134.414614132067 488.917858857132 2808.22648164702 193 193 195
129.203820014818 489.55126317437 2813.30726035367 177 177 179
123.993729046136 490.184401942078 2818.3873800715 173 173 175
118.784511563893 490.817224202049 2823.4666791841 168 168 170
112.745802305301 491.506439993908 2827.94409379365 164 164 166
108.368440609527 492.082098950342 2833.6230436842 159 159 161
103.995590337082 492.656966332784 2839.29729281699 160 160 162
100.463248119656 493.173858053389 2845.56238312138 165 165 167
94.4260304340934 493.862224113766 2850.0387800088 166 166 168
88.3857100732888 494.550863378004 2854.51821751919 163 163 165
79.8170055167855 495.413865215333 2857.23154140499 146 146 148
68.7024844621043 496.453456728882 2858.19573303539 141 141 143
56.7159351030666 497.554597788658 2858.5995175072 147 147 149
43.8516568822935 498.718082455828 2858.44877603826 149 149 151
35.2010293087401 499.590586427588 2861.24204627972 144 145 147
24.8326995415757 500.583266842903 2862.88910168843 151 152 154
15.2954580980738 501.519116580866 2865.13652081501 156 157 159
5.73942786963366 502.457200559556 2867.40192942099 185 186 188
-3.83488530129128 503.397369964848 2869.68552287597 176 177 179
-10.8505390732612 504.159314195709 2873.70539927996 157 158 160
-23.0396288739501 505.284471953406 2874.30709758896 159 160 162
-36.9849397944391 506.534485170864 2873.80013937177 163 164 166
-55.2930854401388 508.093342605975 2870.4946712182 160 161 163
-80.5935146562362 510.148016661188 2862.72341230933 162 163 165
-143.34139204775 514.85061669635 2830.81516810239 160 161 163
-190.669982436093 518.475784152829 2809.26064495586 149 151 148
96.8691543136568 478.68811391851 2620.2995850123 183 185 180
136.439924358903 476.560368701466 2662.08927963161 164 166 163
153.22817854128 475.839409696936 2685.20135395259 173 174 176
160.583308341025 475.701052558964 2700.59028875068 174 175 177
160.82689259356 476.004200012957 2710.22264183379 182 183 185
166.692044795123 475.952357633467 2724.24420309184 188 189 191
170.209174376122 476.044739796971 2736.32500340264 185 186 188
168.952110274117 476.435350892552 2744.60077676199 184 185 187
165.300237489818 476.97592078904 2750.98106306222 186 187 189
161.657101953041 477.515110819019 2757.35321493215 187 187 189
158.83119523986 478.001707110471 2764.3385291487 188 188 190
156.017790993301 478.48646190763 2771.31170040312 185 185 187
151.591322256385 479.073219037386 2777.0374361643 178 178 180
145.540436921267 479.763131215681 2781.52717671422 164 164 166
141.119499722459 480.348719256553 2787.24759236711 164 164 166
139.977352769407 480.723251061236 2795.41162781094 190 190 192
137.21444599034 481.200725833436 2802.33573031816 197 197 199
134.463934577247 481.676461066321 2809.24778114688 197 197 199
128.428537361099 482.36340180457 2813.72224310126 186 186 188
124.042767744737 482.943629358165 2819.40886694458 180 180 182
118.833420018492 483.576762881594 2824.48824938679 176 176 178
113.62486020587 484.209649653926 2829.56688588883 174 174 176
108.417088845377 484.842230638446 2834.64478464155 169 169 171
103.210126657085 485.474562191887 2839.72191674013 168 168 170
98.8398857920689 486.052019573973 2845.39319189195 168 168 170
92.7986510556727 486.73847432555 2849.87386026084 166 166 168
86.7541460263705 487.425236449768 2854.35739280739 159 159 161
78.181540442491 488.278263106882 2857.07606479832 145 145 147
66.2196699528161 489.355316547321 2857.45924076965 146 146 148
55.9186559550358 490.324326267482 2859.04294914266 149 149 151
45.5952378402729 491.295895022857 2860.64852691074 148 148 150
35.2494148007656 492.270111368515 2862.27596178761 146 147 149
24.0297992490657 493.303462516144 2863.34543613049 160 161 163
12.78382467728 494.339959730602 2864.44062038266 174 175 177
2.36683303745266 495.322587805302 2866.13748348184 180 181 183
-7.21514041621818 496.250543378232 2868.43048890992 174 175 177
-16.8159882276431 497.180802948529 2870.74155848247 151 152 154
-29.8796954462581 498.344072214287 2870.78888479272 155 156 158
-42.9771621207431 499.511407451484 2870.86947163491 163 164 166
-56.9739681381791 500.741006212756 2870.41632821595 157 158 160
-90.0795986544956 503.26022419291 2857.57423064758 162 163 165
-168.486059651251 508.84367236139 2815.57860769673 155 156 158
141.242425919264 468.756396546827 2666.97587985476 174 176 173
154.868409921649 468.29678821955 2687.52119474059 175 176 178
159.841264768636 468.342413940008 2700.99750540199 176 177 179
164.068303750073 468.428711704016 2713.79150161507 190 191 193
169.141734540862 468.461481322192 2727.16983900379 193 194 196
171.062344563154 468.678474967155 2737.98377067931 189 190 192
169.003792104519 469.130617736106 2745.62909231081 187 188 190
166.156738173033 469.628636841173 2752.63371774088 187 188 190
162.515083200259 470.173402721026 2759.0032374387 189 189 191
160.499859463648 470.619392036686 2766.60678032842 190 190 192
156.068536488819 471.209886468065 2772.33678404806 190 190 192
151.64189228573 471.799584675031 2778.06225935981 188 188 190
144.776291510639 472.53658448318 2781.93715553648 173 173 175
141.169681443086 473.07575301936 2788.27270241032 162 162 164
139.208699672996 473.513944325544 2795.82319692583 171 171 173
138.904888799978 473.849791726886 2804.57737910494 185 185 187
136.158063686937 474.333435816437 2811.48460045766 209 209 211
129.30237937117 475.068094574033 2815.34999544988 195 195 197
122.439492733493 475.803467945763 2819.22209899258 185 185 187
116.398017164626 476.488390384198 2823.70323298688 183 183 185
112.013565864489 477.071029924948 2829.38785339007 183 183 185
106.801795198962 477.704409929546 2834.46960541699 181 181 183
99.9228018296949 478.441017731561 2838.357520734 178 178 180
95.5449000284148 479.022346815391 2844.03616891495 172 172 174
90.3336218104616 479.655281441776 2849.11749776086 162 162 164
85.1231960896239 480.287872722048 2854.19803081094 154 154 156
76.5464793435493 481.13096372769 2856.92191588966 148 148 150
65.4243468408908 482.134364424514 2857.89901478733 153 153 155
54.2758978353008 483.140905828205 2858.90178216633 151 151 153
42.2536808196194 484.203895863381 2859.34696169522 146 146 148
31.9001797515663 485.163188047801 2860.98422675245 144 145 147
21.5242312416155 486.125133182467 2862.64339034643 171 172 174
10.2726011803793 487.143797665304 2863.74682625319 183 184 186
1.56047669437065 488.002648616013 2866.60318174835 174 175 177
-8.88081610428193 488.972330201523 2868.32608974293 168 169 171
-17.6261865815963 489.835106977974 2871.21487876359 147 148 150
-32.4138272622885 491.084694052129 2870.1271822743 152 153 155
-45.5169426699222 492.228800058343 2870.2168116622 163 164 166
-65.5738493422633 493.820966888049 2865.80880946811 154 155 157
-103.032570825206 496.535258724928 2850.1753414767 158 159 161
-195.366928386294 502.791781534346 2799.23894511692 152 153 155
149.20999592573 460.808258858113 2674.40880303847 185 187 184
159.681789976829 460.587534360537 2692.38299313485 177 178 180
161.48516446347 460.844310189992 2703.30746164083 178 179 181
165.715668687543 460.962751381735 2716.09326603217 190 191 193
168.395323453451 461.164678355118 2727.57259122173 191 192 194
171.114562766941 461.361497129652 2739.01336335994 188 189 191
169.055718280171 461.824703883941 2746.65733972749 189 190 192
167.013223254716 462.28567262237 2754.28541161604 189 189 191
164.180252683009 462.790112963043 2761.27510300584 192 192 194
162.977343989549 463.200757209346 2769.49413835302 193 193 195
158.551626804505 463.793581836413 2775.21823103862 193 193 195
154.130609919032 464.385578040729 2780.93777869779 193 193 195
147.270689247791 465.116760978045 2784.80789417834 180 180 182
143.669681457244 465.660972718773 2791.13713252486 171 171 173
139.258875150874 466.250974091436 2796.84683576329 165 165 167
138.134483806543 466.650688023828 2804.9895177177 172 172 174
134.563240150305 467.19063324956 2811.2901682699 202 202 204
129.351969997491 467.825011595455 2816.3712757259 204 204 206
122.489002658523 468.555264852961 2820.24421615682 199 199 201
116.447400089178 469.237815064352 2824.72582687859 189 189 191
110.40257028259 469.920608251707 2829.21026854093 184 184 186
104.354826677001 470.603637794161 2833.69790655755 185 185 187
96.6360413878564 471.384892476256 2836.99623955831 182 182 184
92.2500363143359 471.970263554368 2842.6819991614 166 166 168
86.1931566364156 472.653884640054 2847.17862200308 156 156 158
81.8126814854807 473.238263739425 2852.85903692532 154 154 156
74.0702601312293 474.021836428087 2856.18083612977 161 161 163
64.6295038006262 474.907058563115 2858.33958900854 161 161 163
53.4791836015645 475.895260680134 2859.34692504888 150 150 152
43.9974442346056 476.785266080717 2861.54566772403 149 149 151
34.497421655908 477.677386426259 2863.76259115277 172 173 175
24.1273575510959 478.622756608247 2865.41836121623 184 185 187
12.0283412169981 479.673609952004 2865.9415974013 184 185 187
2.46467829448171 480.573176523732 2868.22027824125 162 163 165
-8.83172061479121 481.578673775565 2869.3701163869 150 151 153
-19.2953590524292 482.535191831951 2871.11715949517 148 149 151
-34.0864338074103 483.755920765478 2870.03747615498 140 141 143
-49.7824999970256 485.034393979992 2868.4306809484 150 151 153
-76.767889970891 487.004563921671 2859.51094617393 152 153 155
-147.190816844762 491.637760271498 2822.48153785197 157 158 160
-214.427723537034 496.092850379131 2787.98232568735 157 158 160
155.594987629618 452.995093227847 2680.5594824247 181 183 180
163.702008216203 452.95086753805 2696.60477528726 178 179 181
163.924297524631 453.314223648342 2706.24937575155 180 181 183
168.957244071179 453.422800571723 2719.65671030667 188 189 191
169.247096099436 453.777314999108 2729.23552678828 187 188 190
171.166982260315 454.043402993109 2740.04292114554 186 187 189
168.304998258267 454.560316777239 2747.05957973107 189 190 192
167.869902869683 454.946988603889 2755.93627970502 190 190 192
164.231883831298 455.502575608801 2762.30092735068 193 193 195
160.602390828601 456.056940349375 2768.657289167 195 195 197
156.981321365929 456.609961362662 2775.00514704387 195 195 197
152.556384246001 457.205446147062 2780.72840978518 196 196 198
148.136001605064 457.800074960794 2786.44693853163 186 186 188
146.169840695001 458.261327333928 2793.99916759408 183 183 185
140.946275545512 458.898081223083 2799.09213305927 161 161 163
138.184648721133 459.400515356738 2806.01127556984 159 159 161
132.146272082909 460.080919307872 2810.49000011066 191 191 193
129.401846678453 460.580831116267 2817.39243415554 202 202 204
123.364900316147 461.260684498933 2821.86948194301 204 204 206
118.153184271721 461.895060087724 2826.95103258346 189 189 191
112.112306121999 462.575012799386 2831.43230785517 181 181 183
106.068368621951 463.255144799875 2835.91659460817 181 181 183
97.5193236549639 464.074550515007 2838.61650187679 178 178 180
92.2993229583056 464.709292374345 2843.70622516475 160 160 162
85.4045856217707 465.437345980158 2847.61137662245 160 160 162
79.3426695583319 466.119066322726 2852.11328159841 162 162 164
71.5941564814364 466.895665607048 2855.44182279762 167 167 169
62.9912296376145 467.720920487679 2858.19437106235 161 161 163
52.6827384969089 468.643389877287 2859.79272083134 148 148 150
42.3517181387099 469.568447110924 2861.41272212213 150 150 152
32.8476091691723 470.447916116152 2863.63523541796 182 183 185
22.4736497162703 471.378032691992 2865.29712809598 183 184 186
11.2241010412006 472.359402360002 2866.40400931285 175 176 178
0.80341846687082 473.295055314739 2868.11148046676 157 158 160
-8.78231969685928 474.184123797515 2870.41397180252 146 147 149
-19.2458985794843 475.124801216135 2872.16329701113 150 151 153
-34.036877111018 476.316357934473 2871.0878297603 137 138 140
-54.9104265233993 477.861947504662 2866.08074066017 146 147 149
-186.146152977879 486.162784448199 2798.20831244825 166 167 169
-221.324792509101 488.566633141235 2784.6076385292 167 168 170
156.440926625472 445.493033818293 2682.2451629187 181 183 180
162.962866411021 445.572079063946 2697.01208858063 177 178 180
163.183043722974 445.954853255648 2706.65625414668 182 183 185
170.604619669217 445.981559881714 2721.95447274482 190 191 193
170.898226799026 446.354782233992 2731.52713317394 194 195 197
171.219601966261 446.724310630953 2741.07242765441 188 189 191
167.554318664588 447.289451040914 2747.46239928547 189 190 192
166.312400601664 447.732934777409 2755.71531785088 194 194 196
162.670037815663 448.294772910393 2762.08301714614 196 196 198
161.462689699411 448.733515258444 2770.30230801861 195 195 197
158.654144876199 449.251210710345 2777.26578517943 196 196 198
155.857995688216 449.767137104574 2784.21721475717 201 201 203
151.445195884734 450.363846875723 2789.92790606933 200 200 202
149.486544575079 450.835209199367 2797.4711837413 198 198 200
143.452203309428 451.513187940808 2801.94625954242 183 183 185
138.235077893279 452.149306905733 2807.03292409874 176 176 178
129.729608723535 452.954095477631 2809.6920582059 168 168 170
127.803382936801 453.420691907386 2817.2038412513 180 180 182
122.588749889996 454.055936465701 2822.28816008492 194 194 196
119.031289537696 454.604935382209 2828.57378548101 210 211 213
110.501851221547 455.411874151377 2831.25606566468 200 201 203
104.45395990789 456.090145839836 2835.74455356634 159 160 162
96.735060874094 456.8559355443 2839.04528523416 158 159 161
89.8413881068927 457.579019500463 2842.95011407083 160 161 163
82.9406195799218 458.302775152495 2846.86155198349 167 168 170
77.7124558589097 458.938516606344 2851.95923353568 167 168 170
69.1185058111992 459.752425174299 2854.70488253122 155 156 158
58.8226181599341 460.657603539454 2856.29293461275 149 150 152
48.5042827975168 461.565464373213 2857.90288113561 168 169 171
38.1635430488632 462.475913760542 2859.53469295811 181 182 184
29.4994047186639 463.29784511318 2862.34885419166 182 183 185
19.9690565470068 464.167324516388 2864.5988998619 172 173 175
10.4203826464571 465.038924224517 2866.86716771368 159 160 162
-0.857312554130907 466.005237544543 2868.00422416812 145 146 148
-13.8755918359244 467.067515757865 2868.02136629901 145 146 148
-26.0687315009562 468.087276052953 2868.64266388211 149 150 152
-42.5970518900898 469.345258330503 2866.44842863244 149 150 152
-70.3930563424313 471.222537636052 2856.93046589591 147 148 150
-127.694258552133 474.723778833527 2828.29328461863 147 148 150
-202.562755715907 479.205986180279 2788.6151493063 130 131 133
-224.746619053537 480.804973636905 2783.48441980193 150 151 153
156.495826337616 438.031067402698 2683.29352207041 182 184 181
160.637724046675 438.258816018731 2696.15082060943 176 177 179
161.646813044329 438.625235026949 2706.43091181602 184 185 187
170.658151552066 438.62299083349 2722.9889080855 193 194 196
173.348220699262 438.905335702135 2734.44600591069 196 197 199
172.073328623608 439.367158339639 2742.72895767663 191 192 194
167.606939153339 439.974928664125 2748.49122957516 191 192 194
165.559761411905 440.46971666703 2756.11895299737 198 198 200
162.722161448959 440.99980236728 2763.10945106816 199 199 201
160.70585248008 441.490273051225 2770.70749728276 198 198 200
158.705725624107 441.978510369732 2778.28946666846 197 197 199
155.096671503172 442.541191250894 2784.62396540911 201 201 203
151.496353283489 443.102639857334 2790.95030924233 205 205 207
147.904668469396 443.662734726101 2797.26828005802 203 203 205
144.321320814749 444.221644179291 2803.57780931304 190 190 192
138.285748718135 444.897212942581 2808.05446354122 187 187 189
132.247075292548 445.572907317946 2812.53417886952 168 168 170
128.677912493906 446.129438856384 2818.8299738076 172 172 174
123.465083195109 446.764809836561 2823.91248280769 183 183 185
118.253127382749 447.399864309001 2828.99417120254 208 209 211
111.382072420272 448.11558581627 2832.87762839149 213 214 216
105.335799491158 448.791307766492 2837.36454822159 180 181 183
97.6187779809274 449.54913586301 2840.66459220293 163 164 166
88.2194432236352 450.39052801572 2842.78902874131 159 160 162
82.1525946567556 451.068270610254 2847.29641967552 165 166 168
75.2429451853338 451.787927105303 2851.21728235092 163 164 166
66.6431383211532 452.592107051335 2853.97018513786 154 155 157
56.3414848362669 453.48223813035 2855.56618675974 153 154 156
46.8628252133145 454.332582041829 2857.76773315433 173 174 176
36.5185286106136 455.227633659307 2859.40569061113 183 184 186
24.452745182169 456.211095923179 2859.9055485598 173 174 176
12.3570718973953 457.198077365157 2860.43490528666 160 161 163
5.35062190525082 457.928728242997 2864.45026734514 150 151 153
-5.08346174483787 458.834374872034 2866.17548088722 140 141 143
-17.2540451395027 459.830239719784 2866.77791149708 144 145 147
-33.750163712984 461.049783620967 2864.55738054367 152 153 155
-58.0446455118788 462.673552375513 2857.26779791185 150 151 153
-205.976597021112 471.471847883771 2787.48027133792 120 121 123
-222.955518588213 472.749868536251 2785.73052805602 118 119 121
147.721078171357 430.498211787538 2667.6139347134 186 188 185
153.386159806755 430.700112131018 2681.79700377959 182 184 181
156.726730020549 430.994754751003 2694.02323614492 178 179 181
159.31582562334 431.317249443637 2705.57466806591 187 188 190
169.117967358532 431.330772455628 2722.76230181394 196 197 199
173.401599057502 431.572909198258 2735.47672984694 198 199 201
172.927270803564 432.014313087023 2744.38463710327 200 201 203
170.068373466004 432.555987952544 2751.39457090832 201 202 204
167.222042640051 433.09578376547 2758.39230370473 203 203 205
163.581379911654 433.668834493607 2764.75699544299 204 204 206
160.757969601373 434.205328029555 2771.7324559036 204 204 206
158.757549909502 434.704717888472 2779.31306773908 200 200 202
155.148295012533 435.273114572399 2785.64692106015 199 199 201
152.362240599539 435.804397568909 2792.58605667799 203 203 205
147.955889618927 436.406178208206 2798.28993258361 208 208 210
145.190905956143 436.934421604479 2805.2085938866 207 207 209
139.977366777431 437.570796093109 2810.29165948982 198 198 200
134.764658837258 438.206829915609 2815.3739500112 185 185 187
128.72849854123 438.879655365019 2819.85125594871 177 177 179
122.689466963357 439.552711809566 2824.33171681254 169 169 171
116.647418821565 440.225912664621 2828.81515182513 177 178 180
112.262298468279 440.823703085316 2834.49819731454 189 190 192
104.554040375817 441.572907888403 2837.79081361149 205 206 208
96.0012182479928 442.361493774317 2840.49936465595 199 200 202
85.762010433557 443.228774502424 2842.03673407583 188 189 191
78.0137501610785 443.982314589993 2845.36843237573 167 168 170
70.2546488220381 444.737132913019 2848.71070709234 161 162 164
62.484835044915 445.493095318186 2852.06345032349 161 162 164
53.0171747571693 446.329184346608 2854.25651892311 168 169 171
42.6853958018389 447.20704421463 2855.88424926209 160 161 163
32.3312547081724 448.087516794616 2857.53379937733 150 151 153
17.7079465362282 449.171369762683 2856.30775154806 135 136 138
6.44814694914153 450.098630508554 2857.43280934716 134 135 137
-3.13157641300466 450.947798467146 2859.73488733409 138 139 141
-11.8745166759298 451.758317340329 2862.62898681122 139 140 142
-24.9177427767906 452.776005231547 2862.67749193236 141 142 144
-44.0081641373897 454.086967532694 2858.76856460267 149 150 152
-82.1008100279013 456.319514432699 2842.41888529266 142 143 145
-143.637965745285 459.69813958733 2810.92096879241 148 149 151
-191.588191720292 462.434808614639 2788.69814933499 130 131 133
-211.123620478451 463.799718806958 2785.22314745473 125 126 128
-220.295623936853 464.662146066885 2788.5356409908 127 128 130
152.512530608762 422.80445951968 2672.49521642785 186 188 185
155.815195243434 423.134030257043 2684.75426507509 180 182 179
159.161167935395 423.457947972665 2696.97080585339 181 182 184
164.935941771899 423.683772958116 2711.0410750487 190 191 193
172.360003706742 423.84038580119 2726.31796278326 196 197 199
175.852089830185 424.145529784168 2738.39218551362 197 198 200
174.582408917983 424.634322366923 2746.66597637109 204 205 207
171.727176621897 425.183908769091 2753.67110141411 207 208 210
168.079532736054 425.763690534782 2760.04139285851 206 206 208
165.247284731372 426.309966620027 2767.0241834238 205 205 207
161.618880637901 426.886956053313 2773.37612001746 204 204 206
158.809638183199 427.429919141655 2780.33655539103 202 202 204
154.387654893753 428.0370742273 2786.05482222759 199 199 201
152.413859224897 428.543840031496 2793.60790585315 201 201 203
147.190832797213 429.182059195697 2798.70011979261 206 206 208
144.423646270114 429.719012840206 2805.61968120154 211 211 213
140.028495854621 430.322005583078 2811.31225563204 203 203 205
137.282211921561 430.856012832844 2818.21115808996 202 202 204
130.42784633829 431.560165882031 2822.0797522917 194 194 196
123.566321219518 432.264998667031 2825.95501771138 182 182 184
115.041862391522 433.040220083133 2828.63737884262 185 186 188
111.482821816573 433.60648968708 2834.9220208231 193 194 196
102.108661956808 434.418863351442 2837.025409394 194 195 197
94.383788849115 435.162172465212 2840.335396027 202 203 205
82.4692485465235 436.085660210842 2840.69426936551 189 190 192
74.713149820111 436.832551997048 2844.03473398208 170 171 173
65.2668676858492 437.653133287688 2846.20852795413 158 159 161
56.6438250399388 438.439308539808 2848.98716530172 139 140 142
48.0061578392497 439.227180027366 2851.78007434554 139 140 142
39.3538241051363 440.01669407361 2854.5873047044 128 129 131
27.2970572305193 440.956797977846 2855.08461742845 120 121 123
14.3611404851782 441.937829001835 2855.03231848419 121 122 124
-0.311639975364209 442.998329424978 2853.85851102279 124 125 127
-10.7600194462272 443.874288916034 2855.60230827225 128 129 131
-20.3754235389328 444.714673973789 2857.94145370299 133 134 136
-31.7235699030887 445.634025303729 2859.15541016594 136 137 139
-55.9833476563858 447.135923675141 2851.84937829323 139 140 142
-112.182503682522 450.085966483323 2823.61622506337 136 137 139
-181.551915435405 453.650056078904 2787.11558348156 137 138 140
-211.425214399581 455.439484590432 2776.8392327349 118 119 121
-219.737063709063 456.252752016492 2780.72175560537 130 131 133
155.725441739652 415.196799498555 2676.09713212089 184 186 183
159.035443652262 415.555371934887 2688.34460830424 177 179 178
161.595723095193 415.936222433316 2699.91603013535 188 189 191
168.170811142609 416.171321457156 2714.60711410731 190 191 193
171.617232844794 416.51231271402 2726.72172191359 190 191 193
173.50900027512 416.904908561917 2737.53800293841 187 188 190
173.034030588882 417.379386371831 2746.44165883539 199 200 202
171.780403327828 417.879747451281 2754.69779836119 206 207 209
168.937405164568 418.435958729081 2761.68979557574 212 213 215
164.493385591086 419.049577390126 2767.42898945449 204 205 207
160.054045597107 419.662311271687 2773.16366721163 200 201 203
157.240708803237 420.214164089898 2780.12685442632 201 201 203
154.439788364665 420.76430420717 2787.07796515311 200 200 202
152.465784894221 421.28221183185 2794.62960837252 204 204 206
149.691823562462 421.828599512386 2801.55450291622 204 204 206
146.111994215703 422.404241801972 2807.85840317558 210 209 214
141.720325913983 423.009874985962 2813.54679171759 222 221 226
135.689050510661 423.677648917133 2818.02033133861 230 229 234
128.006415809821 424.40891076236 2821.29015519023 224 223 228
121.965195161969 425.077525667842 2825.77344629045 216 217 219
113.436667688932 425.842806072508 2828.46097908152 176 177 179
108.213564843063 426.480091369212 2833.55340693058 143 144 146
97.9999581443316 427.312966607195 2835.07077702252 133 134 136
91.0991369808585 428.016885884784 2838.98519901149 123 124 126
80.0126192047013 428.887038346818 2839.94662599017 127 128 130
71.4130100227619 429.660234737959 2842.70391183161 122 123 125
60.2798124500925 430.535829663856 2843.71088814449 129 130 132
50.8034225911862 431.346850072383 2845.9159926264 121 122 124
41.308496868568 432.160030314573 2848.13918427251 123 124 126
32.64069717188 432.941056608858 2850.96302704687 127 128 130
21.4160530088718 433.827324782509 2852.05923367443 127 128 130
11.0144987316039 434.68190189694 2853.75969312038 120 121 123
-1.96307769948412 435.644125505059 2853.75154258777 120 121 123
-14.9748755654726 436.610410946994 2853.77643626664 118 119 121
-28.875618081007 437.616217736904 2853.26131456784 125 126 128
-41.9572675925504 438.590866822459 2853.35433582047 132 133 135
-73.9707177937969 440.360137387798 2840.95543827196 135 136 138
-202.206893892754 446.635989742014 2774.65443200661 122 123 125
-222.613100448503 447.953009560936 2770.63429421037 123 124 126
-230.083171957683 448.724786909159 2775.10429865648 140 141 143
161.306249849149 407.535508194916 2681.60702142751 182 182 182
164.629245733652 407.922441220801 2693.83706487994 179 179 179
166.409663264726 408.354123206121 2704.75847892872 194 194 196
172.200918548817 408.654028682624 2718.80143273871 188 189 193
171.671628264166 409.152190067047 2727.75552937096 169 170 174
171.965277157961 409.621215050837 2737.31365089874 173 174 178
169.083550394623 410.191124523609 2744.34208159845 178 179 181
169.425438230913 410.653714409254 2753.85325224792 180 181 183
167.38106557682 411.192493343842 2761.47168833645 210 211 213
166.159841697484 411.702155385768 2769.694276147 208 212 213
160.91564898438 412.344576086053 2774.80688753558 196 200 201
157.293331271334 412.932015349319 2781.1508979412 196 197 201
154.49220654395 413.490584278215 2788.10096575512 202 203 207
154.146923514587 413.963985950452 2796.87599993739 212 213 217
150.56027955103 414.54644318224 2803.18565996648 209 210 214
147.800254412203 415.099372142251 2810.09541102435 230 231 236
143.41250975247 415.707564029891 2815.77986299858 226 227 232
136.562679862808 416.401281042303 2819.6451577892 188 189 194
128.057795450053 417.153602093963 2822.31146590061 170 171 176
121.190303721626 417.849103395588 2826.19403544104 143 144 148
113.487908813159 418.574748115322 2829.48431167965 133 134 136
107.434765616329 419.242153481526 2833.97962081662 133 134 136
96.3872092574931 420.089379261345 2834.90574708557 125 126 130
90.316425211221 420.758595755138 2839.41830616295 129 130 134
80.8994176211537 421.549717147158 2841.56738424002 131 132 136
72.3017317234569 422.312263079888 2844.32433436487 128 129 133
61.1704884241786 423.169154395883 2845.33213444077 132 133 137
51.6960038344614 423.966843535476 2847.53731731793 133 134 138
43.8901786910075 424.70399409028 2850.92860075146 133 134 138
34.3828288519279 425.505489050307 2853.16619465047 134 135 139
19.7726075522504 426.500152987272 2851.94033346342 132 133 135
9.36720071330033 427.339441617234 2853.64687819141 139 141 140
-4.46553143801776 428.31061039879 2853.06934067807 135 137 136
-17.4829788449165 429.253755164813 2853.10326461637 129 131 128
-34.8098692362089 430.36478718422 2850.30683105014 127 129 126
-53.0472324441615 431.515266537788 2846.99143299163 126 128 127
-212.506225119264 439.087267503515 2768.99359267819 130 132 131
-225.152502588319 440.056253104314 2770.07202943494 132 134 131
162.940789166199 400.020965828042 2683.92836443826 182 182 182
166.267231470523 400.437450026213 2696.1506178945 180 180 180
169.637358507603 400.848325578548 2708.33065856273 193 193 195
173.050857377706 401.253540069199 2720.46812922007 187 188 192
172.523202031372 401.768006615083 2729.41819243865 175 176 178
171.220786186134 402.30246949454 2737.71773951862 185 186 188
169.938443581172 402.834120016886 2745.99743139742 166 167 169
168.67646531914 403.363072314668 2754.25763782106 165 167 166
168.23925287285 403.865442507916 2763.11933989655 204 206 205
167.826338414016 404.364530124963 2771.95773671663 214 216 215
165.011676231168 404.933650989193 2778.91968785251 214 215 217
158.967380102714 405.599557744483 2783.40643321385 213 214 216
154.544845925129 406.215892962022 2789.12389027099 208 212 215
152.570363345027 406.756062749257 2796.67271891547 217 218 222
150.612460811876 407.294040866979 2804.20574509801 228 229 233
147.033996018139 407.880993607635 2810.50628081432 214 215 220
140.183378212142 408.570020436566 2814.37338906658 184 185 190
134.970168669764 409.207503261415 2819.45596352444 149 150 155
128.109502585065 409.897308638422 2823.33259695493 144 145 150
122.068069376397 410.561291803281 2827.81678370042 131 132 134
114.367573250072 411.278972235086 2831.10635153857 127 128 130
109.146185079093 411.916837448932 2836.19699097861 133 134 136
99.7661128544745 412.690653737978 2838.31194937844 131 132 134
94.5367562173822 413.32914020622 2843.410409802 135 136 138
84.2936826406011 414.133693693108 2844.9608890399 139 140 142
75.7037443387651 414.884913889228 2847.71181962646 142 143 147
64.5802801630042 415.72236728041 2848.71476783451 139 140 144
54.2720762295619 416.534482826543 2850.32880481032 143 144 146
43.9415101577829 417.34921108464 2851.96466156239 155 156 160
31.0524587301151 418.253247070355 2851.87720449792 180 181 185
17.2819973964491 419.190471920186 2851.2428480404 182 183 185
5.17219932497603 420.073427494751 2851.80126802504 147 149 148
-9.52129650557776 421.048839736551 2850.66094507032 141 143 140
-24.2566240723807 422.029243727162 2849.56108602779 141 143 140
-43.308799561812 423.164981066521 2845.64041599747 121 123 120
-67.5644158785391 424.49000854714 2838.35639319714 128 130 127
-125.403864184368 427.016565294279 2808.98050902644 143 145 142
-197.252423753997 430.064241328438 2770.76695777889 154 156 153
-215.039457450106 431.193861062292 2768.42470606043 131 133 130
-221.638141418519 431.92368491569 2773.45218198102 130 132 129
162.208147434717 392.574120416269 2684.33961969002 181 181 181
164.741146839938 393.040465118961 2695.92549499579 183 183 183
169.692980173399 393.442229565554 2709.37004318269 195 195 197
173.106056133036 393.877512503467 2721.50348969299 200 201 205
172.578080205179 394.408501250748 2730.45142927962 183 184 186
171.27538980835 394.956767962778 2738.74920879295 179 180 182
170.79348716833 395.48157818059 2747.65197226563 180 182 181
170.335902966579 396.003191697292 2756.53139748264 172 174 173
169.902470393196 396.521554126592 2765.38732028495 158 160 159
169.493146123264 397.036759383523 2774.21976981424 204 206 205
167.490686654798 397.592161414127 2781.79412860351 220 222 221
161.452066848162 398.254993825799 2786.27569168002 219 220 222
157.035180439009 398.873712915779 2791.98718808431 229 231 230
153.437588515109 399.469167170741 2798.30579864552 164 166 165
149.848419323471 400.063366253487 2804.61589298099 140 140 140
143.813186900449 400.724975552474 2809.09427311101 135 135 135
137.774873330015 401.386825856983 2813.57567724544 155 155 155
134.199909714453 401.978703381708 2819.87200835914 152 152 152
128.985486548403 402.616545593998 2824.95573484595 158 158 158
124.598094643402 403.230295049815 2830.63901512336 208 208 206
117.73124853056 403.915542838769 2834.52245902267 208 208 206
110.857559309922 404.601417434888 2838.41260558736 211 211 209
101.481578998474 405.361672724699 2840.52584280868 208 210 207
94.5883138593686 406.04966136343 2844.43511609522 205 207 204
86.0168571193083 406.78837954246 2847.1695420104 199 201 198
78.2683527137005 407.503502732023 2850.50716073885 198 200 197
67.1507116031096 408.321794275041 2851.50715866989 204 206 205
55.1653728920711 409.168879393079 2851.94762814957 192 194 191
43.9931890316463 409.99358820366 2853.00050152615 171 173 172
29.4133040334357 410.926196051651 2851.75368780614 134 136 135
13.9443388341789 411.89018819148 2849.96785812446 125 127 126
0.128416580750024 412.806313296543 2849.38176356537 123 125 122
-15.4276646796232 413.780832495985 2847.68122336736 130 132 129
-30.1763726145934 414.733615787848 2846.59873355544 133 135 132
-46.676803953198 415.74622156563 2844.41307060582 148 150 147
-78.6527346618002 417.2618842706 2832.01439877748 142 144 141
-209.249272918593 422.499380204498 2763.96000769971 107 109 106
-219.297981388376 423.340122397042 2766.72904015595 131 133 130
-219.852947068076 423.868911592876 2775.70410605788 133 135 132
164.632321677541 385.054440666782 2687.29485000915 181 181 181
166.379519758602 385.564240953514 2698.23736777003 187 187 187
172.920908290656 385.966771526104 2712.93750739113 195 195 197
172.366546611716 386.517804278868 2721.90868592337 190 191 193
172.633243625866 387.047986940874 2731.48453198793 180 181 183
169.732428138557 387.645747899235 2738.52780163532 173 174 176
171.648997853053 388.133416567714 2749.30573974594 181 183 182
171.192859982632 388.671342576281 2758.18097991339 174 176 175
170.761083336889 389.206037005418 2767.03284449262 141 141 141
169.546814557223 389.756336300362 2775.24251961814 171 171 171
170.778369203576 390.24689207337 2785.28301394531 179 179 177
163.936911470937 390.925712414642 2789.14253462372 140 140 140
159.525694627301 391.546753660366 2794.84805785204 112 112 110
154.304860513119 392.186730873129 2799.93783495298 123 123 121
149.901172706077 392.806439666787 2805.63607867249 138 137 135
142.229145658913 393.506142725148 2808.90003334213 159 158 154
136.186900071955 394.166071000932 2813.3856261021 162 161 157
132.60803289072 394.764265508047 2819.68523770897 186 185 181
129.861915542967 395.340254008046 2826.57810777676 194 193 188
125.4760924798 395.956885103308 2832.25906642399 196 195 190
117.783219653875 396.658243117671 2835.54347665832 195 194 189
109.249777607648 397.382380115319 2838.2423085128 192 193 188
100.701690286574 398.108156991673 2840.95544096834 203 204 199
92.1387690836646 398.835581077136 2843.68272238906 206 207 202
85.2330060525412 399.519972463512 2847.60527578144 201 202 197
71.6189712580433 400.385614179676 2846.82616541402 182 184 179
63.8442211632682 401.096114748224 2850.19052972116 119 121 118
51.8509999681518 401.923036807831 2850.64146887329 103 105 100
38.140926192153 402.799989684452 2849.95605484964 107 109 106
19.3206857560853 403.822529354039 2845.82146260686 91 93 90
8.06529616628282 404.638785537683 2846.95854763928 71 73 70
-8.31182367251726 405.601968350763 2844.65773924008 15 17 14
-17.0775805138721 406.353180988674 2847.58326135256 27 29 26
-31.8298086344546 407.277234933262 2846.50885116396 35 37 34
-44.0587726406898 408.132254477281 2847.18973361652 17 19 16
-187.138111496722 413.324987517616 2770.28257286587 24 26 23
-210.915058857582 414.553506388844 2763.95439796437 101 103 100
-216.653555711295 415.253553958517 2769.54934344561 140 142 139
163.110875413628 377.619468337218 2687.0703978262 183 183 181
165.645013609651 378.140215641729 2698.64710161508 192 192 190
170.597879892193 378.612641944868 2712.08018027673 179 179 179
170.037373050858 379.180901695583 2721.05491490331 189 191 190
171.094718110386 379.716210806522 2731.26178740168 186 188 187
169.787565955172 380.29269637371 2739.55982677258 171 173 172
170.902843599101 380.820377833329 2749.71029872178 153 155 152
170.444681471528 381.375086749593 2758.58540634207 168 170 167
170.815269321417 381.91077698575 2768.0572732539 172 172 170
170.407322914757 382.458831083952 2776.8834995002 91 91 89
170.831951952421 382.987502178819 2786.3027401397 33 34 29
163.990412979983 383.661261442581 2790.16308951549 40 39 35
163.641082960158 384.201496785557 2798.93192658976 17 16 11
160.058606360698 384.806632888105 2805.23409643751 36 36 28
155.668368219885 385.427742001018 2810.91877747306 57 54 47
144.736884617349 386.188068668733 2811.74248542995 66 64 52
139.520431654827 386.827287176823 2816.82802411874 64 62 50
133.482779010016 387.484189232971 2821.30950329321 40 36 25
130.738391096206 388.068451221355 2828.19943318955 40 36 24
126.354389257592 388.687948585715 2833.87815970057 41 39 27
121.97512996645 389.306641685717 2839.55229566175 41 41 31
111.791684766298 390.057050173033 2841.05190348947 36 36 26
103.249179386427 390.771757881454 2843.76079117108 47 47 37
92.1909898302595 391.546259298691 2844.70822499119 43 43 33
82.7780714036899 392.28454679968 2846.86138913646 28 29 21
64.1325306785578 393.243519256585 2842.56271270446 15 16 8
39.5489888683231 394.350529464043 2834.21963830686 18 19 11
62.8427837423926 394.308965528042 2859.27299400531 24 27 18
51.6883657623075 395.094595597071 2860.31433926301 28 31 24
26.9816587569336 396.216366139647 2852.09138815381 25 28 21
0.492376291350904 397.390850873954 2842.79695105795 20 23 16
19.7659492831455 397.42765436996 2864.74564157049 20 22 17
-16.1735921772648 398.849317122628 2849.21156469094 29 31 26
-24.9520510969172 399.591664092636 2852.15101049679 41 43 38
-210.858749953502 406.550618183388 2765.08130577197 91 93 88
-213.146254742766 407.159379994087 2772.93083222635 149 151 148
163.03548980388 369.564067744834 2678.41680063267 184 185 180
165.535384590519 370.116611448344 2690.0228091394 185 185 183
168.865960910866 370.652546565583 2702.22330266294 192 192 190
173.033189166374 371.171195847912 2715.01279044544 170 170 170
172.478207313712 371.755299841844 2723.97969690436 133 135 134
174.338074486711 372.299650580889 2734.80556389163 187 189 188
173.836967281175 372.876651528882 2743.71968401463 183 185 182
174.161072445365 373.437795743047 2753.23428467566 157 159 154
169.696793886591 374.072543551431 2758.99047314753 145 147 142
171.674523726876 374.601475624652 2769.70157963593 44 44 42
174.494562734784 375.112421716832 2780.99582830712 38 39 34
179.779831711312 375.577469626637 2794.09991670314 24 25 19
165.665017580963 376.368255925808 2792.41190405733 16 15 10
166.944364205696 376.896440138657 2802.39971661849 22 22 14
164.998087481529 377.477752500051 2809.91445557657 35 35 25
163.884447272402 378.042298271954 2818.0217615789 79 76 67
