ply
format ascii 1.0
comment KinectMotionCapture
element vertex 797
property float x
property float y
property float z
property uchar red
property uchar green
property uchar blue
end_header
167.961787760473 385.530514966144 2699.50529341759 180 182 181
171.334771497006 386.000955751737 2711.67335578358 178 180 179
174.751503472773 386.465809369906 2723.79913912419 172 174 173
175.820868356786 386.977696271944 2733.99753755141 180 182 181
174.525640453417 387.538909376736 2742.28599322723 175 177 176
173.250485790324 388.097310124417 2750.55459370188 170 172 171
172.798426577247 388.634767884336 2759.42619075123 167 169 168
171.565916592157 389.187514195131 2767.65361799551 169 169 167
172.773277362243 389.681296897147 2777.71766026076 170 170 168
168.352639737904 390.303879594927 2783.43231063764 173 173 171
165.55782893992 390.887245023391 2790.37244371453 171 171 169
160.33809838697 391.527289505618 2795.46111502045 217 216 214
155.933704711155 392.147280638234 2801.16035579051 219 218 214
151.533906954469 392.766528513647 2806.85480475603 232 231 227
143.865769957662 393.465770653763 2810.11496467167 186 183 178
139.467698184529 394.084358675326 2815.80779723612 184 181 176
130.96367073916 394.805583574315 2818.47785036403 162 159 154
124.093147455942 395.486577422905 2822.36557447841 138 135 130
116.389875119337 396.189410329399 2825.66043143415 110 105 101
111.987493778638 396.807892983339 2831.35755903619 95 90 86
105.930226455283 397.468830455284 2835.85791944372 83 78 74
98.2061710662996 398.173706745405 2839.1727744245 52 49 44
83.8010546233816 399.056432507442 2837.75944765407 51 50 45
75.2043745031097 399.78786352763 2840.51999779756 90 91 86
63.2425247472925 400.611230462717 2840.94064793456 110 111 106
52.929633600673 401.39247703762 2842.56390180281 121 123 118
42.5943372600552 402.176400721165 2844.20900868442 128 130 127
33.0801620419887 402.939613865791 2846.45870047927 130 135 131
21.8568710188363 403.752029905975 2847.56447873203 65 71 67
5.52332883981421 404.709984422339 2845.22116981244 41 46 42
-6.61321124771108 405.55398808203 2845.81223993234 61 63 60
-19.6311972713406 406.425818984796 2845.85723888286 41 43 40
-46.3329436909481 407.692897386773 2836.7600963305 30 32 29
-90.2319102274824 409.46534888074 2816.32480240526 31 33 30
-190.008490560975 412.878838734361 2759.02839775883 91 93 90
-209.470161212617 413.979102488816 2755.5196054584 127 129 126
-215.219244568474 414.680455170883 2761.12487059771 129 131 128
-190.769862045083 414.484643679179 2786.47041771675 168 170 167
155.106135543099 377.189250912719 2670.99366118571 179 181 178
161.53273561181 377.647294698257 2685.79958261915 179 181 178
168.018247264152 378.097747874042 2700.54778802599 182 184 181
172.976938127567 378.569469380627 2713.97518696135 175 177 174
176.396949443999 379.063849303148 2726.09301205132 179 181 178
178.266862368083 379.582373099418 2736.91272067012 171 173 170
176.178221580278 380.171814403497 2744.56762779375 166 168 165
175.707579052422 380.728273579001 2753.45486994846 177 179 176
174.45840172951 381.297155653263 2761.69646324679 177 179 176
170.010649175238 381.926606295149 2767.43702407079 74 76 73
171.213856063622 382.442790094581 2777.50188032956 53 55 50
166.789296858556 383.06900896423 2783.22022531146 41 44 37
166.421893250972 383.611657154278 2792.00699094981 26 27 21
162.016324445021 384.235052754085 2797.70655762071 40 40 32
162.501736062686 384.755589488336 2807.06664251469 99 96 87
159.750007477682 385.341484510879 2813.96362044431 105 101 92
150.46460420461 386.065626225408 2815.99191305621 93 89 78
141.160897268983 386.791797009805 2818.03841942196 66 59 49
131.838444604081 387.520137638253 2820.10288203 63 57 45
125.793948582219 388.177696019922 2824.59105977442 70 62 49
118.09432068203 388.87235760894 2827.88316762608 69 61 50
117.007619983861 389.418722498492 2835.96674726427 60 52 41
110.961664148448 390.07597671574 2840.4560817385 62 54 43
104.08113426554 390.752616978793 2844.35472385433 58 51 41
88.8560190020278 391.623803269736 2842.34046424562 43 39 28
81.9422262049669 392.304178138942 2846.27124711178 24 24 14
69.158326805328 393.124342871016 2846.0917686637 29 29 21
59.698475930273 393.868117724574 2848.29038855381 36 39 32
46.0127918030508 394.715725286234 2847.58509247311 36 39 32
41.5670477991514 395.341473042082 2853.32420606184 32 37 31
28.672484055472 396.174733725123 2853.25268336748 35 42 35
3.8815123585203 397.306655420371 2845.11190800675 26 33 26
-2.31432154882105 397.981035085256 2849.74754248833 48 50 47
-17.0247032160473 398.87083044127 2848.63664155737 63 65 62
-105.143994491478 401.636680840148 2798.28160771878 63 65 62
-144.900460480004 403.194653583469 2780.84933380821 66 68 65
-210.519604416822 405.438116395184 2746.48778402069 87 89 86
-211.990481761064 406.029669569833 2754.94617793879 115 117 114
-210.858749953502 406.550618183388 2765.08130577197 144 146 143
155.950980257127 369.662827907374 2672.68402924655 177 179 176
163.95710545517 370.139043280462 2688.75259175963 179 181 178
172.030299551531 370.6067315465 2704.75615200991 182 184 181
177.791179344586 371.101024099066 2718.80053880659 174 176 173
181.222438170874 371.624060195759 2730.90295958297 170 172 169
179.119174650679 372.226637457872 2738.57044580716 176 178 175
176.233447011441 372.839420406448 2745.59651275478 184 186 183
174.161072445365 373.437795743047 2753.23428467566 150 152 149
169.696793886591 374.072543551431 2758.99047314753 87 89 86
163.628045597807 374.732746534913 2763.50234288052 43 45 40
158.362789661124 375.379709591659 2768.63519900319 27 29 24
161.183638379739 375.890347216045 2779.92868921108 15 18 11
163.233589826953 376.409774864283 2790.56914548404 13 14 6
164.507111870814 376.938663873687 2800.56263777149 26 23 14
167.441164666537 377.43479445011 2811.7458587927 76 74 62
164.700859426636 378.027740889507 2818.63045097544 91 87 75
158.699961017006 378.678165010186 2823.07605224509 67 61 49
149.415590576032 379.388895495949 2825.1056392552 49 43 29
140.11251719219 380.101760947442 2827.15314517506 55 48 32
129.967178476482 380.832181034088 2828.61786697729 54 47 31
122.277144155585 381.517996736971 2831.90175568102 53 44 29
120.371863661213 382.093079433319 2839.37670551865 57 47 35
113.503774406595 382.763299467229 2843.26360497175 64 56 43
107.460750624109 383.417753292821 2847.75077961274 50 44 32
96.4122531941452 384.172605105274 2848.69149321126 43 37 25
94.5298512367985 384.744331847894 2856.14422033191 37 35 23
49.6766714041552 386.734134590926 2842.29266285073 37 38 32
16.0448396978818 389.056387294417 2845.58888040344 35 42 35
0.2864082332108 390.471353652785 2852.52597280016 33 35 32
-17.8226511591393 391.406595960038 2849.11531693952 47 49 46
-53.0507383553203 392.729912773942 2834.30620026289 59 61 58
-210.215933559633 397.96439866705 2757.20988749473 131 133 130
-191.864016877779 398.106840018725 2778.64161164297 185 187 184
162.306155173704 362.082898345168 2678.82984495436 167 169 164
167.960030924669 362.628980710263 2692.97283383497 188 190 185
176.042180583691 363.141755098786 2708.96049952793 182 184 179
178.640489251629 363.70895886018 2720.46661484555 191 193 188
182.073469294278 364.261839033797 2732.56325332911 128 130 125
175.19070624886 364.932169351812 2736.46470777345 17 19 14
169.09988591519 365.593444771295 2740.99833686773 12 14 9
164.607346617351 366.234969095926 2746.78158710512 10 12 7
166.541143188379 366.794147594103 2757.53184957095 18 20 15
160.464298383658 367.452996072505 2762.05162161722 28 31 24
160.030518323068 368.03738842492 2770.89813028566 24 27 20
158.81247148492 368.62941269829 2779.10539014551 31 34 25
161.666829764158 369.163098992362 2790.36219828103 35 37 26
162.123700324539 369.7257993929 2799.74439309535 37 35 23
168.308840033752 370.203580696026 2813.36992387902 41 39 27
165.570285486371 370.804797943827 2820.25155517633 47 44 29
162.026034977202 371.416407570576 2826.51480916729 76 70 56
150.288771144387 372.150088371089 2826.72535989228 71 64 48
142.631881675166 372.824442988698 2829.97802921171 71 62 45
133.3162566234 373.525639237916 2832.04006166837 81 72 55
130.589827004076 374.124502382307 2838.91000066833 74 65 48
126.219991956504 374.74825810227 2844.57402996332 76 67 50
120.195375690982 375.398327458939 2849.04357369044 69 62 46
112.504076663046 376.076135415772 2852.32990180831 58 52 38
100.633428990851 376.825127663545 2852.67064163237 38 35 20
91.2398597762536 377.534941152027 2854.80880017074 40 38 26
66.8180253337289 380.699968525769 2881.42607176505 27 32 26
21.7805545466598 382.073791477799 2859.34642787974 26 31 25
-18.6203692315909 383.936065357848 2849.59435677867 48 50 47
-18.8738711607854 384.494811830388 2858.26563704748 47 49 46
167.086930611432 354.556341907246 2683.69701761667 162 164 159
173.540986716711 355.1333567448 2698.45775308841 185 187 182
184.800251087054 355.666532675893 2716.95545668044 118 120 115
185.833732068116 356.271059187335 2727.17613410193 11 13 8
186.104082453228 356.87794199333 2736.73701606733 16 18 13
174.449999196712 357.582695764331 2736.86958049475 12 14 9
164.363089729184 358.276927197602 2738.28129201497 17 19 14
162.260901937254 358.901246281698 2745.9444965933 20 22 17
173.01779500626 359.403450350856 2763.52873062391 19 21 16
175.002599921138 359.980817921857 2774.22565271323 24 27 20
160.892016021064 360.712898185964 2772.54211611256 24 27 20
168.5689520194 361.228359679591 2787.51485849007 39 42 33
159.28993537681 361.913176576267 2789.54295911639 44 46 35
163.802414719202 362.452472594401 2801.98621804534 36 34 22
165.105319649101 363.021500746633 2811.94460014481 34 32 20
161.542438282232 363.641310040759 2818.22480510362 49 46 31
156.351886331761 364.278708050979 2823.28489277335 78 72 58
146.241589452436 364.973604501388 2824.72006789197 69 63 47
141.863111832167 365.602046853379 2830.39198670724 66 59 41
134.193518118141 366.270101220159 2833.65820270389 74 65 48
129.816850707972 366.897961553445 2839.32840997588 58 51 35
124.617122860553 367.53566128329 2844.39756485289 70 63 47
119.418288950389 368.173130380487 2849.4658661244 75 69 55
112.556963984341 368.83245992993 2853.3479959898 66 60 48
100.686318309222 369.560282117234 2853.69186275642 48 44 32
87.9501996923406 370.303188980048 2853.47635596408 34 32 20
67.6417657893107 371.156123267516 2848.01047295751 35 35 25
42.2276650964082 372.089375227253 2839.10092788372 35 36 28
79.6778434325707 372.678588310781 2882.59483616798 32 35 28
62.6440117200286 373.493271759533 2879.55119119086 29 34 28
-1.88893648302502 375.040011270288 2844.21400838239 28 33 27
-25.0820965646059 375.973182206985 2837.34977637835 37 39 34
-26.2263700097529 376.566874373681 2845.48353165447 31 33 28
10.1836749736148 376.556602816109 2878.76296107646 41 43 38
178.164409166519 347.038331545559 2693.64615812048 58 61 54
190.168447464852 347.631095853252 2712.81239237391 2 5 0
196.722149538605 348.236401092011 2727.47033445896 21 24 17
184.304467583712 348.92033645168 2726.94699347432 43 46 39
175.82705775443 349.58911422918 2729.59836657763 45 48 41
169.725436473023 350.247269648932 2734.14318230727 24 27 20
177.998307098294 350.827991998538 2749.93141658241 9 12 5
185.537404399646 351.404850479055 2765.0319603758 21 24 17
189.928766183737 351.992821130093 2777.5882967411 22 25 18
165.402659711755 352.755689201594 2767.82214294324 17 20 13
166.593114721614 353.361301607065 2777.88678233898 19 22 13
139.518804065466 354.155420397045 2766.39501048569 33 34 26
173.121614874256 354.531318151515 2800.98807996819 36 37 29
157.358023046374 355.248947432724 2798.11432188931 31 31 21
163.530731730552 355.804542556715 2811.74069601587 28 28 16
155.882715240465 356.462918450045 2814.98691598432 31 29 16
148.223900739478 357.122508182157 2818.24367913239 38 34 22
139.734312719785 357.790167616869 2820.90731064937 28 25 10
138.628585026392 358.394863093413 2829.0011631398 48 42 28
133.423110631809 359.034024377168 2834.07580840607 46 40 26
132.348084928737 359.634626542601 2842.13944051385 48 42 28
123.014802752774 360.311483296555 2844.22260412262 47 43 31
118.64176623875 360.941686916946 2849.88885952425 41 37 25
109.283168328503 361.621381308499 2851.9967426298 39 35 23
101.573367425229 362.285983434923 2855.30339519936 38 36 23
88.0035261541989 363.013698324212 2854.50078553461 31 29 17
73.5581873847115 363.754957215815 2853.14830887072 25 25 15
86.7743964531833 364.193892629371 2871.13391331559 23 24 16
84.0896139145855 364.803633471535 2877.96088842976 23 24 16
94.911118340367 365.255133650955 2894.07154712301 22 25 18
23.5820524833885 367.259253251867 2862.58125255496 17 22 16
-3.79839577108454 368.181627206474 2852.79177096474 28 30 25
-10.8523443699156 368.858501132771 2856.86224805177 29 31 26
30.59204213212 369.486010686631 2902.05250133534 26 28 23
164.734927369244 338.933698531964 2674.17116692816 151 154 147
188.454523830539 339.595125741184 2702.94919720887 7 10 3
200.483185968088 340.244609697151 2722.08259648671 20 23 16
192.033290172565 340.900012130666 2724.70862461776 52 55 48
185.947374953308 341.554300549278 2729.23841553659 38 41 34
176.678788628635 342.213314029156 2731.25963459477 27 30 23
179.343634321415 342.853860534841 2742.68883763755 30 33 26
176.457003146351 343.500517041624 2749.71079531249 30 33 26
183.991727944345 344.121416255195 2764.80917186525 18 21 14
173.129100282659 344.78233899795 2765.57919671168 12 15 8
167.067579690748 345.432343225228 2770.08539660655 19 22 13
148.905266381461 346.121028369778 2765.34681655393 22 25 16
167.062007131049 346.690844427073 2788.32609681101 32 33 25
143.191887301482 347.404698752297 2779.33269210798 33 34 26
163.099118526846 347.952086567741 2803.41084296539 26 26 16
161.956651360036 348.575890485576 2811.53835407676 23 23 13
149.407452957501 349.249663220373 2811.14711290031 20 18 6
142.551143746959 349.899469199249 2815.02533178393 31 27 16
138.968493159598 350.532991241272 2821.32347897478 24 20 8
138.68256866402 351.147393332236 2830.0187294552 31 28 13
133.477005734829 351.786949074557 2835.09340433684 30 26 14
129.923974296626 352.416366892738 2841.36240803522 28 24 12
122.240493434017 353.070456762998 2844.64447812219 40 38 26
114.546509191127 353.725769260085 2847.93713535933 57 55 43
107.673203350548 354.376597526539 2851.83208105417 50 48 36
100.793053594411 355.028141155228 2855.73371712811 42 42 32
95.5773581323029 355.668119216339 2860.81839134618 26 26 16
77.7996753265309 356.403520300116 2857.10821008199 21 21 13
83.4698015644366 356.96060303491 2869.81652682128 21 22 16
95.0809387594207 357.463353339613 2886.55240307337 23 24 18
75.566932334016 358.218731604326 2881.729307735 25 28 21
71.2028464762375 358.850047667684 2887.38651058408 23 25 20
57.5242854913287 359.563900478013 2886.6939100116 20 22 17
28.5232793170809 360.422752433906 2875.68889843821 25 27 22
10.4790284941352 361.190166493523 2872.23869165181 34 36 31
13.7027433561596 361.757664031994 2883.12372595338 20 22 17
40.0494543403194 362.090420925511 2909.34123216414 34 36 31
196.825087046348 330.86076101236 2691.67697369321 19 22 15
179.71110475922 331.479335173009 2687.32465712893 22 25 18
201.892526401709 332.231466163744 2714.7825552864 23 26 19
192.650647643613 332.874729276928 2716.77958123347 25 28 21
181.017483971623 333.513867095219 2716.90107021336 24 27 20
180.454389240184 334.181933500874 2725.86362327305 17 20 13
183.094663906909 334.853086532364 2737.31270207678 15 18 11
185.774735976242 335.519075046834 2748.72302478477 19 22 15
180.507244106931 336.169062028846 2753.85765428675 21 24 17
171.237189669034 336.814432397913 2755.88234764889 22 25 18
176.395497166739 337.472981987165 2769.0839112065 25 28 21
167.123487854469 338.118217206134 2771.1109036049 19 20 12
168.31700981361 338.767328818728 2781.16573046885 26 27 19
161.458418124243 339.41334065339 2785.04711450253 27 28 20
159.454996564462 340.057921641083 2792.6092480518 23 24 16
165.590995447657 340.694553475695 2806.26009836297 20 20 10
157.125847903331 341.338934977075 2808.902900595 19 19 9
151.094672737309 341.981752458141 2813.38002923132 17 17 5
145.060249075466 342.624815595151 2817.86000952218 27 25 13
142.3032544163 343.261925516518 2824.75464720161 22 20 8
137.092754381397 343.902663863313 2829.83404991378 24 22 9
129.411359993196 344.549163823631 2833.11516988619 22 20 8
125.848706835961 345.185575261671 2839.39303228184 29 27 15
121.46670468467 345.823292518565 2845.06708018162 31 31 21
117.91946601524 346.457539582392 2851.32995565657 39 39 29
107.727109567842 347.114336349979 2852.85191041384 34 34 24
101.680704522341 347.75770277413 2857.34408141207 37 37 29
93.960138923407 348.408226871155 2860.66350421015 42 43 35
85.3913321463162 349.063612356976 2863.40761520859 45 46 40
69.2528914462143 349.755936153647 2860.90982774067 48 49 43
66.5269705394524 350.387770747476 2867.77405057372 52 53 47
76.4636182945555 350.95207640652 2883.3298031032 57 58 53
77.1729243656227 351.558551335449 2892.45485586754 54 55 50
59.2721875816582 352.268585189467 2888.87061828823 51 52 47
53.2018136590069 352.914072292532 2893.3859394584 21 23 18
16.490618145137 353.752118151482 2877.28747546537 35 37 32
0.10882190928152 354.473735012773 2875.02701413975 65 67 62
-36.8404185348736 355.34084671634 2859.16063636232 49 51 46
192.184941886069 323.409964085924 2688.88379937284 18 21 14
215.09911077594 324.269136323274 2717.01515734988 17 20 13
185.422843096288 324.759799314604 2702.48438064856 15 18 11
187.185735543376 325.464886543909 2713.38245034715 27 30 23
176.329811655868 326.08924380277 2714.15122260928 21 24 17
186.854824820698 326.838555089908 2731.92919447366 15 18 11
191.100022296066 327.543711820961 2744.61369194877 25 28 21
190.612161716281 328.218583904694 2753.50053050746 25 28 21
173.375646157711 328.810575300107 2749.27382021418 25 28 21
179.300257481055 329.51258367224 2763.12491887347 22 25 18
180.464810443878 330.187639207825 2773.20501572051 18 21 14
184.07465905773 330.867795011787 2785.10687197368 26 29 20
182.082866011864 331.522541641555 2792.65595575927 23 26 17
178.490746409926 332.16987673219 2798.96146425902 20 23 14
170.855435134615 332.804183808431 2802.19862512204 23 26 17
168.083136000173 333.452348527982 2809.10682647732 26 29 20
158.809322773175 334.083789616272 2811.13731111421 24 27 18
158.495094051409 334.735342651363 2819.85517721634 27 28 20
151.660173549587 335.372576669514 2823.71435276831 29 30 22
143.178015329453 336.008162215259 2826.37500904929 29 31 20
130.571581397982 336.640797664495 2826.04702151401 33 35 24
119.57893420219 337.278764485981 2826.949550555 34 35 27
120.12211367015 337.926128518431 2836.23352610038 34 35 27
122.348826707356 338.570311328454 2846.68001674303 34 37 28
121.292594007314 339.210119064212 2854.71953039681 35 38 31
113.603047806226 339.84940579657 2858.00981135187 36 37 31
95.0657796884311 340.496464446601 2853.64971934466 36 39 32
99.0276170366227 341.130818187983 2865.20915294812 42 45 38
82.0953138835154 341.784261365842 2862.08818201025 46 49 42
63.4309901163439 342.44658554677 2857.8520019023 44 47 40
65.7398272978917 343.079886288358 2868.21888826255 46 49 42
56.2782580334691 343.732418826624 2870.43303795505 50 53 46
57.786117144357 344.361996874252 2880.17861043293 50 53 46
50.0069973963737 345.011470109965 2883.55633368345 49 52 45
33.7261934430213 345.68622708102 2881.20251139967 46 51 45
-7.28410665140045 346.443643106171 2862.29981658923 39 44 38
-11.7780937765688 347.096953773349 2868.08310036627 62 67 63
-16.4677926121231 348.384781425539 2882.46874117991 61 66 62
204.951399776049 316.826903991099 2709.77077057371 23 26 19
192.766743517474 318.124167107233 2718.84442296134 21 24 17
194.578877664814 318.847623600535 2729.69121779645 20 23 16
188.49834076837 319.494260932367 2734.21679878851 22 25 18
179.235429080379 320.113138373623 2736.23831493756 32 35 28
173.937678312861 320.767809760738 2741.40229961974 30 33 26
176.627498627469 321.487145002906 2752.79505755301 29 32 25
189.765073198343 322.282683868492 2772.22295069967 28 31 24
184.533929457072 322.928530857615 2777.32209786233 26 29 22
181.717201865977 323.591392431551 2784.27224514318 27 30 21
187.783792698689 324.313463212613 2797.97939083554 25 28 19
193.90582371879 325.028502354823 2811.63286071741 25 28 19
184.686611330933 325.640455553108 2813.61200621552 27 30 21
173.824392728243 326.244893560535 2814.38997327954 28 31 22
164.564365190949 326.861566337238 2816.40928911477 27 30 21
168.344119326032 327.549802006008 2828.1412324732 28 31 22
162.350443776469 328.183292496109 2832.58250196123 30 33 24
149.793441574285 328.786092313335 2832.20949983942 31 34 25
122.407017925311 329.327693402964 2821.06532064971 35 38 29
107.275404090528 329.932671351288 2818.99755821685 36 39 30
110.266812985012 330.612409144809 2830.09668671762 37 40 33
114.125612567979 331.290016479595 2841.75170764092 37 40 33
110.560623058905 331.938132919831 2848.03016007427 36 39 32
83.7176867564038 332.516947750729 2837.7576990583 34 37 30
100.955587294793 333.224168658261 2858.79493637377 34 37 30
99.9174064175197 333.875307731638 2866.81484953393 38 41 34
86.3373108740517 334.49806825179 2866.03793472322 28 31 24
74.3981195041954 335.128328856571 2866.4642879373 31 34 27
63.2703008289632 335.763419469682 2867.50146935791 35 38 31
60.5491541016616 336.411651670861 2874.35886564297 46 49 42
72.9342947484128 337.714423642633 2900.1269430806 42 47 41
11.493663380862 338.986093925729 2875.92980575652 42 47 41
4.48325847830411 339.637902531135 2879.96108579493 49 54 50
2.59521585491829 340.287943344984 2887.40783939481 45 50 46
21.2871282277129 340.920098089568 2908.42922552829 50 55 51
-17.4480923009663 341.598888885331 2891.53002964692 48 53 49
128.130713236434 306.867505603654 2628.82151244589 17 18 12
178.207679276037 308.341801747529 2679.48443865066 11 14 7
157.90735061094 308.802060186619 2672.65163502419 12 15 8
162.717632291895 309.611748255343 2686.17645516134 36 39 32
206.237222614074 310.924461465291 2730.62163689095 43 46 39
224.69050788817 311.881894299096 2754.66606377888 22 25 18
197.277308147655 312.249227795378 2742.15698315838 29 32 25
172.140525240468 312.658758472472 2731.632553883 31 34 27
171.605278202912 313.372595726266 2740.56035101764 27 30 23
180.678242324403 314.193690989715 2756.93580077149 22 25 18
195.426020090655 315.068502889746 2777.58684045753 20 23 16
177.367855318573 315.573537056652 2772.77232074416 19 22 15
176.142287428935 316.264071697182 2780.97215148807 19 22 15
183.807800115664 317.042514768394 2795.91736882056 20 23 16
200.42823385586 317.90099336595 2817.54540397393 24 27 20
189.604043177875 318.482415981847 2818.28901041138 26 29 22
177.941315098091 319.059412684321 2818.44904171503 24 27 20
167.062348229805 319.647237770041 2819.24575759496 21 24 17
167.583269593124 320.336741701807 2828.54594535056 25 28 21
159.133165246126 320.94777993812 2831.17839974329 26 29 22
149.028685247013 321.547371822884 2832.62188458705 24 27 20
128.216324403526 322.067315125732 2826.28871508615 25 28 21
110.626721009716 322.620466416882 2822.41836678332 24 27 20
110.322314383648 323.303302528548 2831.12185577416 23 26 19
115.836400423582 324.022304161351 2843.96119119433 24 27 20
95.6811218176838 324.568385754248 2838.3889132499 26 29 22
100.405950153872 325.276776764783 2850.59631432289 28 31 24
108.512692282126 325.998755548267 2865.11172969443 32 35 28
109.998057292706 326.675676056441 2874.87264195145 34 37 30
103.141088612396 327.304382325344 2878.75497206821 41 44 37
82.0075293820133 327.862768621772 2872.73507545602 44 47 40
70.0559440770823 328.473379347971 2873.17697811631 47 50 43
74.9392778450524 329.161626066009 2885.22995827002 54 57 50
80.7153349461602 329.847425177523 2897.81405987195 57 60 53
72.9884789525834 330.475228459184 2901.14308725148 52 57 51
56.7603031289714 331.074401517896 2898.74817572613 45 50 44
37.9299282422831 331.671286196592 2894.68689660638 42 47 41
26.7145318959798 332.298236051584 2895.81190930751 43 48 42
21.4572258593719 332.944285350346 2900.93700611491 61 66 60
7.63287049172767 333.56976954106 2900.40224236311 53 58 54
1.49929361746892 334.216090856721 2904.98053954426 51 56 52
204.284110915152 302.068751785062 2711.19773741008 24 27 20
186.386568934077 302.512684538129 2706.23240981108 49 52 45
221.284796403731 303.842049112688 2743.64891737311 51 54 47
231.074819276969 304.734880366365 2760.7186239561 18 21 14
200.506420556333 304.974497764582 2745.69360383591 24 27 20
182.530632187363 305.42730869458 2740.8050017081 27 30 23
189.987241474057 306.27609114117 2755.94692923402 26 29 22
203.896263221367 307.212064985079 2776.00525486165 26 29 22
185.876095721823 307.669790763841 2771.15965761205 26 29 22
171.004694868943 308.180563440609 2768.8474233395 25 28 21
168.958959483648 308.875722590465 2776.44409971273 25 28 21
180.638581795706 309.75469885937 2794.47361035768 26 29 22
182.700279165311 310.49489925446 2805.0697726405 31 34 27
189.659766879721 311.293268160415 2819.29622886007 32 35 28
177.184719434362 311.838856061284 2818.85030034947 29 32 25
165.489916582089 312.398461130052 2819.04475285222 27 30 23
161.925877481426 313.05906063857 2825.32007868193 33 36 29
159.188659304641 313.727938308283 2832.19038276268 34 37 30
160.56401344955 314.441476363187 2842.05546322014 33 36 29
141.423041225185 314.925259706145 2836.9020810165 34 37 30
121.393028260568 315.408166418197 2831.21441181632 33 36 29
126.068465853816 316.155867132618 2843.4653865121 33 36 29
124.996972933411 316.839405855306 2851.51325252753 33 36 29
120.627269041935 317.488075816649 2857.17380711057 33 36 29
113.767284254211 318.112502072227 2861.05942700868 34 37 30
118.570402207814 318.843959226402 2873.18601401028 35 38 31
119.243369015862 319.532750952349 2882.33498581334 35 38 31
109.895121522777 320.132548101568 2884.44406173717 29 32 25
103.886087759467 320.762033629276 2888.90117409018 35 38 31
87.7782897520185 321.312153560723 2886.39397564465 40 43 36
89.329123259418 322.002639190419 2896.08787179748 49 52 45
84.1504217478013 322.639840578708 2901.13622086688 53 56 49
56.9480565108891 323.122797471582 2891.23518369949 58 63 57
53.4188343946846 323.777179712369 2897.4768546584 51 56 50
50.7494033706681 324.435890091654 2904.28134781546 44 49 43
42.9749156939847 325.061752054438 2907.65796108653 38 43 37
12.1090282606815 325.55454852108 2895.7250883774 56 61 55
-5.1634821840576 326.137219524976 2892.9527462477 51 56 50
56.3920702492937 289.971064644649 2572.19121521293 83 84 78
201.398055243193 295.398572204072 2719.3005487803 27 30 23
225.287564011667 296.640280726081 2747.82375046162 27 30 23
227.178357860681 297.427988955642 2758.58293867161 17 20 13
202.942983163221 297.705259544926 2748.59951717765 29 32 25
190.536268946921 298.220106608662 2748.09061408474 32 35 28
196.418603002857 299.080424580207 2761.96029660588 28 31 24
186.383953715225 299.641638623447 2763.33977290708 22 25 18
177.928006428096 300.234161837654 2765.98110377991 21 24 17
175.877299031282 300.941314029868 2773.58094486765 20 23 16
177.06069539769 301.701826417768 2783.62936160893 24 26 21
191.178371883933 302.676479663229 2803.47477319766 24 26 21
193.265013370215 303.438287620982 2814.04297201554 23 25 20
179.182355991528 303.932241531478 2812.36723677937 23 25 20
179.677457423099 304.66384448605 2821.68650404971 23 25 20
158.21872503775 305.049331498529 2814.59815430829 24 26 21
152.188992959448 305.680600814153 2819.07555675098 22 24 19
151.882385351216 306.397547758786 2827.77618978344 23 25 20
158.97958042395 307.219036859226 2841.86214556386 24 26 21
142.300705969607 307.693022507645 2838.51637776822 25 27 22
140.397587596844 308.380256701895 2845.97260464472 25 27 22
137.685146651882 309.054119021483 2852.81756783891 28 31 24
140.779289735177 309.803314473132 2863.80441395997 28 31 24
140.594519205762 310.504444909663 2872.38639864506 32 35 28
140.433898823818 311.202486609755 2880.94485839061 36 39 32
122.793098885592 311.68126051991 2877.13634195763 40 43 36
118.462845381039 312.327890832259 2882.75802318251 39 42 35
118.32412661163 313.02287493766 2891.29484837221 38 41 34
98.9048218757542 313.494527228411 2886.41964743123 41 44 37
102.135107848615 314.226235377063 2897.27388626613 42 45 38
89.3839203746811 314.780054917682 2897.10095225324 43 46 39
66.4570521752479 315.231656318748 2890.04380208276 40 43 36
50.2264461129465 315.762039025233 2887.66147100436 48 53 47
58.5681494083734 316.54161211458 2901.93505405029 51 56 50
58.4630630265437 317.231930503435 2910.43950921481 47 52 46
44.7358713433137 317.792639185673 2909.81783427991 36 41 35
17.2936338789889 318.235233652425 2900.16062148726 45 50 44
-4.25092978523534 318.742031751097 2894.55648306674 57 62 56
-31.8789186380815 319.207379732542 2885.08036118927 53 58 54
180.737445811656 285.945332695661 2684.53325938201 27 30 23
207.542736225896 287.39157097875 2715.79913033141 27 30 23
212.474280833997 288.292617051408 2729.19003191622 27 30 23
214.301732198231 289.113033288148 2740.00728592079 27 30 23
219.328219496455 290.001903935247 2753.30570753338 17 20 13
199.83034486703 290.325307261515 2747.11319163067 25 28 21
199.336368772328 291.083993152966 2755.99371534189 25 28 21
186.916761253069 291.576301441459 2755.50060886856 21 24 17
184.844668876943 292.297663213479 2763.11958538721 19 22 15
180.387559359644 292.965607678483 2768.86408628556 21 24 17
191.984528413324 293.969342554162 2786.95689572833 25 28 21
192.402153258462 294.730467220377 2796.34873509823 27 29 24
198.492284724751 295.602402786563 2810.01035464366 26 28 23
186.855154866607 296.113002071093 2810.15478004419 24 26 21
180.049136097547 296.722354674618 2813.98903876719 23 25 20
169.987747618402 297.269914073468 2815.39742347331 25 27 22
159.089452829556 297.804730311584 2816.22116694859 27 29 24
155.509786161382 298.478933228619 2822.51033844802 27 29 24
153.574631858297 299.181763950906 2829.99607231687 28 30 25
153.295912992597 299.91176531665 2838.66708197798 25 27 22
167.013373386546 300.883903855963 2857.49303857539 26 28 23
172.582732768505 301.702906856982 2870.26270659129 22 24 19
146.824271620282 301.985405085284 2860.37405049781 29 32 25
143.317888652462 302.649779739195 2866.59190281245 28 31 24
136.501508083454 303.259082329237 2870.43645834795 29 32 25
133.004714484057 303.922056442203 2876.64499527733 32 35 28
118.68088948049 304.414953494883 2875.2088992609 33 36 29
107.657160590044 304.963903787314 2876.15544948827 31 34 27
94.0950398758749 305.478401829026 2875.37668655338 34 37 30
97.2815801246396 306.243074810017 2886.26949335116 38 41 34
107.23778112975 307.099020788985 2901.76238706041 39 42 35
84.3800885050481 307.486013804404 2894.6460936128 40 43 36
39.4683438293111 307.582229297895 2872.63009382279 42 45 38
35.0350922369587 308.244202908843 2878.35178593861 44 47 40
70.509452567892 309.426449154301 2910.96686328222 54 57 50
56.81630206207 309.956581050831 2910.31590419051 41 43 38
32.8510850207273 310.363991783005 2902.8794718135 42 47 41
26.7522210446947 310.99949293769 2907.42455994664 28 33 27
4.37261033218306 311.442795352692 2901.24211090593 30 35 29
-54.1476807110572 311.479957672726 2871.49333572962 33 38 32
161.222928970786 277.918664956892 2669.67270323203 27 28 22
191.903231036152 279.590676804768 2704.14214552497 27 28 22
203.877629813981 280.725196179872 2723.25807894004 30 31 25
211.994076249165 281.742724793813 2739.13708497319 24 25 19
213.060246122255 282.562979174039 2749.29307951489 18 19 13
208.609163016636 283.233980441313 2755.03080646132 24 25 19
200.984270538289 283.822233169853 2758.26476595941 23 24 18
196.534891753766 284.492621540794 2764.00089107561 19 20 14
193.687393487746 285.202306295115 2770.97467364592 24 25 19
187.650253918723 285.831175999652 2775.45944865588 24 25 19
194.449497856421 286.772755151869 2789.82386290271 26 27 21
201.307989852387 287.706820918308 2804.13055342696 22 25 18
173.552763967831 287.814305156367 2791.99951543045 22 25 18
173.171357471254 288.574500311368 2800.76803279816 24 27 20
170.383518715577 289.275794246269 2807.68381275221 24 27 20
168.42023952185 289.993787416724 2815.19523405002 21 24 17
155.075987870025 290.456318053928 2814.20780467522 19 22 15
158.830727926429 291.298225074365 2825.9418748249 24 27 20
159.357155011753 292.06416444313 2835.22496035096 25 28 21
161.55157517485 292.861242563174 2845.68125827692 28 31 24
159.672356972307 293.568137274991 2853.11084611517 28 31 24
170.990529940826 294.543113510322 2870.06784538864 25 28 21
167.523823787318 295.208560060477 2876.24613961434 29 32 25
146.684390429916 295.528193730586 2869.9694591962 29 32 25
129.920404436613 295.937561622822 2866.71775889307 29 32 25
117.26071574361 296.43308400885 2866.46258153211 29 32 25
125.404532702276 297.324995616074 2880.91606505185 29 32 25
92.6751680349565 297.451795913738 2866.63668106215 29 32 25
84.9398278772928 298.050624141998 2869.97841584228 30 33 26
104.890867099981 299.144911378697 2892.51532389741 31 34 27
108.134171907944 299.92990775819 2903.34875885935 34 37 30
76.0039673323258 300.100969132396 2889.8851054333 38 41 34
37.8347746836352 300.187280858258 2872.51140364745 37 40 33
21.5388147445665 300.656614088226 2870.20299302076 35 38 31
42.5485522663802 301.738437465306 2893.10734948516 48 51 44
46.6610581396472 302.534389076175 2904.49328292139 52 55 48
34.6126760219008 303.072064631139 2905.04174819219 40 43 36
13.1316212840265 303.469710140909 2899.39067717394 26 29 22
3.57230133288322 304.055827580874 2901.71171086589 33 38 32
-52.3726690049506 303.964190020496 2873.67570652011 43 48 42
-61.2127843443577 304.580008259584 2876.69507895339 33 38 32
-48.5047016182705 305.500456581887 2893.6968458104 50 57 50
155.778626111023 269.349178906763 2656.50746093306 96 97 91
156.586471054257 270.224259981008 2666.91187258742 28 29 23
169.200398710092 271.461223152224 2686.79451254205 26 27 21
185.052067325177 272.78346187851 2709.1173992846 28 29 23
193.910268182256 273.877059719698 2725.66583637282 24 25 19
200.466788759508 274.890647162314 2740.26029786881 17 18 12
192.02098399527 275.451390124856 2742.89625417379 24 25 19
205.810830943545 276.663308456466 2763.03179982182 19 20 14
204.55949254452 277.427207518163 2771.2467156751 19 20 14
194.544259991817 277.938577579163 2772.61427779029 25 26 20
188.509136876009 278.564924482209 2777.09776114335 25 26 20
188.087970560066 279.347115016225 2785.90250969203 25 26 20
153.907185295931 279.202451423458 2768.8534642602 23 26 17
160.709547732546 280.184206287657 2783.20850599683 22 25 16
160.296824975894 280.964904852869 2792.00509047865 23 26 17
170.440942523053 282.018986504222 2808.6993430776 24 27 18
167.665420376597 282.727175019221 2815.60187344069 19 22 13
165.716495775851 283.454444704525 2823.09766935063 16 19 10
166.232052089345 284.241214219547 2832.3884710273 20 23 14
168.411704673956 285.064979903454 2842.85548896672 21 24 15
167.34737182502 285.803931214653 2850.88805496895 24 27 18
145.757396980812 286.044462550904 2843.95145531493 26 29 20
147.156799352728 286.842906207173 2853.78010651668 27 30 21
158.496669906258 287.869501632962 2870.70793047367 32 35 28
151.706398420143 288.465812386293 2874.52847949169 33 36 29
139.102112127133 288.930792373315 2874.22280088177 34 37 30
129.790218259378 289.474351582726 2876.30442690319 34 37 30
117.125731041683 289.946552297692 2876.05746148098 32 35 28
103.592047724689 290.404644027319 2875.25879661861 31 34 27
92.5325808078621 290.921111469419 2876.24563618557 32 35 28
104.946689398649 291.93564275774 2893.52541828338 32 35 28
99.7775772429783 292.573772875303 2898.56410771478 32 35 28
73.530686589224 292.78171757197 2889.17182616202 30 33 26
45.4976169064962 292.967481625137 2878.72236860161 31 34 27
39.3834423372157 293.600740878903 2883.28299173215 33 34 28
53.6415559792371 294.629868077668 2901.56364876292 45 46 40
53.5243635118672 295.371688711405 2910.07251344004 52 53 47
50.8727737665811 296.062484513237 2916.85454773213 56 59 52
12.3336719493521 296.089432701809 2899.8569451238 52 55 48
-11.7915608342458 296.398840728276 2892.59355765943 46 51 44
-32.5663250485988 296.779757173902 2887.66084941851 44 49 43
-62.875951404088 297.003494608 2876.63227736129 42 47 41
-55.3470072886748 297.892710509752 2890.27982781025 36 43 36
-32.199651256374 299.037015523338 2913.88641921276 37 44 37
172.242347656464 262.343069817957 2670.95136464759 22 23 17
166.827045414103 263.016290214568 2676.22933814652 26 27 21
163.767287694989 263.770542231212 2683.40731046962 22 23 17
189.047026264566 265.490303231966 2713.31349393692 23 24 18
201.069443789829 266.738252961328 2732.36464122712 23 24 18
189.455903750057 267.183813684555 2732.49525426024 20 21 15
185.739008962676 267.894378059641 2738.91532110302 22 23 17
205.075122124958 269.354836753721 2763.42564916264 23 24 18
222.939553491198 270.74876637132 2786.5733933342 24 25 19
212.170597087157 271.213322678996 2787.27942411043 28 29 23
193.37056143957 271.429247929409 2781.82707615518 25 26 20
179.319625336634 271.802708248056 2780.13731228152 22 23 17
165.2270641043 272.181226131272 2778.48847311285 26 29 20
157.542928933145 272.760390140237 2781.78226694745 23 26 17
156.313859660438 273.534482746661 2789.97322478565 21 24 15
157.535865812993 274.377845591219 2799.97139401921 23 26 17
169.347217147389 275.525637481846 2817.83002712418 22 25 16
173.91453878979 276.45168260433 2830.16200333178 21 24 15
177.713221750801 277.348419259527 2841.84433373151 20 23 14
176.648013562743 278.101576174956 2849.87600721832 20 23 14
151.006455614729 278.168887113943 2839.90306910627 20 23 14
143.348966595316 278.743689482041 2843.17104756691 21 24 15
141.447116768759 279.47575697049 2850.61938841697 23 26 17
146.992991041888 280.404188858851 2863.39620395135 26 29 22
141.003313269179 281.020752547483 2867.83600536173 28 31 24
144.965478188418 281.896496406851 2879.35909848629 31 34 27
128.183446216468 282.233366809457 2876.13603320403 31 34 27
122.18301483479 282.850932348408 2880.58636503404 29 32 25
108.66109505267 283.281108321079 2879.78014474432 29 32 25
104.311809836438 283.942637570003 2885.41818484192 24 27 20
90.7355348344563 284.379341553261 2884.66497525194 24 27 20
85.5334682493476 285.022024139858 2889.735716066 23 26 19
71.9009456102602 285.465538929585 2889.03735457693 21 24 17
65.8363617664688 286.090543248635 2893.55029130171 23 26 19
59.7688021257632 286.71587848755 2898.06613412701 34 35 29
57.0938369434244 287.418228879013 2904.86933496836 45 46 40
45.9228528813815 287.929545733976 2905.96767396357 32 33 27
38.9898424329802 288.537557783602 2909.92857327672 42 45 38
-4.70406710973181 288.352354571982 2889.57899523585 47 50 43
5.39943123213149 289.336755407816 2904.9066349405 44 49 42
1.83579909808085 290.02462262489 2911.17786433293 44 49 43
-41.3039624593483 289.894853824108 2891.68706312886 43 48 42
-30.2774438713493 290.889187626914 2907.5135713139 44 51 44
-32.1422723111899 291.61518917599 2914.92638376485 32 39 32
174.647435176992 254.904563863063 2673.91355091272 14 15 9
173.935541623863 255.757769268423 2682.9964999387 21 22 16
185.021106392584 257.054980217738 2701.55376576086 20 21 15
218.220722974072 259.169820199986 2737.70710748726 18 19 13
212.172665513709 259.794141615441 2742.20373420185 20 21 15
191.888248654854 259.895087256675 2735.40823619117 21 22 16
187.384254516436 260.581898968459 2741.19616779855 17 18 12
211.491165069669 262.297759894756 2769.43340677553 26 27 21
219.015109198688 263.399847524021 2784.47136925425 27 28 22
217.020133520922 264.156467687574 2792.00889441855 30 31 25
201.433736173615 264.436927836918 2789.02379300781 27 28 22
184.995201447728 264.695731126204 2785.47083032565 28 29 21
178.155408122254 265.289854056367 2789.34121646352 31 34 23
168.083476695816 265.776027509984 2790.76880544605 33 36 25
155.564412383786 266.184106063255 2790.38691015627 36 39 28
151.112938643357 266.863014172382 2796.12385638107 35 38 27
157.223719549068 267.884900607024 2809.74314589703 26 29 18
170.715978019157 269.135589931287 2828.75156164956 23 26 15
178.586592227101 270.193266662825 2843.45183952646 26 29 18
172.615363304536 270.805851749318 2847.87357114959 26 29 18
161.722122774325 271.265834996202 2848.70369379675 27 30 19
149.158977193386 271.678482965997 2848.36489650086 27 30 19
143.975584377247 272.320182452517 2853.41723928805 28 31 20
135.490429707684 272.86263763603 2856.09497355647 27 30 21
130.301129026515 273.50486076971 2861.15310554615 27 30 23
130.090173269873 274.292512026569 2869.74830480951 30 33 26
124.082894484815 274.908847396177 2874.20561803079 31 34 27
118.906096404894 275.549214276386 2879.25160910605 33 36 29
112.059371611787 276.142292837023 2883.12869480911 33 36 29
106.043315861551 276.759425096213 2887.59460590663 28 31 24
96.6670834852321 277.284542778505 2889.7425088258 28 31 24
88.954954318242 277.857535503496 2893.06501322518 28 31 24
86.2908750653251 278.56737532106 2899.85663508577 30 33 26
77.7239909945648 279.119057613137 2902.61416409514 32 35 28
64.0605896079647 279.539767023442 2901.94983628394 32 33 27
51.2082811041825 279.986952087411 2901.89307747762 34 35 29
38.3222547192963 280.438301077105 2901.86952344127 18 19 13
18.5797799602829 280.722527248077 2897.34259876725 24 27 20
27.8332577131613 281.734320458627 2912.09370142563 34 37 30
12.3102241295125 282.1309935406 2910.44541195792 37 40 33
15.6306283787195 282.988340174718 2921.19159269893 42 47 41
13.8273896369556 283.718104065011 2928.54235175485 44 51 44
-25.0447421372408 283.576767878265 2911.90032517405 27 34 27
2.49078249373458 284.991705911361 2938.19462311952 6 16 8
178.614461408718 247.547582474014 2678.14647828814 20 21 15
183.392534823095 248.645501681318 2691.66068127372 21 22 16
187.437113212367 249.70439125717 2704.49211490705 25 26 20
219.067678650822 251.886863976299 2739.35939504691 21 22 16
217.754028310543 252.700854870253 2747.62878402807 36 37 31
211.716367518504 253.321403671964 2752.11564428799 34 35 29
205.675458499897 253.942168611262 2756.60536029787 24 25 19
201.22092401025 254.625783747298 2762.34498803736 29 30 24
204.736330991112 255.619353029509 2774.29430385299 29 30 24
207.496878615389 256.57652702489 2785.58167605835 27 28 22
211.097533971334 257.559187230608 2797.44795133406 25 26 20
205.915825012998 258.202517215924 2802.49838103855 27 28 20
195.909065201449 258.664965950586 2803.86476014719 28 31 20
174.592376272599 258.711991587647 2796.68538359714 32 36 22
159.664583104548 259.005380793665 2794.46161475123 37 41 27
147.931380818404 259.421828004658 2794.71501928632 34 38 24
153.221776798829 260.453834013445 2807.73022033226 25 29 15
163.447704592301 261.652778650222 2824.32182346125 23 27 13
167.220539626301 262.613025245781 2836.02043449316 25 29 15
162.040094482526 263.255149210521 2841.06978746042 26 30 16
158.500362164725 263.953404141822 2847.31574868238 27 31 17
159.078039228878 264.790190767943 2856.53747102816 27 31 17
146.504334452732 265.180199064109 2856.21250530308 26 29 18
130.594017942451 265.464491432193 2853.54849400933 26 29 20
108.841101946893 265.564299091382 2846.79449622533 26 29 22
110.238691066797 266.428839516057 2856.61517893962 26 29 22
113.330991307083 267.342819797642 2867.57949990512 27 30 23
113.962754634076 268.172301498119 2876.74859345718 29 32 25
112.116549418432 268.919437924723 2884.13945120355 30 33 26
104.425746276637 269.482356319864 2887.4422675262 29 32 25
105.116481838905 270.304300437608 2896.55391482829 28 31 24
102.470647914937 271.020552785664 2903.32647103831 28 31 24
95.6220761808213 271.608647145715 2907.20646528576 30 33 26
81.1611162757862 271.971998149476 2905.92535526118 30 33 26
59.0360628422921 272.117053776389 2899.53420782438 24 25 17
30.0434004732812 272.074858595399 2888.65442294436 22 23 15
12.0039545327812 272.362351855101 2885.27003908131 13 14 8
13.521234826857 273.211213617192 2894.97418398978 18 21 14
7.37782853984914 273.841302867372 2899.5643031733 26 29 22
12.3678592841907 274.778850789081 2911.47482288517 31 34 27
13.9708564774748 275.616934354158 2921.09510481641 28 33 26
1.83786941393427 276.080730856187 2921.73884118283 23 30 23
-24.124081779191 276.181680079295 2913.49633373547 29 36 29
207.572438669577 241.359717530015 2702.73504138642 35 36 30
189.717842060099 241.4557011658 2697.77849512615 26 29 22
183.574398628537 242.087534679022 2702.36839339344 33 36 29
190.803494838982 243.314317054067 2717.68071438499 27 30 23
212.293085947981 245.158436259614 2744.24730579037 47 50 43
213.357741432962 246.088843671703 2754.38852357184 67 70 63
208.113374024016 246.741104704784 2759.49985403909 43 46 39
193.334887033441 246.98490280524 2757.13481365353 31 34 27
184.086415840832 247.470667404741 2759.16200203907 28 31 24
197.176103462817 248.897504390506 2778.54414204742 25 28 21
206.353949284183 250.146521735788 2794.75185818405 21 24 17
201.160438180627 250.791737608617 2799.81372885986 24 27 18
193.554975743031 251.338280671264 2803.03422086866 23 26 15
174.651472913574 251.430088113583 2797.70296191237 21 24 13
169.421805413053 252.079375581932 2802.80013464481 20 23 12
157.712220009806 252.471765858409 2803.03398071248 19 22 11
155.716965597248 253.249913593866 2810.56826305683 18 21 10
154.55231009941 254.057475289647 2818.69064818957 18 21 10
159.935388038393 255.11331124065 2831.61029262551 18 21 10
154.737421788276 255.758086285441 2836.6766524819 19 22 11
158.558281939777 256.742323168944 2848.32402810811 20 23 12
157.492186079629 257.537207534537 2856.35007792553 18 21 10
149.03326029845 258.055864482706 2859.00528388884 22 25 14
124.047080003584 257.97303490404 2849.8209839416 22 25 16
108.072030505423 258.230637317361 2847.2251982254 20 23 16
101.172056257628 258.820757930317 2851.15559860751 22 25 18
105.905767181947 259.823774260783 2863.31097148755 23 26 19
112.353548764834 260.879215002796 2876.59031719531 23 26 19
109.668072929734 261.609192229954 2883.40020987797 25 28 21
105.320443274695 262.280109945594 2889.03521836755 26 29 22
100.977870979307 262.950347578368 2894.66564318217 25 28 21
104.210185174491 263.874067896109 2905.48948864759 28 31 24
82.1900810458276 263.95282105174 2899.00392447596 27 30 23
66.008493982681 264.235281430345 2896.60955961855 25 28 21
48.9306192431513 264.496301078743 2893.69148128621 20 20 10
30.1017103229611 264.709274348657 2889.68515053663 22 19 10
15.4657237336426 265.064955216278 2888.57897823968 22 19 10
13.5795798890306 265.827801603552 2896.00751155168 23 20 11
15.9829584543338 266.721338073634 2906.24171635127 24 24 16
21.8486114786507 267.715748079063 2918.69123532163 37 38 30
19.1799997534061 268.442935917916 2925.48479396427 32 33 27
5.33770866985028 268.832520842659 2925.002706452 27 32 26
-11.9919017928733 269.124361762071 2922.33005004373 36 43 36
-23.324409705185 269.600300981639 2923.59401340909 29 36 29
246.459787671859 234.948325744852 2725.99842248019 28 29 23
231.843167688369 235.140995178508 2723.48020255839 33 34 28
193.694255185948 234.194009409717 2701.98801741081 27 30 23
177.35785583937 234.329239386363 2698.35223471079 28 31 24
201.879939598403 236.430810616118 2727.53743990234 22 25 18
210.776210592057 237.76475556127 2744.01221174316 44 47 40
205.511473023556 238.42007106945 2749.14331862988 43 46 39
203.417954673891 239.22298998909 2756.77151734618 32 35 28
194.984446392477 239.729980630947 2759.40320763147 31 34 27
192.908171172127 240.530460420435 2767.01464416783 27 30 23
203.623291047821 241.90857590293 2784.51090027256 23 26 19
201.611087804926 242.700847426037 2792.06026340833 20 23 16
199.615087260378 243.490956699616 2799.59351876267 23 26 19
186.375876567395 243.781692822726 2798.5271733171 23 26 17
189.222789021963 244.782481096843 2809.72233779793 22 25 14
179.987138738658 245.25272581187 2811.73875082116 22 25 14
177.213818912755 246.003477541808 2818.63280342281 23 26 15
165.5207117116 246.372532217137 2818.85373538387 23 26 15
157.053308385382 246.882439584953 2821.51865285888 24 27 16
164.073573774211 248.041301920957 2835.63113733577 22 25 14
162.156556113457 248.82065806789 2843.08755082634 23 26 15
