ply
format ascii 1.0
comment KinectMotionCapture
element vertex 755
property float x
property float y
property float z
property uchar red
property uchar green
property uchar blue
end_header
-45.099322450066 609.930574992991 2805.56167405484 168 168 166
-51.0041532236949 609.474412675123 2801.27882565964 157 157 155
-56.185567195266 609.159800193563 2796.28607789135 154 154 152
-59.9278204093221 609.127894415359 2789.86767269916 171 171 169
-63.6842201554946 609.094693250749 2783.43900582256 142 142 140
-68.890502256838 608.777647966634 2778.42821829367 166 165 163
-74.8176761360702 608.318869066529 2774.12915965088 197 196 194
-77.8922195379588 608.423611902392 2766.96044707414 151 151 149
-80.9853114865739 608.526642995758 2759.77827958972 122 122 120
-82.6788987711982 608.909317566184 2751.14169161705 122 122 120
-88.6406737440466 608.447018665832 2746.81753207359 109 109 107
-98.8309387681614 607.142932374108 2746.83459476165 104 104 102
-114.614672765772 604.720022594252 2752.6720473464 130 130 128
-127.53688518382 602.861205469263 2755.64629423874 128 130 127
-139.019880446211 601.284950256969 2757.19492385801 140 142 139
-149.772856367349 599.850660272662 2758.03844252981 135 137 134
-161.189392410442 598.279112302809 2759.6355681756 174 174 174
-171.188786021687 596.988337946839 2759.79106505183 166 166 166
-176.338354051712 596.672770098227 2754.82110377005 176 176 176
-182.867317498633 596.078690381781 2751.32044080774 187 187 187
-186.65358276215 596.03942540447 2744.87009306584 189 189 189
-191.818970178966 595.7217694676 2739.8886533964 188 188 188
-193.588232931606 596.095187289239 2731.19745425174 197 197 197
-196.74073548273 596.189810473947 2723.97188168894 197 197 197
-198.560141115927 596.558718084439 2715.24431005495 194 194 194
-200.406741921555 596.925203120943 2706.49671731226 197 197 197
-194.894357020726 598.803557731183 2689.50518192191 202 202 202
228.076141344649 638.297459501604 2786.354027454 180 182 181
199.263675615845 633.663404547729 2801.26249629676 135 137 136
179.879064112501 630.754624458355 2808.19253926678 152 154 153
162.886975350372 628.279976563854 2813.1537676314 146 148 145
150.579730879467 626.665754850682 2814.10498357828 145 145 143
132.927167213923 624.056986124403 2819.82177687093 157 157 155
114.573151402679 621.310966542553 2826.26470843701 172 174 173
100.873353173674 619.422911550576 2828.67511868493 196 198 197
90.2644048761103 618.105996811177 2828.38860395432 159 161 160
82.7199647528429 617.358107861786 2825.38576335606 153 155 154
69.8803952849949 615.619519578369 2827.18549224028 159 161 160
53.3027924485974 613.176687223783 2832.44735145002 196 198 197
39.0451532963985 611.162268689165 2835.68806195777 170 172 171
30.8426632539511 610.28022674188 2833.44283852445 170 172 171
21.9038077544553 609.258154956878 2831.89813540698 161 163 162
11.4882762609163 607.955744131254 2831.7519061105 155 157 156
3.33140313919955 607.076979456575 2829.53976795657 219 219 217
-1.10226828927873 606.901217091674 2823.85444691238 209 209 207
-7.02570964443061 606.444025059673 2819.55810209376 163 163 161
-15.1634026909249 605.566485594006 2817.35987419161 172 172 170
-23.2888535695528 604.689698905205 2815.17052471117 156 156 154
-32.1354493168264 603.673995928462 2813.69273491626 149 149 147
-38.771784499871 603.078227443854 2810.11393286004 146 146 144
-43.9468566221322 602.761320763501 2805.12577081309 165 165 163
-46.9469397297486 602.86158080213 2798.01101338648 173 173 171
-52.1392828917657 602.543035999684 2793.01032289682 131 131 129
-56.6145615533753 602.362767852393 2787.29481705871 158 158 156
-61.8197928617321 602.042910119192 2782.28477702647 165 165 163
-65.5944425659083 601.999567651252 2775.84282899813 129 128 126
-72.2462884563062 601.401377621972 2772.25277063353 153 152 150
-75.3269707563491 601.494301685642 2765.0795479741 181 181 179
-79.1374416975306 601.447639091308 2758.6116155495 136 136 134
-78.707194964353 602.226787218668 2747.81124403331 121 121 119
-83.9732758962137 601.901014214398 2742.75706284838 109 109 107
-92.7683119269269 600.886949037561 2741.31665808813 97 97 95
-107.869518903096 598.637824135808 2746.41473270203 124 124 122
-122.214092121083 596.529952823496 2750.82698612269 120 122 119
-135.808399546708 594.562958225537 2754.54850568979 138 140 137
-147.963303631013 592.873084422677 2756.84480987047 131 133 130
-159.385585607823 591.322628127019 2758.43758252275 174 174 174
-168.699008548721 590.184111130572 2757.8560887616 163 163 163
-175.233928232906 589.592256877697 2754.35082479117 179 179 179
-182.452469712829 588.86429750737 2751.58463049876 189 189 189
-186.238553450393 588.81653374202 2745.13437130087 187 187 187
-190.721314226102 588.631656624427 2739.41341817323 187 187 187
-190.450445846185 589.395145112236 2728.4974305683 198 198 198
-193.611543165141 589.477850546018 2721.26586158614 197 197 197
-197.467123599749 589.423560615931 2714.76518969312 194 194 194
-202.010727844705 589.232749212301 2709.00039425486 196 196 196
-197.832458220572 590.795135689435 2693.51020304651 201 201 201
231.64633006834 631.079976106961 2783.96513448129 203 205 204
201.265739768013 626.242969745114 2800.20588162623 135 137 136
182.649338534376 623.51999405681 2806.4587211219 152 154 153
167.967762155301 621.502796126885 2809.39180193141 143 145 142
156.417084189381 620.048810729749 2809.656949606 137 137 135
138.746676213934 617.479322183794 2815.36130061646 153 153 151
117.308873885599 614.217011820805 2824.50655540426 177 179 178
104.36519523142 612.494723471727 2826.23089587989 198 200 199
91.4601408429965 610.775355015572 2827.98325069989 156 158 157
83.9132037860524 610.032371882905 2824.97862487005 151 153 152
69.5547133175141 608.039943535233 2828.14604301392 156 158 157
54.4879764230344 605.91243226311 2832.03468509348 193 195 194
38.7197804191342 603.650317812675 2836.6491793323 175 177 176
28.2656962878405 602.361123726897 2836.47506935135 169 171 170
20.0837253648722 601.488421137377 2834.24476797134 168 170 169
12.6609536893789 600.754660371927 2831.33019898945 153 155 154
4.50133549479981 599.883529627431 2829.11610954098 172 172 170
-1.41900969196018 599.426319572431 2824.82200910961 219 219 217
-8.08058429122327 598.831414347046 2821.22520931153 220 220 218
-14.0006290511632 598.374019526615 2816.9313257301 146 146 144
-18.4500892231734 598.190824484442 2811.2345214408 170 170 168
-25.1099650769948 597.595717927022 2807.63865760274 148 148 146
-31.766501181582 597.000653309652 2804.04550950962 145 145 143
-40.6069259856758 595.995756056248 2802.57224789625 141 141 139
-43.6152439723636 596.084057396763 2795.45146025689 154 154 152
-48.8162098432983 595.761756765779 2790.44420548048 157 157 155
-53.3002392313815 595.574994920356 2784.72261763917 131 131 129
-57.7938250585994 595.387358922688 2778.99380322641 146 146 144
-61.5791243297168 595.334610355485 2772.54408745598 154 153 151
-66.0946642796785 595.144847724521 2766.79964173632 135 134 132
-72.0472675297665 594.683291835998 2762.48213473392 151 151 149
-77.2892229946067 594.356684817828 2757.44514391343 167 167 165
-78.9900305228659 594.705198443859 2748.80314880015 125 125 123
-82.1325587109529 594.781402513095 2741.58500804654 121 121 119
-88.1131878892707 594.316799542234 2737.24716901659 111 111 109
-101.121757369747 592.505592379192 2740.15905498528 110 110 108
-114.087167001857 590.697493310402 2743.10224419223 120 122 119
-131.897375694963 587.952492030812 2751.17443493077 132 134 131
-147.545423490547 585.615383961535 2757.11097841864 132 134 131
-160.356916421915 583.818529113822 2760.16580208091 160 160 160
-168.283589121183 582.961161456129 2758.12064950604 171 171 171
-174.129412352007 582.505328493067 2753.88057860615 185 185 185
-180.663297031754 581.915738736348 2750.37607640264 188 188 188
-185.138482486201 581.725949001354 2744.66058990368 182 182 182
-188.940574113749 581.668165821372 2738.1986754944 187 187 187
-190.715017527249 582.007707415198 2729.50354918835 197 197 197
-193.873308131771 582.079398028517 2722.27366458412 198 198 198
-197.050285565339 582.149346183399 2715.03051914985 194 194 194
-200.245713604059 582.217560658235 2707.77398969671 196 196 196
-197.41344566925 583.473899803021 2693.77687068402 199 199 199
207.933772420724 619.637042319586 2795.12533848667 134 136 135
186.195657892485 616.405815707819 2804.05304799712 152 154 153
171.503583767037 614.417430147607 2806.97866470658 142 144 141
159.172096669009 612.844309443653 2807.91222036339 136 136 134
141.492799899386 610.31472660057 2813.61032982751 154 154 152
118.511868766771 606.832262615402 2824.10619022701 179 181 180
105.564728631389 605.133909606426 2825.82784816124 198 200 199
94.1805067431405 603.711491870426 2826.21411777233 155 157 156
84.3464244242611 602.564062604489 2825.25484729724 150 152 151
68.4703408388514 600.32881537061 2829.79126761354 155 157 156
53.4061445735481 598.233950809434 2833.68191681143 187 189 188
39.1472899351326 596.278808800802 2836.92175195755 178 180 179
28.6921750363032 595.005572425737 2836.74697558017 169 171 170
22.0080049688702 594.411634316375 2833.13350626662 172 174 173
16.0740909963097 593.953175678864 2828.82956320853 163 165 164
7.16056347108784 592.954006333746 2827.3033368855 149 149 147
-0.993990317954996 592.09096294283 2825.09295969672 188 188 186
-8.39593053185972 591.363619877865 2822.19381886984 236 236 234
-12.8376095963167 591.175289914015 2816.50262926207 152 152 150
-18.0250960087842 590.851582387633 2811.5054333836 146 146 144
-23.217875128098 590.527386349155 2806.50439823456 171 171 169
-30.6104017586908 589.800257836708 2803.61178812485 143 143 141
-38.7244172949426 588.939632211044 2801.43081022711 137 137 135
-42.463701184154 588.882545987903 2795.01443001795 142 142 140
-46.9421417366538 588.690501494232 2789.29686688517 175 175 173
-51.4301661020979 588.497640374547 2783.57205762846 149 149 147
-55.2075597913373 588.437078497792 2777.12803320709 126 126 124
-57.5626685530151 588.641407131254 2769.24632194704 159 158 156
-61.3727879959529 588.577955128221 2762.77855928935 136 135 133
-67.3387558960741 588.114958091108 2758.45135666722 150 150 148
-73.3056975752988 587.651643191766 2754.1234465218 156 156 154
-77.8545748652932 587.452926277406 2748.35449402067 144 144 142
-80.9988125631145 587.517670404309 2741.13505596011 129 129 127
-84.8666620734861 587.448735080484 2734.62541577042 115 115 113
-92.965773143924 586.587076489701 2732.45523720585 108 108 106
-107.358556284164 584.540510010317 2736.83285274608 122 122 120
-128.683577087759 581.182205653523 2748.52945229794 133 133 131
-145.735195554341 578.619451356813 2755.9174477685 137 137 135
-159.24686124122 576.717969447397 2759.69920793037 153 153 153
-167.176356183211 575.868319083989 2757.65204854114 173 173 173
-175.093435496424 575.019345933993 2755.6138929364 184 184 184
-181.623451635611 574.432469683187 2752.11250334196 185 185 185
-186.779273415329 574.106716713045 2747.13795699392 177 177 177
-190.574465565482 574.040949102105 2740.68100372033 188 188 188
-193.703011278752 574.103977263999 2733.47293242256 197 197 197
-198.207223608691 573.905304438986 2727.73665320451 198 198 198
-200.691864596326 574.095066579751 2719.76067301032 195 195 195
-202.525243293254 574.412408077848 2711.02241633469 194 194 194
-200.354392757742 575.504210538438 2697.78031942938 196 196 196
244.249643067374 617.523482351104 2774.50585690575 207 211 210
212.270902605587 612.581950092069 2792.05790918357 167 171 170
190.518665809602 609.403886547129 2800.97565044216 148 150 149
175.040412446678 607.309562589916 2804.56614355183 145 147 146
165.783695981279 606.294928211129 2802.79105390861 136 138 137
145.008477937101 603.267279172806 2811.18278216092 149 151 150
120.48183378788 599.575404847151 2823.02713476128 182 184 181
105.999617107488 597.632936086938 2826.10511418889 194 196 193
96.9015344714883 596.63047612197 2824.44537773684 148 150 147
87.060073587157 595.495742108824 2823.48082268614 145 147 144
73.4494735478393 593.695358212135 2825.95633867673 156 158 155
56.8584196404727 591.365139009479 2831.2093118029 186 188 185
41.8354800574186 589.305838129592 2835.12975451025 168 170 167
28.3670452242948 587.516254274294 2837.70838379711 173 175 172
23.1832137297192 587.190303724876 2832.71382608525 163 165 162
15.7529042787599 586.46609912251 2829.79413568993 158 160 157
10.5651750949125 586.139702970785 2824.79645572586 150 150 150
0.916036423851629 585.019245196195 2823.97168594091 140 140 140
-5.00984742930966 584.560750034035 2819.67356390274 171 171 171
-10.1981876502901 584.23403553432 2814.67543937231 208 208 208
-13.9201397854438 584.170178832242 2808.27188350477 155 155 155
-19.1236824390726 583.842023662587 2803.2627311092 152 152 152
-25.7961797194681 583.250475389096 2799.65803023009 167 167 167
-33.9238497940237 582.39658954687 2797.46689352744 152 152 152
-39.8576861919941 581.936733214108 2793.16299962523 124 124 124
-45.0675224681334 581.607481111067 2788.14957376923 173 173 173
-50.2826722228362 581.277679069373 2783.13229327368 185 185 185
-53.3413570341426 581.338928638446 2775.97485662572 138 138 138
-55.699982806539 581.528981943684 2768.09022902516 149 147 148
-58.0818243885022 581.716985636369 2760.18905588413 154 152 153
-64.0567499724767 581.252874592166 2755.85535400314 126 124 125
-70.0326526366011 580.788505162129 2751.52094250713 147 145 146
-77.4286189003868 580.064533270407 2748.62585492281 149 147 148
-79.1574870830762 580.377078158719 2739.96333585354 131 130 128
-81.6190437673214 580.557936985236 2732.00433934351 114 113 111
-86.2125357669159 580.349213193615 2726.20299400045 103 102 100
-100.62717389019 578.333496339967 2730.5649226565 103 102 100
-123.372971482916 574.775584637833 2743.70092747791 133 132 130
-142.531877690768 571.868957410554 2753.26496767351 148 148 146
-156.748563427406 569.86793267201 2757.7704706576 155 155 153
-164.685144344407 569.025613962738 2755.71791715312 165 165 163
-172.609545856528 568.183963688483 2753.67449062193 181 181 181
-178.458811772836 567.726985544182 2749.43191824529 180 180 180
-184.994438640737 567.141865282941 2745.92647020831 190 190 190
-190.159995190799 566.812007906092 2740.94484612786 191 193 192
-196.011862896403 566.35398257443 2736.70038235443 198 200 199
-199.149642991134 566.404761964016 2729.48555481401 198 200 199
-200.276324341077 566.83508552828 2720.02513377412 196 197 199
-199.411752806207 567.643524762681 2708.30472531166 195 196 198
-199.936458870726 568.194567184056 2698.04626383857 190 192 191
253.284793176658 611.146320805964 2767.43704210691 206 210 209
217.387153713649 605.631099685268 2788.32077264113 186 190 189
194.067154452701 602.241909650814 2798.57130776929 147 149 148
179.351913334254 600.311062530013 2801.48042167466 144 146 145
167.769524038965 598.91084657927 2801.72285348267 135 137 136
148.525119848764 596.197237051715 2808.75581878055 146 148 147
121.685042893518 592.175468195352 2822.62684795251 187 189 186
107.198876258329 590.262342248993 2825.70211260072 191 193 190
99.6231758825124 589.532303869879 2822.67699567195 145 147 144
91.2950413410756 588.672046258076 2820.34080020189 143 145 142
79.1882928610343 587.159042174894 2821.43757818157 158 160 157
61.0677921477101 584.604300827041 2828.05075868755 184 186 183
46.0317504015189 582.576389775848 2831.96215682993 165 167 164
32.5507500243765 580.812792175817 2834.53180871127 170 172 169
28.1055991869059 580.612949122378 2828.83804402508 164 166 163
21.4090887612759 580.022641452056 2825.2156473114 158 160 157
13.9708485342611 579.302782976951 2822.29022974126 157 157 157
3.56931319370224 578.065372134249 2822.1544757925 156 156 156
-2.36319163476395 577.605922392543 2817.8515492329 137 137 137
-9.0349769970306 577.017139777574 2814.24708397002 234 234 234
-13.4948726474009 576.815545021984 2808.5429160586 198 198 198
-19.4324643964228 576.355384463907 2804.23629828131 146 146 146
-23.9073760515933 576.152383654642 2798.52094334859 145 145 145
-29.8513563009042 575.691436709626 2794.20969042789 173 173 173
-34.3413981704339 575.487001080908 2788.48336001225 155 155 155
-41.7421857248255 574.768951941758 2785.58510184841 132 132 132
-47.6890813944393 574.307380480385 2781.27173231402 148 148 148
-52.1953218979609 574.10115463114 2775.53365009508 179 179 179
-53.1184199847401 574.532287958657 2766.22081500894 166 164 165
-56.2225413122386 574.578296234956 2759.03036326058 145 143 144
-60.0594369253948 574.495379229021 2752.5430913916 128 126 127
-66.0464671231027 574.029779753682 2748.20060707859 132 130 131
-72.0344727504372 573.563892154311 2743.85741419643 137 135 136
-76.6081911399448 573.351363430354 2738.07038389258 135 134 132
-78.3704467325002 573.64427655289 2729.38385661564 121 120 118
-82.2694536559831 573.555521296627 2722.85152936039 104 103 101
-95.996087648794 571.69759312044 2726.47767501788 102 101 99
-119.457931485428 568.077600873839 2740.32961929192 137 136 134
-140.720536119333 564.843810681352 2752.072096346 148 147 145
-154.249357658352 563.000573642525 2755.84200936331 157 157 155
-162.88549202304 562.039947323273 2754.51706649024 171 171 169
-171.504808744341 561.080414573524 2753.20432062491 171 171 171
-178.732023860135 560.372364158202 2750.43193947154 174 174 174
-185.265646448228 559.789815532115 2746.92766292858 190 190 190
-190.429150815141 559.457057956883 2741.94780630645 201 203 202
-195.597775630676 559.123666106477 2736.96394007208 200 202 201
-198.056298836828 559.287773563128 2729.00705774606 197 199 198
-199.860923851191 559.574137253213 2720.28948831985 193 194 196
-197.646005391728 560.603362945307 2707.07872575237 193 194 196
-198.174107088037 561.131935455293 2696.8176888988 191 192 194
-194.718002476301 562.400477390861 2682.03782758689 197 199 198
217.836396229277 597.869760452056 2788.60712541469 207 211 210
198.392534108454 595.186791528529 2795.4953601257 147 149 148
184.438116021376 593.413738307312 2797.72206798831 142 144 143
172.070037612726 591.902146747621 2798.6294094804 134 136 135
152.04290546013 589.104753806351 2806.32927634677 144 146 145
125.956844472097 585.284039131526 2819.51288953472 191 193 190
112.222875014289 583.528057679818 2821.89919730815 186 188 185
104.633745369279 582.802099220146 2818.86436588113 144 146 143
95.5314597920123 581.820377978448 2817.20139319597 142 144 141
83.4123095313757 580.327887344575 2818.28957924191 158 160 157
66.0345727552478 577.943316756648 2824.20673601957 187 189 186
50.9833557350774 575.946587358765 2828.1072912232 165 167 164
38.991145588497 574.463772493278 2829.28725339951 168 170 167
30.7808669361784 573.620112293053 2827.03657824781 164 166 163
21.0879693716266 572.523024148822 2826.18020507889 156 158 155
12.9064982492677 571.681398960718 2823.95042342816 160 160 160
3.99435723076014 570.713886672529 2822.42536256268 164 164 164
0.284079492982148 570.63390850922 2816.02989357953 148 148 148
-7.13318933959939 569.920468712344 2813.11971113263 209 209 209
-10.8607928647524 569.838967479406 2806.71167460182 237 237 237
-18.2732865897783 569.125665185857 2803.80465995175 155 155 155
-24.2141225251711 568.664704118166 2799.49568633978 145 145 145
-28.6965697149955 568.455098951506 2793.77512976183 168 168 168
-33.1886198389579 568.244585994079 2788.04731273682 176 176 176
-39.8665573647445 567.656858324449 2784.43839298282 131 131 131
-46.5411841656298 567.069259859297 2780.83216837542 133 133 133
-51.7703118072232 566.731982250092 2775.80442266911 150 150 150
-52.6924458640783 567.143567831493 2766.49218741565 186 184 185
-55.0795950412115 567.303032084729 2758.58702212773 188 186 187
-57.4895166044489 567.460551546626 2750.66504432335 135 133 134
-62.7712073698503 567.118458530325 2745.59946457288 124 122 123
-67.3482471471862 566.899985074469 2739.80999641288 140 138 139
-71.9352129183071 566.680508757442 2734.01362208548 133 132 130
-74.4152030078964 566.831784321034 2726.04081848444 125 124 122
-79.0281794344843 566.609891773382 2720.22528176209 117 116 114
-89.961280321633 565.27504108769 2720.93902215865 116 115 113
-112.04688471122 561.968295402341 2733.31985069842 141 140 138
-138.212124936003 557.929969907176 2750.15007281377 146 145 143
-151.749502580196 556.11585189219 2753.91393082144 152 152 150
-161.085237093225 555.042459996121 2753.31629831995 166 166 164
-166.949478884173 554.58388030416 2749.06286150003 166 166 166
-174.878277364539 553.757407218392 2747.01632438817 171 171 171
-182.794665167698 552.931700560624 2744.97878792319 183 183 183
-188.648272029257 552.47320574695 2740.73306102047 193 195 194
-192.458913134337 552.380377270206 2734.26477140114 203 205 204
-194.246544803588 552.651598445859 2725.55944411363 197 199 198
-198.092018511861 552.555500061178 2719.06588703415 188 189 191
-197.903910196807 553.186862279146 2708.08953012343 188 189 191
-199.101117552413 553.572131148118 2698.57775506602 192 193 195
-194.298166845029 555.044806129829 2682.30491747066 195 197 196
227.624254834582 591.629203079745 2780.84962036608 206 210 209
203.494983756619 588.230263006073 2791.7484843267 150 152 151
191.0739074334 586.735975413445 2792.61749414748 145 147 146
176.372048378509 584.865508125612 2795.53661483207 134 136 135
157.100352285054 582.241932100183 2802.55025168428 145 147 146
131.76446264046 578.616513103936 2815.04333819343 196 198 195
118.013594541267 576.886166878284 2817.41752562856 174 176 173
108.12005264591 575.787162821254 2816.4156913978 141 143 140
97.4868750739115 574.564353295243 2816.11208901053 141 143 140
83.8451327962089 572.842339655709 2818.56542628871 159 161 158
68.7339408525878 570.873510744422 2822.42235123485 184 186 183
52.1659853786423 568.658646149434 2827.69265320218 162 164 161
40.9221421609436 567.321821983296 2828.18082537865 163 165 162
32.7069551881252 566.485560722253 2825.92662955775 164 166 163
23.7565187331281 565.525759707175 2824.37384657221 158 160 157
13.3319271069849 564.318623220784 2824.22153197557 150 150 150
5.16216447279216 563.485623631051 2822.00028174814 150 150 150
-0.772610077856228 563.025243218846 2817.69570510447 159 159 159
-7.44706019805674 562.440904746351 2814.08933061215 145 145 145
-12.6451675894621 562.103790601036 2809.08436745221 160 160 160
-17.8484775509187 561.766214759241 2804.0753360226 217 217 217
-20.8609476737602 561.797751696972 2796.95125088825 178 178 178
-24.6219521429927 561.704612914694 2790.51894235378 142 142 142
-29.8525861038985 561.364505291612 2785.4903848269 148 148 148
-37.2650177625296 560.655748556088 2782.58343819423 183 183 183
-44.6698247200856 559.947380889501 2779.68231531783 177 177 177
-49.1822789560121 559.728941870856 2773.93966676955 145 145 145
-51.5479049664545 559.876169687872 2766.05004210452 146 144 145
-55.3698477827123 559.777407166006 2759.57352957645 158 156 157
-57.0625383437962 560.042847399908 2750.9369978428 188 186 187
-61.6318937524671 559.819331159546 2745.15336917995 179 177 178
-62.6603922287861 560.202365116017 2735.76358899227 111 110 108
-69.3840988468955 559.612015386528 2732.12177144225 120 119 117
-72.5756694750057 559.627628847913 2724.86747739686 109 108 106
-77.8965544361911 559.278507188567 2719.77344933596 112 111 109
-86.7290770166018 558.324673883432 2718.30617486214 111 110 108
-106.030987289064 555.5622138583 2727.76727859474 130 129 125
-132.915573811142 551.480748114124 2745.31114381993 139 138 134
-149.943518210389 549.093557079747 2752.71719038967 149 149 147
-160.669571459393 547.79285465365 2753.58090252837 158 158 156
-165.843804057653 547.453851028666 2748.59323714491 163 163 163
-174.463412826764 546.51526469892 2747.28038566564 163 163 163
-181.694676370055 545.816983020589 2744.50511920136 160 160 160
-187.550672352175 545.357966070522 2740.25765772943 148 150 149
-191.363272756699 545.2564355031 2733.78790369431 185 187 186
-194.510813254296 545.272639063712 2726.56582549617 179 181 180
-199.707697470113 544.930386067054 2721.561428536 180 181 183
-200.186502542387 545.418592370578 2711.33592339444 188 189 191
-200.028809110656 546.022328139227 2700.33708367528 196 197 199
-196.55993195845 547.214536552342 2685.56609480619 190 192 191
263.103248386549 589.417142352641 2750.97712443518 202 206 205
211.70413620283 581.736040785409 2785.31532988803 154 156 155
196.163820912903 579.766472200105 2788.86117041589 148 150 149
181.446801800369 577.924390197338 2791.76973950525 134 136 135
160.620407582972 575.098969969458 2800.12509890921 146 148 147
132.96929383525 571.170794737473 2814.64399537829 197 199 196
117.68406271861 569.220945272318 2818.37514622539 168 170 167
110.081275109873 568.503966711657 2815.33016485693 138 140 137
100.203569045357 567.419389172874 2814.33988343106 140 142 139
89.5884317336431 566.213892733693 2814.04915203064 162 164 161
73.7034051476453 564.153717193237 2818.5799761476 180 182 179
55.611598027081 561.73115352872 2825.21462675736 160 162 159
43.6056549371493 560.290222175077 2826.38514025523 160 162 159
32.3838965971697 558.973737584949 2826.88942525484 163 165 162
24.1826328067272 558.146281337207 2824.64536724511 159 161 158
14.5026688388228 557.076607494574 2823.79821429824 148 148 148
7.81657614709896 556.493875314467 2820.18370247057 164 164 164
2.61640965849974 556.153686425902 2815.17693657592 149 149 149
-3.32825316114893 555.691967259294 2810.86518493397 167 167 167
-8.53726236919106 555.350863266861 2805.85229860513 149 149 149
-15.2204958712723 554.767934147918 2802.23956399049 215 215 215
-20.435898531173 554.426132983137 2797.22203938064 221 221 221
-24.1964533730115 554.324457388211 2790.79001355002 153 153 153
-30.1548992977212 553.86099432632 2786.46826140789 143 143 143
-36.1143289046735 553.397391831382 2782.14579546725 163 163 163
-43.5217498586753 552.693860754315 2779.24280214732 192 192 192
-46.5935569027884 552.708691362078 2772.07532331454 176 176 176
-51.1222867369152 552.482969815326 2766.32113382737 149 147 148
-55.6607141457093 552.25630293896 2760.55961509606 153 151 152
-58.7797259905871 552.266931454997 2753.35818968841 166 165 163
-61.9173652025733 552.275961330838 2746.14325280739 183 182 180
-62.9428248876032 552.639625978378 2736.75587187201 155 154 152
-68.9565190495338 552.1704027011 2732.39403992703 130 129 127
-71.441791011007 552.293111037208 2724.4172626857 113 112 110
-75.3575019741473 552.177252983096 2717.87268903461 112 111 107
-82.0932444131244 551.58766078853 2714.22215029825 108 107 103
-97.2161533530331 549.583161279543 2719.30573177134 118 117 113
-124.132084318387 545.581094928436 2736.82727691425 130 129 125
-145.35790248462 542.529725399017 2748.59734526043 145 145 143
-158.176309921551 540.894484985581 2751.64797505902 155 155 153
-162.666780723478 540.669114631615 2745.92152213964 162 162 162
-170.607886893111 539.857446724875 2743.86613791233 157 157 157
-177.850539674985 539.163429744748 2741.08234227045 154 154 154
-185.769085679415 538.353081640558 2739.04331907342 163 165 164
-188.904314470016 538.359200109022 2731.83011481144 188 190 189
-194.096148960953 538.014498851644 2726.8296605807 178 180 179
-197.938850690481 537.901568168917 2720.33802770886 191 192 194
-201.795644204507 537.787227047322 2713.83617225755 194 195 197
-200.95745337584 538.482375782149 2702.09606601946 193 194 196
-199.493566952791 539.289460482351 2689.57477574225 189 191 190
283.024705152942 584.532203520354 2734.5155988657 212 216 215
224.574255931264 575.913690276928 2774.85360453566 157 159 158
202.803461363096 573.005509625993 2783.75925987921 147 149 148
185.751438205005 570.829116623393 2788.67855124097 140 142 141
164.14109589041 567.933366828167 2797.70058481209 146 148 147
137.24462936955 564.200879743141 2811.53220125371 202 204 201
121.94653231367 562.282428885072 2815.25418434701 152 154 151
113.569151690513 561.449427806788 2812.88242740106 141 143 140
104.442974568129 560.497345689819 2811.20228535298 134 136 133
93.0569732478723 559.187061942259 2811.58753851956 164 166 163
76.4043129208494 557.041448930072 2816.79678690412 179 181 178
58.3036482847774 554.661620975193 2823.42493849963 166 168 165
44.7854879168088 553.002910331723 2825.9681835837 156 158 155
35.0602926488062 551.943144453774 2825.08858616492 151 153 150
26.8519539891798 551.12291163061 2822.8394360196 153 155 152
18.655663264791 550.30344572121 2820.59902356421 154 154 154
10.4716994456582 549.484948556701 2818.3675520524 157 157 157
3.78244529280414 548.904190297677 2814.75046393537 154 154 154
-2.16445560873302 548.441841742863 2810.43708667211 150 150 150
-6.63860615555345 548.215542760122 2804.72216547324 161 161 161
-13.3266323602379 547.63453587408 2801.10626073972 165 165 165
-18.5461993163041 547.289250446194 2796.0854052172 170 170 170
-23.771315974831 546.943406301262 2791.06081824395 211 211 211
-29.7298350832684 546.479519103967 2786.73901090104 173 173 173
-34.9635565868176 546.132738895364 2781.70818135065 145 145 145
-40.2025222038516 545.78537413717 2776.67325279259 138 138 138
-43.2827953993637 545.788148053836 2769.4998700735 154 154 154
-47.8201551483124 545.555842621943 2763.73939122822 179 178 176
-54.5182834934219 544.972901730906 2760.11585896437 173 172 170
-57.6389309792216 544.972046416901 2752.91318967785 160 159 157
-60.7783004726588 544.969554923853 2745.69694012087 168 167 165
-61.8048293456956 545.313616241204 2736.30839033654 171 170 168
-67.8207889633242 544.84382110195 2731.94491321778 159 158 154
-71.7197114949839 544.720869348168 2725.41247392797 133 132 128
-74.9291495147733 544.712133956815 2718.14539857432 121 120 116
-80.9635399312738 544.240248279154 2713.76854998714 118 117 113
-91.8944572494418 542.961812930529 2714.48386457723 112 111 107
-114.647763191939 539.730101995811 2727.61637318387 114 113 109
-137.9907883808 536.39158925744 2741.55558290357 133 133 131
-152.911273376299 534.437542320106 2746.78616136612 134 134 132
-160.179293349762 533.74712646347 2743.98428922313 166 166 166
-169.504237936164 532.714159077448 2743.39468332783 163 163 163
-176.749744239427 532.025029384841 2740.6091383395 165 165 165
-184.671181403823 531.222333248056 2738.56805803763 209 211 210
-188.489818810392 531.103226884997 2732.09383862602 194 196 195
-193.681675879545 530.755446992049 2727.09335243395 209 211 210
-197.524098141545 530.633995583736 2720.60187899493 211 212 214
-200.705584538247 530.624417907188 2713.35506210304 199 200 202
-202.559755696083 530.839317039745 2704.60121363799 198 199 201
-201.758541350314 531.503599777295 2692.83414601596 190 192 191
296.723854381437 578.561418810027 2723.41906621259 207 211 210
247.544039629896 571.543483967885 2755.66404244177 150 152 151
208.671037567888 566.081999370893 2779.33187678753 151 153 152
186.968562378231 563.23336176047 2788.28735990381 140 142 141
161.503283829486 559.801754796053 2800.68763133119 137 139 138
136.146743839661 556.378578891173 2813.16706684253 198 200 197
121.616846006825 554.61031386704 2816.21136356144 144 146 143
114.00450511261 553.902608703043 2813.15979826106 139 141 138
104.877700511058 552.96096079283 2811.47925419125 136 138 135
94.2495820851077 551.78641591004 2811.17956375685 166 168 165
79.1061104935387 549.912185532973 2815.01386213456 183 185 182
63.2598703669478 547.925201751601 2819.57317411437 166 168 165
48.9746095760273 546.175709539368 2822.79490853377 155 157 154
37.7373970236485 544.895432357811 2823.28817384267 149 151 148
27.2778856009697 543.733650365417 2823.11077486975 152 154 151
19.0811142939773 542.921971963256 2820.87005347504 155 155 155
12.3838305824311 542.342982844945 2817.24715352059 158 158 158
7.17265616427643 541.995579705289 2812.23266567831 156 156 156
1.2169162921789 541.532156632393 2807.91287541402 148 148 148
-5.47673669861659 540.953103180063 2804.29260712067 156 156 156
-13.6366918130522 540.143809861933 2802.07858665056 168 168 168
-19.5866792601953 539.680434592904 2797.76296668402 168 168 168
-24.8073102881365 539.331757539963 2792.74161709086 209 209 209
-29.3050409011337 539.097245336387 2787.00956059721 210 210 210
-34.5386820897535 538.747275340076 2781.97877311192 155 155 155
-38.3301338107938 538.625442455974 2775.52424737356 161 161 161
-41.4142573414371 538.616553127667 2768.34801438772 136 136 136
-45.2363197140651 538.492061207962 2761.87128486621 161 160 158
-50.5069371844857 538.138577539647 2756.81338021067 172 171 169
-54.3532214711628 538.011864885982 2750.31937493531 161 160 158
-58.9262968121269 537.770322890037 2744.53266383314 159 158 156
-62.0881182845174 537.754541723784 2737.30007104265 165 164 162
-65.9769205400898 537.623956075381 2730.77492948977 169 168 164
-69.8799415460674 537.492069190085 2724.23947387025 144 143 139
-71.6852867573163 537.697302178973 2715.52097141495 124 123 119
-77.7286365081935 537.22433223242 2711.13762252304 117 116 112
-85.1720717788165 536.526187984375 2708.20854894176 121 120 116
-105.159645333031 533.807216240196 2718.40785763456 129 128 124
-129.230654830651 530.422175005869 2733.0544314231 139 139 137
-146.258416278572 528.165349438964 2740.46097646793 145 145 143
-155.618895793093 527.143165147616 2739.84595964042 153 153 153
-165.646693880571 526.010830447072 2739.98166803374 154 154 154
-175.648860392301 524.880243599032 2740.13596615654 180 180 180
-183.573118148895 524.085235018336 2738.09288008618 200 202 201
-186.711701545455 524.068488205786 2730.87683370458 160 162 161
-191.228379272655 523.828209622153 2725.13130731266 162 164 163
-195.754582764135 523.58693988365 2719.37857599351 178 179 181
-200.290614307822 523.344645346428 2713.61900939578 200 201 203
-202.817016907971 523.432476907679 2705.61223901897 192 193 195
-202.012247114048 524.069296674025 2693.84760971183 189 191 190
-201.921042972138 524.592279245823 2682.80016145666 195 197 194
308.870084126611 572.265434365818 2713.66550961974 216 220 219
268.969103869668 566.783113637401 2737.82307172394 204 206 205
219.962052575208 559.928643229231 2770.19382137267 154 156 155
191.275020336573 556.093069428404 2785.1972640938 132 134 133
165.024678497655 552.612968533749 2798.26351186296 142 144 143
140.42339888826 549.371819242518 2810.05604263659 203 205 202
125.115031269936 547.517298650021 2813.77090419939 138 140 137
113.676060469153 546.240362387377 2814.1179275707 138 140 137
102.266850205716 544.965717572527 2814.48653659729 145 147 144
90.1281942273422 543.578946650071 2815.56111802336 171 173 170
77.2668267534571 542.080614680413 2817.3462620134 188 190 187
63.6893470222093 540.471196531627 2819.8467549013 160 162 159
49.4023526212257 538.75119680998 2823.06738197504 151 153 150
40.4150138385457 537.830645172155 2821.48804651046 149 151 148
31.4442951655787 536.911260717123 2819.9207652301 148 150 147
22.4900517179094 535.993131681731 2818.36572802814 153 153 153
12.8088122707237 534.962994532433 2817.51785072026 156 156 156
6.11468196677256 534.386441524559 2813.89724907766 161 161 161
-0.576115190037418 533.810049409524 2810.27935899653 157 157 157
-6.52633346167297 533.346476209692 2805.96357069783 149 149 149
-13.2124982969832 532.770180158813 2802.34874469497 149 149 149
-16.9642334474467 532.643349985271 2795.92298503396 164 164 164
-22.92194426543 532.178841214642 2791.60176048965 164 164 164
-27.4238256087804 531.938078117912 2785.86666338098 178 178 178
-33.3879025048127 531.472814648704 2781.54082010815 200 200 200
-36.4572473529559 531.453830977425 2774.37524937481 167 167 167
-39.5452436409709 531.433246715787 2767.19614970736 173 173 173
-41.9324023225611 531.522302112851 2759.29062089471 153 152 150
-47.92916604482 531.053882823755 2754.94106625912 150 149 147
-50.3512489063356 531.139919382937 2747.0099103951 158 157 155
-54.2222599269915 531.002470632664 2740.49763132512 153 152 150
-57.3968129335927 530.97427687336 2733.25574630155 134 133 129
-60.5900414528289 530.944480573535 2726.00031488313 134 133 129
-65.2144079114012 530.692540196361 2720.17636908535 120 119 115
-67.736425793558 530.769863952681 2712.1730185371 112 111 107
-73.0889227353124 530.405535195072 2707.05570277287 104 103 99
-78.4468955107154 530.040623832708 2701.93470898599 106 105 100
-95.6677099699475 527.812499088149 2709.20174563531 111 110 105
-121.857443321012 524.167644047739 2726.01649964316 132 132 130
-141.682431172182 521.51546363285 2736.3340084931 139 139 137
-153.129543796094 520.178431975443 2737.90986191724 158 158 158
-163.853641196627 518.952717123414 2738.77537171909 157 157 157
-173.174914493773 517.946494149365 2738.18885716247 199 199 199
-180.422090524715 517.267315536585 2735.40185768007 165 167 166
-184.933332105527 517.021891294715 2729.66024600291 153 155 154
-190.133934053913 516.667328613405 2724.65309162808 175 177 176
-196.695211523958 516.096052094074 2721.12911904347 190 191 193
-200.5512131304 515.9561151572 2714.62770801502 195 196 198
-203.748098530003 515.922497724186 2707.36960629119 191 192 194
-201.595520105055 516.746979475966 2694.11261503387 188 190 189
-201.503125406813 517.245025837538 2683.06590353158 193 195 192
311.67237144896 564.528950462648 2711.95235632269 209 213 212
281.857139715444 560.631861108122 2727.3726681938 226 228 227
232.806171356196 553.923949621976 2759.71261825188 198 200 199
202.534702622283 549.938828300155 2776.03678491476 142 144 143
170.857767966892 545.739209153924 2793.81138059868 138 140 139
143.16497083943 542.11244017652 2808.30158657832 198 200 197
124.018843417781 539.728890584467 2815.40717214467 136 138 135
112.583175787891 538.470861985844 2815.7566858261 136 138 135
101.938701557128 537.326984913494 2815.44529405825 144 146 143
89.8011204896254 535.961708870176 2816.52046910893 171 173 170
79.9688410105963 534.933505436429 2815.56340393028 186 188 185
67.1382534278466 533.461703508459 2817.37070082316 153 155 152
54.3459111008979 531.992771255848 2819.20603153065 149 151 148
43.8437481634315 530.859676187667 2818.99785886936 150 152 149
34.1153454408385 529.839310005037 2818.1158413885 146 148 145
25.1537822858454 528.931073031287 2816.55554807973 147 147 147
15.4651642732078 527.913631134779 2815.70238619624 149 149 149
8.7642627963409 527.33882972327 2812.07688485807 155 155 155
1.32707482929462 526.654036496753 2809.15240770603 160 160 160
-3.89028756637999 526.299619986051 2804.13339854268 154 154 154
-9.84817776228297 525.834857708549 2799.81204267944 148 148 148
-12.1424892182644 525.917862561924 2791.97349567787 145 145 145
-17.382800524752 525.561288214436 2786.93783942945 166 166 166
-23.3569233305491 525.094912195426 2782.60470802695 163 163 163
-30.0583355673651 524.519292737068 2778.97883228443 179 179 179
-34.5842340355111 524.270440730796 2773.22657815454 200 200 200
-36.9540867876956 524.346907690011 2765.3332365395 170 170 170
-40.7864595605472 524.204284678403 2758.84894095129 156 155 153
-45.3506877846355 523.951998943451 2753.06888337081 151 150 148
-50.6397512205892 523.59059848608 2747.99756674109 144 143 139
-53.082107597086 523.660783994813 2740.05192836172 134 133 129
-56.2584133073782 523.621037178262 2732.80871424733 121 120 116
-57.3271400265463 523.902832341507 2723.38925895345 119 118 114
-60.5473204809215 523.859351949935 2716.11422018944 110 109 105
-63.0819196996777 523.921556937294 2708.10167258225 110 109 105
-69.1497616341712 523.445915796848 2703.70055525362 108 107 102
-73.8188150206331 523.183962691927 2697.8441642317 109 108 103
-89.6600666885643 521.211820442536 2703.64220425615 106 105 100
-115.872159581218 517.644374328842 2720.4411414466 148 148 146
-139.877536655277 514.406063663339 2735.13603679891 144 144 142
-154.785655590809 512.558585836218 2740.37611947578 146 146 146
-164.815594033739 511.458279659402 2740.51043851055 155 155 155
-172.76011421984 510.677626002461 2738.45273648313 183 183 183
-178.639104377783 510.215088376842 2734.18858820951 154 156 155
-183.154458823987 509.963510502603 2728.44366938207 168 170 169
-187.679689467925 509.710903929321 2722.69188035458 193 195 194
-194.247776590523 509.141544762144 2719.16268654226 199 200 202
-198.785603584022 508.88750411494 2713.40146441127 165 166 168
-201.313194483631 508.947170175919 2705.39398442402 164 165 167
-199.836643773592 509.633254082072 2692.88126186585 186 188 187
-197.740832738247 510.41975060789 2679.5832207907 192 194 191
316.812754635482 557.106704775558 2708.2303259289 192 196 195
289.310752887262 553.620715237753 2721.62422552013 127 129 128
249.529247580496 548.382000221111 2745.86963147638 122 124 123
209.162691625857 543.047964803832 2770.92577002199 140 142 141
173.6110344888 538.387536896591 2792.06464022407 140 142 141
147.443747836955 535.055249417924 2805.19184517492 182 184 181
130.582142521906 533.044986158035 2810.25001597472 138 140 137
119.127817100823 531.804205628218 2810.58609159 138 140 137
107.703065789238 530.56568192993 2810.94391201672 146 148 145
94.029911870785 529.002700745371 2813.3752838569 180 182 179
81.1571043850634 527.551809203148 2815.15208055632 175 177 174
69.077672063488 526.212448333559 2816.26983461636 149 151 148
57.0325247560439 524.87567534265 2817.41216124592 145 147 144
45.7721308850663 523.64970927395 2817.88889701875 140 142 139
34.5415946677488 522.426027584595 2818.38728881274 141 143 140
27.8181240606732 521.851902484503 2814.7457245331 144 146 143
18.1220336673165 520.847103432841 2813.88720979987 153 153 153
12.1562052364053 520.381593518098 2809.56009555373 156 156 156
3.23066865030253 519.486391316506 2808.02569022026 154 154 154
0.221387275079366 519.450018885221 2800.90357270276 157 157 157
-5.01235479882922 519.090974592121 2795.87266612047 156 156 156
-6.5860961158215 519.265741175646 2787.32190395244 156 156 156
-14.0343726573811 518.584679796607 2784.38940735864 146 146 146
-20.017379278219 518.117165882797 2780.04983012536 154 154 154
-26.7278263529482 517.543129574647 2776.41741285499 159 159 159
-30.5379470023457 517.393870419306 2769.94921469257 206 206 206
-35.0844819172944 517.137357313226 2764.18196195701 198 198 198
-41.0804116258126 516.668288662762 2759.83300862664 166 165 163
-45.6420555355679 516.410302225965 2754.05450111857 151 150 148
-50.9290369387785 516.045899436683 2748.98497306845 139 138 134
-51.2286819812384 516.418069106099 2738.88846263051 137 136 132
-55.1198176621286 516.261559775827 2732.36149821926 128 127 123
-56.8987215166623 516.418660389007 2723.66191986776 123 122 118
-61.5316754558879 516.154235285006 2717.8319800614 114 113 109
-64.0610450197237 516.202724162067 2709.82285959083 112 111 107
-69.4224372647074 515.831456851336 2704.69935476335 113 112 107
-73.3891932023596 515.668089575189 2698.1175368773 119 118 113
-85.0460836311398 514.358299293654 2699.54175035378 113 112 107
-109.884873707113 511.076409558321 2714.8673027277 151 151 149
-137.378875837547 507.388628830816 2733.20642029424 136 136 134
-154.369386615786 505.264998179315 2740.64093828002 145 145 145
-164.400429695064 504.180673600922 2740.77453749027 175 175 175
-169.598555244241 503.820795591036 2735.76944586391 161 161 161
-176.171000206254 503.254145260795 2732.23710668158 158 160 159
-181.375310945214 502.89330316699 2727.22752639588 196 198 197
-187.945083970695 502.326436150746 2723.69712305981 197 199 198
-191.799624256003 502.169754905343 2717.19668656101 183 184 186
-194.992600511761 502.114065161833 2709.94130685838 172 173 175
-196.857005200148 502.261087767687 2701.17969608064 183 184 186
-197.406099937875 502.609703576192 2690.90223493014 184 186 185
-194.646202109455 503.464372582036 2676.85091322145 191 193 190
322.734008860499 549.758911036629 2703.83970610013 208 212 211
300.65251799953 547.097663727289 2712.5213818365 185 187 186
265.483397285262 542.617575794615 2732.70343768352 138 140 139
215.020317123544 536.0056440371 2766.49027717468 139 141 140
174.053117512482 530.697683641763 2792.3461650197 137 139 138
150.955308423036 527.86327673269 2802.76058063085 176 178 175
136.38130037629 526.210104442226 2805.77348388172 137 139 136
125.674439916526 525.093225946428 2805.41700375819 135 137 134
114.231217241596 523.871984933211 2805.76122696261 142 144 141
98.260100026605 522.01582037505 2810.2306755012 177 179 176
83.8599826120996 520.37606304716 2813.36970373181 172 174 171
70.2623925700823 518.845789377066 2815.85601910864 150 152 149
58.9665849916621 517.635828871143 2816.30745827753 144 146 143
46.9499201559032 516.322632076294 2817.47055187674 134 136 133
34.2186684644763 514.906682873878 2819.35043685926 139 141 138
28.2438516748558 514.440175954669 2815.01680171004 148 150 147
20.7796554038491 513.763535011932 2812.07249247798 153 153 151
19.2590309835667 513.925916618497 2803.56046762661 157 157 157
11.7927743580681 513.248929532622 2800.61466304633 143 143 143
8.75985401114221 513.199305692067 2793.47534201276 142 142 140
1.29573349672052 512.522263038128 2790.53138014054 135 135 133
-1.02792846798683 512.574676156244 2782.67140137565 139 139 139
-8.49194031243194 511.897418266479 2779.7275171904 139 139 139
-14.4904499329153 511.428215294142 2775.37669294642 140 140 138
-21.216575928187 510.855223891411 2771.73291498459 147 147 147
-26.4906053753606 510.489241627145 2766.67276808346 153 153 153
-33.2143324871104 509.91616077761 2763.03072867042 158 158 156
-40.6549059932169 509.240084728859 2760.10384142309 194 193 191
-45.9340219131108 508.873291710401 2755.03970864567 205 204 202
-51.2188278457364 508.505853928432 2749.97174226776 191 190 186
-52.9419231578214 508.650777259599 2741.31255903936 183 182 178
-56.8261046136973 508.486168445906 2734.79059486875 160 159 155
-57.8886129921807 508.729211099937 2725.37574557065 136 135 131
-61.8100674782056 508.561298972 2718.8267446531 128 127 123
-65.0413055854993 508.493981162188 2711.54356921929 116 115 110
-70.3982611706853 508.119891912221 2706.42326632749 112 111 106
-73.6599882926534 508.049810010699 2699.11768027859 118 117 112
-83.9200622860836 506.964406439978 2699.0852446261 111 110 106
-102.503733848121 504.666395359855 2707.83433082413 108 108 106
-131.411977425964 500.859055740596 2727.6179967301 158 158 156
-151.18808296367 498.373950889679 2737.97178768294 195 195 195
-162.607195548365 497.103606316446 2739.56827671629 180 180 180
-167.809700020626 496.74028182252 2734.55999325802 174 174 174
-173.702228429691 496.275945457749 2730.28602170627 193 193 193
-178.913182581995 495.911503302845 2725.27160723344 159 159 159
-184.129235585943 495.546473430225 2720.2531990403 164 166 165
-187.316470348521 495.480136462068 2713.00192753831 170 170 172
-191.87392455507 495.212885619663 2707.22641030947 151 151 153
-194.420187559705 495.243004246618 2699.20524485123 158 159 161
-196.989216348352 495.271059129447 2691.16727106002 180 182 181
-193.558121592874 496.188999697997 2676.36750370453 188 190 189
312.775700700116 540.602527779296 2702.74981473053 197 201 200
279.89308794675 536.534103583325 2720.88638426529 145 149 148
217.787627586553 528.506462305842 2764.75326486515 138 142 141
172.953307073533 522.79853072794 2793.97924593002 139 143 142
150.625156786978 520.128094292774 2803.71710306928 158 160 159
138.350446198964 518.816481883028 2804.69343629795 137 139 136
130.695019510493 518.130383269147 2801.61045215024 136 138 135
119.237522763048 516.926700646977 2801.94441671158 146 148 145
102.491314577174 515.000953919387 2807.08696392293 179 181 178
85.8058224741081 513.07995121776 2812.27325507085 166 168 165
72.9575129255613 511.679208155079 2814.0683593367 145 147 142
60.9010412241773 510.384398885322 2815.20268922594 142 144 139
48.8787610990817 509.092210155022 2816.36181859206 134 136 131
36.1416949499205 507.699986161838 2818.23760872294 134 136 131
30.9089553674964 507.335078572116 2813.20739916937 139 141 136
24.9264168575589 506.86740841311 2808.86816048826 144 145 140
24.1380331750856 507.114212321703 2799.65204908391 134 134 132
18.1380269169789 506.644962784798 2795.30013965952 113 113 111
14.3503507855653 506.480808553422 2788.84813656068 116 117 112
6.87063407584132 505.807585235598 2785.89259354231 117 118 113
1.59872796759508 505.439071577828 2780.83397307287 122 122 120
-5.87230153842877 504.766263659687 2777.88502417496 119 119 117
-12.6063856993648 504.195062117254 2774.235486235 121 122 117
