ply
format ascii 1.0
comment KinectMotionCapture
element vertex 767
property float x
property float y
property float z
property uchar red
property uchar green
property uchar blue
end_header
501.682930667942 840.650097268935 2575.74913001585 166 166 168
495.994090350761 841.4677067855 2579.86048090013 166 166 168
494.648529226633 841.106519213372 2588.33491078344 175 175 177
491.143220213772 841.332487417585 2594.61649292674 177 177 179
488.374162164181 841.359950461144 2601.61321527348 176 175 180
485.616879282708 841.385575244703 2608.59851639825 179 178 183
481.406701782664 841.804100447623 2614.13433636916 178 177 182
476.466367741676 842.419360042377 2618.94922600401 184 183 188
470.790074645213 843.231967590467 2623.04885660138 187 186 191
467.324254626916 843.450199082526 2629.29203123 198 197 202
463.866547151401 843.666864102317 2635.52771934962 204 203 209
458.932708894033 844.279417797885 2640.33655850603 207 208 212
453.999066271921 844.891475079908 2645.14527676344 206 207 211
449.065608117269 845.503096325091 2649.95387628799 208 209 213
444.132389192041 846.11409772334 2654.76232986729 206 207 211
438.449645546606 846.924452086645 2658.86869897488 210 211 215
433.514892913647 847.534821269552 2663.67876898978 247 248 253
426.319448489529 848.745084849544 2666.39400944742 238 239 244
421.379346772756 849.355243837062 2671.20942224841 226 227 232
414.166924823148 850.566763171506 2673.94133603987 227 228 233
409.980884519628 850.9760537705 2679.45455228825 235 236 241
405.799015205282 851.384346799421 2684.96377412314 249 250 255
397.041388892694 852.999506092944 2686.33662224424 251 250 255
388.264499515991 854.616517151421 2687.72798734073 251 250 248
374.098201384496 857.64789064025 2684.34336978528 243 241 242
362.962029398119 859.876517409111 2683.73607505974 207 206 204
104.71208498301 912.614646487861 2654.65325610307 144 125 110
113.108195688787 909.750382425488 2670.82827864364 150 124 109
118.323491417462 907.706695466082 2684.37264142722 146 118 104
115.452367526239 907.731103947588 2691.47116812646 146 117 101
111.777417407564 907.961606062211 2697.92019844361 148 116 101
109.746028173059 907.775099238397 2705.63327656489 146 113 98
109.369132468689 907.170421262616 2714.59870445993 148 115 100
105.730257858438 907.396126572971 2721.01295807149 146 110 96
104.569641100145 906.995040546734 2729.30997028164 145 108 92
105.079247845106 906.173669379917 2738.84436245828 139 100 83
103.134446169082 905.976377794099 2746.47271399512 146 104 90
98.7178715841321 906.40494207711 2752.21200555079 145 112 93
88.4875925113167 908.300014764309 2753.58860139556 151 118 99
83.2328135902785 908.939052518194 2758.71222504312 160 125 105
78.8134729393524 909.367952469862 2764.45455157351 161 120 102
76.9089557284324 909.165641355951 2772.04364192504 157 114 95
72.5034983022921 909.592922082102 2777.77208368682 158 113 92
69.7839262687343 909.598284012716 2784.72293222295 158 113 92
67.0761287943531 909.602456417188 2791.66226425921 149 111 90
66.9143811587909 908.971468134433 2800.41827343531 135 100 81
62.5428481136465 909.394943903936 2806.1135901562 73 47 30
60.7210606686914 909.183146889726 2813.62193063908 50 28 14
61.466451934165 908.333761433605 2822.92632580105 31 18 9
57.9771828038926 908.541962879084 2829.194606023 29 20 11
37.4090661881206 912.99703381205 2823.45453540791 21 14 4
26.1902397263212 915.122076858142 2824.36153674503 24 21 12
15.8031277556736 917.037556443266 2825.89119168716 17 17 7
38.0778654925042 910.858804498473 2850.02940341735 16 19 8
2.71793941915677 918.957941941857 2834.35007920678 18 21 10
-3.40131565452673 919.812960031024 2838.88297149427 8 11 0
15.5882861238639 914.46821831271 2860.49246817631 11 13 0
502.346466186578 835.793986277323 2547.46774711446 122 124 119
502.357958306075 835.072030015006 2557.48208099821 134 136 133
499.521973288849 835.118367748548 2564.54247314224 141 143 142
496.697719342279 835.162754843623 2571.59150446321 148 148 150
494.607724092227 835.011718438594 2579.3571988699 153 153 155
491.808890733386 835.051957363445 2586.38160026921 162 162 164
489.748218635484 834.896103901459 2594.11888831125 166 166 168
485.518176897724 835.320717367678 2599.67387176319 169 169 171
484.21326500199 834.96631701737 2608.10693321339 167 167 169
479.266625100353 835.582666410187 2612.9279235894 165 164 169
473.585973200299 836.393582639323 2617.03213251938 173 172 177
467.165317372545 837.399775151752 2620.42506737973 178 177 182
464.427622488529 837.428945377292 2627.39039331868 183 182 187
461.701761772225 837.456210936169 2634.34424926305 185 184 189
457.503694192455 837.873445366526 2639.86823467973 196 197 201
452.565843449092 838.485915211444 2644.68107068713 196 197 201
447.628187263969 839.098006716246 2649.49376941383 196 197 201
441.195273229218 840.102842060035 2652.89941528586 189 190 194
434.754605495824 841.108314105691 2656.31232874902 188 189 193
430.561479739946 841.522684725217 2661.83183013151 212 213 217
426.37261764738 841.936092022541 2667.3475778539 244 245 250
422.187737129238 842.348597635268 2672.85916724062 220 221 226
415.734459033291 843.353772415047 2676.28464691598 214 215 220
410.792589764437 843.963328667019 2681.10190400636 218 219 224
406.612533710227 844.373915727318 2686.60932403229 225 226 231
399.383201689458 845.578131832685 2689.35910918846 237 238 243
392.907712290857 846.584514541771 2692.80646648426 250 250 252
381.821717490811 848.785986645355 2692.15369636061 251 251 251
374.550572143776 849.994058733049 2694.94443285537 255 254 255
363.412664336229 852.201144832778 2694.3420455274 253 252 250
350.698133090713 854.811055290272 2692.41191268052 232 231 229
101.531560876249 906.010199142443 2653.11938503637 138 119 104
105.060721843125 904.417815853203 2665.43758344328 137 114 98
107.009358181548 903.229056610818 2676.43145423541 136 110 95
106.551834261212 902.650228810633 2685.47312649614 140 113 96
104.486974283296 902.478320019314 2693.21728397759 142 115 98
105.708020087524 901.483449061211 2703.48775916248 138 109 93
105.321476105185 900.895660074107 2712.46060959701 147 114 97
103.315591486631 900.716152633092 2720.14698890991 135 99 83
100.50220181458 900.740712871048 2727.1881622465 133 98 79
98.5260574068869 900.557515172728 2734.8455545088 133 96 78
95.7384761859483 900.578762876516 2741.86158926302 137 98 81
91.3044273073953 901.011829856123 2747.61756755397 147 112 92
83.5503983786476 902.271800792461 2750.88048179854 151 119 96
79.9500227849901 902.497619109385 2757.25615077318 160 124 102
76.3578712712114 902.722446581281 2763.6241374034 165 123 101
76.1213681720401 902.115978432108 2772.45075579492 164 119 98
71.7139753951446 902.54592086186 2778.18072598998 163 117 94
69.8332155303771 902.350993270437 2785.74513366419 157 110 90
66.282812630984 902.570911479091 2792.07238889012 149 108 88
65.27421994917 902.164472145757 2800.21889231945 141 105 83
60.0524332627814 902.799468641892 2805.31035148641 94 66 45
57.3763664597138 902.807542713813 2812.21759783224 69 44 24
50.4601077976576 903.860397154905 2816.09611486272 52 34 14
48.6503833274168 903.657693799826 2823.59113259454 38 28 16
37.4589420238882 905.75992969859 2824.47464879308 33 25 14
7.4029255029382 912.484335891895 2812.23344241748 18 14 3
-7.31771409518212 915.439464325471 2810.82713459465 17 17 7
30.3869415171683 905.564641141287 2845.69622010628 20 23 12
35.5267191819051 903.671321920453 2857.87610199792 17 20 9
36.3932702358492 902.826829686501 2867.05946048276 8 10 0
490.239067124815 830.725719247232 2555.98859522152 130 132 131
491.712813878736 829.63751587293 2567.43917627783 141 141 143
489.608771294579 829.498805777507 2575.21699807175 148 148 150
487.520366583129 829.357593560317 2582.97966103942 154 154 156
486.174145130741 829.022540416453 2591.45122182337 157 157 159
484.11897565292 828.87625383758 2599.18163170117 167 167 169
482.079462110553 828.727521828668 2606.89685643712 168 168 170
477.126646592268 829.34464975609 2611.72386422468 168 167 172
470.705704578772 830.34585295862 2615.11815853152 174 173 178
465.013056630582 831.155169170338 2619.23417835452 177 176 181
460.793106863794 831.578569352088 2624.77931965301 180 179 184
458.79709981971 831.421934935892 2632.45250976537 182 181 186
455.332818305804 831.649584393744 2638.69276466516 187 188 192
452.620504311072 831.682159463469 2645.63238377136 189 190 194
446.936751985195 832.487864512027 2649.74044168023 191 192 196
440.501434578451 833.487590744918 2653.14889141855 186 187 191
432.559213416336 834.876457649183 2655.16238540536 183 184 188
430.614920835326 834.710650206017 2662.78557806078 198 199 203
425.672010293836 835.321458134653 2667.60368415303 232 233 238
421.485021366863 835.736693198617 2673.11730165118 224 225 230
414.272132085155 836.931937082763 2675.85208501477 211 212 217
409.326097212204 837.541900537668 2680.67341842719 215 216 221
406.664424801778 837.564199488482 2687.56426849745 219 220 225
400.19810110591 838.564414364851 2691.00343571793 230 231 236
395.254830527356 839.172790991168 2695.82225867772 244 244 246
386.476116394519 840.762598546926 2697.21979429184 255 255 255
379.21637510613 841.961213211423 2700.0006041908 249 247 248
368.861175101802 843.948356719553 2700.07073102239 254 252 253
359.252033567644 845.741360713463 2700.84561381746 255 255 253
350.394829038731 847.339425141577 2702.31953335107 249 248 246
343.849352246873 848.346657044152 2705.83660149455 254 253 249
332.623370817669 850.541494568037 2705.32348290902 161 157 154
98.3511033223872 899.384206747398 2651.58897007257 108 89 75
100.252562445379 898.225159379705 2662.62529713493 110 88 74
100.565723326252 897.46529091435 2672.3456728862 123 97 82
99.2790815468259 897.106156565786 2680.76162936569 127 101 86
98.0119788507103 896.744572043217 2689.15820753926 127 100 83
101.67019187333 895.164814416773 2701.34638927963 128 99 83
102.912644144642 894.188296704413 2711.59289492456 129 97 82
101.722093584677 893.81706156872 2719.91488205169 136 100 84
97.2581524140326 894.256242661863 2725.69997800926 133 96 78
96.0993850423613 893.880823843792 2733.99102230701 130 92 73
92.4787443177699 894.11419621481 2740.38603621234 139 101 82
85.5494281079032 895.162518078409 2744.27785165181 155 110 87
80.275057394898 895.803082187748 2749.42070464374 159 115 88
79.1661373200596 895.421543194439 2757.66349224007 167 121 95
78.0767563285325 895.037554027125 2765.88690153048 179 132 104
77.0071635443208 894.651175141601 2774.09135187981 180 133 103
73.4405629581563 894.877924838897 2780.43334411512 178 131 101
69.8821651932939 895.103686371148 2786.76767471997 180 133 105
66.3318446107155 895.328547583883 2793.09411763025 168 124 97
63.6340698011999 895.346670429427 2800.02143514303 163 122 94
59.2549266990052 895.775705136006 2805.72348715459 131 94 67
56.5770472251206 895.791614702502 2812.63137542666 101 65 39
50.5093485187409 896.632395338195 2817.11551361068 77 47 23
48.6997009552823 896.439883894775 2824.60894861283 38 22 6
43.4885419419224 897.073717510337 2829.69002621661 35 22 6
31.4276818754378 899.365784991726 2829.99158391441 30 20 8
-8.98333893375103 908.50923622994 2810.67159073232 22 16 4
72.6440273248245 887.548593713232 2884.33249111309 16 16 4
484.56644253975 824.638098841165 2561.104433611 123 123 123
483.887651052036 824.136096421714 2570.35481092134 125 125 125
483.232086542687 823.63064819105 2579.58229494621 138 138 138
481.873748235425 823.310449524057 2588.06369246098 144 144 144
479.806481359441 823.176302403208 2595.8043210274 150 150 150
477.024639850067 823.228846597933 2602.81003055549 163 163 165
472.057873929065 823.847674226454 2607.6506400841 167 167 169
466.357162034796 824.65557626691 2611.77521438064 170 170 172
462.12483972089 825.083733559356 2617.33160086045 171 171 173
458.634750838221 825.32069719732 2623.59644406916 173 172 177
457.372421760815 824.985164793832 2631.98443147697 175 174 179
453.161997537715 825.409205200977 2637.51968130274 179 180 184
450.443478821964 825.450405328298 2644.4641870089 182 183 187
443.261877485005 826.63639767548 2647.16926835396 185 186 190
436.81675381953 827.631921973152 2650.58841473834 181 182 186
430.363899329512 828.627903182568 2654.01483257243 178 179 183
426.91021772782 828.857151756473 2660.24466309603 179 180 184
422.710798869657 829.277033227654 2665.76959912065 211 212 217
419.271199062131 829.503563066431 2671.98584804234 231 232 237
412.809622375139 830.498992720224 2675.42100866664 213 214 219
406.340735133241 831.494800228274 2678.86371077533 214 215 220
403.670765405886 831.526119017211 2685.76112923383 217 218 223
398.723061336991 832.135172493084 2690.584254677 224 225 230
393.775636322136 832.743895945628 2695.40715179269 235 236 240
384.992835232284 834.320832803646 2696.81064809905 245 246 250
378.49804445433 835.31785499299 2700.27855543061 240 240 242
369.682895887741 836.897985232034 2701.71370127923 238 238 238
362.39447413621 838.091193294172 2704.52379039553 247 247 247
356.644638496301 838.896030057553 2708.69759834429 253 253 253
351.668058163188 839.506011279337 2713.54926122426 255 255 253
345.912853016317 840.310830366381 2717.72806594337 235 234 232
336.250789532015 842.092625420669 2718.55749553564 224 223 221
328.913585948989 843.290096205332 2721.41539570322 209 208 204
95.1706754862709 892.736333171335 2650.06175962762 94 77 67
102.732542534886 890.209356969696 2665.59843813589 104 85 71
99.8043828335331 890.264130470137 2672.7491143012 118 96 82
98.515434861413 889.918332002368 2681.16505198477 120 97 83
90.7215690897067 891.16712161637 2684.46883955586 123 97 82
95.1794869656384 889.419012288924 2697.30469418068 128 101 84
92.3090060920293 889.466042706038 2704.39923884172 125 96 80
92.7360730217428 888.71015387837 2714.00591601394 134 101 84
89.0740178714591 888.953700577219 2720.440551295 133 98 79
87.8957229471951 888.593716659257 2728.74870546964 131 94 76
87.564484734894 888.030208979102 2737.66304769039 137 100 81
81.4528572170499 888.872812503412 2742.19053841143 157 111 87
80.3240081276062 888.506772058788 2750.45048729315 165 115 88
80.0479779015357 887.936363503577 2759.31102711376 178 131 101
80.6303349674389 887.161310668568 2768.76633131706 183 136 106
77.0558646163151 887.393874880645 2775.11561680455 185 139 106
72.6504706592199 887.828164895866 2780.84295957077 184 138 105
70.7716056573089 887.653637516141 2788.40247047577 181 134 104
66.3804939360593 888.086231928341 2794.11621922204 174 131 99
61.993466851074 888.518265476322 2799.82565691761 171 127 98
55.9175930288722 889.356715492151 2804.31825757709 147 106 78
55.7774799131572 888.770292833249 2813.04619657543 125 83 58
50.5582491025902 889.404436401187 2818.13524378233 83 58 38
43.6345287700259 890.446863558806 2822.02237366788 63 44 27
34.9947937772148 891.899073163827 2824.71914717621 55 38 22
32.3334206023906 891.92115748476 2831.6097318233 26 14 0
32.2580980030249 891.327464522099 2840.27406958685 20 13 0
470.975244044599 819.914558799617 2568.21360951422 128 128 128
473.941756862869 818.49582994535 2581.06485980051 134 134 134
474.037677474036 817.816184136323 2590.98910147743 138 138 138
471.239872479736 817.878701573547 2598.00918894116 153 153 153
466.989389603742 818.312686422992 2603.58274781721 158 158 160
462.742938997664 818.745750158959 2609.15243872979 165 165 167
459.972795322596 818.803188289058 2616.14580881398 168 168 170
455.000350880267 819.421257564758 2620.99216928243 172 172 174
453.72805654349 819.100118450951 2629.38826286016 174 174 176
449.507553319081 819.528024104724 2634.93295000147 177 178 180
447.522734367093 819.390264528058 2642.59224047995 179 180 182
440.333096658526 820.569191258346 2645.3063463559 178 179 181
436.123149238609 820.99421995784 2650.84131448188 176 177 181
428.918438262725 822.1739854741 2653.57026436291 176 177 181
426.212065426921 822.219846147044 2660.50202020412 180 181 185
420.503190374577 823.02147818671 2664.63528949869 184 185 189
417.812843954237 823.064433942938 2671.55156021786 223 224 229
412.104698397193 823.86495851017 2675.68460663875 221 222 227
407.152236574223 824.475319402459 2680.51226336647 196 197 202
401.438815799877 825.275683431081 2684.65057188366 198 199 204
396.484989799283 825.885449704891 2689.47967114428 198 199 204
390.766137357767 826.685626986978 2693.62306314633 212 213 218
385.810968438127 827.294795962327 2698.45358422587 229 230 234
377.779827901064 828.668690407718 2700.55758938936 243 244 248
368.962559872857 830.235583977312 2701.99679626866 224 225 229
363.217808304068 831.03737512877 2706.16566795776 230 231 233
360.569153607071 831.071183038269 2713.04189022708 254 255 255
357.155735750414 831.295355727349 2719.23248847021 247 248 250
352.192764676201 831.903208504021 2724.07095173817 253 255 254
344.107383699896 833.281523096738 2726.2281651638 254 255 255
337.571990025733 834.275408290594 2729.73685541808 255 255 255
330.244664191863 835.463142317011 2732.58638592334 252 252 252
321.333154621414 837.038673244985 2734.11789944944 255 255 255
311.614004715223 838.810105277436 2735.00521051065 255 255 255
305.033534523208 839.808257830769 2738.55803169964 249 249 249
276.243656657907 844.391666103734 2750.88236425052 255 255 253
272.820730077068 844.613335520426 2757.0824369379 255 254 250
266.198052978189 845.615144759958 2760.67696759471 255 252 249
256.352035935127 847.399798876003 2761.68830538009 238 234 231
240.841996444872 850.55755499999 2758.20211640004 222 214 211
237.399411306875 850.780805119866 2764.42181454004 229 218 214
214.530476288341 855.713250435436 2755.22762193112 172 159 153
168.037369971345 866.354525890661 2727.55540725772 118 103 96
114.423151519556 878.056495330127 2703.96397346047 108 90 80
106.674172603941 879.291547513468 2707.22521810615 113 93 82
103.830639760305 879.343023557139 2714.2923459134 108 86 75
100.99911855124 879.392926374589 2721.3477785121 121 95 82
96.5328838802653 879.837068175094 2727.13408091703 121 93 81
91.2456974763134 880.478894092951 2732.28947358477 129 100 86
86.7862004003435 880.922055536986 2738.06956819651 137 108 94
81.5016522139831 881.56331299029 2743.22242509399 157 114 95
81.2039002120852 881.011446455563 2752.10179445658 167 121 98
80.9294718587301 880.456593673423 2760.95810661545 181 139 115
80.6788283251869 879.898847336564 2769.79156560476 181 144 118
78.7779296943469 879.737476159325 2777.37101174802 181 146 118
75.2153603518924 879.973611379237 2783.70795156458 183 149 121
74.1830275232513 879.608835380887 2791.87220932993 183 149 122
67.271523101593 880.64358977088 2795.74834266708 185 151 124
63.7312305939126 880.87715251711 2802.06354146788 177 136 108
59.3522160952409 881.31071161081 2807.76479707181 161 120 92
58.3712001531271 880.939892123217 2815.87865179331 146 104 79
51.4572245930336 881.975239845697 2819.75748915516 104 77 56
41.1262891995428 883.81748749526 2821.24184573183 88 67 48
29.9181545705967 885.864215309468 2822.15014271993 67 49 29
22.9640861695146 886.904807315993 2826.06767992068 33 20 3
31.4490859592427 884.307981968454 2840.69799764388 33 21 5
58.9175751133371 877.251609414043 2868.3109188141 15 9 0
465.355865223293 813.146952450947 2583.29611660654 127 127 127
463.994890445963 812.852737592416 2591.77629177952 141 141 141
461.189046171785 812.923639611917 2598.80312312941 148 148 150
461.331476891579 812.255408330842 2608.67949251867 158 158 160
457.084821963689 812.69050276492 2614.24908618954 163 163 165
452.842220564291 813.124673405538 2619.81479118296 168 168 170
448.603882828204 813.557880723954 2625.37674251628 170 170 172
446.595121681052 813.434166611966 2633.05773203494 170 171 173
444.602095650511 813.308056056723 2640.72345054346 171 172 174
439.641771500968 813.922533468007 2645.55830625799 169 170 172
434.681663168243 814.536629859193 2650.39300397783 169 170 174
426.723221347976 815.894990842937 2652.4271140797 173 174 178
424.762173743342 815.763079834197 2660.06193484306 182 183 187
419.802790497135 816.375669564871 2664.89613522504 183 184 188
418.62092770183 816.052990950296 2673.20231864082 215 216 221
411.399734760453 817.224796541783 2675.94914967263 222 223 228
406.445030157598 817.835440172113 2680.77899172537 186 187 192
399.206712254628 819.00865108028 2683.54228255001 186 187 192
393.483417052228 819.807029689909 2687.69035212229 186 187 192
387.756722873109 820.605293037213 2691.84215180642 202 203 208
382.793498568271 821.215300615383 2696.68054805741 211 212 216
377.830585743846 821.824915113538 2701.5186931008 241 242 246
370.555000221421 823.000642350715 2704.31861931015 226 227 231
364.041161254594 823.988200094897 2707.8071784577 219 220 224
360.619149281169 824.219012316549 2714.00499162382 233 234 236
355.651733548818 824.827602319481 2718.84775954129 252 253 255
352.242203832784 825.056179259253 2725.03384585698 249 250 252
344.156645580396 826.423665936364 2727.19283568158 243 244 246
340.751503505783 826.651054125036 2733.37440285937 250 251 253
334.216457774504 827.639103472259 2736.8839479788 254 255 255
326.100768080889 829.009222357687 2739.07213188873 254 254 255
316.393306682226 830.763010371676 2739.95078170939 249 249 251
310.614596856365 831.563008711885 2744.15363942648 255 255 255
307.209531184747 831.788723103695 2750.33571596341 254 254 255
301.429803342802 832.588306023659 2754.53998382645 251 251 253
293.257792959571 833.963932868596 2756.78328093973 255 254 255
285.868935442065 835.148809552668 2759.6943356304 246 244 245
282.469214827931 835.372847645002 2765.87135220256 253 252 250
274.26559856721 836.751561342686 2768.14591602592 254 250 251
266.046871227721 838.131767250169 2770.43526482591 255 254 255
256.201216475575 839.899982359927 2771.44867252901 255 253 253
250.371636233451 840.703917033691 2775.70146353307 255 250 247
246.968036069862 840.927264828348 2781.88243458089 255 253 250
233.83228409107 843.475405578209 2780.37970968475 255 249 247
209.267553847473 848.744970425417 2769.98582204778 240 229 225
178.901224658531 855.385652246982 2755.23097868691 181 168 162
161.495375944082 858.92815099935 2750.7366728638 119 104 97
144.031603827531 862.477552173043 2746.2985278184 124 105 98
140.473490145189 862.718727724716 2752.63029813977 134 114 105
130.336981207917 864.520661184667 2753.92754479088 125 105 94
113.575879676716 867.889163423614 2750.23562141011 114 92 81
96.7607445245151 871.264136683997 2746.59605995762 130 106 96
86.5249407847313 873.077867167707 2747.9905020625 154 116 103
82.0833668584808 873.521140904902 2753.75244428274 165 123 107
82.6438545724875 872.785464690434 2763.22364522844 178 143 124
81.5621073243844 872.439596462514 2771.43417768259 176 145 125
82.1736352664937 871.697662722777 2780.85561978676 174 146 125
80.2961958232196 871.543771624482 2788.41066505758 177 152 130
80.9567438900998 870.795893994426 2797.7843079576 177 152 130
74.0607674093137 871.823029833401 2801.64614783842 183 156 135
69.6914239075554 872.257597521771 2807.33798877159 184 156 135
62.7864763072314 873.285864312908 2811.20856995249 184 151 132
57.5710386780202 873.918527220015 2816.29406931526 176 141 122
48.1040773089392 875.543973303142 2818.36977725035 153 126 105
36.0608665188851 877.768124540102 2818.66384694702 131 109 88
25.6956010339993 879.598129802928 2820.18410323135 107 86 67
16.1636729147814 881.231824946015 2822.32310490225 49 32 16
455.388851205669 807.49124503481 2594.02941995173 131 131 131
457.717565045906 806.29866277521 2606.06334252397 128 128 128
453.46081994891 806.737682832622 2611.64237567651 143 143 143
448.470206891833 807.357806675592 2616.50647418383 148 148 148
443.479805952451 807.977373058319 2621.37044444753 143 143 145
441.457190046557 807.866124847323 2629.0636873337 162 163 165
440.937658268124 807.38669271044 2638.15224367853 165 166 168
438.2045443374 807.453143420629 2645.1075106238 167 168 170
433.988044404209 807.884187425266 2650.64809643285 168 169 171
426.776986484134 809.048595616236 2653.38561872925 174 175 177
423.312311048224 809.29498785221 2659.62349462499 194 195 199
417.595258172329 810.091976791222 2663.76590870948 190 191 195
415.651776423699 809.967640152419 2671.38216682959 191 192 196
409.937230585245 810.763310569477 2675.52228626581 213 214 218
406.497058195929 811.004890673212 2681.7368793471 194 195 199
398.497107221623 812.354993722022 2683.81309132973 173 174 179
391.245261912925 813.521359494782 2686.59082677625 173 174 179
385.512481741259 814.317559574479 2690.748974891 171 172 177
381.310192411724 814.742520420304 2696.27601060677 178 179 184
376.343103892422 815.352484424668 2701.11825052003 222 223 227
372.147441697811 815.775771213356 2706.63929065977 232 233 237
366.409915518519 816.571108419972 2710.80194132052 198 199 203
361.443858181072 817.179763050949 2715.64335077977 195 196 200
354.147893911451 818.348729240521 2718.46485050821 233 234 238
349.955341291961 818.770103866277 2723.98274756874 243 244 248
343.425017979214 819.752853409399 2727.48804872349 238 242 245
340.017807038653 819.985619661491 2733.67121328233 233 237 240
335.049619817165 820.592655795746 2738.51497696103 238 242 245
329.295351954706 821.387554860092 2742.69465495988 244 245 249
320.38373276847 822.935810078126 2744.2299708321 239 238 243
313.824195067437 823.920473494295 2747.76399943669 244 243 248
310.426628263504 824.150490760237 2753.93799352424 254 253 255
305.448654839172 824.757227411369 2758.79151931051 255 254 255
297.286393561428 826.120643987017 2761.02727793238 255 254 255
289.907068809275 827.296358122972 2763.93022066675 255 254 255
284.116703087609 828.093567080635 2768.14540297219 253 251 254
278.322621719934 828.891021617121 2772.36390083061 252 250 253
272.525288570056 829.688519241554 2776.58595923045 254 254 255
265.112662936244 830.867193137414 2779.52153278136 252 253 255
259.304470423019 831.665646975359 2783.75423336158 253 254 255
253.492562263785 832.464346392127 2787.99024949479 254 255 255
245.242416155994 833.836719369282 2790.31195529985 254 255 255
232.909190193539 836.167667352439 2789.46165836175 254 254 255
219.725668484617 838.694363800582 2788.00920113023 255 253 250
205.686658737589 841.417188295541 2785.9606970516 255 253 250
194.882914911869 843.376906270517 2786.48028801035 255 244 240
188.159172755194 844.377965543088 2790.17495076636 255 244 241
177.31174847711 846.342541476046 2790.73719905596 255 240 235
163.136821619726 849.081380074697 2788.8212957996 198 183 176
140.648120098588 853.755755058463 2780.70491554892 146 129 122
116.42032152554 858.826324158359 2771.4227705846 129 100 92
107.062159771832 860.424563497859 2773.39412219611 156 126 116
106.014793491625 860.087687957429 2781.56918472561 160 133 122
104.152076499235 859.94231937373 2789.10835076112 160 138 125
103.978926766641 859.406705847061 2797.86158604084 183 167 152
102.151731241068 859.257036124537 2805.36611444114 190 174 159
98.6589247180643 859.494827152769 2811.63319617696 217 204 188
90.1185169727681 860.901138624207 2814.23811998428 234 218 203
82.4075143100735 862.114184400118 2817.46490618684 220 201 187
74.6852026228675 863.328596889434 2820.70272041826 184 157 146
66.9516233512888 864.544488805622 2823.95150486889 174 146 135
54.9549944963612 866.741054083448 2824.20373305008 167 141 124
42.9277102347423 868.941542931208 2824.48582260136 155 132 114
32.5781137547945 870.753120564404 2825.99324292776 148 127 110
21.3494510791152 872.764342403172 2826.9271723374 109 91 77
8.37771438208446 875.17243662474 2826.69918597532 104 90 77
445.421008994209 801.832634615515 2604.76397476824 129 129 129
443.360509262612 801.737615252945 2612.49210039466 144 144 144
438.356158459022 802.358822300056 2617.36968059025 136 136 136
436.319521253736 802.259956085404 2625.07501678034 154 155 157
435.785929800999 801.798276945843 2634.17491070435 154 155 157
433.784676561153 801.693888581242 2641.84592626504 167 168 170
431.799000911033 801.58719563889 2649.50147582244 179 180 182
425.331409902931 802.563393061245 2652.94545127192 186 187 189
421.862656665535 802.815416618884 2659.18688201992 183 184 186
415.387813930967 803.791643704188 2662.63805415681 172 173 177
412.682709625279 803.860224363429 2669.56519232481 179 180 184
406.960099669592 804.65419882458 2673.7135702102 191 192 196
402.752393147494 805.08408834911 2679.2452568217 215 216 220
396.265088860413 806.059999408667 2682.70885017292 186 187 191
389.007352922458 807.218898084054 2685.4938765771 172 173 177
384.033540230698 807.830417403116 2690.34256381818 175 174 179
376.758829756712 808.990525525169 2693.14392958988 174 173 178
373.31769536154 809.235424259568 2699.35864962305 199 200 204
369.113996066036 809.66220094324 2704.88715491783 227 228 232
365.687134253716 809.904415859391 2711.0880987324 199 200 204
359.169295236481 810.881214827627 2714.58222013152 186 187 191
352.643863036946 811.858512324441 2718.08347014862 212 213 217
347.668480723259 812.46751695327 2722.9340877176 235 236 240
343.474079941353 812.891306415844 2728.45346311889 237 241 244
338.501383747488 813.499146853017 2733.3015853982 220 224 227
334.313725407156 813.921424628697 2738.814826724 226 230 233
327.770686002434 814.899172728697 2742.33349435717 239 240 244
322.008815390211 815.691845923823 2746.52105098143 237 238 242
315.452984784164 816.670498932076 2750.05228672156 228 227 232
309.682213290227 817.463586598854 2754.24862079421 243 242 247
303.907705430211 818.256863487721 2758.44829932467 254 252 255
298.129923990907 819.05024518123 2762.65155091967 254 252 255
291.550654570532 820.030542672365 2766.20615653706 255 253 255
286.563931228557 820.637438888422 2771.06834753727 247 246 251
280.775552287846 821.431285070884 2775.28171611457 246 245 250
274.98381473354 822.225246777913 2779.49874061233 250 251 255
269.188677422419 823.019460171829 2783.71910391965 251 252 255
263.389802668204 823.813980861264 2787.94279530308 250 253 255
255.968200041179 824.985118032265 2790.8883970656 252 255 255
249.347153490465 825.968795192042 2794.48398847745 251 254 255
240.277763194701 827.5195441615 2796.17560481834 252 253 255
233.636205886635 828.505394246359 2799.79124255807 253 254 255
224.534740706083 830.059715014082 2801.51418182349 255 255 255
216.233788007671 831.426699203972 2803.88713578449 255 255 255
207.917744412055 832.795290997107 2806.27483762645 255 253 254
197.940029681327 834.545421726715 2807.42205570397 252 250 251
189.589933076236 835.917952629815 2809.842990489 255 254 255
174.607581899569 838.815042989342 2807.28823481676 255 249 249
162.06634900269 841.145985461803 2806.64415481194 255 249 250
147.828835710253 843.862581004718 2804.79368832471 255 251 253
139.379638619305 845.246838503958 2807.31129817138 250 241 242
134.254765221094 845.867789506608 2812.30859692835 250 244 246
129.967054927381 846.296973482513 2817.91983274752 252 250 251
126.52236888494 846.534051284867 2824.13957339126 253 251 252
119.722963989485 847.538044539326 2827.90893672414 255 254 255
109.545749898316 849.311969050222 2829.25074390524 254 253 251
95.9675579934331 851.85839177703 2828.18762231923 254 250 249
84.8903872690627 853.831527686101 2828.97674706553 255 252 251
73.7865163103573 855.807970615134 2829.79189676313 255 248 246
63.5061582956182 857.594603212353 2831.23424913547 255 246 236
54.0553062311435 859.190597957355 2833.29831318786 252 236 223
45.4393625433918 860.595535739567 2835.97811049134 237 223 212
33.3837899592924 862.777890251714 2836.29097101191 192 179 171
24.7299604976812 864.187650068619 2839.00801459625 171 160 154
433.97261324853 796.52518237147 2614.08268362846 120 120 118
428.21468418015 797.324552869197 2618.26533638301 126 128 127
426.17182478001 797.236508799485 2625.97491395428 137 139 138
426.382050403059 796.612848768387 2635.77771223313 154 156 155
425.124128502342 796.341213697594 2644.15187925146 170 171 173
422.386796682362 796.423115252843 2651.10905099496 162 163 165
417.406770280771 797.038425318912 2655.96334827101 150 151 153
413.180426962199 797.474556250313 2661.51261901971 162 163 165
408.202886339473 798.088550474409 2666.36464236147 165 166 170
403.983095750804 798.523016728606 2671.90799003307 163 164 168
398.248612522308 799.315316725732 2676.06806789693 204 205 209
393.271944719124 799.927903602873 2680.91943252124 215 216 220
387.532439463805 800.71993913597 2685.08487426164 198 199 203
381.789387795665 801.512008968968 2689.25383257288 172 170 173
374.508586109876 802.664806255827 2692.0623275462 165 163 166
367.985410973157 803.637927271461 2695.56195354865 166 166 168
366.080435408442 803.526603870761 2703.138051108 176 176 178
364.191511926549 803.412772061443 2710.6989172955 206 205 210
358.44410175174 804.20339945127 2714.87207901878 201 200 205
351.139828724529 805.357032795906 2717.70375781212 179 180 184
344.603052788977 806.329909399157 2721.21726357491 189 190 194
342.742513176352 806.211215075844 2728.75032499609 209 210 214
337.767628964569 806.819154440963 2733.60060538803 215 216 220
333.577568420214 807.244342718904 2739.11546412497 215 219 222
327.81897352612 808.034067298172 2743.30020371684 239 240 244
323.633532016582 808.45802461629 2748.81065761926 244 245 249
317.081575046172 809.430751121275 2752.33926055853 214 213 218
310.522078039903 810.403969454885 2755.87494033082 226 225 230
303.161074229749 811.561511330669 2758.76237595107 243 241 246
297.381171522528 812.352329940034 2762.96811281918 247 245 250
293.193852000828 812.774990821937 2768.48062322815 249 247 252
286.610936900301 813.74990999516 2772.03964397286 243 242 247
280.822349425105 814.541010931863 2776.25362537411 240 241 245
274.226684024884 815.517006763518 2779.82514822526 245 246 250
270.846707465859 815.753370017342 2785.98039916335 244 248 251
265.859484688188 816.359149818675 2790.8432511162 247 252 255
259.253409047279 817.335750400663 2794.42502210841 249 252 255
251.016473810467 818.684770447384 2796.73672303422 250 253 255
241.951138834304 820.221314373717 2798.42674972396 250 253 255
235.313140646615 821.2013626496 2802.03937286738 251 254 255
228.668064132845 822.181936410087 2805.65928506884 254 255 255
222.834682424884 822.976620462654 2809.91721822244 247 248 252
214.534172180171 824.332344797194 2812.29139702209 247 248 250
205.39529168186 825.877157835134 2814.05323333144 255 255 255
197.887788041239 827.049276399787 2817.08399102076 244 245 247
190.368977530136 828.222525530991 2820.12580950237 255 255 255
182.009990324889 829.585032127302 2822.55705437294 253 248 252
171.973883486023 831.325659025579 2823.76366133916 255 251 255
162.747790651438 832.880477132113 2825.61028420091 255 254 255
154.33768033781 834.249015826763 2828.09140353235 255 254 255
145.912499847046 835.61921848139 2830.5872418399 244 245 250
138.31082878747 836.802323813064 2833.70988532892 253 254 255
132.379347603885 837.608123480004 2838.06392767104 254 255 255
125.601592042493 838.603844422222 2841.8130155393 255 254 255
112.904786592336 840.929042691582 2841.32427037038 250 248 251
98.4807334868294 843.638431783334 2839.66010578543 254 250 251
84.8627370592165 846.162864780171 2838.6397607514 255 253 253
75.4579718076589 847.739558726761 2840.66057472486 255 252 246
66.0343270271886 849.318560731217 2842.70013306167 255 247 238
55.7373239031742 851.090957344005 2844.16111834586 255 252 246
42.8489824428668 853.439888989042 2843.85906348388 255 253 248
33.3585851917824 855.027365171899 2845.96365553093 255 252 250
31.5888845810921 854.892442674074 2853.40891099745 196 191 188
414.91784550368 793.55165476205 2606.52086951577 125 127 126
414.327168517092 793.129002289472 2615.67201993643 113 115 114
416.74272558589 792.002662254893 2627.609915327 117 119 118
416.954457136326 791.396928845359 2637.40823080886 144 145 147
415.694397737594 791.138477413153 2645.7825718583 137 138 140
412.951109978292 791.2285009125 2652.74445751779 154 155 157
409.46633081403 791.492687431016 2659.00000456777 161 162 164
403.723233835477 792.284186325757 2663.16875441536 151 152 156
399.491451512067 792.722699988198 2668.72341185165 162 163 167
395.263651840097 793.160193892614 2674.27392733399 175 176 180
391.040054506659 793.596745243701 2679.82040914102 204 205 209
386.820827129418 794.032319872678 2685.36303371803 216 215 220
379.545282542445 795.176788471256 2688.167539291 178 176 179
372.258443329803 796.322209186253 2690.98311987183 162 160 163
366.498280545215 797.112721111295 2695.16930003277 164 164 166
363.047169903885 797.368843241713 2701.39226781282 160 160 162
360.377138149222 797.445091058046 2708.28344521671 182 181 186
355.394693141367 798.055516771135 2713.14086610978 195 194 199
351.189290879989 798.486531058825 2718.67009831682 178 179 183
344.652288664152 799.453952087439 2722.18463511082 179 180 184
342.010873249168 799.525177107625 2729.04813843347 197 198 202
335.46862961634 800.4925053433 2732.56755590479 213 214 218
332.841527147331 800.561277332131 2739.41720881746 201 202 206
326.294251693821 801.528532282837 2742.94163379258 212 216 217
322.8931790221 801.775090008749 2749.11666458591 230 231 235
317.129321437247 802.562116810699 2753.30702883781 211 210 215
310.56964012934 803.529933246422 2756.8436900225 204 203 208
304.002584787717 804.498384452132 2760.38757991295 218 216 221
299.020515458604 805.104870862398 2765.24520997871 231 229 234
294.038831476418 805.711013849429 2770.10250814707 236 234 239
288.257620173779 806.49863620493 2774.31001687471 235 236 240
280.06715701652 807.83211378216 2776.57820535073 229 233 236
271.861580087956 809.167378752757 2778.86113784912 226 231 234
267.669889633765 809.592005911987 2784.37769804374 227 231 234
263.482431251941 810.015922644771 2789.89016072864 235 235 235
259.299478853033 810.439081382422 2795.39859877924 237 237 237
252.685784090498 811.410876568668 2798.98830806526 239 239 241
245.251261990269 812.566718391349 2801.94899970146 241 242 244
238.620946789993 813.540196066075 2805.55496465678 244 244 246
232.800874013124 814.33047671248 2809.80067050857 249 250 254
227.796592445208 814.937109731193 2814.68033598715 251 252 255
218.686406792791 816.464801466602 2816.41620841138 249 253 255
210.380216828494 817.810286656227 2818.79720275569 246 250 253
201.23404255907 819.342279453339 2820.56817671358 243 247 250
194.550038963185 820.321346026875 2824.2266290026 244 248 251
186.200739000138 821.671722159484 2826.6500471757 241 242 246
178.66731581886 822.838380907763 2829.70735031053 252 253 255
171.955612000086 823.820690621318 2833.39316783768 249 250 255
163.566649214163 825.175726107918 2835.85494528775 252 251 255
154.326096555538 826.718555361723 2837.71803675771 254 253 255
144.227707288924 828.450168865271 2838.98782327119 255 254 255
136.62842934384 829.624657902305 2842.10936384673 255 254 255
130.703098094354 830.426674862182 2846.45785829583 255 254 255
122.240710040222 831.790481981997 2848.99158952109 255 255 255
109.530947214455 834.092900640275 2848.51907803426 255 255 255
95.9382825443575 836.587132444044 2847.47804191369 255 255 253
85.7085620964582 838.334830579149 2848.8758649301 255 254 255
74.6037204434482 840.273360986542 2849.69758199562 252 250 251
62.6178054806599 842.403722936808 2849.94861810444 255 254 255
50.6014474000294 844.53773278141 2850.22968336412 255 254 255
37.6963220202322 846.864367212021 2849.94759070086 255 254 255
25.6167409312948 849.006347321393 2850.29025934074 240 235 239
15.2302172186776 850.773812999516 2851.84086868276 246 242 243
404.121116580349 788.011721130655 2616.64373355323 177 179 178
405.79463410211 787.083554560815 2627.87228591411 110 112 111
408.252834393056 785.977608047683 2639.76482180114 122 124 123
405.489723640067 786.078209279587 2646.74482860215 125 127 126
403.491908910959 786.003356637834 2654.40772646191 127 128 130
397.733156052194 786.794103601109 2658.59247180712 141 142 144
395.000012097038 786.889452821331 2665.54349737992 151 152 154
391.519608007508 787.157038703534 2671.79419749155 155 156 160
388.047108238387 787.423169407853 2678.03692572883 180 181 185
385.345937862568 787.513249505004 2684.95697983879 208 207 212
378.831260423883 788.475451456757 2688.44978133434 196 191 195
373.076349328078 789.262883601096 2692.63120168093 175 173 176
365.779873029318 790.400968744085 2695.45743622508 164 162 165
361.555833136035 790.838034599574 2701.00461929904 158 156 159
357.335838054401 791.274249767236 2706.54757370453 159 157 160
351.570641717698 792.061386371302 2710.7392511281 175 175 177
345.801751532069 792.848706837495 2714.93423158152 177 178 182
341.586931680889 793.282959233036 2720.47267484552 175 176 180
337.376177361426 793.716417297482 2726.00686053623 182 183 187
333.169677449923 794.149044182072 2731.53694438496 204 205 209
329.752032474513 794.403646961662 2737.72724266542 204 205 209
324.769673859713 795.011585092821 2742.58494543242 194 198 199
319.787699514824 795.619297874173 2747.44229992033 206 207 209
314.806133929469 796.226428405452 2752.29933456028 214 214 216
309.824930816941 796.833395303619 2757.15603344426 199 199 201
304.049884003299 797.618248625141 2761.35749216321 222 220 225
297.47550333524 798.581713384085 2764.90973104775 226 224 229
292.489759503334 799.188309210855 2769.77099377738 232 230 235
285.904417245519 800.152579202005 2773.33366082763 229 230 234
278.5098365488 801.296781267564 2776.25641041072 221 225 228
271.10409779164 802.442095139803 2779.19007578823 216 221 224
267.716180666368 802.689706966071 2785.35188713389 216 220 221
261.913236660792 803.476118162721 2789.58115576556 223 222 220
257.726034715684 803.902184414162 2795.0930461071 226 225 223
250.296835644033 805.049453361762 2798.04971896442 229 227 228
244.483545173499 805.836461268801 2802.28917359521 233 233 233
237.035771490536 806.985482153031 2805.26403238068 237 235 236
231.211748669612 807.773489230408 2809.51399671711 245 245 247
226.203494978823 808.380269185365 2814.39758485531 239 240 242
221.19568879517 808.986874787284 2819.28075438161 249 250 252
216.188265804412 809.593373112824 2824.1635592471 250 251 253
208.705849256893 810.74581777936 2827.17231287566 245 246 248
199.557996470173 812.264236512761 2828.94662202473 251 255 255
189.562172117066 813.967470246734 2830.11875458046 254 255 255
181.205596667215 815.307677430679 2832.55090038568 238 238 240
176.165356895501 815.917605206978 2837.46578592846 240 239 244
167.786292025105 817.260411664419 2839.91987988925 249 247 252
159.392198417711 818.604994795302 2842.38863501649 252 247 254
148.46686105854 820.502615498042 2843.03814810116 255 253 255
141.717842039957 821.483627603056 2846.76087411732 255 251 255
134.961445756612 822.465628698339 2850.49077969412 255 250 254
128.197948273084 823.44833506835 2854.22797047037 248 247 245
117.194764697097 825.355474679512 2854.9533791086 249 248 244
108.70973311736 826.711122242879 2857.51046382641 253 254 249
97.6589749998462 828.624023505624 2858.28226311807 254 255 255
85.7292503105276 830.725647181864 2858.48208680104 254 255 255
69.4979808389316 833.759089588217 2855.73046336737 252 253 255
58.35334646045 835.68364853881 2856.59376017275 243 242 247
45.4658760560713 837.98364418508 2856.2980730586 245 244 249
28.2441632653851 841.219508607258 2853.08314727898 255 254 255
12.6922875362818 844.0890930822 2851.09800326416 248 246 249
393.316381799338 782.464587060038 2626.77594958948 124 124 122
398.028726436053 780.873617269761 2640.75283884248 130 130 128
393.750824837733 781.323913888993 2646.35121404267 129 129 129
388.721819353869 781.944160201272 2651.25341869642 132 132 132
385.964995588805 782.050396460538 2658.2263495709 136 136 138
385.497815309601 781.640657208902 2667.25295736709 145 144 149
383.531849110131 781.570752815561 2674.88349781716 149 148 154
380.818648624657 781.670251321933 2681.81410596707 151 150 156
376.587441475755 782.112053697598 2687.3677061762 201 200 206
370.826210839977 782.897700929909 2691.55532788663 207 206 212
365.830503570189 783.510624125414 2696.42554927503 173 172 178
359.293512033552 784.468726733161 2699.94145272296 164 165 169
355.06737132588 784.908252314174 2705.49002054831 150 151 155
348.521216164775 785.866756585556 2709.0146264031 148 149 151
345.074599750148 786.131557215136 2715.2321865132 151 152 154
338.521458594791 787.090057649698 2718.76373013063 155 156 158
335.08335153459 787.353136882853 2724.97309474764 156 157 159
330.08829670269 787.963206293351 2729.84309004375 171 172 174
327.446997994148 788.049571589241 2736.70423974904 183 184 186
321.67223855375 788.832901424228 2740.90597611475 188 188 190
317.470550338048 789.266454907597 2746.43114492752 183 183 185
311.692736124639 790.049462219342 2750.63596239679 192 192 194
307.495709460909 790.481779382925 2756.15668494707 200 200 202
301.714839935982 791.264523208143 2760.36457532903 181 181 183
295.134261778423 792.223298196159 2763.92332371636 214 214 216
289.344575867583 793.006504809817 2768.13990049993 216 216 218
282.751289927486 793.966351096302 2771.71110956574 225 225 227
276.952723855001 794.750028538343 2775.93643489286 218 218 220
270.346730670874 795.710887086584 2779.52011282799 201 202 204
266.150784706753 796.141122039535 2785.04006997741 207 207 209
258.72833191133 797.279756626727 2787.9913198374 204 203 208
252.914044184927 798.064354594175 2792.23212094603 209 207 212
247.90786791111 798.671521314806 2797.11358901467 212 211 216
244.529200395955 798.922389742734 2803.26573403644 213 212 217
239.527726037232 799.528550930471 2808.1426816512 219 218 223
233.709195508453 800.312989182566 2812.38738168918 227 226 231
227.887391400387 801.097532239304 2816.63565479169 224 223 228
222.062143941337 801.882450416318 2820.88729175001 232 231 236
217.87973351047 802.30932787309 2826.39430415128 239 238 244
210.401111528009 803.453156476353 2829.40056317103 240 239 244
201.257312445367 804.95754727677 2831.17325809639 229 228 233
190.436478042998 806.823831322766 2831.7236297443 235 234 239
182.081620319886 808.152925764973 2834.15537443786 252 251 255
175.377714422489 809.123048349603 2837.83524976614 232 231 236
169.500990833785 809.913407509716 2842.13686126525 235 233 238
161.94765004096 811.065817004778 2845.21638675817 249 247 252
156.060085654949 811.857424881991 2849.52857876942 252 250 255
148.487977066508 813.012095456155 2852.62606893233 250 248 253
140.904646103388 814.167944913657 2855.73452884076 254 252 255
131.62125271506 815.688754417839 2857.643416298 255 255 255
122.318645639506 817.211822244019 2859.57071160969 255 255 255
115.542315000963 818.190721305093 2863.32120861718 252 252 254
105.357407269777 819.900219292993 2864.68017790851 254 254 255
93.4452697288606 821.977984270411 2864.86606359839 246 250 253
77.2317101854254 824.974107607165 2862.10236968645 254 255 255
62.6802011158127 827.610239814176 2860.57526025158 254 255 255
50.6608380045228 829.701227434351 2860.8656682171 254 255 255
31.7310775993094 833.265213614511 2856.46420623833 249 248 253
12.7397975644956 836.836660477356 2852.12273147553 249 247 250
1.46128053678884 838.759050532238 2853.11929629257 206 204 205
379.490068123558 777.581914771361 2634.14245586132 124 124 122
374.423841563724 778.206558547552 2639.0809716505 124 124 124
376.930603030001 777.146146818662 2650.91855555134 126 126 126
377.198852643968 776.586596228323 2660.65392196011 136 135 140
376.733498232633 776.192017660742 2669.67647590004 141 140 146
374.765504340812 776.132570497222 2677.30748430459 144 143 149
372.813351319979 776.070772527254 2684.92310993824 177 177 185
368.576164204874 776.515464688339 2690.48188339119 198 198 206
364.343357136746 776.959237824037 2696.03678106629 188 189 194
357.031259371458 778.082604123203 2698.88070339631 175 176 181
352.798994296326 778.525437437585 2704.43486392754 161 162 166
346.246788543317 779.479161412527 2707.96618463526 150 151 153
341.240605782452 780.091695114163 2712.84686590818 146 147 149
335.456227515288 780.874999209744 2717.05815771534 147 148 150
329.66841074371 781.658147095178 2721.272887096 146 148 147
324.659538913707 782.269840420177 2726.15636286163 157 159 158
322.004372305607 782.365737870254 2733.02987474796 166 168 167
317.78841391786 782.804038776876 2738.56851238544 183 183 185
