ply
format ascii 1.0
comment KinectMotionCapture
element vertex 770
property float x
property float y
property float z
property uchar red
property uchar green
property uchar blue
end_header
87.7483527200442 943.248718547487 2766.1615374605 160 118 102
80.8430294232467 944.334468338127 2770.02399575134 164 122 106
76.4472791239474 944.749485118239 2775.74494864053 162 119 103
71.2146290229274 945.388209873459 2780.84664430374 147 101 85
68.5105781043274 945.354110947271 2787.78791244068 201 155 139
70.0421378479463 944.195493642891 2797.77424433199 181 135 119
70.7581362577656 943.258176066908 2807.12082336304 166 125 107
67.2583353837033 943.443056236566 2813.40300863664 133 95 76
53.5596050612717 946.330831325446 2812.4091317511 38 6 0
39.8223106029585 949.223585974065 2811.45281364582 24 14 5
39.7173845939629 948.508892885651 2820.1647696405 21 12 5
63.613992233976 941.462998945767 2845.6547602668 16 16 8
30.9944356795282 949.333966559905 2831.53865996812 15 16 8
27.4992567895969 949.519620338032 2837.81614120416 14 17 10
35.2198747797448 946.757365801329 2851.81270455619 13 14 8
38.6781802578153 945.123113772919 2862.79020453257 19 16 11
59.4959543236944 938.940371256632 2885.54197389519 19 16 11
25.7476104063681 947.072361592394 2871.09128777241 17 17 9
-7.25822179157776 954.992543070591 2857.3518289523 16 18 7
-8.98253882719624 953.997018689547 2873.38134603068 19 19 9
54.9864541913712 936.595649495617 2924.37504940273 26 26 16
452.007460240253 876.514126162761 2591.43670527462 118 118 118
455.103461089373 874.842267515488 2604.19644666296 132 132 132
453.813217477948 874.417660087073 2612.62565670748 137 137 137
448.841701482844 875.035789223728 2617.47108636668 158 158 158
443.870372109231 875.653246176687 2622.31643005644 151 151 151
440.387143454227 875.851323118779 2628.57987055234 159 160 162
435.420040370261 876.467539654857 2633.42120080707 160 161 163
432.69687009514 876.453010955858 2640.37856227664 158 159 161
429.985522281427 876.436697003615 2647.32444772691 170 171 173
428.037736501679 876.208056382841 2654.96039589653 186 187 189
423.844675774134 876.609196749471 2660.48212597252 194 195 197
419.655542397556 877.009560204886 2665.99973311608 185 186 188
416.228258904057 877.197622891205 2672.20943718421 181 182 184
412.049262778577 877.595882821474 2677.71728878768 186 187 189
407.112960564386 878.205032101882 2682.52907786071 226 227 229
401.413538579153 879.025744670635 2686.65047786803 244 245 249
394.17973477522 880.270918161463 2689.3986500873 218 219 224
386.934551311309 881.517054488634 2692.15798017036 217 218 223
380.447124674291 882.551772892346 2695.61300331709 225 226 230
375.49465182439 883.161014767051 2700.44083638503 237 238 242
369.769386012357 883.983098358366 2704.58769705786 249 249 251
362.490393076459 885.232081654857 2707.38017966558 255 255 255
353.646137249158 886.909464854233 2708.82985550931 250 250 248
343.224709076907 889.016657470515 2708.94766684293 244 244 242
101.882790267355 941.427466736725 2667.37437203389 164 150 139
96.5321413439391 942.080241554863 2672.59116567892 103 84 69
104.23334865394 939.238791257921 2688.03595638177 153 127 112
103.820100311856 938.575894309541 2697.04608772217 163 130 113
109.987431404025 936.159064033048 2711.11746289515 166 129 113
109.636850357782 935.488312807202 2720.06686338516 173 131 115
108.486234856787 935.033968496523 2728.36147790816 176 134 118
102.403045548479 935.894569523148 2732.85806904376 178 136 122
97.970780029506 936.316030698433 2738.61399176509 175 133 121
95.201255079278 936.29690826049 2745.6180630649 170 124 111
94.9372787836182 935.615533973873 2754.48303384107 163 117 104
92.197322898619 935.592860791904 2761.4582674204 158 115 99
87.7989844531806 936.01022182697 2767.18110605512 162 120 104
80.8937787828858 937.090059906273 2771.04432128945 161 120 102
76.4980930546018 937.507309361588 2776.76488007025 179 133 117
74.6289401089326 937.259733592202 2784.32554327992 194 147 131
72.775430244965 937.010539576768 2791.87091185427 208 162 146
71.7825619620585 936.537416092542 2800.01199445342 164 123 105
70.8089526314066 936.062290531067 2808.13391069242 158 125 106
64.7634461641795 936.919084538042 2812.59364488561 61 33 12
51.0592248164938 939.78030826007 2811.60914494975 36 13 0
41.5787555396916 941.53207139786 2813.67925898939 23 14 7
50.8762636869822 938.37820888715 2829.00198306962 20 13 7
55.958094791642 936.333142788019 2841.26217271635 14 15 9
72.2440946583816 931.376235946328 2861.2479984427 13 16 9
49.0567240470248 936.702975008813 2853.72864995891 12 15 8
18.8913499352803 943.83235362102 2841.53652038291 16 15 10
24.9051164048351 941.555752697661 2854.32207665739 16 15 10
56.0838010615665 932.762443361599 2884.17541245737 17 14 9
78.7455088434772 926.197062249106 2907.98683867646 15 15 7
30.2005139374768 938.066251535957 2883.58794173608 16 18 7
-6.33251807412671 946.806463847646 2867.56153131861 18 20 9
21.6527695494984 938.879498471574 2894.78959936574 25 25 15
452.21530515862 868.803139134054 2602.28903362149 144 144 142
450.178552229259 868.599100159728 2610.00969137325 136 136 134
444.456965273559 869.424670884122 2614.15238349062 136 136 134
440.957856537223 869.63027979457 2620.43081776239 151 151 151
436.722579240056 870.04135483697 2625.99266333336 157 158 160
432.491354394365 870.451624159339 2631.55060384517 159 160 162
429.012208141303 870.653478136222 2637.8097700535 156 157 159
427.790336996126 870.231055605199 2646.17042445942 159 160 162
425.836533474345 870.013539091976 2653.8110420396 171 172 174
423.144446998738 870.001945207929 2660.73676523038 174 175 177
418.197495712075 870.613439443178 2665.5587824065 178 179 181
414.765986980989 870.807283013388 2671.77182778589 182 183 185
409.063885619757 871.626092544653 2675.89616972129 181 182 184
402.596606753711 872.654202152671 2679.33216261073 197 198 200
396.885273925804 873.473585768727 2683.46558667952 213 214 216
391.170373965006 874.292947327952 2687.602556224 214 218 221
385.451663771616 875.112448452487 2691.74295091608 203 207 210
378.960343452841 876.141924702575 2695.20295317636 205 209 212
374.003768774574 876.751565740268 2700.03480042439 208 212 215
368.274205141424 877.571373674463 2704.18592739626 239 240 242
363.31623385916 878.180483150364 2709.0192400573 240 241 243
357.581637031391 879.000086997234 2713.17573307185 235 236 238
350.285536773555 880.242440588334 2715.9861833707 254 255 255
342.19737832025 881.697116143492 2718.13486875515 246 246 248
332.528329691575 883.576867512514 2718.95641895651 255 255 255
96.2516781023837 935.540128875763 2663.91725471355 133 114 100
96.5837706429134 934.68582343576 2673.63278879054 156 130 115
102.653083379905 932.318336422497 2687.79386688444 151 122 106
102.236013225501 931.671417037742 2696.80576970604 170 135 115
105.12066785482 930.157070656724 2708.33519145303 165 128 109
107.22289173156 928.854127391748 2719.19342389784 167 126 108
107.713293664736 927.980218350329 2728.75465181141 167 126 108
103.278839307605 928.404196278849 2734.51237610637 169 127 111
96.3665244246128 929.478915767072 2738.38340741953 168 126 112
95.2516708635969 929.03320010602 2746.64157233881 170 124 111
95.8186865546238 928.149868558386 2756.12811430058 169 123 108
90.5813070995713 928.787951178474 2761.23460118956 162 119 103
83.6739645695905 929.862279697898 2765.10075266769 161 120 102
75.0853278461641 931.374033670976 2767.73798420756 166 123 106
71.5149527542685 931.576656166142 2774.08762841479 186 139 123
69.6342270151282 931.340740938239 2781.65806015651 218 171 155
68.6120756467692 930.884046318743 2789.82579311336 202 156 140
67.6092693419883 930.425220828645 2797.97429323585 184 142 126
64.0862960304647 930.62239829565 2804.27767154723 104 75 57
58.8739723602023 931.258206768341 2809.35961378951 23 1 0
49.4090649752135 932.993973501698 2811.41663890212 35 18 2
55.2694306963017 930.768895121469 2824.34724722013 23 14 7
68.8697883551947 926.554143544098 2842.63919934086 18 13 7
81.6989379331106 922.549865075213 2860.24861749332 13 14 8
86.8852797976807 920.523820713446 2872.40221500603 13 16 9
98.1393976544616 916.94457409519 2888.67902478348 13 14 8
43.9450719154451 930.18042674802 2859.76862587409 18 17 12
30.141555930169 933.028103915538 2858.88472915604 19 14 10
18.0315521381749 935.437156131436 2859.21813484908 18 13 9
21.5132681384755 933.852965809728 2870.16498873243 17 14 7
-3.67182759451667 939.60082418061 2861.73335094092 19 19 9
20.7466017740185 932.674426373242 2886.68750340065 21 23 12
442.853338647917 863.77083047703 2603.82724619342 133 133 131
436.37200285978 864.799814613126 2607.27740640141 117 117 115
432.109018892822 865.217448900472 2612.86579565152 140 140 138
430.826182482428 864.817087365578 2621.28406670344 150 151 153
429.56275020564 864.413938856276 2629.68314323545 154 155 157
426.823310979718 864.417264762525 2636.6540211108 156 157 159
423.345948806655 864.623729271549 2642.91073426667 157 158 160
421.379955212573 864.418317968482 2650.56132978208 164 165 167
418.676049839146 864.415984891485 2657.49775841187 171 172 174
416.739579702958 864.20620303035 2665.11968266372 177 178 180
412.546185033731 864.611644289052 2670.64077083677 182 183 185
406.838029029309 865.428445569451 2674.77142194097 182 183 185
399.603272036184 866.658230423557 2677.52281512498 191 192 194
394.647291380195 867.269093889487 2682.35389182575 202 203 205
388.926305965357 868.086333144389 2686.4972179917 216 220 223
384.736116237927 868.489601304459 2692.0154447932 196 200 203
378.242467490687 869.513900026998 2695.47818661169 190 194 197
373.283705871517 870.123521919209 2700.31220835405 191 195 198
368.32515845364 870.732939901465 2705.14604752917 229 230 234
364.917059442276 870.925719306985 2711.3360039939 242 243 245
359.962983326192 871.533807015859 2716.16559971407 242 243 245
353.451386698022 872.558658258002 2719.64608238148 242 243 245
345.37080981077 874.001586741047 2721.78897537089 253 253 255
338.057699510114 875.237121456697 2724.61732472054 248 247 252
328.379193325256 877.10149486071 2725.45053927151 255 255 255
95.4912662833785 928.339866865433 2664.3193033117 159 137 123
95.8211919647458 927.504291835146 2674.03422076548 157 130 113
101.888485178858 925.174019831124 2688.19214175534 165 134 116
103.921980786475 923.903223487367 2699.11353324447 167 130 111
104.351775196601 923.055222285542 2708.73145399899 165 127 108
104.808804833457 922.20374171972 2718.32250617724 163 122 104
103.646281430238 921.776844872976 2726.62488869999 162 121 103
102.503717918474 921.347359758028 2734.90817114237 163 121 105
98.0713891373224 921.773428476982 2740.66347569104 162 120 106
96.130964955703 921.554828011518 2748.29062975433 162 119 103
94.206313561279 921.334357073261 2755.90239766183 163 120 104
86.4659354635711 922.617904732004 2759.1482718001 159 117 101
80.3839738327579 923.472231270329 2763.64423335843 162 121 103
71.7877013037307 924.973743781001 2766.29056104981 165 122 105
69.0484977284562 924.966366622148 2773.26278682893 139 90 73
64.6393816979787 925.389685911523 2778.99544713753 124 71 57
62.7626842684239 925.163759302302 2786.56040239481 118 66 55
60.9019702993909 924.935863654833 2794.11011470449 108 62 49
57.3633509470852 925.139921004392 2800.42767508003 92 63 49
53.8328924374354 925.342936512154 2806.73762344392 55 34 17
52.8616811499347 924.893572860541 2814.8533507916 36 23 7
45.9431345393462 925.96446535067 2818.73147377303 20 15 9
68.9200829148611 919.41546458406 2843.64434973231 16 13 6
79.211030875364 915.436435822175 2868.02157351186 11 16 9
70.6635055974281 916.933984813864 2870.62008026866 15 16 11
-22.6983813402417 937.864589060478 2841.20711339301 16 13 6
21.6708490400142 925.305127515317 2888.27613851523 22 24 13
417.186182010191 863.131906290793 2589.7333812486 205 205 203
422.518681029337 860.941336931888 2604.59997790438 150 150 148
423.441903215927 859.952757894976 2615.16526640103 127 129 128
425.142366047865 858.758134505715 2626.40644387212 135 137 136
420.895334589714 859.174865095644 2631.97946345324 148 150 149
418.9015616273 858.983982993903 2639.65549688244 150 152 151
415.420035199122 859.195644048653 2645.91523931602 149 150 152
414.961221590813 858.594970423942 2654.96175890129 153 154 156
412.25916217586 858.599775737859 2661.89529941596 178 179 181
409.568945403879 858.602911191977 2668.81732681565 182 183 185
406.131191306917 858.807507821465 2675.03498463822 180 181 183
399.6556691503 859.825629456689 2678.48063945507 179 180 182
395.462697357719 860.232432656906 2684.001106411 182 183 185
388.978166652566 861.250851361332 2687.45600078501 222 228 228
386.322204051257 861.247781530514 2694.34493042525 205 209 210
378.29381408658 862.675416674343 2696.43792353594 185 189 192
373.334765476619 863.285074746303 2701.27222491706 185 189 192
366.830011145771 864.304450801774 2704.74706015427 191 195 198
364.192640926528 864.297680822766 2711.61807416457 211 215 218
359.236441106765 864.905800382927 2716.44977404627 235 239 242
354.280499620973 865.513533563027 2721.28127450533 225 229 232
346.982469497278 866.739324328835 2724.09608916786 231 232 236
340.455772585452 867.759828506059 2727.59220913447 243 244 249
333.13704306975 868.987521133212 2730.42729750497 254 255 255
325.806985963499 870.216287970182 2733.27347557261 255 254 252
315.311450675737 872.27431285211 2733.47248117909 255 255 253
95.2403726882443 921.737942168475 2655.62516503956 167 143 131
97.9780350093136 920.294490821439 2667.29007406653 164 138 125
100.754725923914 918.846355175355 2678.91691946052 161 132 116
100.307862378387 918.234563136636 2687.95321575353 167 136 118
101.519850879428 917.198776184324 2698.23907018244 157 120 101
100.304318203186 916.791476171727 2706.5911952934 162 124 103
102.394545530795 915.537338261223 2717.45412707876 159 118 98
100.402774296451 915.33535354578 2725.12981372386 158 117 99
99.2522887996703 914.920017171224 2733.41887163681 157 115 99
97.2940412644046 914.713924198496 2741.06187595178 156 114 100
93.6930971241523 914.929907426903 2747.43956312339 153 111 95
88.4380386105654 915.56933424083 2752.56340690758 152 110 94
81.517216561898 916.633614233386 2756.44476675691 154 113 95
75.423675750387 917.486334132447 2760.95246407343 162 124 105
70.1636634498271 918.12644441876 2766.08112602438 162 121 101
65.7429603776674 918.55339324752 2771.82509383432 146 95 78
61.3261288174929 918.979867048588 2777.56494954251 139 83 70
58.5990571209654 918.978685389921 2784.52421249447 135 78 69
55.8838466334466 918.976126375044 2791.4719006632 141 91 82
53.1804548377819 918.972195363921 2798.40805547664 88 56 45
47.9431396969687 919.61021090735 2803.51448841453 67 44 30
46.1080530487799 919.389829893216 2811.03730391426 29 13 0
47.6982790154117 918.308437045257 2820.95396563793 20 17 10
66.4068638055735 912.922285602581 2842.84863668265 15 14 9
72.3795207261504 910.752516410017 2855.65956350582 12 15 8
53.514112367151 914.827256696442 2851.11870976001 11 16 9
37.1674019040324 918.26244158873 2848.42234357349 15 16 11
33.7020177462413 918.464034855496 2854.66788235061 14 13 9
-25.0532805898107 932.504533710129 2823.08278586583 17 13 10
-8.70988226402725 927.740838959769 2842.98271956913 19 14 10
12.937908514866 921.665304712883 2866.31167189013 18 15 8
39.0546534919469 914.490676436048 2892.45021667728 22 22 12
420.521807960672 853.841232373771 2613.30026984658 144 144 142
422.959823578087 852.47241177147 2625.25170208839 128 128 126
417.210932792978 853.29122297042 2629.42250636689 144 144 142
412.208063909424 853.910592070822 2634.2988866417 154 154 152
410.963989556199 853.530110869841 2642.67572809317 149 149 149
411.246724177891 852.746716582422 2652.42979467582 146 146 146
410.045622322038 852.360123427334 2660.76452930431 160 160 162
405.834132270678 852.772976184382 2666.3024910431 165 165 167
404.664720335138 852.381667347478 2674.60679192996 168 167 172
398.946595839399 853.193710494299 2678.74804514345 171 170 175
393.988088105273 853.804597694449 2683.58162776226 173 174 178
387.499284350357 854.818025052914 2687.04116521461 211 215 218
384.071965638126 855.025080141241 2693.24809718674 223 224 228
377.575941506102 856.038592179397 2696.71479206467 180 181 185
373.38574543249 856.446047926184 2702.23240624453 183 184 188
367.65372766133 857.25760172572 2706.38752801122 183 184 186
364.243110933325 857.461018074063 2712.57841247029 200 201 203
358.509613974813 858.27206376066 2716.73474034876 221 222 224
352.772695703988 859.083114938341 2720.89480267134 230 231 233
345.470638065993 860.301157800614 2723.71476185187 219 220 222
340.50539232403 860.909297335299 2728.55544151582 235 236 240
335.540489950347 861.517039769998 2733.39583890119 248 249 251
330.575887350774 862.124508538101 2738.23597905425 252 252 252
322.457531942753 863.549142792811 2740.41909055221 253 253 253
311.162146661372 865.793759040365 2739.96787158624 254 254 254
303.798097140242 867.017494086764 2742.8485483208 255 253 254
294.833937354098 868.65268842392 2744.42318822158 254 252 253
109.058906612754 910.785262021811 2667.61110553066 131 112 105
101.276118307243 912.058070709399 2670.90034300547 137 117 108
100.805470903908 911.465080649363 2679.95747809663 145 121 109
97.0958684691246 911.699761294646 2686.44063893292 145 119 106
97.4821978024765 910.893813266707 2696.09516786848 145 113 98
95.4373554166326 910.708897526637 2703.82103216444 147 114 97
97.5157378224654 909.479958324977 2714.69200177406 153 116 98
93.8655749077717 909.707086705471 2721.11725450966 150 112 93
95.1752911571599 908.679985557786 2731.30444223967 142 101 83
96.5162558993673 907.649121947544 2741.46115584469 144 101 84
93.7426695909425 907.660880453971 2748.46469594313 142 104 85
85.994198552461 908.928714247679 2751.72059115162 146 109 90
78.2346079042173 910.197818869319 2754.98767831116 154 117 98
72.9685204971751 910.838164299896 2760.12233817844 160 122 99
68.539637196082 911.268280292154 2765.87362312925 166 126 101
62.4372369278059 912.118919711971 2770.39076335323 156 110 87
58.8535079019912 912.33786298957 2776.75091816773 162 115 95
57.8061296603449 911.923150106115 2784.93749690043 154 108 92
54.2442092421003 912.139638906337 2791.27635821591 148 106 90
50.6904491280031 912.355144901477 2797.6075993289 124 90 78
45.4474840522496 912.99334198954 2802.71961590349 89 59 48
45.3076709601965 912.360060259662 2811.45418272412 49 25 13
47.748259710453 911.087772015208 2821.97154520694 27 19 8
50.2240480594098 909.811269139434 2832.45491473056 22 15 5
20.9521565841939 915.760484064471 2829.46867443197 13 14 8
6.25275142218529 918.743232498876 2828.03753611812 11 13 8
7.02819046851388 917.891356356721 2837.31246151182 13 15 10
19.0629013756425 914.26027206314 2854.23870175448 11 12 6
-22.5130151900217 923.875394108279 2834.5888452219 25 26 18
419.28573955821 846.563101763285 2622.68863084098 187 188 183
409.040035359168 848.560500866545 2622.64851094679 126 127 122
406.264722159607 848.591641943645 2629.65090113817 134 135 130
405.756159974422 848.029331997038 2638.74081381884 139 139 137
407.532147421525 846.871360121133 2649.90157715294 143 143 143
405.565447016366 846.696878619082 2657.54830313111 142 142 144
402.09962925282 846.915745446076 2663.7917194605 146 146 148
401.679491963043 846.340859846643 2672.79602143085 158 158 160
396.714658186705 846.95272145141 2677.63574188651 161 160 165
392.513328517321 847.36559064505 2683.16361178648 163 162 167
384.489993870564 848.771818420899 2685.25508673338 164 165 169
380.287267597183 849.184156052746 2690.78442204636 197 198 202
373.012242559827 850.392717237051 2693.5789388427 209 210 212
370.352337892256 850.405122448247 2700.46949580857 178 179 181
363.839415214366 851.414442114274 2703.95392866511 179 180 182
361.968560603692 851.224221659659 2711.50780456281 174 175 177
356.229030799076 852.033197378695 2715.67042908695 188 189 191
352.822582342751 852.240569880973 2721.8565896728 231 232 234
346.301042980679 853.249691540682 2725.34927044737 216 217 219
340.554866483615 854.058430704126 2729.51886804017 218 219 221
335.589753139684 854.666022828497 2734.35949713792 240 241 243
330.624961366948 855.273279569576 2739.19985648022 249 249 251
323.294908386848 856.485298739659 2742.04850574838 251 251 251
316.744193087168 857.496493293665 2745.57019012942 253 253 253
309.393503413777 858.710524358576 2748.4390345819 255 253 254
300.442839667913 860.330395506493 2750.00253747586 255 253 254
290.676935439026 862.155014663054 2750.92841523694 255 255 253
281.686478570948 863.779299640139 2752.53111876947 239 238 236
275.077190546415 864.796417034042 2756.10975349701 223 219 216
257.623041578077 867.240099967061 2768.82974037686 189 184 180
228.369366349761 873.972821324833 2754.37365894149 94 81 75
115.938603433428 900.979271586842 2683.4841149667 125 106 99
104.110744247826 903.264491696679 2683.55531138392 127 107 98
93.0680241801616 905.348391702364 2684.29385523373 129 107 96
91.8094580553546 904.9725089543 2692.68440757928 137 109 97
89.7509371998919 904.799637147302 2700.42207470973 140 111 97
95.1012521574288 902.773189756915 2713.82981340234 137 101 85
92.2685177187215 902.800129741258 2720.88984465271 139 102 84
89.4477529359396 902.825442822629 2727.93823031336 142 104 85
89.1206490121981 902.230042534023 2736.85318083805 140 99 81
87.158642096786 902.045003611338 2744.49680649367 154 118 96
80.2258095806185 903.099370799733 2748.39122018091 150 114 92
74.1187189876418 903.947417192875 2752.91340121486 149 113 91
68.8429834176407 904.588625114737 2758.05751437475 167 127 102
66.9151586786887 904.399453892056 2765.66780737598 172 130 105
61.6477117997274 905.039852768017 2770.80380931977 165 119 93
59.743738645778 904.847733642887 2778.3908530432 164 120 95
59.5409489573546 904.237310226738 2787.18457810621 155 113 91
55.1385266210258 904.666789922048 2792.91001881425 151 113 92
52.4330850693842 904.678344310377 2799.84558248841 134 98 82
45.4971420419454 905.733562340844 2803.74329704723 105 69 55
45.357356852473 905.115844863594 2812.47553577045 65 37 23
38.4217112035272 906.171333286818 2816.3725772221 34 25 10
33.1872070414612 906.808463742273 2821.47634963216 28 18 6
18.5342517633793 909.755105422766 2820.00442245937 22 18 9
2.98059843476128 912.917340402888 2817.97779001028 17 17 9
-16.0596948910232 916.926971792645 2813.62022268825 17 18 12
-18.7826688853359 916.942138637878 2820.5730002596 22 24 19
-5.07799422554633 912.949227018539 2838.72857620743 16 19 12
19.1027068880798 906.412921258366 2863.86114090435 12 13 5
395.63495866209 845.12859687543 2610.96078941064 172 173 168
398.822141033849 843.618008972093 2623.60648829556 124 125 120
401.300509861803 842.29599377372 2635.51093138452 146 146 144
401.557087220251 841.552988416812 2645.28500304995 142 142 142
400.329947368134 841.196036830316 2653.64121278275 141 141 143
398.365045814503 841.031530161429 2661.28467819877 143 143 145
397.175441452895 840.669184934939 2669.60474965424 146 146 148
392.959959072147 841.086727775222 2675.14598264288 154 153 158
387.222150915354 841.895237539978 2679.30730425511 156 155 160
379.9501996646 843.09621702781 2682.09988930734 156 157 161
375.735579474105 843.512353861129 2687.64047393553 176 177 181
369.986982730298 844.321044322172 2691.81248206731 218 219 221
367.319003663937 844.342192355902 2698.70976484519 192 193 195
362.34394587076 844.952866169732 2703.55981345569 179 180 182
359.694011169164 844.971031798652 2710.43961871073 177 178 180
354.725421907011 845.580241494275 2715.28346037034 178 179 181
350.535872720388 845.99127175792 2720.79990386983 218 219 221
344.789210250321 846.797418588791 2724.97036718663 226 227 229
339.038957234754 847.603782189668 2729.14436392967 203 204 206
334.069742600965 848.211714440313 2733.98901539836 203 204 206
329.887348681927 848.620486385777 2739.49868738981 232 232 234
324.132299844058 849.426511075034 2743.67749654628 239 239 241
318.373514101602 850.232784023095 2747.85964196972 245 245 247
309.441952439867 851.837024994747 2749.40682418697 248 248 250
301.285646826938 853.243563571115 2751.63029533277 251 251 253
291.521570115264 855.051735912811 2752.5567891743 252 250 251
287.321908589763 855.460974618473 2758.08353916727 255 254 255
281.526357059166 856.270336250915 2762.30207489762 254 253 251
278.133222949391 856.477930308612 2768.47464355273 255 253 254
269.924420498186 857.889789631403 2770.74945843099 252 251 249
264.118310455368 858.699715737334 2774.97839549112 253 249 248
251.037787015415 861.322506908178 2773.40979453987 255 252 250
231.440397832406 865.562693173182 2766.73719925215 255 243 240
182.551309944764 877.077891559755 2737.06433631677 228 215 209
115.139913830122 892.49567115479 2702.53536116908 109 90 83
104.940329086284 894.354618386024 2703.88681641804 105 85 76
96.356893474602 895.810639792392 2706.52712042608 115 93 82
91.0438714373765 896.456430328253 2711.70758229077 125 97 86
87.3778466401283 896.695478151836 2718.14648657975 126 96 85
84.5454057452604 896.729811202451 2725.20513364479 126 94 79
83.3793654892672 896.355296209099 2733.50360428127 130 98 83
81.4037433414598 896.182352216255 2741.15896243859 141 105 83
76.9507129643601 896.619876024285 2746.9331309209 150 113 87
72.5018045971879 897.057116062773 2752.70324812744 157 115 90
68.892240668283 897.288974090039 2759.08748643026 181 135 109
66.9643642076352 897.110128932334 2766.696304604 183 138 109
65.0522605341832 896.929413301836 2774.28973662196 183 134 104
63.156140321253 896.74672863309 2781.86792569233 182 133 103
62.1182225753398 896.356664487735 2790.04112909818 174 127 99
57.7214370081798 896.787687432043 2795.76040647759 170 124 98
55.0220024141272 896.806196426281 2802.68931510835 157 115 93
51.4860074199781 897.029546515103 2809.00175584099 138 95 76
46.2570800057129 897.665207338142 2814.10020766907 107 70 51
37.6189030194811 899.128188733403 2816.79384198794 51 34 18
28.1110047038236 900.800204723207 2818.90298006228 40 22 8
27.1465858964284 900.402041207421 2827.00473286108 28 18 8
18.4781329268464 901.869252153234 2829.72780655326 24 17 7
2.05343688374127 905.208183448181 2827.12310744015 19 16 9
-21.3178541143892 910.217268780736 2819.83334370183 17 17 9
-7.61923980728385 906.283500303364 2837.98619633891 16 17 11
390.831692751781 838.064671884837 2626.69358940157 121 121 119
393.321375980459 836.767471454259 2638.5831295115 137 137 135
392.828121794078 836.23417728716 2647.65389044551 142 142 142
393.873379852806 835.312462164526 2658.08845090177 142 142 142
392.671550556762 834.964880140309 2666.41814206101 142 142 144
389.966853569772 835.000445876554 2673.34975534673 148 148 150
384.984232826491 835.61384218521 2678.20691169494 151 151 153
378.471397683771 836.613846779363 2681.69229654933 160 161 163
375.01985191466 836.839405905699 2687.92055145834 160 161 163
369.269070127204 837.645541322542 2692.09510700519 217 218 220
365.827652892346 837.869070029364 2698.31326638308 213 214 216
359.302638044414 838.869004872663 2701.81109401594 177 178 180
355.869603151028 839.090769226235 2708.02119037548 174 175 177
352.444859882806 839.311121437839 2714.22359958462 169 170 172
348.249229922892 839.725336001462 2719.74561074373 196 197 199
342.496491551059 840.529477261449 2723.9224039433 216 217 219
335.957412040486 841.52937018324 2727.43386634806 206 207 209
330.980227055807 842.138130316779 2732.28631013228 193 194 196
326.790027429272 842.550349948503 2737.80356158213 220 221 225
322.603872614385 842.9617188924 2743.31658436351 230 231 235
316.841220488245 843.765576749152 2747.50326395454 236 237 241
307.113212937912 845.553634229754 2748.39691355334 242 243 245
299.745159671686 846.753048135891 2751.28516071988 247 248 250
293.162052852648 847.756250584073 2754.83985374623 244 244 246
290.56246059071 847.772492410552 2761.66995255166 249 249 251
284.774460983285 848.578012530586 2765.88155688451 254 254 254
279.784948459648 849.185732117921 2770.74639588943 255 255 255
272.383850491703 850.38795555076 2773.66704168644 255 255 255
265.777392343598 851.392804490826 2777.24467957697 255 255 253
259.163705443847 852.398374785507 2780.82972695084 255 253 253
249.303366763821 854.200402141644 2781.85271857614 255 252 251
235.361621790271 857.001010264469 2779.69613275338 255 252 250
213.240934410065 861.800780447714 2771.19543782279 255 251 248
186.9614223836 867.608301522871 2759.59068767236 238 223 218
159.76416857938 873.628008422688 2747.44899838402 181 164 157
128.365321938245 880.660693955838 2732.24461282149 113 93 84
107.52135736084 885.103676581494 2725.36334063891 125 102 94
94.8373381551111 887.5495642877 2724.84406069419 131 107 97
86.2453111788746 888.995346757397 2727.49440936461 127 100 89
80.1195916753628 889.839739838322 2732.03529129806 126 100 87
75.6488921494984 890.281895807281 2737.82665871692 149 114 92
72.8444840105436 890.320478768686 2744.85684070598 153 116 90
70.8849459395697 890.1557676982 2752.4950103149 156 114 89
69.7760788355883 889.787326144461 2760.73547167255 180 134 108
70.3607334433411 889.011806761316 2770.18856333843 191 146 117
70.134019346598 888.435593906187 2779.00098938659 185 136 104
66.5679668535 888.667155882332 2785.34206394666 190 139 108
63.0096102622351 888.897996580984 2791.67526512495 184 135 105
58.6150551900024 889.330966113461 2797.39237772704 177 130 102
57.6105623145238 888.949956218047 2805.53105152826 166 120 96
54.080430893146 889.17763842943 2811.83702936064 151 105 82
48.0069778561956 890.016078110947 2816.32722767198 122 84 61
35.9633260532788 892.283921876181 2816.61527756435 68 47 28
25.5975469568099 894.14695546191 2818.13116230087 55 34 17
19.4900355253083 894.989924620531 2822.65451164673 39 23 10
23.6765950875246 893.375652597206 2834.32280083368 32 20 8
14.1446232244062 895.037422416312 2836.45769651807 23 19 10
-9.19893982762643 899.986402127261 2829.149282104 17 14 7
382.825545236019 832.490892743466 2629.79963924738 128 128 126
384.571183395082 831.408040188764 2640.97943727028 133 133 131
385.594449371165 830.510339333029 2651.43194904955 134 134 132
385.889687008823 829.798372248966 2661.16304304306 135 135 133
383.167167488425 829.844027652657 2668.11086311947 141 141 141
380.456567708555 829.887708633046 2675.04713853623 144 144 144
375.462312740879 830.502040901109 2679.91570950686 151 152 154
374.304092094662 830.160683072229 2688.20151454081 153 154 156
370.089130126456 830.58169843583 2693.74171751467 174 175 177
365.107428489425 831.193268780571 2698.59823105346 204 205 207
358.58006395445 832.188028776302 2702.0988189585 191 192 194
354.370137420422 832.607275897803 2707.63462085918 172 173 175
347.833734899997 833.602349711637 2711.1441372352 171 172 174
342.068795463653 834.40555241896 2715.33318498987 168 169 173
335.519517246103 835.401482824259 2718.85536051963 177 178 182
332.876105621767 835.433155540479 2725.72669192092 199 200 204
330.244664191863 835.463142317011 2732.58638592334 199 200 204
326.838766229647 835.684656907942 2738.76990966588 199 202 207
322.652353876073 836.098652947049 2744.28279990346 211 215 218
315.308689351041 837.287444255047 2747.14839870482 216 220 223
308.745971147924 838.283240950459 2750.68394010119 226 230 233
302.176068864346 839.279517493669 2754.22688231635 237 238 242
297.191121549709 839.887251252137 2759.08718590676 238 239 243
293.00463762452 840.29978209332 2764.60036377163 230 231 235
284.822029352904 841.68699250838 2766.85281054013 250 251 255
279.832326579088 842.294618142121 2771.71785235258 249 248 253
272.431134472114 843.488538838146 2774.63981877192 255 254 255
267.436420059179 844.096206580365 2779.50983099249 255 255 255
260.82629335682 845.095856992643 2783.09188015176 255 254 255
255.018708701253 845.899836238988 2787.3231604674 248 246 249
248.395810440625 846.900565989679 2790.91773244709 255 254 255
237.697452977851 848.885740858083 2791.3289106718 251 247 246
222.894556733483 851.858790911937 2788.5850646313 255 251 248
208.04540643032 854.837449187454 2785.88598282024 255 253 251
189.872406410522 858.611256342468 2780.70203514332 255 252 250
160.959877870844 864.962236909101 2767.38052044299 255 249 245
128.642251486871 872.118373097396 2751.65334147652 234 221 215
113.527657958676 875.128830544096 2749.21348665027 148 133 126
101.675464513756 877.35119122597 2749.31813794273 120 105 98
86.4764171208203 880.37158779832 2746.96067805419 143 117 102
77.0485133650118 882.00574488552 2748.99597587733 133 104 86
72.5995640712536 882.447471714268 2754.76547057893 155 124 106
72.3295757710529 881.892105123794 2763.61778748202 176 141 121
71.2463526013645 881.533449817415 2771.83167547273 179 143 121
71.0214946448322 880.972570736511 2780.63999202109 187 147 122
67.4570559215297 881.209072597145 2786.97839612914 187 145 121
63.9009470324838 881.444629249558 2793.30900613198 189 147 123
60.3527068064267 881.679148001057 2799.63161799547 183 137 111
58.5057556852622 881.511434595735 2807.15876868467 174 130 105
54.1289520786092 881.944714971366 2812.85787003454 163 118 95
46.3547860571882 883.182470638989 2816.14372627483 114 83 62
34.3077170930655 885.428913687982 2816.4386703173 91 66 46
23.9383047520323 887.275894030504 2817.96053558171 75 52 34
15.2584508478055 888.721957184741 2820.69805620489 47 29 15
11.7120302432561 888.95719004526 2827.01875561232 36 22 9
15.0541140893177 887.572816249082 2838.07473349376 26 17 8
30.5030429811279 883.347242619948 2857.36644518326 17 13 4
371.781758184575 827.644102098985 2630.14668636146 131 131 129
377.316082128448 825.648514974836 2644.78404959433 131 131 129
378.34883066389 824.77043468757 2655.22424514052 134 134 132
377.129180591727 824.451091469912 2663.56779675261 139 139 137
375.929062204633 824.128945197957 2671.8920295609 139 139 139
372.453289942105 824.36829078515 2678.14230410311 141 142 144
371.286924095811 824.041109836467 2686.43410210445 153 154 156
367.063914397424 824.465616435043 2691.98178059034 150 151 153
363.61604499364 824.700454991393 2698.20467547654 184 185 187
357.857626837121 825.501066522981 2702.38763047858 205 206 208
352.095662267779 826.301712354469 2706.57410205147 180 181 183
343.999701570587 827.671277019781 2708.74311453179 172 173 175
337.445984643439 828.662636707049 2712.27037331592 160 161 165
331.665662356619 829.464535381641 2716.47488920398 165 166 170
330.577385227758 829.124810581239 2724.69066008835 186 187 191
327.939857076023 829.163289602041 2731.55514314553 192 193 197
325.314321454314 829.199961929749 2738.40798447157 192 195 200
321.91235307286 829.425993484837 2744.58693847699 204 208 211
315.356889993075 830.41556836229 2748.11619501061 209 213 216
310.378741653557 831.022857783699 2752.96981279104 219 223 226
303.812378308795 832.013217124486 2756.50977750559 232 233 237
298.831089084942 832.620312816006 2761.36654286378 240 241 245
293.05213193685 833.419208889499 2765.57014693203 218 219 223
284.869410164883 834.795583349009 2767.82430795756 239 240 244
279.879581993635 835.402988915783 2772.68950681732 241 240 245
273.282151533333 836.395849508285 2776.25995195294 249 248 253
267.483411804587 837.196237020351 2780.48297998225 242 241 246
260.873187450422 838.190297704675 2784.06595227056 237 236 241
254.255820994444 839.184891913548 2787.65627575885 255 254 255
249.254332096013 839.792647092561 2792.53300222054 249 249 251
240.998752076965 841.176437426991 2794.85841649939 255 254 255
232.727892284471 842.561872213427 2797.19842292786 255 254 255
226.894639396664 843.365431281055 2801.45525427979 255 252 252
218.599545606365 844.753554297108 2803.81926594915 255 252 249
203.718360417716 847.70346441143 2801.15624421861 255 250 248
181.381518563284 852.415835864117 2792.88344921248 255 250 248
165.565573733222 855.574298230222 2789.70092437469 255 251 249
152.181179564325 858.151661401154 2788.44078578786 255 252 246
127.150833516723 863.47669427124 2778.50072553579 197 179 169
100.366263641429 869.205227284115 2767.40951753847 144 122 109
85.1427916920251 872.196224174417 2765.08031901374 165 139 126
78.222327484446 873.226211205142 2768.96605416437 173 145 131
77.1525052210826 872.878957581068 2777.16494969334 179 152 135
76.1021997054376 872.529374536398 2785.34447124866 172 141 121
74.2311353843421 872.374666714746 2792.89364448226 179 146 127
69.8476371982011 872.810913926247 2798.59895515148 184 151 132
65.468432706127 873.246678818213 2804.30007340564 184 151 132
61.0935619743218 873.681943301754 2809.99729997393 185 154 134
53.3289128447532 874.909948734102 2813.27514688044 180 149 129
44.7023951850132 876.338096968122 2815.96201379978 161 130 110
32.6516564077117 878.563184189579 2816.26375840296 140 112 91
23.987210995466 879.99610078154 2818.98792122198 120 93 74
14.4512461975506 881.630317850027 2821.13051639217 69 47 33
6.61244338148981 882.868084314596 2824.48055632926 47 29 15
373.086302958183 819.134246566198 2651.36399818163 130 131 126
372.613893095608 818.644851044974 2660.40757219328 132 133 128
372.165061687579 818.152188240776 2669.428215354 133 134 129
366.383791778555 818.954383284684 2673.63362844166 136 138 137
365.201331398284 818.642512331608 2681.9388079005 141 143 142
360.962493330496 819.071491038361 2687.50154321555 146 147 149
359.040968048136 818.941012177092 2695.09724389988 155 156 158
354.043509099768 819.553920324209 2699.96920695515 188 189 191
349.046415855273 820.16631061793 2704.84088339957 207 208 210
340.942329086606 821.526121446333 2707.01906895983 196 197 199
335.159479464873 822.325744103283 2711.22643092323 167 168 172
330.15372187555 822.93822420529 2716.10669791653 161 162 166
328.278667882884 822.799836028539 2723.6570830746 162 163 167
324.850564607599 823.034705371951 2729.86068319468 163 164 168
320.643929937167 823.456498980973 2735.39250201442 173 177 180
317.23009547518 823.689097763134 2741.58226857992 180 184 187
313.033903612675 824.109044170849 2747.10399055256 196 200 203
309.634381558157 824.339248958369 2753.27989851724 197 201 204
305.448654839172 824.757227411369 2758.79151931051 204 205 210
298.878625094188 825.742152077512 2762.33592805721 218 219 224
293.099458873102 826.53836194196 2766.54013675856 210 211 216
286.51684644609 827.524329097756 2770.097224057 215 216 221
280.728589928541 828.321049319331 2774.31004628457 226 225 231
272.525288570056 829.688519241554 2776.58595923045 233 232 238
267.530237250933 830.295875643192 2781.45635201984 234 233 239
260.919937042046 831.284284882867 2785.04023491406 233 234 239
255.112108078663 832.082457014272 2789.27261612003 236 237 242
248.489034695983 833.072122702502 2792.8689972621 239 240 245
244.299563759699 833.488260351443 2798.38494603052 246 247 251
238.483046797295 834.287069030469 2802.6255226245 254 254 255
234.29829957319 834.702139429821 2808.13693841592 255 254 255
227.659266922689 835.693168380251 2811.7489658573 255 254 255
219.370375044962 837.069482376128 2814.10856430383 255 254 255
202.833567036839 840.373089211368 2810.2035056513 255 253 253
189.543783097192 842.91187135004 2808.85511996795 255 253 250
178.697082149237 844.876297126916 2809.41667217303 255 252 249
169.48174977449 846.457297148477 2811.24874006349 255 251 247
148.613172654795 850.749486976962 2804.41385776682 255 251 245
121.840785692446 856.406737056265 2793.32074970131 142 127 120
101.64738776662 860.524265211564 2787.25846656288 164 147 140
95.6106908593925 861.348754124315 2791.71422741158 161 141 132
96.2804677414533 860.618052360501 2801.07616737617 213 193 182
97.8182956452596 859.689448841777 2811.02227895468 215 193 182
90.1185169727681 860.901138624207 2814.23811998428 220 198 185
81.5630156377285 862.30935288246 2816.85775071828 228 206 193
72.9923372941599 863.719303537312 2819.49219580745 200 178 165
63.5579444369889 865.32691714336 2821.5378605191 178 156 143
51.5536199771498 867.524452574463 2821.79758716149 173 146 129
36.9614690946261 870.314191832841 2820.28813259253 151 124 107
30.8695625856443 871.14575873079 2824.79767126881 148 121 104
23.0616611744798 872.371256008909 2828.11883903443 105 83 69
22.9653297078927 871.827078726921 2836.79705835971 66 48 34
367.337590354355 812.988227206953 2656.56402443831 130 131 125
365.348280987164 812.878336285133 2664.22365499045 132 133 128
359.549253588254 813.679998407951 2668.44678029357 131 133 132
359.116165017855 813.200388019679 2677.44986144243 135 137 136
357.168521525638 813.084183013399 2685.06905038372 141 143 142
356.778742600384 812.598464099103 2694.03002725219 145 147 146
351.00215999098 813.395717579165 2698.23117830102 165 166 168
346.771990676802 813.825005665711 2703.78559753139 195 196 200
339.438817243481 814.990361094973 2706.64424233624 199 200 204
334.430463953721 815.60340430157 2711.52700367183 177 178 182
329.422518884988 816.215924294809 2716.40943696862 165 166 171
325.19746754296 816.643105996892 2721.9587474577 160 161 166
320.192186258457 817.254582551884 2726.83868979708 156 157 161
316.760274441868 817.494944372693 2733.04526006921 164 165 167
313.336276497962 817.733967749055 2739.2438317283 169 170 174
310.710920819919 817.785831349235 2746.09424910418 190 191 195
307.305356996486 818.021928085631 2752.27528580723 192 193 197
303.113548427195 818.443208912036 2757.79245787841 194 195 199
295.741460514067 819.610049937868 2760.68952576645 204 203 208
288.358151841783 820.777892736896 2763.59758797256 201 200 205
283.363669657672 821.385708109461 2768.46734776677 206 205 211
277.567742009645 822.180433919688 2772.68842015542 215 214 220
272.572095450363 822.787865360806 2777.55939293629 226 225 231
267.576918733809 823.395001695476 2782.42994277299 226 225 231
263.389802668204 823.813980861264 2787.94279530308 224 225 230
255.968200041179 824.985118032265 2790.8883970656 227 228 233
249.347153490465 825.968795192042 2794.48398847745 230 231 236
244.345776269997 826.575946604009 2799.36069327778 237 238 243
240.160283933868 826.993836540498 2804.87209440811 241 242 247
234.344281470186 827.789500941899 2809.1129626621 246 247 251
230.163425119389 828.206629532296 2814.61987271708 248 249 253
221.880288724113 829.571190787607 2816.97549293437 252 252 254
209.465664373356 831.886997804672 2816.20792578533 253 253 255
198.667050965138 833.826668265091 2816.72538517755 253 253 255
190.323162941577 835.198298540186 2819.14028786177 255 255 255
183.622156998936 836.190653637892 2822.81365969439 255 254 255
171.92796891694 838.328688236742 2822.77421052595 255 254 255
155.205315436516 841.616758490335 2819.05565763271 255 254 255
136.759401975237 845.293869981888 2814.15734645641 253 251 255
125.782932889022 847.254618731429 2814.84796596215 255 254 255
122.328574732506 847.492856888619 2821.07713965821 249 247 248
119.722963989485 847.538044539326 2827.90893672414 255 252 251
109.545749898316 849.311969050222 2829.25074390524 255 254 251
97.6567159302322 851.473446661284 2829.40131471507 255 251 248
86.5834142668946 853.446094813736 2830.18666951679 255 254 251
76.3317547927378 855.22916847274 2831.6010498236 253 248 245
60.9550949631115 858.174139669658 2829.43077170585 255 242 234
47.236940356131 860.737794137196 2828.5040883083 235 215 204
40.3142332625222 861.757318555014 2832.39393488952 210 190 181
34.2399130220277 862.584027865104 2836.88639024858 172 155 147
30.7364645029176 862.828926393124 2843.16332700049 165 151 142
21.2207310195356 864.433408353944 2845.29022701219 161 150 144
356.242278070876 808.095227043709 2656.96872877419 129 130 124
350.419678961244 808.897089220358 2661.21523156664 128 130 127
353.03103495723 807.714989048334 2672.96693705204 129 131 128
351.067533452733 807.611161709936 2680.60004382003 134 136 135
351.432879309175 806.962521176624 2690.25249752134 134 136 135
347.188283911591 807.396471441785 2695.82021515583 141 142 144
344.497611603128 807.467006723356 2702.73273324492 148 149 153
339.488682716263 808.080299399593 2707.61602928544 165 166 170
335.258711745069 808.511403553385 2713.16964530236 195 196 200
331.033016978919 808.941614810626 2718.71914695417 188 189 194
325.246525985096 809.735386855954 2722.93098957173 163 164 169
317.103024026809 811.076801902094 2725.15137172852 160 161 165
312.876509330784 811.506114054474 2730.70182047013 157 158 160
308.654249581225 811.934535990284 2736.24817556062 160 161 163
307.597676828654 811.629248986444 2744.42771148136 179 180 184
304.184093650128 811.871545946701 2750.61579513219 183 184 188
300.778487581507 812.112555459281 2756.79580983717 185 186 190
294.196672003405 813.087984677324 2760.35366335546 192 191 196
287.60737908816 814.064015757474 2763.91851518312 193 192 197
282.610794458947 814.671860301344 2768.7903584249 195 194 200
275.20875110656 815.833396486989 2771.71795656 203 202 208
268.599334396414 816.811079958843 2775.30254739071 220 219 225
265.206005538523 817.049054475362 2781.47115705703 221 220 226
261.820799611115 817.285769092119 2787.63188674594 217 216 222
256.824310247858 817.892481218499 2792.50380275802 219 218 224
250.204909545581 818.87059776763 2796.09824383188 221 222 227
245.205363793789 819.47716448091 2800.97321637495 229 230 235
241.837254608943 819.711193062174 2807.11736574063 233 234 239
236.024874759638 820.50340640323 2811.35480890821 240 241 245
229.389789777106 821.482720572446 2814.96498553848 242 243 247
221.926012875556 822.649562562156 2817.95310180497 248 249 253
211.157991198119 824.566683330833 2818.44351599089 249 250 254
200.363334677601 826.486925969384 2818.95991755872 251 252 255
192.023098911296 827.847199624431 2821.37253415898 254 255 255
186.984150527709 828.457554289002 2826.28607424036 252 255 255
179.452606667429 829.632349692368 2829.34030858758 245 248 255
168.578195504726 831.561821107245 2829.93454368498 248 251 255
155.172479150456 834.060377360243 2828.70722597148 254 255 255
145.912499847046 835.61921848139 2830.5872418399 248 249 253
137.472182710876 836.991388319509 2833.09782031124 249 250 254
130.697933737691 837.986785138219 2836.84347399089 248 248 250
121.388532847499 839.55163379826 2838.77134047195 248 248 250
113.749488373945 840.739260698216 2841.93076586971 255 254 255
100.173501345641 843.258410780678 2840.86914785159 255 255 255
87.407944821702 845.59208627091 2840.44775842771 255 253 254
72.9069822507089 848.311007154257 2838.85821944229 255 252 246
59.2161141133225 850.844331943863 2837.90892289022 255 247 240
51.4662740023795 852.045762525812 2841.1759919736 255 246 238
42.8489824428668 853.439888989042 2843.85906348388 252 241 235
35.9327880379148 854.45310827811 2847.74337476427 233 222 216
29.8688242372473 855.275799428384 2852.22613990775 172 163 158
341.290694241765 804.049226918508 2653.99303493673 127 129 126
345.412241465826 802.541257969539 2667.12708010628 127 129 126
343.428946958253 802.450540242443 2674.77790402409 130 132 131
343.774480798029 801.822913540146 2684.44692551578 130 132 131
341.055770968274 801.905134132738 2691.38522035212 136 137 139
338.34923137699 801.985571560177 2698.31203135477 141 142 146
334.101353643129 802.421750611691 2703.88301682606 147 148 152
330.636153014107 802.677997881798 2710.11995767658 182 183 187
327.179265268826 802.932830329953 2716.34919066271 193 194 199
322.947832559158 803.3658878239 2721.90396950472 174 175 180
317.151824466615 804.157793271765 2726.12553862429 163 164 168
312.925053847426 804.589555409212 2731.67587939466 158 158 158
309.491031458209 804.840149032911 2737.88303324062 157 157 157
305.274723828508 805.270179362498 2743.4232400682 159 159 161
301.85507762249 805.518370951612 2749.61647317138 164 164 166
296.855127137495 806.127406409829 2754.49148274109 171 171 173
291.855626852173 806.735972331439 2759.36611465316 181 179 184
283.664139810581 808.070240680559 2761.63486514373 181 179 184
279.457792745212 808.497469095347 2767.16593294747 181 179 184
271.246007773626 809.833575657235 2769.45490573753 183 180 187
267.038370694069 810.260507986107 2774.98696046379 207 204 211
262.83505233671 810.686542058464 2780.514859397 218 215 222
260.251517590041 810.746519389349 2787.32254876394 208 205 212
252.821965688792 811.902206390086 2790.27832780169 207 204 211
248.627623836048 812.326519143142 2795.79756734335 208 205 212
