ply
format ascii 1.0
comment KinectMotionCapture
element vertex 790
property float x
property float y
property float z
property uchar red
property uchar green
property uchar blue
end_header
12.041823938489 343.124061822891 2628.99994850159 136 138 133
19.2245598882437 343.384176492691 2631.00004196167 132 134 129
26.3880304992199 343.252331018448 2630.00011444092 133 135 130
33.5459485650063 343.120008707047 2628.99994850159 135 137 132
40.6982861459255 342.987269163132 2628.00002098084 138 140 135
47.8632301092148 342.984586954117 2628.00002098084 133 135 130
55.0489388406277 343.112051486969 2628.99994850159 133 135 130
62.2162222862244 343.108505010605 2628.99994850159 137 139 134
69.3832784891129 343.104600906372 2628.99994850159 139 141 136
76.5209570527077 342.969715595245 2628.00002098084 149 151 146
83.6847350001335 342.964947223663 2628.00002098084 141 143 138
90.8827856183052 343.090265989304 2628.99994850159 147 149 144
98.01135212183 342.954158782959 2628.00002098084 154 156 151
105.214156210423 343.07861328125 2628.99994850159 154 156 151
112.507499754429 343.463659286499 2631.99996948242 156 158 153
119.998678565025 344.370245933533 2638.99993896484 174 175 169
127.431184053421 345.015436410904 2644.00005340576 100 101 95
134.992301464081 345.921099185944 2651.00002288818 84 85 79
142.483770847321 346.565335988998 2655.99989891052 10 11 5
150.171086192131 347.600609064102 2664.00003433228 26 27 21
157.665073871613 348.11344742775 2667.99998283386 27 28 22
164.809376001358 347.843110561371 2665.99988937378 19 21 16
171.425834298134 346.528559923172 2655.99989891052 3 5 0
178.054496645927 345.344215631485 2647.0000743866 7 9 4
184.633493423462 344.159483909607 2638.00001144409 162 164 159
191.380932927132 343.365848064423 2631.99996948242 181 183 178
198.321327567101 342.963188886642 2628.99994850159 169 174 170
205.322876572609 342.690706253052 2627.00009346008 172 177 173
212.231919169426 342.287361621857 2624.00007247925 171 176 172
219.123885035515 341.883718967438 2621.00005149841 170 175 171
226.257726550102 341.870963573456 2621.00005149841 170 175 171
233.657941222191 342.2492146492 2624.00007247925 170 175 171
241.440743207932 343.148708343506 2631.00004196167 172 177 173
249.733239412308 344.699889421463 2642.99988746643 171 176 172
260.520458221436 349.510997533798 2680.0000667572 169 174 170
-232.750833034515 348.290681838989 2726.99999809265 196 198 195
-225.079938769341 347.920387983322 2723.99997711182 189 191 188
-217.264771461487 347.294270992279 2719.00010108948 174 176 173
-209.784761071205 347.178548574448 2717.99993515015 169 171 168
-202.23505795002 346.934795379639 2716.00008010864 166 171 165
-194.695487618446 346.690624952316 2713.99998664856 161 166 160
-187.235146760941 346.573770046234 2713.00005912781 163 168 162
-179.978430271149 346.839725971222 2714.99991416931 151 153 148
-173.028036952019 347.744107246399 2721.99988365173 136 138 133
-166.343078017235 349.286943674088 2733.99996757507 206 208 203
-142.152905464172 344.841957092285 2698.99988174438 12 14 9
-133.849337697029 342.422395944595 2680.0000667572 35 37 32
-125.932142138481 340.768903493881 2667.00005531311 27 30 23
-117.951862514019 338.731616735458 2651.00002288818 26 26 18
-110.601335763931 338.3549451828 2648.00000190735 20 21 13
-101.744100451469 332.994401454926 2605.99994659424 17 18 10
-89.3845185637474 340.03359079361 2661.00001335144 22 23 17
-82.2540149092674 340.549767017365 2664.99996185303 22 25 18
-74.5667666196823 338.637560606003 2650.00009536743 20 23 16
-67.2659650444984 338.258385658264 2647.0000743866 17 20 13
-59.8905235528946 337.367564439774 2640.00010490417 12 17 10
-52.5929480791092 336.731910705566 2634.99999046326 118 123 117
-45.3741326928139 336.479187011719 2632.99989700317 112 117 111
-38.1805747747421 336.353868246078 2631.99996948242 137 139 134
-31.0276560485363 336.61150932312 2634.0000629425 142 144 139
-23.8365512341261 336.485296487808 2632.99989700317 136 138 133
-16.6318360716105 335.975348949432 2628.99994850159 121 123 118
-9.45246871560812 335.592716932297 2625.99992752075 128 130 125
-2.2911736741662 335.465252399445 2625 124 126 121
4.8646773211658 335.337400436401 2624.00007247925 126 128 123
12.0242172852159 335.464686155319 2625 131 133 128
19.1964730620384 335.719347000122 2627.00009346008 130 132 127
26.3594966381788 335.718065500259 2627.00009346008 129 131 126
33.5224196314812 335.716277360916 2627.00009346008 129 131 126
40.6697280704975 335.586279630661 2625.99992752075 130 132 127
47.8296391665936 335.583657026291 2625.99992752075 126 128 123
54.9893788993359 335.58064699173 2625.99992752075 128 130 125
62.1489100158215 335.577219724655 2625.99992752075 134 136 131
69.3082064390183 335.573345422745 2625.99992752075 135 137 132
76.4672458171844 335.569053888321 2625.99992752075 131 133 128
83.6259946227074 335.564374923706 2625.99992752075 140 142 137
90.8881574869156 335.942625999451 2628.99994850159 128 130 125
97.979836165905 335.681557655334 2627.00009346008 146 148 143
105.300396680832 336.186736822128 2631.00004196167 161 163 158
112.556867301464 336.435914039612 2632.99989700317 68 70 65
120.096668601036 337.451368570328 2641.00003242493 15 16 10
127.294033765793 337.444186210632 2641.00003242493 25 26 20
134.490951895714 337.436586618423 2641.00003242493 19 20 14
141.419112682343 336.789757013321 2635.99991798401 12 13 7
149.108737707138 337.931245565414 2644.99998092651 11 12 6
155.901297926903 337.0281457901 2638.00001144409 8 9 3
164.509832859039 339.95732665062 2661.00001335144 9 11 6
171.435743570328 339.308887720108 2655.99989891052 12 14 9
177.728414535522 337.510406970978 2641.99995994568 145 147 142
184.434130787849 336.605846881866 2634.99999046326 149 151 146
191.101044416428 335.700958967209 2628.00002098084 171 176 170
198.030918836594 335.306644439697 2625 172 177 173
205.021932721138 335.039764642715 2622.99990653992 170 176 172
212.082207202911 334.900230169296 2621.99997901917 170 176 172
219.136282801628 334.760367870331 2621.00005149841 165 171 167
226.443156599998 335.003286600113 2622.99990653992 169 175 171
233.760148286819 335.245877504349 2625 172 178 174
241.637840867043 336.254268884659 2632.99989700317 173 179 175
250.125199556351 338.028490543365 2647.0000743866 169 175 171
-233.788058161736 342.378318309784 2739.00008201599 194 196 193
-225.340411067009 340.890914201736 2726.99999809265 181 183 180
-217.436730861664 340.153187513351 2720.99995613098 167 169 166
-209.950938820839 340.040057897568 2720.00002861023 167 169 166
-202.395379543304 339.801549911499 2717.99993515015 158 163 157
-194.778203964233 339.437544345856 2714.99991416931 156 161 155
-187.383785843849 339.448302984238 2714.99991416931 159 164 158
-180.187538266182 339.833676815033 2717.99993515015 135 140 134
-173.292174935341 340.843915939331 2726.0000705719 121 123 118
-166.41341149807 341.978877782822 2734.99989509583 211 213 208
-152.50700712204 344.247668981552 2753.00002098084 214 216 211
-142.793133854866 339.004158973694 2710.99996566772 33 35 30
-134.506344795227 336.761176586151 2693.00007820129 20 22 17
-124.994970858097 331.01612329483 2647.0000743866 18 21 14
-118.225648999214 332.273691892624 2657.00006484985 28 28 20
-110.565975308418 331.029653549194 2647.0000743866 25 25 17
-103.428892791271 331.285893917084 2648.9999294281 22 22 14
-96.353217959404 331.791907548904 2653.00011634827 16 17 9
-82.690916955471 335.053831338882 2678.99990081787 8 11 4
-67.5494223833084 332.436084747314 2657.99999237061 10 13 6
-60.0074529647827 330.813854932785 2644.99998092651 9 14 7
-52.6558980345726 329.941630363464 2638.00001144409 66 71 64
-45.4284884035587 329.694300889969 2635.99991798401 80 85 78
-38.211815059185 329.446583986282 2634.0000629425 132 134 129
-31.0294684022665 329.448610544205 2634.0000629425 151 153 148
-23.8288920372725 329.200029373169 2631.99996948242 141 143 138
-16.6264809668064 328.70090007782 2628.00002098084 117 119 114
-9.44942235946655 328.326404094696 2625 120 122 117
-2.29130778461695 328.326761722565 2625 126 128 123
4.86681563779712 328.326672315598 2625 127 129 124
12.0203411206603 328.201144933701 2624.00007247925 132 134 129
19.1683657467365 328.075140714645 2622.99990653992 134 136 131
26.3208970427513 328.07382941246 2622.99990653992 131 133 128
33.4988497197628 328.322231769562 2625 129 131 126
40.6411290168762 328.195035457611 2624.00007247925 128 130 125
47.8324331343174 328.442603349686 2625.99992752075 126 128 123
54.9925863742828 328.439623117447 2625.99992752075 128 130 125
62.176201492548 328.561305999756 2627.00009346008 136 138 133
69.2858472466469 328.30736041069 2625 135 137 132
76.5008181333542 328.553318977356 2627.00009346008 137 139 134
83.6945548653603 328.673750162125 2628.00002098084 142 144 139
91.0317152738571 329.294055700302 2632.99989700317 144 146 141
98.1347188353539 329.03853058815 2631.00004196167 121 123 118
105.466581881046 329.532891511917 2634.99999046326 82 84 79
112.77711391449 329.901814460754 2638.00001144409 17 19 14
120.285496115685 330.770522356033 2644.99998092651 19 20 14
127.204969525337 330.013126134872 2638.99993896484 17 18 12
133.378267288208 327.504724264145 2618.99995803833 23 24 18
140.08592069149 326.496541500092 2611.00006103516 8 9 3
147.144079208374 326.363325119019 2609.99989509583 17 18 12
155.6146889925 329.230695962906 2632.99989700317 17 19 14
163.22086751461 330.096989870071 2640.00010490417 14 16 11
170.800000429153 330.837726593018 2645.99990844727 7 9 4
177.536681294441 329.95268702507 2638.99993896484 174 176 171
184.374570846558 329.317390918732 2634.0000629425 142 144 139
191.257312893867 328.806787729263 2630.00011444092 142 147 141
198.26839864254 328.545868396759 2628.00002098084 166 171 167
205.189779400826 328.15957069397 2625 162 168 164
212.174966931343 327.897965908051 2622.99990653992 168 174 170
219.148501753807 327.63597369194 2621.00005149841 171 177 173
226.455762982368 327.873706817627 2622.99990653992 168 174 170
233.862146735191 328.236013650894 2625.99992752075 167 173 169
241.834744811058 329.347878694534 2634.99999046326 170 176 172
250.611454248428 331.459224224091 2651.99995040894 166 172 168
-234.142288565636 335.421293973923 2743.00003051758 186 188 185
-225.683316588402 333.966344594955 2730.99994659424 160 165 161
-217.528626322746 332.877814769745 2721.99988365173 170 175 171
-209.962531924248 332.644909620285 2720.00002861023 162 167 163
-202.183172106743 332.044720649719 2714.99991416931 165 171 167
-194.645568728447 331.811040639877 2713.00005912781 165 171 169
-187.187150120735 331.699252128601 2711.99989318848 160 169 164
-180.131286382675 332.320928573608 2717.00000762939 148 154 150
-173.17470908165 333.186894655228 2723.99997711182 122 128 126
-166.544452309608 334.786474704742 2736.99998855591 62 68 64
-160.714611411095 338.220566511154 2765.00010490417 218 223 219
-150.576591491699 332.480013370514 2717.99993515015 0 3 0
-143.485963344574 333.222180604935 2723.99997711182 15 18 11
-134.713739156723 329.927086830139 2697.00002670288 30 33 26
-126.749336719513 328.344076871872 2684.00001525879 23 26 17
-117.742858827114 323.702186346054 2645.99990844727 20 23 12
-111.240610480309 325.788408517838 2663.00010681152 21 22 14
-104.020491242409 325.916796922684 2664.00003433228 22 25 16
-96.6855734586716 325.677752494812 2661.99994087219 22 25 16
-89.9995043873787 327.76290178299 2678.99990081787 17 20 11
-82.3560953140259 326.421976089478 2667.99998283386 10 13 4
-67.400798201561 324.472874403 2651.99995040894 17 20 13
-60.1697042584419 324.476510286331 2651.99995040894 15 18 11
-52.6189915835857 322.522044181824 2635.99991798401 19 22 15
-45.379389077425 322.157800197601 2632.99989700317 23 26 19
-38.1995029747486 322.160184383392 2632.99989700317 15 18 11
-31.0430303215981 322.406858205795 2634.99999046326 3 6 0
-23.8302610814571 322.041362524033 2631.99996948242 0 3 0
-16.6084561496973 321.186006069183 2625 32 35 28
-9.45356488227844 321.309089660645 2625.99992752075 70 73 66
-2.29231221601367 321.309447288513 2625.99992752075 105 108 101
4.87265828996897 321.554094552994 2628.00002098084 108 111 104
12.0256105437875 321.186512708664 2625 100 103 96
19.1840827465057 321.185618638992 2625 98 101 94
26.3324435800314 321.061998605728 2624.00007247925 103 106 99
33.5390642285347 321.549713611603 2628.00002098084 101 104 97
40.6899303197861 321.425259113312 2627.00009346008 109 111 106
47.9262582957745 321.91213965416 2631.00004196167 111 113 108
55.0585649907589 321.664482355118 2628.99994850159 108 110 105
62.2270926833153 321.661174297333 2628.99994850159 56 59 52
69.289818406105 321.168035268784 2625 21 24 17
76.4178261160851 321.041584014893 2624.00007247925 8 9 3
83.6993232369423 321.526408195496 2628.00002098084 11 12 6
91.1752134561539 322.622567415237 2637.00008392334 9 12 5
98.4014049172401 322.739571332932 2638.00001144409 4 6 1
105.632685124874 322.85612821579 2638.99993896484 21 24 17
112.740777432919 322.605341672897 2637.00008392334 13 16 9
120.246849954128 323.455154895782 2644.00005340576 17 18 12
126.92292034626 322.102516889572 2632.99989700317 10 11 5
133.895114064217 321.605861186981 2628.99994850159 9 10 4
140.63036441803 320.61955332756 2621.00005149841 12 13 7
147.603392601013 320.244550704956 2618.00003051758 10 11 5
155.268803238869 321.337014436722 2627.00009346008 12 14 9
163.04449737072 322.551369667053 2637.00008392334 8 13 7
170.422241091728 322.909086942673 2640.00010490417 0 4 0
177.277460694313 322.287887334824 2634.99999046326 168 173 169
184.31481719017 322.033286094666 2632.99989700317 160 165 159
191.195175051689 321.533709764481 2628.99994850159 162 167 163
198.279365897179 321.400731801987 2628.00002098084 143 149 145
205.357432365417 321.267396211624 2627.00009346008 143 149 145
212.510228157043 321.256011724472 2627.00009346008 159 165 161
219.578608870506 321.121901273727 2625.99992752075 179 185 181
226.899832487106 321.354359388351 2628.00002098084 176 182 178
234.231159090996 321.586489677429 2630.00011444092 172 178 174
242.306798696518 322.796374559402 2640.00010490417 168 174 170
252.798616886139 327.062457799912 2674.99995231628 165 171 167
-235.349982976913 329.63702082634 2756.99996948242 196 198 195
-225.447565317154 326.181918382645 2727.9999256134 181 186 182
-217.540413141251 325.476348400116 2721.99988365173 183 188 184
-209.81952548027 325.009495019913 2717.99993515015 181 186 182
-202.268660068512 324.781447649002 2716.00008010864 172 178 174
-194.656163454056 324.433416128159 2713.00005912781 175 181 179
-187.266409397125 324.443757534027 2713.00005912781 172 178 176
-180.141165852547 324.932068586349 2717.00000762939 151 160 157
-173.374950885773 326.137632131577 2726.99999809265 123 129 127
-166.553631424904 327.34289765358 2736.99998855591 126 132 128
-159.967824816704 329.145818948746 2752.00009346008 232 239 232
-149.643078446388 323.054492473602 2700.99997520447 12 17 11
-143.12519133091 324.97626543045 2717.00000762939 23 26 19
-135.520473122597 324.505478143692 2713.00005912781 21 24 17
-126.331359148026 319.96738910675 2674.99995231628 23 26 17
-117.971919476986 317.103356122971 2651.00002288818 17 20 9
-111.789889633656 320.100158452988 2676.00011825562 14 17 8
-104.338698089123 319.627642631531 2671.99993133545 15 18 9
-96.5457111597061 317.958533763886 2657.99999237061 22 25 16
-89.3326252698898 318.0832862854 2658.99991989136 23 26 17
-83.0089822411537 321.676880121231 2688.99989128113 17 20 11
-74.3825510144234 316.178351640701 2642.99988746643 14 17 8
-60.4453720152378 318.698108196259 2664.00003433228 13 16 9
-52.6219494640827 315.351545810699 2635.99991798401 17 20 13
-45.1923534274101 313.679426908493 2621.99997901917 17 20 13
-37.9695147275925 313.083589076996 2617.00010299683 12 15 8
-30.9387464076281 314.162194728851 2625.99992752075 15 18 11
-23.7772762775421 314.163744449615 2625.99992752075 20 23 16
-16.6030656546354 313.925623893738 2624.00007247925 7 10 3
-9.45049896836281 314.045935869217 2625 4 7 0
-2.29156855493784 314.046263694763 2625 5 8 1
4.87478682771325 314.52476978302 2628.99994850159 7 10 3
12.0308715850115 314.165383577347 2625.99992752075 6 9 2
19.2143991589546 314.52339887619 2628.99994850159 7 10 3
26.3439640402794 314.043611288071 2625 8 11 4
33.5409604012966 314.400851726532 2628.00002098084 5 8 1
40.6767278909683 314.159482717514 2625.99992752075 5 7 2
47.9653924703598 314.994424581528 2632.99989700317 0 1 0
55.1663860678673 315.111190080643 2634.0000629425 0 2 0
62.3489581048489 315.107941627502 2634.0000629425 10 13 6
69.3992972373962 314.506113529205 2628.99994850159 15 18 11
76.4221176505089 313.90392780304 2624.00007247925 19 20 14
83.7677121162415 314.617216587067 2630.00011444092 19 20 14
91.3186296820641 315.928250551224 2641.00003242493 15 16 8
98.3696207404137 315.444499254227 2637.00008392334 14 15 7
104.838006198406 313.285678625107 2618.99995803833 21 22 14
111.678160727024 312.44233250618 2611.99998855591 15 16 8
119.071021676064 313.153684139252 2618.00003051758 10 10 2
126.881778240204 314.821481704712 2631.99996948242 12 11 6
134.564682841301 316.010445356369 2641.99995994568 16 17 11
141.443029046059 315.285176038742 2635.99991798401 19 21 16
147.949859499931 313.841998577118 2624.00007247925 16 18 13
155.691131949425 315.029710531235 2634.0000629425 3 8 4
163.795486092567 316.814959049225 2648.9999294281 14 20 16
170.431584119797 315.72949886322 2640.00010490417 3 9 5
176.950767636299 314.524114131927 2630.00011444092 164 170 166
183.974862098694 314.275175333023 2628.00002098084 166 172 168
190.987408161163 314.025849103928 2625.99992752075 167 173 169
198.214694857597 314.134955406189 2627.00009346008 157 163 159
205.290377140045 314.00454044342 2625.99992752075 166 172 170
212.602615356445 314.232468605042 2628.00002098084 163 172 169
219.924956560135 314.460068941116 2630.00011444092 135 144 141
227.257370948792 314.687252044678 2631.99996948242 146 155 152
234.867170453072 315.272778272629 2637.00008392334 147 156 153
243.421167135239 317.053437232971 2651.99995040894 176 182 180
-235.703885555267 322.607070207596 2760.99991798401 203 205 200
-225.211575627327 318.412661552429 2724.99990463257 189 191 188
-217.232257127762 317.606329917908 2717.99993515015 186 188 185
-209.59909260273 317.267000675201 2714.99991416931 177 179 174
-202.056035399437 317.044198513031 2713.00005912781 175 176 171
-194.594815373421 316.937774419785 2711.99989318848 171 172 167
-187.207415699959 316.947937011719 2711.99989318848 168 169 164
-180.084556341171 317.425191402435 2716.00008010864 160 162 157
-172.939255833626 317.902147769928 2720.00002861023 142 144 139
-165.954083204269 318.729341030121 2726.99999809265 106 108 103
-158.348813652992 318.387389183044 2723.99997711182 209 212 205
-152.089074254036 320.850312709808 2744.99988555908 35 38 31
-143.238335847855 317.819207906723 2719.00010108948 13 16 9
-134.578704833984 314.904451370239 2694.00000572205 12 15 6
-119.179971516132 313.047885894775 2677.99997329712 26 29 18
-112.130224704742 313.755542039871 2684.00001525879 23 26 17
-104.539677500725 312.943130731583 2677.00004577637 22 25 16
-96.5510085225105 310.727447271347 2657.99999237061 18 21 12
-89.3375426530838 310.849398374558 2658.99991989136 14 17 8
-82.3035091161728 311.672419309616 2665.99988937378 16 19 10
-74.8651102185249 310.975283384323 2660.00008583069 18 21 12
-66.9253692030907 307.822614908218 2632.99989700317 16 19 12
-59.7906708717346 308.059930801392 2634.99999046326 11 14 7
-52.50508710742 307.478457689285 2630.00011444092 16 19 12
-45.0052507221699 305.259764194489 2611.00006103516 21 24 17
-37.8120094537735 304.677456617355 2605.99994659424 11 14 7
-30.5869877338409 303.510189056396 2595.99995613098 8 11 4
-23.7242635339499 306.317627429962 2619.99988555908 10 13 6
-16.5027417242527 304.915755987167 2608.00004005432 11 14 7
-9.4870263710618 308.073192834854 2634.99999046326 7 10 3
-2.28471169248223 305.969059467316 2617.00010299683 9 12 5
4.86764032393694 306.904286146164 2625 8 11 4
12.0177930220962 306.669980287552 2622.99990653992 16 19 12
19.21546459198 307.370632886887 2628.99994850159 19 22 15
26.3253524899483 306.667894124985 2622.99990653992 13 16 9
33.5172861814499 307.016998529434 2625.99992752075 12 15 8
40.6634882092476 306.898057460785 2625 16 18 13
47.8587411344051 307.129472494125 2627.00009346008 17 19 14
55.3579404950142 308.997213840485 2642.99988746643 19 21 16
62.6364648342133 309.344708919525 2645.99990844727 16 19 12
69.6935132145882 308.639615774155 2640.00010490417 14 17 10
76.6884535551071 307.817310094833 2632.99989700317 17 18 12
83.7086290121078 307.228356599808 2628.00002098084 15 16 10
91.1507532000542 308.158844709396 2635.99991798401 9 10 2
98.0392545461655 307.218462228775 2628.00002098084 14 15 7
105.244062840939 307.329833507538 2628.99994850159 21 22 14
112.069107592106 306.388765573502 2621.00005149841 17 18 10
119.441397488117 306.966960430145 2625.99992752075 11 12 4
127.033337950706 308.012336492538 2634.99999046326 13 14 8
134.877607226372 309.524863958359 2648.00000190735 22 23 17
141.719028353691 308.69922041893 2641.00003242493 33 36 29
148.352593183517 307.522535324097 2631.00004196167 26 29 22
156.290680170059 309.033840894699 2644.00005340576 17 19 14
163.371473550797 308.791488409042 2641.99995994568 0 1 0
170.247092843056 308.198213577271 2637.00008392334 67 69 64
176.892995834351 307.253926992416 2628.99994850159 157 159 154
183.914750814438 307.010620832443 2627.00009346008 168 170 165
190.852165222168 306.650072336197 2624.00007247925 176 178 173
197.923421859741 306.522905826569 2622.99990653992 169 174 168
204.988598823547 306.395441293716 2621.99997901917 166 171 167
212.613895535469 307.085573673248 2628.00002098084 168 174 170
220.103815197945 307.541608810425 2631.99996948242 147 153 149
227.614745497704 307.99725651741 2635.99991798401 143 149 145
235.413908958435 308.803111314774 2642.99988746643 133 139 135
244.810804724693 311.594665050507 2667.00005531311 132 138 136
-224.97533261776 310.658633708954 2721.99988365173 193 194 189
-217.243582010269 310.213476419449 2717.99993515015 189 190 185
-209.455654025078 309.653848409653 2713.00005912781 177 178 173
-201.992109417915 309.550344944 2711.99989318848 183 180 175
-194.461569190025 309.332400560379 2710.00003814697 181 176 172
-187.286347150803 309.684783220291 2713.00005912781 175 172 167
-179.961442947388 309.808492660522 2713.99998664856 162 159 154
-172.757640480995 310.16018986702 2717.00000762939 142 141 136
-165.29344022274 310.054957866669 2716.00008010864 111 112 106
-156.6132158041 307.551860809326 2694.00000572205 226 227 219
-150.490313768387 310.071557760239 2716.00008010864 11 12 4
-141.981557011604 307.681769132614 2694.9999332428 18 21 12
-133.986413478851 306.204855442047 2681.99992179871 14 17 8
-126.817345619202 306.554317474365 2684.99994277954 22 25 16
-117.58416891098 301.651298999786 2641.99995994568 21 24 13
-111.676692962646 305.196911096573 2673.00009727478 23 26 17
-104.389101266861 305.202662944794 2673.00009727478 25 28 19
-96.5562164783478 303.495287895203 2657.99999237061 23 26 17
-89.3423557281494 303.614407777786 2658.99991989136 19 22 13
-82.1227207779884 303.733199834824 2660.00008583069 13 16 7
-74.8410075902939 303.623199462891 2658.99991989136 15 18 9
-67.1577677130699 301.685839891434 2641.99995994568 16 19 12
-59.8392970860004 301.118314266205 2637.00008392334 16 19 12
-52.5877885520458 300.778746604919 2634.0000629425 16 19 12
-45.5075912177563 301.466554403305 2640.00010490417 17 20 13
-38.1623134016991 300.326853990555 2630.00011444092 12 15 8
-30.9067890048027 299.52934384346 2622.99990653992 11 14 7
-23.5353894531727 296.790182590485 2598.99997711182 13 16 9
-16.5352802723646 298.389971256256 2612.99991607666 12 15 8
-9.35432221740484 296.677768230438 2598.00004959106 12 15 8
-2.28047068230808 298.27681183815 2611.99998855591 15 18 11
4.8567783087492 299.076080322266 2618.99995803833 9 12 5
11.9817927479744 298.618853092194 2615.00000953674 15 18 11
19.0849397331476 298.161238431931 2611.00006103516 18 21 14
26.1461194604635 297.47486114502 2605.00001907349 11 14 7
33.2765839993954 297.70165681839 2607.00011253357 12 15 8
40.4178313910961 297.928035259247 2608.99996757507 15 17 12
47.5516058504581 298.039853572845 2609.99989509583 12 14 9
54.7953918576241 298.722267150879 2615.9999370575 10 12 7
62.0716959238052 299.404263496399 2621.99997901917 6 9 2
69.6444883942604 301.227748394012 2638.00001144409 9 12 5
76.9838765263557 301.794767379761 2642.99988746643 12 13 7
84.1272622346878 301.56210064888 2641.00003242493 13 14 8
91.2939980626106 301.443219184875 2640.00010490417 12 13 5
98.2310771942139 300.638854503632 2632.99989700317 13 14 6
105.369828641415 300.51925778389 2631.99996948242 17 18 10
112.331688404083 299.942582845688 2627.00009346008 24 25 17
119.629748165607 300.278961658478 2630.00011444092 13 16 9
127.281218767166 301.414161920547 2640.00010490417 12 15 6
135.088562965393 302.777200937271 2651.99995040894 13 14 6
141.780242323875 301.628232002258 2641.99995994568 26 26 18
148.924380540848 301.506400108337 2641.00003242493 25 25 15
156.003385782242 301.270037889481 2638.99993896484 30 28 16
163.070946931839 301.033318042755 2637.00008392334 45 41 30
170.062392950058 300.682127475739 2634.0000629425 83 76 66
176.902338862419 300.102293491364 2628.99994850159 144 138 126
184.06443297863 300.092875957489 2628.99994850159 180 172 161
190.934896469116 299.626499414444 2625 186 177 168
197.933793067932 299.388110637665 2622.99990653992 183 179 170
204.921096563339 299.149423837662 2621.00005149841 180 180 172
212.46312558651 299.709349870682 2625.99992752075 169 169 161
220.198854804039 300.497084856033 2632.99989700317 170 171 165
227.971956133842 301.284492015839 2640.00010490417 162 164 159
236.405879259109 302.87030339241 2654.00004386902 135 140 134
-236.069604754448 308.032989501953 2765.00010490417 205 206 201
-225.234761834145 303.588330745697 2724.99990463257 193 192 187
-217.174753546715 302.708208560944 2717.00000762939 195 194 189
-209.466367959976 302.273333072662 2713.00005912781 196 193 186
-202.002495527267 302.172362804413 2711.99989318848 200 190 181
-194.615095853806 302.182465791702 2711.99989318848 190 176 167
-187.226951122284 302.192211151123 2711.99989318848 173 160 151
-179.838135838509 302.201628684998 2711.99989318848 148 138 128
-172.448664903641 302.210628986359 2711.99989318848 141 131 121
-165.119454264641 302.330791950226 2713.00005912781 110 103 93
-157.028332352638 301.001816987991 2700.99997520447 214 210 199
-148.558780550957 298.780858516693 2680.99999427795 9 9 0
-140.935286879539 298.119693994522 2674.99995231628 23 25 14
-133.743643760681 298.349738121033 2677.00004577637 20 23 14
-116.655692458153 292.121440172195 2621.00005149841 22 25 14
-110.429108142853 294.579327106476 2642.99988746643 23 26 17
-103.691600263119 295.922428369522 2654.99997138977 23 26 17
-96.0890576243401 294.813066720963 2644.99998092651 22 25 16
-89.1790837049484 295.821070671082 2654.00004386902 21 24 15
-82.3123157024384 297.163099050522 2665.99988937378 19 22 13
-75.2953514456749 298.170447349548 2674.99995231628 15 18 9
-67.2630220651627 294.941663742065 2645.99990844727 18 21 14
-59.6382357180119 292.938590049744 2628.00002098084 23 26 19
-52.6504889130592 293.944776058197 2637.00008392334 18 21 14
-45.8030626177788 296.176731586456 2657.00006484985 12 15 8
-38.6867448687553 297.18217253685 2665.99988937378 16 19 12
-31.1205442994833 294.397264719009 2641.00003242493 15 18 11
-23.7449295818806 292.280733585358 2621.99997901917 16 19 12
-16.4285786449909 289.383500814438 2595.99995613098 21 24 17
-9.32961422950029 288.826793432236 2591.00008010864 28 31 24
-2.27622641250491 290.610700845718 2607.00011253357 22 25 18
4.85332822427154 291.725337505341 2617.00010299683 19 22 15
11.9915949180722 291.724920272827 2617.00010299683 19 22 15
19.0640278160572 290.720820426941 2608.00004005432 21 24 17
26.1976979672909 290.942549705505 2609.99989509583 20 23 16
33.2528278231621 290.383666753769 2605.00001907349 20 23 16
40.4819510877132 291.273474693298 2612.99991607666 11 13 8
47.6634614169598 291.605561971664 2615.9999370575 12 14 9
54.7354631125927 291.268438100815 2612.99991607666 14 16 11
61.909269541502 291.488349437714 2615.00000953674 12 15 8
69.4897770881653 293.379843235016 2631.99996948242 11 14 7
77.0753398537636 294.936507940292 2645.99990844727 10 11 5
84.4184160232544 295.378118753433 2650.00009536743 11 12 6
91.3679823279381 294.481813907623 2641.99995994568 11 12 4
98.4228253364563 294.031023979187 2638.00001144409 12 13 5
105.495497584343 293.691277503967 2634.99999046326 14 15 7
112.337619066238 292.793989181519 2627.00009346008 21 22 14
119.863487780094 293.679535388947 2634.99999046326 14 17 10
127.528965473175 294.787645339966 2644.99998092651 12 15 6
134.942844510078 295.226633548737 2648.9999294281 10 11 3
142.485320568085 295.888096094131 2654.99997138977 23 20 11
149.496093392372 295.434802770615 2651.00002288818 27 23 12
156.2480032444 294.535368680954 2642.99988746643 16 8 0
162.708356976509 293.189883232117 2631.00004196167 11 1 0
169.877529144287 293.181329965591 2631.00004196167 61 51 39
177.113354206085 293.283879756927 2631.99996948242 89 77 63
184.423997998238 293.49747300148 2634.0000629425 105 91 78
191.381186246872 293.153643608093 2631.00004196167 93 79 66
198.396757245064 292.920887470245 2628.99994850159 174 164 152
205.400750041008 292.687833309174 2627.00009346008 196 189 179
212.716713547707 292.900025844574 2628.99994850159 171 167 156
220.4609811306 293.668985366821 2635.99991798401 174 174 166
228.760719299316 295.105904340744 2648.9999294281 167 168 162
-235.995948314667 300.401896238327 2763.99993896484 208 209 203
-226.485878229141 297.804832458496 2740.00000953674 209 208 203
-218.224793672562 296.728938817978 2730.00001907349 150 150 142
-209.86296236515 295.435220003128 2717.99993515015 95 88 78
-202.012673020363 294.793277978897 2711.99989318848 88 74 63
-194.624915719032 294.80317234993 2711.99989318848 117 99 87
-187.305480241776 294.921457767487 2713.00005912781 124 106 94
-179.913595318794 294.930666685104 2713.00005912781 122 106 93
-172.457456588745 294.830799102783 2711.99989318848 115 101 88
-165.066987276077 294.839292764664 2711.99989318848 94 84 72
-157.675892114639 294.847428798676 2711.99989318848 215 209 197
-149.674668908119 293.659299612045 2700.99997520447 24 22 10
-141.153275966644 291.274726390839 2678.99990081787 27 27 15
-133.300840854645 290.085732936859 2667.99998283386 16 19 10
-125.413432717323 288.678795099258 2654.99997138977 18 21 12
-117.462880909443 286.945313215256 2638.99993896484 23 26 15
-109.682716429234 285.428822040558 2625 23 26 17
-102.68148034811 285.869210958481 2628.99994850159 19 22 13
-95.6217348575592 286.200493574142 2631.99996948242 16 19 10
-88.5452330112457 286.531448364258 2634.99999046326 14 17 8
-82.2857171297073 289.798080921173 2664.99996185303 10 13 4
-74.9333202838898 289.47588801384 2661.99994087219 18 21 12
-67.2156810760498 287.522166967392 2644.00005340576 20 23 16
-60.0044503808022 287.525415420532 2644.00005340576 10 13 6
-52.8129637241364 287.637054920197 2644.99998092651 5 8 1
-45.9950864315033 290.140807628632 2667.99998283386 10 13 6
-38.6887602508068 289.92548584938 2665.99988937378 10 13 6
-31.4403399825096 290.144830942154 2667.99998283386 6 9 2
-23.8548461347818 286.44871711731 2634.0000629425 6 9 2
-16.4674092084169 282.969743013382 2601.99999809265 14 17 10
-9.33730322867632 281.99166059494 2592.99993515015 14 17 10
-2.28595011867583 284.710735082626 2618.00003051758 10 13 6
4.86470945179462 285.254418849945 2622.99990653992 15 18 11
12.0059680193663 284.927725791931 2619.99988555908 13 16 9
19.0650224685669 283.621937036514 2608.00004005432 15 18 11
26.1488780379295 283.294528722763 2605.00001907349 24 27 20
33.2162640988827 282.966732978821 2601.99999809265 23 26 19
40.3911061584949 283.508569002151 2607.00011253357 22 24 19
47.7206073701382 284.811288118362 2618.99995803833 23 25 20
55.2829764783382 286.983579397202 2638.99993896484 28 30 25
62.0308704674244 284.914374351501 2619.99988555908 33 36 29
69.0973401069641 284.584790468216 2617.00010299683 31 34 27
76.7297819256783 286.429673433304 2634.0000629425 21 22 16
84.0405002236366 286.86049580574 2638.00001144409 15 16 10
91.0960584878922 286.421060562134 2634.0000629425 16 17 9
98.3159765601158 286.524921655655 2634.99999046326 23 24 16
105.100564658642 285.4323387146 2625 25 26 18
112.215109169483 285.318076610565 2624.00007247925 16 19 10
119.733192026615 286.182016134262 2631.99996948242 21 24 17
127.005130052567 286.393195390701 2634.0000629425 18 21 12
134.949758648872 288.017451763153 2648.9999294281 15 17 6
142.438977956772 288.554042577744 2654.00004386902 27 21 7
149.560108780861 288.329184055328 2651.99995040894 26 17 2
156.255975365639 287.342995405197 2642.99988746643 21 5 0
162.592947483063 285.812884569168 2628.99994850159 121 102 85
169.75699365139 285.8045399189 2628.99994850159 129 108 89
176.987752318382 285.904556512833 2630.00011444092 143 118 98
184.363320469856 286.221593618393 2632.99989700317 134 109 89
191.536322236061 286.212235689163 2632.99989700317 133 111 90
198.784083127975 286.311209201813 2634.0000629425 123 104 87
205.958381295204 286.301136016846 2634.0000629425 72 59 43
213.455587625504 286.725491285324 2638.00001144409 69 60 45
221.475645899773 287.801653146744 2648.00000190735 191 183 172
231.017500162125 290.724962949753 2674.99995231628 148 148 140
-237.544402480125 294.788539409637 2782.00006484985 208 209 204
-227.819561958313 292.044699192047 2756.00004196167 152 149 142
-219.274699687958 290.677905082703 2743.00003051758 102 98 89
-210.722655057907 289.204716682434 2729.00009155273 78 70 59
-202.395081520081 287.943065166473 2717.00000762939 115 97 85
-194.634526968002 287.422835826874 2711.99989318848 135 113 99
-186.96953356266 287.008255720139 2707.99994468689 137 115 101
-179.590955376625 287.0172560215 2707.99994468689 132 113 98
-172.1480935812 286.919921636581 2707.00001716614 128 111 95
-164.892628788948 287.140220403671 2709.00011062622 109 96 80
-157.509371638298 287.148207426071 2709.00011062622 119 110 95
-149.515926837921 285.989791154861 2697.99995422363 27 23 11
-141.16033911705 283.982932567596 2678.99990081787 31 31 19
-133.707284927368 283.671796321869 2676.00011825562 24 27 16
-126.364529132843 283.572226762772 2674.99995231628 23 26 15
-119.204811751842 283.896416425705 2677.99997329712 20 23 12
-110.816478729248 281.145870685577 2651.99995040894 20 23 14
-102.921038866043 279.348969459534 2634.99999046326 18 21 12
-95.5175831913948 278.717845678329 2628.99994850159 17 20 11
-88.0456566810608 277.768284082413 2619.99988555908 15 18 9
-81.3326835632324 279.256820678711 2634.0000629425 24 27 18
-74.486717581749 280.532956123352 2645.99990844727 25 28 19
-67.3462077975273 280.854612588882 2648.9999294281 15 18 11
-60.2344684302807 281.387954950333 2654.00004386902 11 14 7
-52.9354624450207 281.072705984116 2651.00002288818 9 12 5
-45.6181429326534 280.545085668564 2645.99990844727 5 8 1
-38.6762246489525 282.561719417572 2664.99996185303 9 12 5
-30.9823378920555 278.746515512466 2628.99994850159 6 9 2
-24.1187214851379 282.352864742279 2663.00010681152 8 11 4
-16.6201461106539 278.430819511414 2625.99992752075 14 17 10
-9.33417957276106 274.826496839523 2592.00000762939 10 13 6
-2.28344718925655 277.265459299088 2615.00000953674 6 9 2
4.85197454690933 277.371406555176 2615.9999370575 19 22 15
11.9882496073842 277.37095952034 2615.9999370575 16 19 12
19.0513767302036 276.309937238693 2605.99994659424 15 18 11
26.1100605130196 275.778651237488 2601.0000705719 27 30 23
33.1924259662628 275.671094655991 2599.99990463257 23 26 19
40.3931699693203 276.411473751068 2607.00011253357 21 23 18
47.7412566542625 277.787536382675 2619.99988555908 19 21 16
55.0762973725796 278.739184141159 2628.99994850159 16 18 13
68.6519742012024 275.658249855042 2599.99990463257 14 17 10
76.0053768754005 276.608824729919 2608.99996757507 21 22 16
83.2164362072945 276.922881603241 2611.99998855591 16 17 11
90.7548144459724 278.190761804581 2624.00007247925 15 16 8
98.3582735061646 279.458194971085 2635.99991798401 19 20 12
105.105884373188 278.286933898926 2625 21 22 14
112.520143389702 278.917580842972 2631.00004196167 23 26 17
119.511768221855 278.487771749496 2627.00009346008 29 32 25
127.059757709503 279.329657554626 2634.99999046326 16 17 9
134.090468287468 279.005140066147 2631.99996948242 13 13 1
141.855716705322 280.164301395416 2642.99988746643 18 11 0
149.398416280746 280.793130397797 2648.9999294281 20 8 0
156.086415052414 279.831558465958 2640.00010490417 115 97 77
162.848457694054 279.081732034683 2632.99989700317 124 102 81
169.830054044724 278.755575418472 2630.00011444092 133 108 86
176.996544003487 278.747051954269 2630.00011444092 138 110 88
184.302419424057 278.950154781342 2631.99996948242 140 112 90
191.545769572258 279.046922922134 2632.99989700317 137 110 89
199.095755815506 279.567301273346 2638.00001144409 133 110 92
206.672266125679 280.087321996689 2642.99988746643 119 103 87
214.356154203415 280.712932348251 2648.9999294281 72 60 44
222.824722528458 282.291859388351 2664.00003433228 57 47 35
-228.987783193588 285.989880561829 2769.99998092651 216 213 206
-220.164597034454 284.348577260971 2753.99994850159 224 220 211
-210.732772946358 281.777530908585 2729.00009155273 113 101 87
-202.106863260269 280.135273933411 2713.00005912781 156 131 111
-194.285094738007 279.52516078949 2707.00001716614 158 131 112
-186.771482229233 279.327780008316 2704.99992370605 153 128 108
-179.334387183189 279.233306646347 2703.9999961853 142 117 95
-171.7748939991 278.931945562363 2700.99997520447 136 114 93
-164.352834224701 278.836786746979 2700.00004768372 119 102 82
-156.935587525368 278.741240501404 2698.99988174438 118 105 86
-149.356991052628 278.335571289063 2694.9999332428 21 14 0
-141.009211540222 276.380330324173 2676.00011825562 28 24 12
-134.413406252861 277.832955121994 2690.00005722046 26 28 17
-127.551794052124 278.872191905975 2700.00004768372 27 29 18
-120.01197040081 278.465121984482 2696.00009918213 24 27 16
-112.159177660942 277.231276035309 2684.00001525879 24 27 18
-104.527644813061 276.410281658173 2676.00011825562 24 27 18
-96.1036682128906 273.213058710098 2644.99998092651 22 25 16
-88.5205343365669 272.08137512207 2634.0000629425 21 24 15
-81.1514481902123 271.465748548508 2628.00002098084 20 23 14
-74.518583714962 273.43225479126 2647.0000743866 21 24 15
-67.4258470535278 273.95224571228 2651.99995040894 17 20 13
-59.6700496971607 271.579444408417 2628.99994850159 16 19 12
-52.3989386856556 271.065682172775 2624.00007247925 17 20 13
-45.8445586264133 274.683713912964 2658.99991989136 15 18 11
-38.0395725369453 270.760267972946 2621.00005149841 10 13 6
-31.313881278038 274.480938911438 2657.00006484985 8 11 4
-23.7123444676399 270.45339345932 2618.00003051758 11 14 7
-16.6399665176868 271.590739488602 2628.99994850159 11 14 7
-9.36345662921667 268.595486879349 2599.99990463257 9 12 5
-2.28356150910258 270.145386457443 2615.00000953674 10 13 6
4.85036289319396 270.145326852798 2615.00000953674 7 10 3
11.9842691347003 270.144939422607 2615.00000953674 13 16 9
19.081573933363 269.627630710602 2609.99989509583 12 15 8
26.1214040219784 268.80007982254 2601.99999809265 11 14 7
33.2451574504375 269.005209207535 2604.00009155273 20 23 16
40.4261723160744 269.51989531517 2608.99996757507 21 23 18
47.7983169257641 270.963966846466 2622.99990653992 17 19 14
55.2466548979282 272.407680749893 2637.00008392334 12 14 9
61.7766678333282 269.512355327606 2608.99996757507 6 9 2
68.5233697295189 268.062919378281 2595.00002861023 6 9 2
76.2422382831573 270.33194899559 2617.00010299683 15 16 10
83.6984738707542 271.360993385315 2627.00009346008 12 13 7
90.6901434063911 270.840257406235 2621.99997901917 16 17 9
98.1765687465668 271.765232086182 2631.00004196167 20 21 13
104.950927197933 270.727336406708 2621.00005149841 20 21 13
111.670315265656 269.689112901688 2611.00006103516 21 22 14
119.335673749447 270.922929048538 2622.99990653992 20 21 13
126.48731470108 270.916938781738 2622.99990653992 27 24 15
133.638501167297 270.910620689392 2622.99990653992 24 20 8
141.433268785477 272.143304347992 2634.99999046326 67 54 37
148.559719324112 272.033005952835 2634.0000629425 102 85 65
155.680149793625 271.92234992981 2632.99989700317 124 100 76
162.547141313553 271.398335695267 2628.00002098084 132 104 80
169.709160923958 271.390348672867 2628.00002098084 136 108 84
176.87052488327 271.382004022598 2628.00002098084 142 112 88
183.96121263504 271.270096302032 2627.00009346008 143 111 86
191.118523478508 271.261125802994 2627.00009346008 138 107 86
198.727965354919 271.871358156204 2632.99989700317 128 103 83
206.682175397873 272.894233465195 2642.99988746643 113 96 78
215.175658464432 274.536222219467 2658.99991989136 105 92 76
224.508300423622 277.10697054863 2684.00001525879 73 63 51
-218.975722789764 275.344669818878 2739.00008201599 165 157 146
-210.047692060471 273.444533348084 2720.00002861023 135 121 108
-201.743900775909 272.247731685638 2707.99994468689 165 139 116
-194.00717318058 271.754294633865 2703.00006866455 166 140 117
-186.366021633148 271.361023187637 2698.99988174438 160 134 111
-178.61333489418 270.766347646713 2693.00007820129 146 120 95
-171.147063374519 270.57346701622 2690.99998474121 139 115 91
-163.93455862999 270.782440900803 2693.00007820129 123 105 83
-156.710520386696 270.991116762161 2694.9999332428 117 102 81
-149.1978764534 270.696699619293 2691.99991226196 26 19 1
-141.332149505615 269.697993993759 2681.99992179871 32 29 14
-134.319931268692 270.307928323746 2687.99996376038 24 24 12
-127.794161438942 272.02370762825 2704.99992370605 20 22 11
-119.706124067307 270.420581102371 2688.99989128113 21 24 13
-112.08102107048 269.722163677216 2681.99992179871 21 24 15
-104.298323392868 268.520504236221 2670.00007629395 21 24 15
-96.6533571481705 267.519623041153 2660.00008583069 20 23 14
-88.5584279894829 265.009731054306 2634.99999046326 20 23 14
-81.3097879290581 264.812678098679 2632.99989700317 16 19 10
-74.4095891714096 265.822172164917 2642.99988746643 17 20 11
-66.8697580695152 264.518082141876 2630.00011444092 16 19 12
-59.1282024979591 262.006670236588 2605.00001907349 16 19 12
-52.6411347091198 265.127301216125 2635.99991798401 16 19 12
-45.0881458818913 263.017505407333 2615.00000953674 16 19 12
-37.9543453454971 263.019502162933 2615.00000953674 13 16 9
-30.9382565319538 264.026969671249 2625 11 14 7
-23.8946583122015 265.335857868195 2638.00001144409 10 13 6
-16.4951980113983 262.118190526962 2605.99994659424 11 14 7
-9.39993001520634 262.521147727966 2609.99989509583 10 13 6
-2.28367326781154 263.024359941483 2615.00000953674 9 12 5
4.85431030392647 263.225466012955 2617.00010299683 2 5 0
11.9711039587855 262.722134590149 2611.99998855591 10 13 6
19.1190615296364 263.023138046265 2615.00000953674 6 9 2
26.2130349874496 262.619704008102 2611.00006103516 5 8 1
33.3744548261166 262.920022010803 2614.00008201599 22 25 18
40.6295917928219 263.722866773605 2621.99997901917 11 13 8
48.0193309485912 265.028268098831 2634.99999046326 9 11 6
55.2493445575237 265.22696018219 2637.00008392334 7 9 4
61.0692910850048 259.390622377396 2578.9999961853 8 11 4
69.0284371376038 262.907683849335 2614.00008201599 10 13 6
76.3042196631432 263.407081365585 2618.99995803833 14 15 9
83.0971598625183 262.296915054321 2608.00004005432 12 13 7
90.2102813124657 262.292742729187 2608.00004005432 17 18 10
97.6962074637413 263.293951749802 2618.00003051758 20 21 13
104.075036942959 261.378318071365 2598.99997711182 18 19 11
111.034147441387 261.071473360062 2595.99995613098 18 19 11
118.704453110695 262.373328208923 2608.99996757507 20 20 12
126.445204019547 263.674825429916 2621.99997901917 21 17 6
133.644938468933 263.769179582596 2622.99990653992 11 3 0
141.064330935478 264.265477657318 2628.00002098084 111 96 77
148.341238498688 264.459758996964 2630.00011444092 112 94 74
155.510231852531 264.452576637268 2630.00011444092 130 104 79
162.431180477142 264.04282450676 2625.99992752075 137 107 81
169.717207551003 264.236122369766 2628.00002098084 141 110 82
176.946222782135 264.328509569168 2628.99994850159 144 110 83
183.9699447155 264.118999242783 2627.00009346008 145 111 84
191.054791212082 264.009684324265 2625.99992752075 139 109 83
198.586374521255 264.50327038765 2631.00004196167 121 96 74
206.848293542862 265.901297330856 2644.99998092651 114 95 80
215.590357780457 267.801523208618 2664.00003433228 105 89 74
-218.585982918739 267.399430274963 2733.99996757507 142 132 120
-209.053382277489 264.768332242966 2707.00001716614 148 135 118
-201.082676649094 263.995140790939 2698.99988174438 166 140 113
-193.800806999207 264.101982116699 2700.00004768372 167 141 114
-186.305597424507 263.915032148361 2697.99995422363 162 137 107
-178.687945008278 263.532102108002 2694.00000572205 145 118 89
-171.091422438622 263.148844242096 2690.00005722046 136 110 83
-164.00308907032 263.547867536545 2694.00000572205 123 101 77
-156.83414041996 263.848721981049 2697.00002670288 112 94 70
-149.592831730843 264.051467180252 2698.99988174438 40 32 13
-141.654968261719 262.982040643692 2687.99996376038 28 22 6
-133.626639842987 261.618733406067 2674.00002479553 30 30 18
-126.76078081131 262.505352497101 2683.00008773804 24 26 15
-119.97888982296 263.685137033463 2694.9999332428 17 20 9
-111.375853419304 260.755270719528 2664.99996185303 16 19 10
-104.225128889084 261.053830385208 2667.99998283386 16 19 10
-96.8759655952454 260.862797498703 2665.99988937378 17 20 11
-88.1593003869057 256.659626960754 2622.99990653992 17 20 11
-80.6960016489029 255.685091018677 2612.99991607666 18 21 12
-73.0335488915443 253.829538822174 2594.00010108948 17 20 13
-66.3643926382065 255.398452281952 2609.99989509583 18 21 14
-59.5396012067795 256.673514842987 2622.99990653992 17 20 13
-52.1243959665298 255.404025316238 2609.99989509583 14 17 10
-45.2454797923565 256.776303052902 2624.00007247925 15 18 11
-38.1013005971909 256.876111030579 2625 16 19 12
-31.0811754316092 258.052080869675 2637.00008392334 15 18 11
-23.687457665801 255.90044260025 2615.00000953674 13 16 9
-16.5339652448893 255.607843399048 2611.99998855591 13 16 9
-9.48321726173162 257.663458585739 2632.99989700317 13 16 9
-2.30299588292837 258.055210113525 2637.00008392334 13 16 9
4.87494701519609 257.174402475357 2628.00002098084 13 16 9
12.0725110173225 257.761180400848 2634.0000629425 13 16 9
19.2150268703699 257.173269987106 2628.00002098084 4 7 0
26.4251250773668 257.563650608063 2631.99996948242 9 12 5
33.6314141750336 257.757961750031 2634.0000629425 25 28 21
40.4300801455975 255.309730768204 2608.99996757507 33 35 30
47.9304976761341 257.362633943558 2630.00011444092 29 31 26
55.3357861936092 258.436650037766 2641.00003242493 18 20 15
62.0194151997566 256.281048059464 2618.99995803833 14 17 10
68.6884075403214 254.516631364822 2601.0000705719 13 16 9
77.123649418354 259.014427661896 2647.0000743866 14 15 9
83.3241492509842 255.879431962967 2615.00000953674 13 14 8
90.6296446919441 256.364583969116 2619.99988555908 19 20 12
97.3649695515633 255.283862352371 2608.99996757507 20 21 13
104.360267519951 254.985600709915 2605.99994659424 15 16 8
111.723765730858 255.567640066147 2611.99998855591 16 16 8
119.392558932304 256.736367940903 2624.00007247925 18 15 6
127.174556255341 258.002579212189 2637.00008392334 25 17 6
133.855029940605 257.018119096756 2627.00009346008 22 13 0
140.856221318245 256.718248128891 2624.00007247925 104 87 67
147.840514779091 256.418079137802 2621.00005149841 117 96 75
155.103549361229 256.606727838516 2622.99990653992 136 109 82
161.943882703781 256.110280752182 2618.00003051758 140 110 82
169.402182102203 256.591796875 2622.99990653992 140 109 80
176.819801330566 256.975144147873 2627.00009346008 142 111 82
184.04845893383 257.064700126648 2628.00002098084 144 113 84
