ply
format ascii 1.0
comment KinectMotionCapture
element vertex 761
property float x
property float y
property float z
property uchar red
property uchar green
property uchar blue
end_header
206.42314851284 718.796253204346 2651.00002288818 150 151 145
213.615939021111 718.78045797348 2651.00002288818 140 141 135
220.974788069725 719.306349754334 2653.00011634827 156 157 151
228.258028626442 719.560503959656 2654.00004386902 165 166 160
235.634937882423 720.085382461548 2655.99989891052 159 160 154
242.747902870178 719.796478748322 2654.99997138977 161 162 157
250.325590372086 720.862627029419 2658.99991989136 166 167 162
257.924526929855 721.928358078003 2663.00010681152 168 169 164
265.644192695618 723.264634609222 2667.99998283386 160 161 156
273.901790380478 725.955784320831 2677.99997329712 196 197 192
284.732788801193 735.152184963226 2711.99989318848 205 207 202
-196.823701262474 739.340126514435 2753.99994850159 208 213 209
-186.8055164814 729.42179441452 2717.00000762939 208 210 207
-178.638771176338 726.214289665222 2704.99992370605 166 168 165
-170.916691422462 724.616944789886 2698.99988174438 156 158 153
-163.348019123077 723.556101322174 2694.9999332428 176 178 173
-155.916482210159 723.031580448151 2693.00007820129 170 172 167
-148.274719715118 721.432626247406 2687.00003623962 169 170 165
-140.770137310028 720.36999464035 2683.00008773804 157 158 152
-133.386433124542 719.843804836273 2680.99999427795 158 159 153
-126.060321927071 719.585597515106 2680.0000667572 144 145 139
-118.606343865395 718.521177768707 2676.00011825562 138 137 133
-111.215434968472 717.724800109863 2673.00009727478 157 156 152
-103.684984147549 715.853691101074 2665.99988937378 154 153 149
-96.3370203971863 715.056240558624 2663.00010681152 176 175 171
-88.8377875089645 712.915420532227 2654.99997138977 154 153 149
-81.4740434288979 711.579620838165 2650.00009536743 161 160 156
-74.053168296814 709.437608718872 2641.99995994568 161 160 156
-66.9287070631981 709.980368614197 2644.00005340576 160 159 155
-59.770617634058 710.254013538361 2644.99998092651 159 158 154
-52.567183971405 709.989964962006 2644.00005340576 160 159 155
-45.3175567090511 708.919823169708 2640.00010490417 161 160 156
-38.1329022347927 708.654642105103 2638.99993896484 162 161 156
-30.965318903327 708.657383918762 2638.99993896484 161 160 155
-23.797657340765 708.659589290619 2638.99993896484 160 159 154
-16.6236404329538 708.392679691315 2638.00001144409 159 158 153
-9.45142563432455 707.85665512085 2635.99991798401 156 155 150
-2.29005399160087 707.320094108582 2634.0000629425 156 155 150
4.86969342455268 708.125591278076 2637.00008392334 155 154 149
12.0365992188454 708.393514156342 2638.00001144409 153 152 147
19.2016307264566 708.392262458801 2638.00001144409 151 150 145
26.3466220349073 707.853257656097 2635.99991798401 152 151 146
33.4933996200562 707.582294940948 2634.99999046326 155 154 149
40.6809411942959 708.116412162781 2637.00008392334 151 150 145
47.8792451322079 708.649873733521 2638.99993896484 147 146 141
55.025726556778 708.377242088318 2638.00001144409 154 153 148
62.1666386723518 708.104074001312 2637.00008392334 157 156 151
69.2230984568596 707.024574279785 2632.99989700317 150 149 144
76.4026939868927 707.2873711586 2634.0000629425 150 149 144
83.4923684597015 706.743836402893 2631.99996948242 156 155 150
90.6742885708809 707.005441188812 2632.99989700317 156 155 150
97.7499783039093 706.461012363434 2631.00004196167 155 154 149
104.93416339159 706.721305847168 2631.99996948242 155 154 149
112.080946564674 706.71272277832 2631.99996948242 155 154 149
119.272768497467 706.972062587738 2632.99989700317 154 153 148
126.421704888344 706.96234703064 2632.99989700317 152 151 146
133.519649505615 706.683576107025 2631.99996948242 153 152 147
140.558376908302 706.135928630829 2630.00011444092 151 150 145
147.698253393173 706.124544143677 2630.00011444092 179 178 173
154.778897762299 705.844283103943 2628.99994850159 179 178 173
162.223279476166 707.174301147461 2634.0000629425 153 152 148
169.43721473217 707.429826259613 2634.99999046326 157 156 152
176.790222525597 708.221793174744 2638.00001144409 158 157 153
183.949962258339 708.207845687866 2638.00001144409 165 164 160
191.543951630592 709.804356098175 2644.00005340576 156 155 151
199.170023202896 711.400032043457 2650.00009536743 165 166 160
206.594631075859 712.189853191376 2653.00011634827 146 147 141
213.632121682167 711.637020111084 2651.00002288818 141 142 136
220.991477370262 712.157428264618 2653.00011634827 159 160 154
228.103160858154 711.871981620789 2651.99995040894 158 159 153
235.652565956116 712.928354740143 2655.99989891052 156 157 151
242.765963077545 712.642014026642 2654.99997138977 160 161 156
250.25001168251 713.428914546967 2657.99999237061 165 166 161
257.749825716019 714.215397834778 2661.00001335144 163 164 159
265.464514493942 715.538024902344 2665.99988937378 155 156 151
273.717194795609 718.202233314514 2676.00011825562 194 195 190
283.28350186348 724.086403846741 2697.99995422363 199 201 196
-195.266455411911 726.071655750275 2732.00011253357 207 209 206
-186.54491007328 721.036851406097 2713.00005912781 203 205 202
-178.586572408676 718.658983707428 2703.9999961853 164 166 163
-170.866668224335 717.077910900116 2697.99995422363 153 155 150
-163.360789418221 716.293632984161 2694.9999332428 170 172 167
-155.870795249939 715.508699417114 2691.99991226196 169 170 165
-148.396745324135 714.723348617554 2688.99989128113 167 168 163
-140.938654541969 713.937401771545 2686.00010871887 152 153 147
-133.645743131638 713.948249816895 2686.00010871887 152 153 147
-126.258447766304 713.426887989044 2684.00001525879 147 148 142
-118.793055415154 712.373316287994 2680.0000667572 145 144 140
-111.307501792908 711.053431034088 2674.99995231628 145 144 140
-103.732138872147 708.935499191284 2667.00005531311 157 156 152
-96.308521926403 707.614421844482 2661.99994087219 162 161 157
-88.8448879122734 705.761015415192 2654.99997138977 157 156 152
-81.4498215913773 704.172968864441 2648.9999294281 160 159 155
-74.1151794791222 702.850043773651 2644.00005340576 160 159 155
-66.9593960046768 703.121542930603 2644.99998092651 160 159 155
-59.8206222057343 703.658282756805 2647.0000743866 161 160 156
-52.6310652494431 703.662872314453 2647.0000743866 162 161 157
-45.3555472195148 702.337622642517 2641.99995994568 163 162 158
-38.1359755992889 701.54345035553 2638.99993896484 163 162 157
-30.9560839086771 701.280474662781 2638.00001144409 162 161 156
-23.7905606627464 701.282620429993 2638.00001144409 161 160 155
-16.6186820715666 701.018452644348 2637.00008392334 159 158 153
-9.44501906633377 700.222015380859 2634.0000629425 156 155 150
-2.28849961422384 699.690699577332 2631.99996948242 155 154 149
4.85900603234768 699.424803256989 2631.00004196167 154 153 148
12.0147550478578 699.955821037292 2632.99989700317 151 150 145
19.174063578248 700.220465660095 2634.0000629425 151 150 145
26.3187605887651 699.952661991119 2632.99989700317 153 152 147
33.4579609334469 699.68444108963 2631.99996948242 157 156 151
40.6379364430904 700.213134288788 2634.0000629425 153 152 147
47.8286668658257 700.741171836853 2635.99991798401 149 148 143
55.0092905759811 701.002895832062 2637.00008392334 154 153 148
62.1480606496334 700.732350349426 2635.99991798401 155 154 149
69.2023634910584 699.663698673248 2631.99996948242 151 150 145
76.3508006930351 699.657917022705 2631.99996948242 154 153 148
83.4038704633713 698.853969573975 2628.99994850159 154 153 148
90.6126573681831 699.378669261932 2631.00004196167 154 153 148
97.6834446191788 698.839485645294 2628.99994850159 154 153 148
104.822903871536 698.83143901825 2628.99994850159 154 153 148
112.004689872265 699.0886926651 2630.00011444092 154 153 148
119.146332144737 699.079513549805 2630.00011444092 153 152 147
126.335680484772 699.335515499115 2631.00004196167 155 154 149
133.479446172714 699.325203895569 2631.00004196167 152 151 146
140.676334500313 699.580252170563 2631.99996948242 154 153 148
147.8221565485 699.568867683411 2631.99996948242 170 169 164
154.96763586998 699.556946754456 2631.99996948242 183 182 177
162.174329161644 699.810326099396 2632.99989700317 155 154 150
169.450387358665 700.328946113586 2634.99999046326 162 161 157
176.803946495056 701.112866401672 2638.00001144409 161 160 156
184.103652834892 701.630413532257 2640.00010490417 156 155 151
191.631123423576 702.944755554199 2644.99998092651 156 155 151
199.260428547859 704.524219036102 2651.00002288818 169 170 164
206.688269972801 705.305933952332 2654.00004386902 143 144 138
213.890120387077 705.289900302887 2654.00004386902 143 144 138
221.091523766518 705.273449420929 2654.00004386902 162 163 157
228.292390704155 705.256342887878 2654.00004386902 153 154 148
235.758975148201 706.036031246185 2657.00006484985 155 156 150
242.966994643211 706.018090248108 2657.00006484985 159 160 155
250.26860833168 706.265389919281 2657.99999237061 164 165 160
257.768869400024 707.043647766113 2661.00001335144 159 160 155
265.583664178848 708.618581295013 2667.00005531311 152 153 148
273.634910583496 710.724294185638 2674.99995231628 192 193 188
282.254070043564 714.15787935257 2687.99996376038 193 195 190
-194.56672668457 716.077625751495 2721.99988365173 205 207 204
-186.62816286087 713.98788690567 2713.99998664856 201 203 200
-178.798615932465 712.160527706146 2707.00001716614 165 167 164
-170.943349599838 710.069477558136 2698.99988174438 153 155 150
-163.191705942154 708.240926265717 2691.99991226196 166 168 163
-155.767247080803 707.727372646332 2690.00005722046 168 169 164
-148.298069834709 706.950008869171 2687.00003623962 164 165 160
-140.949785709381 706.698417663574 2686.00010871887 151 152 146
-133.706092834473 706.972360610962 2687.00003623962 149 150 144
-126.409620046616 706.982672214508 2687.00003623962 145 146 140
-118.935510516167 705.940008163452 2683.00008773804 146 145 141
-111.357994377613 704.107284545898 2676.00011825562 148 147 143
-103.740438818932 701.747894287109 2667.00005531311 159 158 154
-96.3524132966995 700.703322887421 2663.00010681152 155 154 150
-88.7850821018219 698.079526424408 2653.00011634827 157 156 152
-81.4256146550179 696.77072763443 2648.00000190735 161 160 156
-74.0931034088135 695.461273193359 2642.99988746643 161 160 156
-66.9394731521606 695.730090141296 2644.00005340576 161 160 156
-59.7802437841892 695.998311042786 2644.99998092651 162 161 157
-52.6154264807701 696.266055107117 2645.99990844727 163 162 158
-45.3420430421829 694.9542760849 2641.00003242493 163 162 158
-38.1101593375206 693.905115127563 2637.00008392334 164 163 158
-30.9116449207067 693.118512630463 2634.0000629425 163 162 157
-23.7473901361227 692.857563495636 2632.99989700317 162 161 156
-16.5885128080845 692.596077919006 2631.99996948242 160 159 154
-9.42785292863846 691.807746887207 2628.99994850159 157 156 151
-2.28607631288469 691.808104515076 2628.99994850159 156 155 150
4.85201133415103 691.281795501709 2627.00009346008 153 152 147
12.002038769424 692.070543766022 2630.00011444092 151 150 145
19.1610548645258 692.595541477203 2631.99996948242 151 150 145
26.3108946382999 692.593693733215 2631.99996948242 153 152 147
33.4606692194939 692.591190338135 2631.99996948242 155 154 149
40.6103618443012 692.588210105896 2631.99996948242 152 151 146
47.8143841028214 693.374037742615 2634.99999046326 149 148 143
54.9928694963455 693.633079528809 2635.99991798401 154 153 148
62.1294863522053 693.365156650543 2634.99999046326 155 154 149
69.2605227231979 693.09675693512 2634.0000629425 151 150 145
76.3859525322914 692.827820777893 2632.99989700317 155 154 149
83.5057497024536 692.558169364929 2631.99996948242 154 153 148
90.5854851007462 692.025005817413 2630.00011444092 154 153 148
97.6912751793861 691.754281520844 2628.99994850159 154 153 148
104.791395366192 691.483020782471 2628.00002098084 155 154 149
112.01361566782 692.000687122345 2630.00011444092 155 154 149
119.110479950905 691.728293895721 2628.99994850159 156 155 150
126.2496560812 691.718459129334 2628.99994850159 157 156 151
133.337795734406 691.445231437683 2628.00002098084 154 153 148
140.634000301361 692.223608493805 2631.00004196167 156 155 150
147.889956831932 692.73841381073 2632.99989700317 159 158 153
155.09757399559 692.989647388458 2634.0000629425 171 170 165
162.248626351357 692.977130413055 2634.0000629425 164 163 159
169.463604688644 693.227291107178 2634.99999046326 155 154 150
176.616609096527 693.213760852814 2634.99999046326 164 163 159
184.187665581703 694.778263568878 2641.00003242493 171 170 166
191.718354821205 696.078956127167 2645.99990844727 171 170 166
199.651598930359 698.694467544556 2655.99989891052 150 151 145
206.93776011467 698.942065238953 2657.00006484985 127 128 122
214.148253202438 698.925912380219 2657.00006484985 135 136 130
221.025019884109 697.857081890106 2653.00011634827 154 155 149
228.223636746407 697.8400349617 2653.00011634827 153 154 148
235.599249601364 698.348522186279 2654.99997138977 158 159 153
243.076667189598 699.119627475739 2657.99999237061 160 161 156
250.475645065308 699.627220630646 2660.00008583069 159 160 155
257.981777191162 700.397253036499 2663.00010681152 158 159 154
265.702843666077 701.692879199982 2667.99998283386 152 153 148
273.552745580673 703.25094461441 2674.00002479553 186 187 182
281.644612550735 705.334544181824 2681.99992179871 187 189 184
291.718363761902 712.151229381561 2707.99994468689 205 210 206
-194.7962641716 709.521353244781 2724.99990463257 199 201 198
-186.642691493034 706.672072410584 2713.99998664856 196 198 195
-178.944692015648 705.384492874146 2709.00011062622 167 169 166
-171.020075678825 703.05460691452 2700.00004768372 151 152 147
-163.386419415474 701.765775680542 2694.9999332428 159 160 155
-155.837416648865 700.73676109314 2690.99998474121 164 165 160
-148.36497604847 699.967622756958 2687.99996376038 159 160 155
-141.01342856884 699.718654155731 2687.00003623962 149 148 143
-133.816242218018 700.250446796417 2688.99989128113 146 145 140
-126.513764262199 700.260698795319 2688.99989128113 139 138 133
-119.077995419502 699.489235877991 2686.00010871887 133 132 128
-111.491747200489 697.67552614212 2678.99990081787 160 159 155
-103.82653772831 695.079863071442 2668.99991035461 165 164 160
-96.3601544499397 693.525433540344 2663.00010681152 158 157 153
-88.8256877660751 691.188931465149 2654.00004386902 156 155 151
-81.5244317054749 690.414488315582 2651.00002288818 164 163 159
-74.1551518440247 688.858151435852 2644.99998092651 163 162 158
-66.9701918959618 688.86387348175 2644.99998092651 163 162 158
-59.7172677516937 688.087701797485 2641.99995994568 164 163 159
-52.5799132883549 688.61311674118 2644.00005340576 164 163 159
-45.2598668634892 686.533451080322 2635.99991798401 164 163 159
-38.0698852241039 686.015963554382 2634.0000629425 162 161 156
-30.8789424598217 685.237467288971 2631.00004196167 161 160 155
-23.7312782555819 685.239672660828 2631.00004196167 162 161 156
-16.5772531181574 684.980869293213 2630.00011444092 160 159 154
-9.42503195255995 684.460997581482 2628.00002098084 157 156 151
-2.28626211173832 684.721946716309 2628.99994850159 156 155 150
4.85055800527334 683.940529823303 2625.99992752075 153 152 147
11.9938841089606 684.460639953613 2628.00002098084 151 150 145
19.1480498760939 684.980392456055 2630.00011444092 152 151 146
26.3330265879631 686.020314693451 2634.0000629425 154 153 148
33.4760956466198 685.757398605347 2632.99989700317 154 153 148
40.6599417328835 686.275243759155 2634.99999046326 150 149 144
47.8182546794415 686.271727085114 2634.99999046326 148 147 142
54.9764558672905 686.267554759979 2634.99999046326 155 154 149
62.0637685060501 685.481488704681 2631.99996948242 155 154 149
69.2135170102119 685.476064682007 2631.99996948242 150 149 144
76.3630941510201 685.470283031464 2631.99996948242 153 152 147
83.4807455539703 685.203433036804 2631.00004196167 155 154 149
90.4205366969109 683.633863925934 2625 155 154 149
97.5876078009605 683.886587619781 2625.99992752075 155 154 149
104.680150747299 683.618128299713 2625 155 154 149
112.022548913956 684.911608695984 2630.00011444092 155 154 149
119.074672460556 684.381544589996 2628.00002098084 157 156 151
126.163646578789 684.111297130585 2627.00009346008 155 154 149
133.196160197258 683.580160140991 2625 155 154 149
140.484750270844 684.350550174713 2628.00002098084 154 153 148
147.845461964607 685.380756855011 2631.99996948242 156 155 150
155.109792947769 685.889661312103 2634.0000629425 159 158 153
162.322953343391 686.137497425079 2634.99999046326 166 165 161
169.605508446693 686.645269393921 2637.00008392334 151 150 146
176.898509263992 687.152504920959 2638.99993896484 157 156 152
184.48095023632 688.700675964355 2644.99998092651 166 165 161
192.023068666458 689.988017082214 2650.00009536743 178 177 173
199.742197990417 691.795408725739 2657.00006484985 143 144 138
207.109421491623 692.300379276276 2658.99991989136 127 128 122
214.487075805664 692.804992198944 2661.00001335144 134 135 129
221.458435058594 692.00724363327 2657.99999237061 148 149 143
228.41303050518 691.209137439728 2654.99997138977 153 154 148
235.439583659172 690.670847892761 2653.00011634827 155 156 150
243.003472685814 691.694021224976 2657.00006484985 160 161 156
250.682681798935 692.977070808411 2661.99994087219 156 157 152
258.000999689102 693.218469619751 2663.00010681152 159 160 155
265.523314476013 693.979799747467 2665.99988937378 154 155 150
273.061364889145 694.740891456604 2668.99991035461 183 184 179
280.93010187149 696.282207965851 2674.99995231628 185 187 182
290.446847677231 701.727390289307 2696.00009918213 203 208 204
-205.028399825096 711.95113658905 2763.00001144409 210 212 209
-194.739922881126 701.917231082916 2723.99997711182 189 191 188
-186.657249927521 699.35530424118 2713.99998664856 195 197 194
-178.892627358437 697.823405265808 2707.99994468689 169 169 167
-170.970171689987 695.517957210541 2698.99988174438 148 149 144
-163.52054476738 695.015668869019 2697.00002670288 158 159 154
-156.023472547531 694.255173206329 2694.00000572205 165 166 161
-148.597523570061 693.751871585846 2691.99991226196 159 158 154
-141.129583120346 692.990303039551 2688.99989128113 147 146 141
-133.876666426659 693.258941173553 2690.00005722046 148 147 142
-126.570925116539 693.269312381744 2690.00005722046 139 138 133
-119.131848216057 692.505955696106 2687.00003623962 127 126 122
-111.583925783634 690.968811511993 2680.99999427795 161 160 156
-103.873781859875 688.142478466034 2670.00007629395 156 155 151
-96.4040830731392 686.604082584381 2664.00003433228 154 153 149
-88.8997912406921 684.549689292908 2655.99989891052 166 165 161
-81.5925225615501 683.783411979675 2653.00011634827 161 160 156
-74.217215180397 682.243227958679 2647.0000743866 168 167 163
-66.9502913951874 681.475758552551 2644.00005340576 164 163 159
-59.6768967807293 680.449903011322 2640.00010490417 165 164 160
-52.5046288967133 680.454432964325 2640.00010490417 168 167 163
-45.2120192348957 678.654074668884 2632.99989700317 164 163 159
-38.0296148359776 678.142011165619 2631.00004196167 161 160 155
-30.8462399989367 677.371561527252 2628.00002098084 163 162 157
-23.7151682376862 677.631556987762 2628.99994850159 159 158 153
-16.5659952908754 677.375376224518 2628.00002098084 155 154 149
-9.42221190780401 677.11877822876 2627.00009346008 156 155 150
-2.28383904322982 676.86140537262 2625.99992752075 157 156 151
4.85280016437173 677.119135856628 2627.00009346008 153 152 147
11.9994236156344 677.633941173553 2628.99994850159 152 151 146
19.156888127327 678.148210048676 2631.00004196167 154 153 148
26.3151694089174 678.404092788696 2631.99996948242 154 153 148
33.466100692749 678.401589393616 2631.99996948242 153 152 147
40.647815912962 678.914129734039 2634.0000629425 152 151 146
47.8221364319324 679.168283939362 2634.99999046326 151 150 145
54.9391843378544 678.648591041565 2632.99989700317 158 157 152
62.0452202856541 678.12842130661 2631.00004196167 159 158 153
69.1665187478065 677.865326404572 2630.00011444092 151 150 145
76.3112306594849 677.859425544739 2630.00011444092 149 148 143
83.4240168333054 677.595198154449 2628.99994850159 155 154 149
90.4278159141541 676.557302474976 2625 157 156 151
97.5954681634903 676.807403564453 2625.99992752075 153 152 147
104.648679494858 676.283895969391 2624.00007247925 154 153 148
111.903741955757 677.04838514328 2627.00009346008 155 154 149
118.948251008987 676.523685455322 2625 157 156 151
126.077651977539 676.513910293579 2625 155 154 149
133.257493376732 676.761269569397 2625.99992752075 156 155 150
140.495896339417 677.265763282776 2628.00002098084 155 154 149
147.744819521904 677.769839763641 2630.00011444092 153 152 147
154.886454343796 677.757859230042 2630.00011444092 154 153 148
162.212520837784 678.518414497375 2632.99989700317 154 153 149
169.618800282478 679.536104202271 2637.00008392334 137 136 132
177.180483937263 681.068658828735 2642.99988746643 150 149 145
184.913843870163 683.116018772125 2651.00002288818 121 120 116
192.472755908966 684.389710426331 2655.99989891052 138 137 133
199.908003211021 685.14746427536 2658.99991989136 147 148 142
207.203298807144 685.389518737793 2660.00008583069 127 128 122
214.58412706852 685.888528823853 2661.99994087219 139 140 134
221.725329756737 685.614168643951 2661.00001335144 142 143 137
228.688523173332 684.824109077454 2657.99999237061 148 149 143
235.546171665192 683.775782585144 2654.00004386902 152 153 147
242.930352687836 684.27300453186 2655.99989891052 152 153 148
250.418990850449 685.027241706848 2658.99991989136 151 152 147
257.632702589035 685.00816822052 2658.99991989136 152 153 148
265.244275331497 686.0191822052 2663.00010681152 160 161 156
272.569984197617 686.25682592392 2664.00003433228 183 184 179
280.32061457634 687.524378299713 2668.99991035461 179 181 176
289.498418569565 692.140161991119 2687.00003623962 200 205 201
-202.001661062241 694.047033786774 2721.99988365173 214 216 213
-194.326132535934 693.042576313019 2717.99993515015 182 182 180
-186.396703124046 691.017508506775 2710.00003814697 190 190 188
-178.840607404709 690.266907215118 2707.00001716614 177 177 175
-170.983612537384 688.240587711334 2698.99988174438 148 149 144
-163.594096899033 687.99889087677 2697.99995422363 150 151 146
-156.151682138443 687.501549720764 2696.00009918213 157 156 152
-148.774921894073 687.258541584015 2694.9999332428 153 152 148
-141.298279166222 686.505079269409 2691.99991226196 145 144 139
-133.9370906353 686.260938644409 2690.99998474121 148 147 142
-126.628085970879 686.271369457245 2690.99998474121 138 137 132
-119.185723364353 685.516178607941 2687.99996376038 125 124 120
-111.717753112316 684.505343437195 2684.00001525879 161 160 156
-103.959955275059 681.45364522934 2671.99993133545 156 155 151
-96.4842438697815 679.93152141571 2665.99988937378 156 155 151
-89.0073850750923 678.15363407135 2658.99991989136 166 165 161
-81.7528963088989 677.90549993515 2657.99999237061 161 160 156
-74.2512717843056 675.361454486847 2648.00000190735 169 168 164
-66.9050738215446 673.836886882782 2641.99995994568 166 165 161
-59.6139207482338 672.566831111908 2637.00008392334 167 166 162
-52.4293296039104 672.316193580627 2635.99991798401 168 167 163
-45.1985262334347 671.299993991852 2631.99996948242 163 162 158
-38.0037985742092 670.538187026978 2628.99994850159 164 163 158
-30.8370143175125 670.030951499939 2627.00009346008 161 160 155
-23.7170979380608 670.543193817139 2628.99994850159 157 156 151
-16.5736470371485 670.544862747192 2628.99994850159 154 153 148
-9.42298024892807 670.035779476166 2627.00009346008 154 153 148
-2.28315545246005 669.526100158691 2625 155 154 149
4.85504325479269 670.291244983673 2628.00002098084 153 152 147
12.0186610147357 671.56583070755 2632.99989700317 152 151 146
19.1802959889174 671.819686889648 2634.0000629425 154 153 148
26.3273101300001 671.562731266022 2632.99989700317 154 153 148
33.4433987736702 670.795202255249 2630.00011444092 153 152 147
40.6202562153339 671.302258968353 2631.99996948242 152 151 146
47.771580517292 671.298682689667 2631.99996948242 151 150 145
54.881040006876 670.7843542099 2630.00011444092 157 156 151
62.0030798017979 670.524537563324 2628.99994850159 158 157 152
69.1458210349083 670.519232749939 2628.99994850159 151 150 145
76.3174146413803 670.768439769745 2630.00011444092 149 148 143
83.3990201354027 670.251846313477 2628.00002098084 155 154 149
90.4351100325584 669.479727745056 2625 157 156 151
97.4918156862259 668.962001800537 2622.99990653992 153 152 147
104.577325284481 668.698906898499 2621.99997901917 154 153 148
111.69970780611 668.690145015717 2621.99997901917 155 154 149
118.9124584198 669.191002845764 2624.00007247925 157 156 151
126.087725162506 669.436156749725 2625 155 154 149
133.369609713554 670.190930366516 2628.00002098084 156 155 150
140.507057309151 670.179963111877 2628.00002098084 155 154 149
147.756516933441 670.678555965424 2630.00011444092 152 151 146
154.898703098297 670.666635036469 2630.00011444092 154 153 148
162.348523736 671.929061412811 2634.99999046326 150 149 145
169.889450073242 673.4459400177 2641.00003242493 138 137 133
177.596643567085 675.472319126129 2648.9999294281 133 132 128
185.277074575424 677.242994308472 2655.99989891052 141 140 136
192.850112915039 678.503215312958 2661.00001335144 121 120 116
200.2242654562 678.997874259949 2663.00010681152 155 156 150
207.608804106712 679.491996765137 2664.99996185303 130 131 125
214.923098683357 679.730653762817 2665.99988937378 138 139 133
222.075611352921 679.458856582642 2664.99996185303 145 146 140
228.878080844879 678.166925907135 2660.00008583069 146 147 141
235.83035171032 677.384376525879 2657.00006484985 153 154 148
242.674335837364 676.34654045105 2653.00011634827 152 153 148
250.061124563217 676.837682723999 2654.99997138977 151 152 147
257.264405488968 676.818609237671 2654.99997138977 153 154 149
264.965206384659 678.073763847351 2660.00008583069 160 161 156
272.385537624359 678.563475608826 2661.99994087219 182 183 178
280.446350574493 680.582225322723 2670.00007629395 178 180 175
289.411932229996 684.639692306519 2686.00010871887 198 203 199
-201.646313071251 685.445129871368 2717.00000762939 213 213 211
-193.983793258667 684.451520442963 2713.00005912781 180 180 178
-186.273723840714 683.204829692841 2707.99994468689 187 187 185
-178.722500801086 682.462275028229 2704.99992370605 181 181 179
-171.060472726822 681.214690208435 2700.00004768372 151 152 147
-163.607016205788 680.723130702972 2697.99995422363 151 152 147
-156.279891729355 680.73582649231 2697.99995422363 151 150 146
-148.952379822731 680.747985839844 2697.99995422363 149 148 144
-141.519516706467 680.254936218262 2696.00009918213 143 142 137
-134.246468544006 680.518269538879 2697.00002670288 143 142 137
-126.920595765114 680.52864074707 2697.00002670288 130 129 124
-119.461365044117 679.7816157341 2694.00000572205 114 113 109
-111.85161024332 678.024530410767 2687.00003623962 149 148 144
-104.046151041985 674.75289106369 2674.00002479553 145 144 140
-96.4920222759247 672.742187976837 2665.99988937378 157 156 152
-89.0145897865295 670.98331451416 2658.99991989136 165 164 160
-81.7595273256302 670.73792219162 2657.99999237061 164 163 159
-74.2853358387947 668.473064899445 2648.9999294281 169 168 164
-66.8345242738724 665.955364704132 2638.99993896484 167 166 162
-59.5509372651577 664.698719978333 2634.0000629425 168 167 163
-52.3739196360111 664.450883865356 2632.99989700317 166 165 161
-45.2022068202496 664.202511310577 2631.99996948242 163 162 158
-38.0068942904472 663.448810577393 2628.99994850159 168 167 162
-30.8395307511091 662.946939468384 2627.00009346008 155 154 149
-23.7100124359131 663.201510906219 2628.00002098084 153 152 147
-16.5623929351568 662.950813770294 2627.00009346008 154 153 148
-9.41657554358244 662.447154521942 2625 154 153 148
-2.28073261678219 661.690533161163 2621.99997901917 154 153 148
4.85174404457211 662.699818611145 2625.99992752075 153 152 147
12.0105128735304 663.960993289948 2631.00004196167 153 152 147
19.1818587481976 664.716780185699 2634.0000629425 155 154 149
26.3194590806961 664.210200309753 2631.99996948242 155 154 149
33.4588401019573 663.955450057983 2631.00004196167 154 153 148
40.6081341207027 663.952469825745 2631.00004196167 154 153 148
47.7391667664051 663.696527481079 2630.00011444092 152 151 146
54.8646338284016 663.439869880676 2628.99994850159 154 153 148
62.0081089437008 663.435101509094 2628.99994850159 155 154 149
69.2040473222733 663.934588432312 2631.00004196167 151 150 145
76.3526186347008 663.928627967834 2631.00004196167 151 150 145
83.3740308880806 662.912726402283 2627.00009346008 157 156 151
90.3735011816025 661.896347999573 2622.99990653992 158 157 152
97.4253490567207 661.384046077728 2621.00005149841 152 151 146
104.585744440556 661.628305912018 2621.99997901917 153 152 147
111.666090786457 661.367237567902 2621.00005149841 155 154 149
118.831358850002 661.61036491394 2621.99997901917 155 154 149
126.049786806107 662.105202674866 2624.00007247925 155 154 149
133.329525589943 662.851870059967 2627.00009346008 156 155 150
140.518248081207 663.093209266663 2628.00002098084 153 152 147
147.7120667696 663.33395242691 2628.99994850159 151 150 145
154.852047562599 663.321971893311 2628.99994850159 154 153 148
162.422955036163 665.075540542603 2635.99991798401 152 151 147
169.967144727707 666.576266288757 2641.99995994568 159 158 154
177.744656801224 668.833315372467 2651.00002288818 143 142 138
185.431078076363 670.585095882416 2657.99999237061 163 162 158
193.227514624596 672.588527202606 2665.99988937378 153 152 148
200.766161084175 673.582434654236 2670.00007629395 129 130 124
208.092331886292 673.81888628006 2671.0000038147 119 120 114
215.100914239883 673.045635223389 2667.99998283386 134 135 129
222.176015377045 672.524273395538 2665.99988937378 145 146 140
229.067668318748 671.497941017151 2661.99994087219 147 148 142
236.114591360092 670.975804328918 2660.00008583069 153 154 148
242.967128753662 669.948577880859 2655.99989891052 152 153 148
250.174164772034 669.9298620224 2655.99989891052 151 152 147
257.477551698685 670.162975788116 2657.00006484985 155 156 151
265.184223651886 671.404480934143 2661.99994087219 162 163 158
272.815108299255 672.393262386322 2665.99988937378 178 179 174
280.572116374969 673.633873462677 2671.0000038147 174 176 171
289.109915494919 676.639199256897 2683.00008773804 192 197 193
-201.736241579056 678.366661071777 2717.99993515015 213 213 211
-193.927437067032 676.884591579437 2711.99989318848 181 181 179
-186.219558119774 675.651550292969 2707.00001716614 187 187 185
-178.604423999786 674.667537212372 2703.00006866455 184 184 182
-171.137303113937 674.182057380676 2700.99997520447 153 152 148
-163.619980216026 673.446476459503 2697.99995422363 151 150 146
-156.35022521019 673.708736896515 2698.99988174438 150 149 145
-149.019435048103 673.720836639404 2698.99988174438 148 147 143
-141.740798950195 673.982083797455 2700.00004768372 143 142 137
-134.406551718712 673.993110656738 2700.00004768372 143 142 137
-127.071961760521 674.003601074219 2700.00004768372 131 128 123
-119.559653103352 673.014998435974 2696.00009918213 117 116 112
-111.985512077808 671.526491641998 2690.00005722046 148 147 143
-104.249112308025 668.789148330688 2678.99990081787 142 141 137
-96.7531949281693 667.299449443817 2673.00009727478 151 150 146
-89.1891941428185 665.06016254425 2664.00003433228 165 164 160
-81.7661508917809 663.569152355194 2657.99999237061 166 165 161
-74.2633193731308 661.078989505768 2648.00000190735 170 169 165
-66.7893067002296 658.338606357574 2637.00008392334 167 166 162
-59.510562568903 657.095432281494 2631.99996948242 168 167 163
-52.3185096681118 656.600654125214 2630.00011444092 165 164 160
-45.1887138187885 656.854271888733 2631.00004196167 167 166 162
-38.0533710122108 657.107353210449 2631.99996948242 167 166 161
-30.8655239641666 656.361162662506 2628.99994850159 152 151 146
-23.720970377326 656.363308429718 2628.99994850159 152 151 146
-16.5637470781803 655.865788459778 2627.00009346008 155 154 149
-9.42451972514391 655.866801738739 2627.00009346008 155 154 149
-2.28352844715118 655.367910861969 2625 157 156 151
4.85398899763823 655.867159366608 2627.00009346008 153 152 147
12.0069282129407 656.615495681763 2630.00011444092 153 152 147
19.1761422902346 657.363176345825 2632.99989700317 155 154 149
26.3316072523594 657.361268997192 2632.99989700317 156 155 150
33.474288880825 657.109260559082 2631.99996948242 155 154 149
40.6423136591911 657.355785369873 2632.99989700317 154 153 148
47.7430559694767 656.603336334229 2630.00011444092 152 151 146
54.8273622989655 655.850112438202 2627.00009346008 154 153 148
61.9659870862961 655.845403671265 2627.00009346008 155 154 149
69.2096576094627 656.838595867157 2631.00004196167 151 150 145
76.3588100671768 656.832754611969 2631.00004196167 152 151 146
83.3173021674156 655.328333377838 2625 158 157 152
90.2774482965469 654.073059558868 2619.99988555908 158 157 152
97.3588675260544 653.815805912018 2618.99995803833 152 151 146
104.634054005146 654.80625629425 2622.99990653992 152 151 146
111.802890896797 655.047237873077 2624.00007247925 154 153 148
119.02217566967 655.537128448486 2625.99992752075 154 153 148
126.107916235924 655.277729034424 2625 153 152 147
133.289396762848 655.516922473907 2625.99992752075 155 154 149
140.422493219376 655.506014823914 2625.99992752075 153 152 147
147.611439228058 655.744194984436 2627.00009346008 151 150 145
154.864326119423 656.23140335083 2628.99994850159 154 153 148
162.620678544044 658.714950084686 2638.99993896484 158 157 153
170.302256941795 660.698652267456 2647.0000743866 156 155 151
178.026854991913 662.681698799133 2654.99997138977 164 163 159
185.585141181946 663.915395736694 2660.00008583069 146 145 141
193.387597799301 665.897309780121 2667.99998283386 166 165 161
201.082587242126 667.379438877106 2674.00002479553 118 117 113
208.575934171677 668.112218379974 2677.00004577637 114 115 109
215.440034866333 666.847944259644 2671.99993133545 138 139 133
222.443118691444 666.082322597504 2668.99991035461 143 144 138
229.171246290207 664.567649364471 2663.00010681152 150 151 145
236.221358180046 664.050817489624 2661.00001335144 149 150 144
243.168562650681 663.283944129944 2657.99999237061 151 152 147
250.381469726563 663.265228271484 2657.99999237061 151 152 147
257.690727710724 663.495540618896 2658.99991989136 157 158 153
265.204071998596 664.2245054245 2661.99994087219 164 165 160
272.835403680801 665.202438831329 2665.99988937378 175 176 171
280.697911977768 666.678905487061 2671.99993133545 171 173 168
288.484632968903 667.905449867249 2677.00004577637 189 194 190
300.164461135864 677.863538265228 2717.00000762939 204 209 205
-201.677724719048 670.787930488586 2717.00000762939 214 214 212
-193.942621350288 669.568955898285 2711.99989318848 176 176 174
-186.234161257744 668.349325656891 2707.00001716614 181 181 179
-178.618490695953 667.376101016998 2703.00006866455 192 192 190
-171.277567744255 667.389929294586 2703.00006866455 156 155 151
-163.754239678383 666.662395000458 2700.00004768372 146 145 141
-156.420588493347 666.67515039444 2700.00004768372 152 151 147
-149.08654987812 666.687309741974 2700.00004768372 150 149 145
-141.804620623589 666.94587469101 2700.99997520447 146 143 138
-134.51686501503 667.203783988953 2701.99990272522 145 142 137
-127.176284790039 667.214334011078 2701.99990272522 129 126 121
-119.702309370041 666.483402252197 2698.99988174438 114 113 109
-112.161077558994 665.258049964905 2694.00000572205 146 145 141
-104.452110826969 662.797391414642 2684.00001525879 142 141 137
-96.9420149922371 661.323845386505 2677.99997329712 158 157 153
-89.3638208508492 659.108817577362 2668.99991035461 165 164 160
-81.8650797009468 657.14019536972 2661.00001335144 168 167 163
-74.3254423141479 654.430031776428 2650.00009536743 169 168 164
-66.8960511684418 652.213156223297 2641.00003242493 166 165 161
-59.6284680068493 651.23051404953 2637.00008392334 165 164 160
-52.4421408772469 650.988042354584 2635.99991798401 159 158 154
-45.278288424015 650.992095470428 2635.99991798401 162 161 157
-38.0998551845551 650.748550891876 2634.99999046326 160 159 154
-30.8797881007195 649.516522884369 2630.00011444092 149 148 143
-23.7138867378235 649.024784564972 2628.00002098084 151 150 145
-16.5587943047285 648.532569408417 2625.99992752075 151 150 145
-9.43246483802795 649.274408817291 2628.99994850159 153 152 147
-2.2863254416734 649.028062820435 2628.00002098084 157 156 151
4.85438527539372 648.780941963196 2627.00009346008 153 152 147
11.9896465912461 648.533225059509 2625.99992752075 153 152 147
19.1485751420259 649.272918701172 2628.99994850159 155 154 149
26.3237599283457 650.011956691742 2631.99996948242 157 156 151
33.4770195186138 650.009512901306 2631.99996948242 156 155 150
40.6456291675568 650.253415107727 2632.99989700317 155 154 149
47.7469451725483 649.508953094482 2630.00011444092 153 152 147
54.8526979982853 649.010837078094 2628.00002098084 156 155 150
61.9946159422398 649.006128311157 2628.00002098084 157 156 151
69.1889822483063 649.494707584381 2630.00011444092 152 151 146
76.3069540262222 649.241745471954 2628.99994850159 152 151 146
83.2923278212547 648.000597953796 2624.00007247925 156 155 150
90.3192162513733 647.25261926651 2621.00005149841 158 157 152
97.4038988351822 646.998107433319 2619.99988555908 152 151 146
104.722283780575 648.224651813507 2625 151 150 145
111.982345581055 648.956775665283 2628.00002098084 152 151 146
119.122415781021 648.947477340698 2628.00002098084 153 152 147
126.118019223213 648.196876049042 2625 152 151 146
133.19855928421 647.939562797546 2624.00007247925 153 152 147
140.38023352623 648.175537586212 2625 154 153 148
147.679373621941 648.904740810394 2628.00002098084 152 151 146
155.053362250328 649.880409240723 2631.99996948242 153 152 147
162.75680065155 652.090013027191 2641.00003242493 162 161 157
170.44435441494 654.052138328552 2648.9999294281 142 141 137
178.174957633018 656.013607978821 2657.00006484985 167 166 162
185.599729418755 656.740069389343 2660.00008583069 135 134 130
193.475186824799 658.947169780731 2668.99991035461 151 150 146
201.098248362541 660.166263580322 2674.00002479553 89 90 84
208.592116832733 660.890936851501 2677.00004577637 114 115 109
215.617939829826 660.133898258209 2674.00002479553 143 144 138
222.626939415932 659.376323223114 2671.0000038147 143 144 138
229.447022080421 658.124685287476 2665.99988937378 151 152 146
236.328154802322 657.119393348694 2661.99994087219 146 147 141
243.552997708321 657.101154327393 2661.99994087219 151 152 147
250.588834285736 656.588733196259 2660.00008583069 151 152 147
257.903963327408 656.816363334656 2661.00001335144 158 159 154
265.223920345306 657.043516635895 2661.99994087219 184 185 180
273.060470819473 658.50430727005 2667.99998283386 173 174 169
280.508637428284 658.977329730988 2670.00007629395 169 171 166
288.182616233826 659.943521022797 2674.00002479553 186 191 187
298.087298870087 665.844976902008 2697.99995422363 202 207 203
-201.545000076294 662.96923160553 2714.99991416931 211 211 209
-193.743273615837 661.519646644592 2709.00011062622 170 170 168
-186.180010437965 660.801947116852 2706.00008964539 177 177 175
-178.632587194443 660.083651542664 2703.00006866455 198 198 196
-171.291097998619 660.097420215607 2703.00006866455 160 159 155
-163.827881217003 659.622311592102 2700.99997520447 147 146 142
-156.490951776505 659.635007381439 2700.99997520447 151 150 146
-149.098426103592 659.402966499329 2700.00004768372 149 148 144
-141.868442296982 659.902989864349 2701.99990272522 144 141 136
-134.477853775024 659.669816493988 2700.99997520447 142 139 134
-127.28063762188 660.413026809692 2703.9999961853 127 124 119
-119.845002889633 659.934461116791 2701.99990272522 102 101 97
-112.336665391922 658.966898918152 2697.99995422363 140 139 135
-104.616224765778 656.533241271973 2687.99996376038 138 137 133
-97.0584750175476 654.831647872925 2680.99999427795 159 158 154
-89.4715189933777 652.64093875885 2671.99993133545 165 164 160
-81.964023411274 650.693893432617 2664.00003433228 167 166 162
-74.3875801563263 647.769093513489 2651.99995040894 166 165 161
-67.0028254389763 646.065056324005 2644.99998092651 164 163 159
-59.7463883459568 645.337402820587 2641.99995994568 162 161 157
-52.5458939373493 645.097732543945 2641.00003242493 154 153 149
-45.3335158526897 644.613146781921 2638.99993896484 154 153 149
-38.1174273788929 643.88382434845 2635.99991798401 158 157 152
-30.9057962149382 642.909586429596 2631.99996948242 148 147 142
-23.7428992986679 642.667531967163 2631.00004196167 151 150 145
-16.585374251008 642.425000667572 2630.00011444092 149 148 143
-9.44400113075972 642.914533615112 2631.99996948242 151 150 145
-2.28825258091092 642.426490783691 2630.00011444092 156 155 150
4.85108653083444 641.205072402954 2625 153 152 147
11.986062861979 641.204357147217 2625 153 152 147
19.1355738788843 641.691625118256 2627.00009346008 156 155 150
26.3159070163965 642.666816711426 2631.00004196167 157 156 151
33.4543138742447 642.4201130867 2630.00011444092 156 155 150
40.6026355922222 642.417132854462 2630.00011444092 155 154 149
47.7145239710808 641.924917697906 2628.00002098084 153 152 147
54.8363029956818 641.676545143127 2627.00009346008 157 156 151
62.023252248764 642.160296440125 2628.99994850159 158 157 152
69.194607436657 642.399191856384 2630.00011444092 153 152 147
76.2550979852676 641.660511493683 2627.00009346008 152 151 146
83.2673236727715 640.676975250244 2622.99990653992 156 155 150
90.3954580426216 640.670001506805 2622.99990653992 158 157 152
97.6348668336868 641.395092010498 2625.99992752075 153 152 147
104.890324175358 642.119646072388 2628.99994850159 151 150 145
112.076580524445 642.355144023895 2630.00011444092 149 148 143
119.222648441792 642.34584569931 2630.00011444092 153 152 147
126.224249601364 641.603291034698 2627.00009346008 149 148 143
133.25996696949 641.104400157928 2625 151 150 145
140.498399734497 641.581952571869 2627.00009346008 155 154 149
147.803544998169 642.303168773651 2630.00011444092 154 153 148
155.301347374916 643.75638961792 2635.99991798401 153 152 147
163.139492273331 646.430194377899 2647.0000743866 166 165 161
170.843929052353 648.370623588562 2654.99997138977 144 143 139
178.390190005302 649.577915668488 2660.00008583069 141 140 136
185.75382232666 650.051891803741 2661.99994087219 165 164 160
193.56282055378 651.990652084351 2670.00007629395 144 143 139
201.189130544662 653.196156024933 2674.99995231628 96 95 90
208.608314394951 653.668642044067 2677.00004577637 113 114 108
215.715274214745 653.16379070282 2674.99995231628 136 135 130
222.810834646225 652.658522129059 2673.00009727478 144 145 139
229.550704360008 651.176154613495 2667.00005531311 148 149 143
236.435040831566 650.181710720062 2663.00010681152 153 154 148
243.571519851685 649.919152259827 2661.99994087219 151 152 147
250.890463590622 650.144577026367 2663.00010681152 151 152 147
258.020341396332 649.88112449646 2661.99994087219 160 161 156
265.44314622879 650.349795818329 2664.00003433228 183 184 179
273.080855607986 651.306092739105 2667.99998283386 170 171 166
280.634582042694 652.017831802368 2671.0000038147 167 168 163
288.203895092011 652.729034423828 2674.00002479553 180 185 181
297.777712345123 657.833456993103 2694.9999332428 198 203 199
-209.318146109581 656.834661960602 2720.00002861023 208 213 209
-201.560720801353 655.643224716187 2714.99991416931 205 206 201
-193.758428096771 654.209792613983 2709.00011062622 169 170 165
-186.263427138329 653.741717338562 2707.00001716614 172 173 168
-178.778812289238 653.272986412048 2704.99992370605 190 191 186
-171.304658055305 652.803897857666 2703.00006866455 175 176 171
-163.901507854462 652.575612068176 2701.99990272522 146 147 142
-156.503394246101 652.346789836884 2700.99997520447 146 145 141
-149.165540933609 652.359008789063 2700.99997520447 147 146 142
-141.879796981812 652.612090110779 2701.99990272522 144 143 139
-134.637996554375 653.106212615967 2703.9999961853 141 140 136
-127.479150891304 654.082894325256 2707.99994468689 119 118 114
-120.076440274715 653.851270675659 2707.00001716614 104 103 99
-112.470641732216 652.41140127182 2700.99997520447 135 134 130
-104.624666273594 649.2800116539 2687.99996376038 145 144 140
-97.0663204789162 647.597312927246 2680.99999427795 156 155 151
-89.5457491278648 645.914077758789 2674.00002479553 162 161 157
-82.0629894733429 644.23018693924 2667.00005531311 160 159 155
-74.4777843356133 641.337811946869 2654.99997138977 172 171 167
-67.1349540352821 640.135824680328 2650.00009536743 161 160 156
-59.886958450079 639.65779542923 2648.00000190735 148 147 143
-52.6695661246777 639.420866966248 2647.0000743866 146 145 141
-45.3887544572353 638.217031955719 2641.99995994568 170 169 165
-38.1494611501694 637.254118919373 2638.00001144409 150 149 144
-30.9435483068228 636.532247066498 2634.99999046326 148 147 142
-23.7628873437643 636.05135679245 2632.99989700317 148 147 142
-16.6119560599327 636.294662952423 2634.0000629425 152 151 146
-9.44836158305407 636.054039001465 2632.99989700317 155 154 149
-2.28930963203311 635.571420192719 2631.00004196167 158 157 152
4.85333148390055 634.3634724617 2625.99992752075 154 153 148
11.9870416820049 634.121239185333 2625 154 153 148
19.1298518329859 634.361505508423 2625.99992752075 156 155 150
26.3080559670925 635.325968265533 2630.00011444092 156 155 150
33.4443263709545 635.081887245178 2628.99994850159 157 156 151
40.5905097723007 635.078907012939 2628.99994850159 159 155 152
47.6821027696133 634.350597858429 2625.99992752075 158 154 151
54.8616386950016 634.829521179199 2628.00002098084 157 153 150
61.9811154901981 634.583234786987 2627.00009346008 158 154 151
69.1476091742516 634.819447994232 2628.00002098084 156 152 149
76.2322619557381 634.330451488495 2625.99992752075 155 151 148
83.3375826478004 634.08237695694 2625 158 154 151
90.5061662197113 634.316861629486 2625.99992752075 161 157 154
97.6799428462982 634.550869464874 2627.00009346008 158 154 151
104.779079556465 634.301066398621 2625.99992752075 152 148 145
111.957751214504 634.533882141113 2627.00009346008 149 145 142
119.096226990223 634.524643421173 2627.00009346008 148 147 143
126.330465078354 634.997844696045 2628.99994850159 149 150 145
133.422955870628 634.745895862579 2628.00002098084 143 144 139
140.723586082458 635.45960187912 2631.00004196167 147 148 143
148.040130734444 636.172592639923 2634.0000629425 156 157 152
155.549362301826 637.609660625458 2640.00010490417 151 152 147
163.275673985481 639.77062702179 2648.9999294281 165 166 161
170.921757817268 641.447961330414 2655.99989891052 144 145 140
178.337141871452 642.158687114716 2658.99991989136 144 145 140
185.768395662308 642.868936061859 2661.99994087219 151 152 147
193.577960133553 644.786059856415 2670.00007629395 151 152 147
201.430469751358 646.702587604523 2677.99997329712 99 98 93
208.780378103256 646.928071975708 2678.99990081787 104 103 98
215.973898768425 646.67010307312 2677.99997329712 143 140 135
222.82800078392 645.445823669434 2673.00009727478 144 143 138
229.654401540756 644.221067428589 2667.99998283386 148 147 142
236.541882157326 643.237352371216 2664.00003433228 149 148 143
243.590071797371 642.7361369133 2661.99994087219 148 147 143
251.09788775444 643.441736698151 2664.99996185303 156 157 152
258.33061337471 643.422424793243 2664.99996185303 152 153 148
265.762001276016 643.885612487793 2667.00005531311 173 174 169
273.203641176224 644.34826374054 2668.99991035461 169 170 165
280.340194702148 644.086241722107 2667.99998283386 163 164 159
288.117438554764 645.272195339203 2673.00009727478 176 178 175
297.136604785919 649.11288022995 2688.99989128113 200 202 199
-210.104048252106 651.88193321228 2730.00001907349 209 214 210
-201.576456427574 648.316085338593 2714.99991416931 201 202 197
-193.773612380028 646.898865699768 2709.00011062622 166 167 162
