ply
format ascii 1.0
comment KinectMotionCapture
element vertex 782
property float x
property float y
property float z
property uchar red
property uchar green
property uchar blue
end_header
601.585686206818 1015.78187942505 2345.00002861023 71 48 32
610.036253929138 1019.28508281708 2352.9999256134 71 49 35
622.723281383514 1029.7212600708 2377.00009346008 91 74 58
519.611775875092 1023.17333221436 2378.00002098084 173 159 146
522.523939609528 1016.31093025208 2361.99998855591 202 189 173
527.365446090698 1013.3216381073 2355.00001907349 153 137 121
532.622992992401 1011.19375228882 2349.99990463257 115 94 75
538.083553314209 1009.49692726135 2345.99995613098 97 74 56
543.52331161499 1007.80117511749 2342.00000762939 89 63 46
550.116062164307 1008.25762748718 2342.99993515015 85 59 44
560.515224933624 1015.60068130493 2359.99989509583 87 61 46
570.527315139771 1022.08459377289 2375 72 46 31
578.921139240265 1025.5571603775 2382.99989700317 62 36 23
585.148572921753 1025.15780925751 2381.99996948242 56 33 19
588.887929916382 1020.45559883118 2371.00005149841 55 33 20
592.317402362823 1015.32363891602 2358.99996757507 70 48 35
597.205698490143 1012.77530193329 2352.9999256134 71 49 35
603.858053684235 1013.24093341827 2354.00009155273 78 57 40
613.627970218658 1018.87309551239 2367.00010299683 76 57 42
626.08939409256 1028.81145477295 2390.00010490417 84 68 52
516.161739826202 1022.65775203705 2391.99995994568 168 156 142
521.557331085205 1020.53999900818 2387.00008392334 201 185 170
524.935603141785 1014.57500457764 2372.99990653992 142 125 109
527.790904045105 1007.75563716888 2357.00011253357 125 106 91
531.919777393341 1003.50213050842 2346.99988365173 94 71 55
538.059413433075 1003.09753417969 2345.99995613098 87 64 48
544.426441192627 1003.12149524689 2345.99995613098 82 56 43
553.611695766449 1008.27765464783 2358.00004005432 82 56 43
561.200499534607 1010.44166088104 2362.99991607666 84 58 45
570.258557796478 1015.17260074615 2374.00007247925 71 44 33
578.162789344788 1017.76671409607 2380.00011444092 65 38 27
585.117816925049 1018.65136623383 2381.99996948242 58 34 22
589.104533195496 1014.40536975861 2371.99997901917 62 38 26
592.535853385925 1009.3047618866 2359.99989509583 80 58 45
599.202275276184 1009.76502895355 2361.00006103516 75 53 39
608.440279960632 1014.50324058533 2371.99997901917 59 42 24
618.776142597198 1020.95401287079 2387.00008392334 60 47 30
508.590996265411 1014.00101184845 2387.00008392334 122 114 101
515.71136713028 1015.29312133789 2390.00010490417 212 198 185
522.193253040314 1015.31171798706 2390.00010490417 202 186 171
527.348518371582 1012.78221607208 2384.0000629425 136 117 102
530.456721782684 1006.42991065979 2368.99995803833 95 74 57
533.257603645325 999.653398990631 2352.9999256134 86 63 49
539.871335029602 1000.10001659393 2354.00009155273 81 58 44
546.723246574402 1000.97250938416 2355.99994659424 83 56 45
555.934548377991 1006.09457492828 2368.00003051758 88 61 50
562.599539756775 1006.54411315918 2368.99995803833 87 60 49
570.47176361084 1009.11927223206 2375 73 46 37
577.40581035614 1009.99581813812 2377.00009346008 69 42 33
585.334241390228 1012.5732421875 2382.99989700317 64 37 26
592.799603939056 1014.30201530457 2387.00008392334 66 42 30
599.785506725311 1015.18201828003 2388.99993896484 83 60 46
500.822365283966 1018.02468299866 2411.99994087219 244 236 225
504.6266913414 1012.5527381897 2398.9999294281 208 196 184
509.852588176727 1010.03623008728 2392.99988746643 207 191 178
516.125321388245 1009.63068008423 2391.99995994568 144 125 110
523.70423078537 1011.75844669342 2397.0000743866 113 94 79
529.762506484985 1010.93232631683 2394.99998092651 102 81 64
534.019410610199 1006.73043727875 2384.99999046326 76 55 38
537.769377231598 1001.68466567993 2372.99990653992 73 52 35
544.6657538414 1002.54964828491 2375 69 46 30
550.181448459625 1000.88262557983 2371.00005149841 88 58 47
558.023929595947 1003.43799591064 2377.00009346008 90 58 47
563.762366771698 1002.19488143921 2374.00007247925 90 58 47
572.127521038055 1005.59651851654 2381.99996948242 80 47 38
580.051243305206 1008.15498828888 2388.00001144409 76 48 37
589.973270893097 1014.09208774567 2401.99995040894 66 47 33
18.8721753656864 1090.59643745422 2601.0000705719 60 62 51
25.3663063049316 1067.5345659256 2546.0000038147 54 54 44
495.500147342682 1013.96763324738 2417.99998283386 237 230 220
500.600576400757 1011.04557514191 2411.00001335144 253 245 234
505.453288555145 1007.70461559296 2403.00011634827 160 146 133
510.476171970367 1004.78374958038 2395.99990844727 153 137 124
516.540586948395 1003.96025180817 2394.00005340576 114 95 80
523.687064647675 1005.23447990417 2397.0000743866 99 78 61
530.629277229309 1006.09016418457 2398.9999294281 96 73 57
537.582993507385 1006.94668292999 2401.00002288818 88 65 49
542.508840560913 1004.02963161469 2394.00005340576 73 52 35
549.231886863709 1004.46832180023 2394.99998092651 74 51 35
552.944660186768 999.455809593201 2382.99989700317 93 63 52
559.175372123718 999.057590961456 2381.99996948242 93 61 50
565.876364707947 999.499082565308 2382.99989700317 88 56 45
575.946092605591 1005.81359863281 2398.00000190735 92 62 52
586.098194122314 1012.12966442108 2413.00010681152 80 52 41
4.64075524359941 1050.24445056915 2520.99990844727 16 17 9
18.4226166456938 1057.7427148819 2539.00003433228 19 19 9
25.4065692424774 1062.32488155365 2549.99995231628 23 23 13
484.976440668106 1012.78924942017 2430.99999427795 255 255 248
489.541798830032 1008.633852005 2421.0000038147 249 246 239
494.873106479645 1006.14547729492 2414.99996185303 193 189 178
500.380039215088 1004.07445430756 2410.00008583069 198 189 180
506.070613861084 1002.42054462433 2405.99989891052 81 69 57
511.31409406662 999.934196472168 2400.00009536743 101 87 74
516.956984996796 998.281717300415 2395.99990844727 93 75 61
523.889660835266 999.129891395569 2398.00000190735 92 73 58
531.276106834412 1000.81205368042 2401.99995040894 84 61 45
538.684904575348 1002.49528884888 2405.99989891052 73 50 34
544.07662153244 1000.42927265167 2401.00002288818 79 57 43
550.129890441895 999.614179134369 2398.9999294281 78 56 42
553.852736949921 994.63301897049 2387.00008392334 70 47 33
560.328125953674 994.6528673172 2387.00008392334 97 73 61
568.229019641876 997.173845767975 2392.99988746643 84 62 49
581.206858158112 1008.4468126297 2420.00007629395 76 56 45
24.669736623764 1024.81186389923 2476.0000705719 18 18 8
31.8804755806923 1041.36717319489 2516.00003242493 27 27 17
38.7849360704422 1043.84982585907 2522.0000743866 33 35 24
45.6495173275471 1044.67678070068 2523.9999294281 35 37 26
69.6104541420937 1099.30777549744 2655.99989891052 26 28 17
76.6570270061493 1097.23711013794 2651.00002288818 36 39 30
478.38020324707 1006.17754459381 2430.99999427795 252 253 247
483.769565820694 1003.70311737061 2424.99995231628 243 244 238
489.329159259796 1001.64330005646 2420.00007629395 200 197 190
494.247257709503 998.342216014862 2411.99994087219 165 161 152
500.16051530838 997.111320495605 2408.99991989136 182 175 165
506.689131259918 997.122883796692 2408.99991989136 75 63 51
512.366056442261 995.479464530945 2404.99997138977 86 72 59
518.237590789795 994.250655174255 2401.99995040894 90 72 58
524.093449115753 993.022620677948 2398.9999294281 91 72 57
531.481862068176 994.692862033844 2403.00011634827 83 62 45
538.444757461548 995.535969734192 2404.99997138977 76 55 38
544.739305973053 995.138049125671 2404.00004386902 68 46 33
549.882650375366 992.671251296997 2398.00000190735 75 53 40
554.994106292725 990.20516872406 2391.99995994568 71 52 38
562.186360359192 991.46568775177 2394.99998092651 80 62 50
573.432266712189 999.764740467072 2414.99996185303 77 61 48
-2.28896713815629 1085.97755432129 2641.00003242493 15 18 9
4.77532250806689 1066.65110588074 2594.00010108948 16 17 9
11.7033561691642 1058.01570415497 2572.99995422363 17 17 7
18.5829699039459 1053.08103561401 2561.00010871887 15 15 5
25.0289365649223 1032.93180465698 2512.00008392334 16 13 4
31.7037254571915 1028.81932258606 2502.00009346008 15 15 3
39.1086786985397 1045.67754268646 2542.99998283386 27 29 18
46.6994605958462 1061.71333789825 2582.00001716614 32 34 23
54.8549219965935 1084.73944664001 2638.00001144409 35 37 24
61.9740150868893 1084.32698249817 2637.00008392334 28 30 17
472.562909126282 1001.21581554413 2434.99994277954 214 216 211
478.175222873688 999.167263507843 2430.0000667572 188 193 189
483.36187005043 996.296882629395 2423.00009727478 175 180 176
489.117562770844 994.660675525665 2418.99991035461 158 159 153
494.237244129181 991.791427135468 2411.99994087219 160 160 152
499.942302703857 990.156352519989 2407.99999237061 158 154 145
506.467461585999 990.166783332825 2407.99999237061 144 136 125
513.206243515015 990.589082241058 2408.99991989136 84 74 62
519.303679466248 989.778578281403 2407.00006484985 82 66 51
525.39074420929 988.96861076355 2404.99997138977 83 65 51
531.909942626953 988.98184299469 2404.99997138977 83 64 49
538.877487182617 989.818394184113 2407.00006484985 87 68 53
545.17662525177 989.421904087067 2405.99989891052 60 40 29
550.553917884827 987.381398677826 2401.00002288818 66 48 36
556.136727333069 985.752940177917 2397.0000743866 47 33 22
-9.35063231736422 1068.63844394684 2615.9999370575 16 17 9
-2.29508592747152 1081.71057701111 2648.00000190735 16 17 9
4.79752151295543 1064.55338001251 2605.99994659424 21 21 11
11.7991408333182 1059.65137481689 2594.00010108948 14 11 2
18.7720507383347 1056.79130554199 2586.99989318848 20 18 6
25.6871189922094 1053.11441421509 2578.00006866455 16 12 0
32.5787775218487 1050.2542257309 2571.00009918213 15 11 0
39.5709313452244 1051.07033252716 2572.99995422363 19 17 5
47.2250208258629 1066.59233570099 2611.00006103516 18 18 6
54.3570667505264 1067.81661510468 2614.00008201599 21 19 7
61.7403537034988 1073.12572002411 2627.00009346008 33 31 18
68.5125589370728 1067.81387329102 2614.00008201599 26 24 11
74.0865543484688 1046.57030105591 2562.00003623962 25 23 11
82.1302831172943 1060.86587905884 2596.99988365173 22 22 10
468.257397413254 999.50510263443 2447.00002670288 212 213 208
472.36230969429 994.200885295868 2434.00001525879 236 238 233
478.168159723282 992.573380470276 2430.0000667572 151 157 153
483.553677797318 990.129351615906 2424.00002479553 170 175 171
489.513695240021 988.91144990921 2421.0000038147 163 165 160
494.843095541 986.468493938446 2414.99996185303 147 148 142
500.555694103241 984.843373298645 2411.00001335144 158 155 148
507.088303565979 984.852612018585 2411.00001335144 167 160 150
513.834476470947 985.271036624908 2411.99994087219 98 90 79
520.370721817017 985.281586647034 2411.99994087219 82 68 55
527.126133441925 985.701620578766 2413.00010681152 84 68 55
533.887386322021 986.122190952301 2414.00003433228 91 73 59
541.773974895477 988.586068153381 2420.00007629395 79 61 47
549.467086791992 990.642249584198 2424.99995231628 73 55 43
-49.8494654893875 1020.59066295624 2515.00010490417 29 34 27
-9.33656375855207 1059.95810031891 2611.99998855591 14 15 7
-2.26567313075066 1060.76979637146 2614.00008201599 18 18 8
4.79027628898621 1055.90009689331 2601.99999809265 11 11 1
11.8130762130022 1053.87079715729 2596.99988365173 33 31 19
18.8160520046949 1052.24716663361 2592.99993515015 41 37 25
25.8172824978828 1051.4349937439 2591.00008010864 28 22 10
32.8076705336571 1050.6227016449 2588.99998664856 24 18 6
39.1720235347748 1033.57803821564 2546.99993133545 20 16 4
46.4665032923222 1042.50466823578 2569.00000572205 28 24 12
54.2544089257717 1058.73548984528 2608.99996757507 28 24 12
61.36579439044 1059.54563617706 2611.00006103516 27 21 9
68.2258754968643 1056.29754066467 2602.9999256134 25 19 5
75.1582831144333 1054.67259883881 2598.99997711182 27 23 11
81.0253322124481 1039.65604305267 2562.00003623962 18 16 3
89.644655585289 1059.53812599182 2611.00006103516 28 30 19
461.248159408569 992.053806781769 2444.9999332428 229 231 226
467.104285955429 990.435004234314 2440.99998474121 173 175 170
471.774607896805 986.382186412811 2430.99999427795 172 177 171
477.965295314789 985.575973987579 2428.99990081787 142 148 144
483.746498823166 983.958721160889 2424.99995231628 142 147 143
489.910870790482 983.153700828552 2423.00009727478 145 147 142
496.064722537994 982.349038124084 2421.0000038147 145 147 142
501.792907714844 980.733573436737 2417.00005531311 134 135 129
507.710218429565 979.524493217468 2414.00003433228 125 122 115
513.611733913422 978.316068649292 2411.00001335144 125 121 112
519.713163375854 977.51396894455 2408.99991989136 112 103 94
527.333378791809 979.553043842316 2414.00003433228 91 81 71
535.423576831818 982.404470443726 2421.0000038147 81 68 59
544.000029563904 986.068308353424 2430.0000667572 92 79 70
551.719427108765 988.109827041626 2434.99994277954 104 91 83
-23.69817905128 1062.58690357208 2635.99991798401 17 19 8
-16.5666788816452 1062.99066543579 2637.00008392334 16 18 7
-9.39043052494526 1058.9599609375 2627.00009346008 16 16 4
-2.24839802831411 1045.65763473511 2594.00010108948 19 15 3
4.77199256420136 1044.85130310059 2592.00000762939 28 22 8
11.7860985919833 1044.44801807404 2591.00008010864 36 30 16
18.7875237315893 1043.64132881165 2588.99998664856 44 36 23
25.8080009371042 1044.04377937317 2589.99991416931 42 33 18
32.7578522264957 1042.027592659 2585.00003814697 41 32 17
39.6959818899632 1040.41421413422 2581.00008964539 34 25 10
47.1188798546791 1050.08745193481 2605.00001907349 45 36 21
54.1518479585648 1049.68297481537 2604.00009155273 48 39 24
61.3908916711807 1052.90615558624 2611.99998855591 53 41 25
68.3324933052063 1050.88901519775 2607.00011253357 53 41 25
75.3626525402069 1050.48394203186 2605.99994659424 47 35 21
82.0078253746033 1045.24147510529 2592.99993515015 60 51 36
88.8915881514549 1043.62690448761 2588.99998664856 37 31 19
450.935214757919 991.87034368515 2460.99996566772 168 173 167
456.855297088623 990.260541439056 2457.00001716614 222 224 219
461.433351039886 985.829889774323 2446.00009918213 239 241 236
467.100292444229 983.817934989929 2440.99998474121 152 154 149
471.964180469513 980.194270610809 2431.99992179871 174 179 173
478.157073259354 979.392468929291 2430.0000667572 141 147 143
484.139949083328 978.188157081604 2427.00004577637 140 145 141
490.106910467148 976.984262466431 2424.00002479553 142 144 139
496.26287817955 976.184070110321 2421.99993133545 139 141 136
502.408444881439 975.384593009949 2420.00007629395 122 123 117
508.543491363525 974.585592746735 2417.99998283386 116 115 110
514.668226242065 973.787128925323 2415.99988937378 117 114 107
520.78253030777 972.989499568939 2414.00003433228 131 124 116
528.634071350098 975.416958332062 2420.00007629395 117 110 102
537.845492362976 980.263531208038 2431.99992179871 92 83 74
546.227157115936 983.498692512512 2440.00005722046 104 95 88
552.840054035187 983.510076999664 2440.00005722046 115 108 100
-31.1760790646076 1067.09015369415 2664.99996185303 14 16 5
-23.5819779336452 1050.27389526367 2622.99990653992 18 18 8
-16.4603441953659 1049.07310009003 2619.99988555908 17 17 7
-9.32992901653051 1045.06945610046 2609.99989509583 18 16 4
-2.25019548088312 1039.46399688721 2595.99995613098 18 14 2
4.76108212023973 1035.45987606049 2585.99996566772 25 17 4
11.7636881768703 1035.45963764191 2585.99996566772 36 28 15
18.7808033078909 1036.25988960266 2588.00005912781 59 50 35
25.8087366819382 1037.06002235413 2589.99991416931 72 60 44
32.834816724062 1037.45973110199 2591.00008010864 66 54 38
40.0200933218002 1041.86308383942 2601.99999809265 63 51 37
47.1925660967827 1044.66474056244 2608.99996757507 62 50 36
54.3405339121819 1046.26476764679 2612.99991607666 62 48 35
61.3926127552986 1045.86267471313 2611.99998855591 82 66 50
68.3081820607185 1043.45846176147 2605.99994659424 80 64 48
75.5671709775925 1046.25916481018 2612.99991607666 73 57 41
82.6426297426224 1046.25689983368 2612.99991607666 81 68 52
90.3704315423965 1053.86221408844 2631.99996948242 35 27 16
444.992542266846 986.804485321045 2464.99991416931 183 188 182
450.750380754471 984.803795814514 2460.00003814697 203 208 202
457.039177417755 984.004557132721 2457.99994468689 199 204 198
462.374091148376 981.20391368866 2450.99997520447 167 169 164
468.054115772247 979.204714298248 2446.00009918213 157 159 154
473.125100135803 976.004779338837 2437.99996376038 151 153 148
478.940159082413 974.406719207764 2434.00001525879 142 147 140
484.933346509933 973.209500312805 2430.99999427795 144 149 142
490.708380937576 971.612453460693 2427.00004577637 134 139 132
496.871918439865 970.816671848297 2424.99995231628 127 129 124
503.024935722351 970.021426677704 2423.00009727478 120 121 115
509.377896785736 969.62708234787 2421.99993133545 120 119 114
516.15184545517 970.034182071686 2423.00009727478 117 116 111
522.284507751465 969.240784645081 2421.0000038147 126 123 116
529.935836791992 971.250593662262 2426.00011825562 127 122 116
537.835896015167 973.661243915558 2431.99992179871 120 115 109
548.007607460022 980.076432228088 2447.99995422363 125 120 114
-39.1140542924404 1079.79035377502 2714.99991416931 10 12 0
-30.8026615530252 1047.17898368835 2632.99989700317 18 18 8
-23.1960900127888 1026.10099315643 2579.99992370605 15 13 1
-16.3351893424988 1034.05582904816 2599.99990463257 15 11 0
-9.3302121385932 1038.0334854126 2609.99989509583 25 19 7
-2.24506272934377 1030.07924556732 2589.99991416931 25 19 5
4.7520212829113 1026.49986743927 2581.00008964539 71 62 47
11.7458496242762 1026.89743041992 2582.00001716614 104 92 78
18.7668576836586 1028.48780155182 2585.99996566772 101 89 73
25.8294492959976 1030.87329864502 2592.00000762939 69 56 39
32.9118445515633 1032.86099433899 2596.99988365173 76 60 44
39.9597771465778 1033.25760364532 2598.00004959106 90 74 59
47.1216291189194 1036.04018688202 2605.00001907349 90 72 58
54.2381778359413 1037.23168373108 2608.00004005432 85 68 52
61.3709464669228 1038.42318058014 2611.00006103516 95 76 59
68.441279232502 1038.42115402222 2611.00006103516 100 82 62
75.7140219211578 1041.20290279388 2618.00003051758 84 67 49
82.9929858446121 1043.58673095703 2624.00007247925 74 58 42
90.3730764985085 1046.76568508148 2631.99996948242 48 38 26
98.5002666711807 1057.50095844269 2658.99991989136 37 29 18
439.741462469101 983.311772346497 2473.00004959106 167 172 166
444.631218910217 979.335129261017 2463.00005912781 192 197 191
450.566470623016 977.744698524475 2459.00011062622 205 210 204
456.666201353073 976.552248001099 2456.00008964539 175 180 174
462.749868631363 975.360333919525 2453.00006866455 160 162 157
468.626081943512 973.771035671234 2448.99988174438 152 154 149
474.28697347641 971.784770488739 2444.00000572205 145 148 141
479.920983314514 969.798982143402 2438.99989128113 139 144 137
485.727697610855 968.211233615875 2434.99994277954 135 140 133
491.310864686966 966.226518154144 2430.0000667572 125 130 123
497.481942176819 965.435087680817 2427.99997329712 123 125 120
504.057705402374 965.439438819885 2427.99997329712 117 119 114
510.633885860443 965.444386005402 2427.99997329712 119 120 115
517.636477947235 966.245353221893 2430.0000667572 113 114 109
523.787498474121 965.456306934357 2427.99997329712 121 122 117
531.238675117493 967.053830623627 2431.99992179871 119 119 117
538.490891456604 968.254268169403 2434.99994277954 140 140 138
-37.6457832753658 1032.18078613281 2612.99991607666 11 12 4
-30.5228754878044 1030.60185909271 2608.99996757507 16 16 6
-23.1608748435974 1017.56727695465 2575.99997520447 18 14 3
-16.335716471076 1027.0482301712 2599.99990463257 21 15 3
-9.25901532173157 1023.09858798981 2589.99991416931 31 24 8
-2.24340171553195 1022.30870723724 2588.00005912781 32 23 6
4.75769862532616 1020.72870731354 2584.00011062622 81 68 51
11.7644257843494 1021.51834964752 2585.99996566772 81 68 51
18.7747180461884 1021.91281318665 2586.99989318848 67 52 33
25.8203148841858 1023.4922170639 2591.00008010864 76 61 42
32.8622050583363 1024.28126335144 2592.99993515015 77 62 41
39.9456731975079 1025.86007118225 2596.99988365173 71 54 36
47.1593216061592 1029.80899810791 2607.00011253357 84 65 48
54.385494440794 1032.96732902527 2615.00000953674 86 67 50
61.5139231085777 1033.75542163849 2617.00010299683 88 67 48
68.6007216572762 1033.75339508057 2617.00010299683 97 76 57
75.7163986563683 1034.14595127106 2618.00003051758 109 90 73
82.932323217392 1035.72344779968 2621.99997901917 120 101 84
90.4445573687553 1040.46082496643 2634.0000629425 123 109 96
98.0958268046379 1045.98808288574 2648.00000190735 129 119 109
436.375111341476 984.123885631561 2492.00010299683 167 174 166
439.742535352707 976.618885993958 2473.00004959106 188 193 186
444.812446832657 973.063349723816 2463.99998664856 193 198 191
450.566738843918 971.08793258667 2459.00011062622 186 191 184
457.223832607269 971.087515354156 2459.00011062622 164 169 162
463.503777980804 970.297455787659 2457.00001716614 149 152 145
469.19909119606 968.323290348053 2451.99990272522 153 156 149
474.867582321167 966.349601745605 2447.00002670288 147 150 143
480.706065893173 964.771389961243 2443.00007820129 138 141 132
486.722528934479 963.588356971741 2440.00005722046 133 136 129
492.520928382874 962.01103925705 2436.00010871887 128 131 124
498.912572860718 961.618959903717 2434.99994277954 133 136 129
505.299150943756 961.227476596832 2434.00001525879 118 120 115
511.680662631989 960.83652973175 2433.00008773804 121 123 120
518.270194530487 960.841119289398 2433.00008773804 113 115 112
524.860143661499 960.846304893494 2433.00008773804 116 118 115
532.10574388504 962.036907672882 2436.00010871887 129 131 130
-53.2269850373268 1053.3834695816 2684.99994277954 10 15 11
-44.7233803570271 1025.13802051544 2612.99991607666 8 14 10
-37.4309495091438 1019.25468444824 2598.00004959106 11 14 7
-29.6113565564156 992.970108985901 2530.99989891052 13 10 1
-23.2875421643257 1016.11816883087 2589.99991416931 16 9 0
-16.2671580910683 1015.72644710541 2588.99998664856 31 23 10
-9.22000501304865 1011.80374622345 2578.9999961853 34 21 4
-2.24347831681371 1015.33496379852 2588.00005912781 40 23 5
4.76706633344293 1015.72704315186 2588.99998664856 76 58 36
11.7966718971729 1017.29607582092 2592.99993515015 77 59 37
18.811646848917 1016.90316200256 2592.00000762939 62 44 22
25.8211921900511 1016.5102481842 2591.00008010864 72 54 32
32.8379757702351 1016.5091753006 2591.00008010864 97 79 57
39.8547388613224 1016.50786399841 2591.00008010864 63 42 21
47.0885448157787 1021.21412754059 2602.9999256134 66 45 24
54.3457269668579 1025.13563632965 2612.99991607666 76 55 34
61.4924803376198 1026.31056308746 2615.9999370575 78 57 36
68.4719458222389 1024.7391462326 2611.99998855591 81 60 41
75.3429308533669 1021.99053764343 2605.00001907349 118 99 82
82.5554952025414 1023.94926548004 2609.99989509583 80 63 47
90.1041626930237 1029.43885326385 2624.00007247925 90 78 66
98.2101708650589 1040.02821445465 2651.00002288818 135 125 115
429.114699363709 976.208508014679 2489.00008201599 166 171 165
434.100925922394 972.283542156219 2479.00009155273 220 222 217
439.566522836685 969.535529613495 2471.99988365173 175 177 172
445.175051689148 967.180252075195 2466.00008010864 186 191 185
451.117515563965 965.609550476074 2461.99989318848 179 184 178
457.410484552383 964.823782444 2460.00003814697 148 153 147
463.126808404922 962.861835956573 2454.99992370605 152 157 151
468.81628036499 960.90030670166 2450.00004768372 137 142 136
474.866956472397 959.72353219986 2447.00002670288 138 143 137
481.295228004456 959.331691265106 2446.00009918213 129 134 128
487.518846988678 958.548128604889 2444.00000572205 120 125 119
493.529707193375 957.372903823853 2440.99998474121 119 124 118
499.729454517365 956.590294837952 2438.99989128113 132 137 131
505.711197853088 955.416202545166 2436.00010871887 133 138 132
511.88725233078 954.634726047516 2434.00001525879 113 118 112
518.265843391418 954.246044158936 2433.00008773804 109 114 108
525.502324104309 955.426812171936 2436.00010871887 118 123 117
-43.6466410756111 993.551313877106 2549.99995231628 10 17 10
-36.3948978483677 984.201729297638 2526.00002288818 13 15 10
-29.41351570189 979.527354240417 2513.99993896484 21 16 10
-23.0366084724665 998.230516910553 2562.00003623962 24 15 6
-16.3180083036423 1011.8682384491 2596.99988365173 30 18 6
-9.25608724355698 1008.75163078308 2588.99998664856 66 49 31
-2.248760079965 1010.70010662079 2594.00010108948 76 55 34
4.78381011635065 1012.25852966309 2598.00004959106 88 63 41
11.8243927136064 1012.64786720276 2598.99997711182 90 66 42
18.8340973109007 1011.08884811401 2595.00002861023 91 67 43
25.8121509104967 1009.13989543915 2589.99991416931 84 62 39
32.8644998371601 1010.30766963959 2592.99993515015 93 71 48
39.9484522640705 1011.86490058899 2596.99988365173 122 100 77
47.18067497015 1016.14916324615 2608.00004005432 123 101 78
54.3476529419422 1018.09537410736 2612.99991607666 100 78 55
61.4476427435875 1018.48292350769 2614.00008201599 91 69 48
68.3170631527901 1015.36357402802 2605.99994659424 68 47 26
74.9695599079132 1009.90629196167 2592.00000762939 157 138 121
82.0839181542397 1011.07239723206 2595.00002861023 237 220 204
89.6265357732773 1016.91353321075 2609.99989509583 188 174 163
97.5837707519531 1026.26121044159 2634.0000629425 63 50 41
425.944834947586 977.6611328125 2509.99999046326 167 169 164
429.118067026138 969.477534294128 2489.00008201599 191 193 188
434.454172849655 966.357827186584 2480.99994659424 180 182 177
439.92492556572 963.627994060516 2473.99997711182 152 154 149
445.538431406021 961.288034915924 2467.99993515015 175 180 174
451.669245958328 960.116863250732 2464.99991416931 163 168 162
458.155870437622 959.725081920624 2463.99998664856 145 150 144
463.882625102997 957.775890827179 2459.00011062622 151 156 150
469.391107559204 955.437421798706 2453.00006866455 142 147 141
475.061357021332 953.488886356354 2447.99995422363 141 146 140
481.885343790054 953.877747058868 2448.99988174438 126 131 125
488.116651773453 953.098714351654 2447.00002670288 117 122 116
494.539558887482 952.70973443985 2446.00009918213 111 116 110
500.752329826355 951.931595802307 2444.00000572205 120 125 119
506.74694776535 950.764358043671 2440.99998474121 129 134 128
512.936055660248 949.987411499023 2438.99989128113 136 141 135
519.540548324585 949.989855289459 2438.99989128113 132 137 131
527.655601501465 952.719569206238 2446.00009918213 142 147 141
-44.4698892533779 1005.25510311127 2598.00004959106 6 16 7
-37.1455103158951 997.517883777618 2578.00006866455 14 15 9
-30.2804429084063 1001.3884305954 2588.00005912781 15 12 5
-23.4061442315578 1007.19356536865 2602.9999256134 25 16 7
-16.3814593106508 1008.74209403992 2607.00011253357 29 17 5
-9.28861368447542 1005.26022911072 2598.00004959106 87 68 51
-2.25144531577826 1004.87339496613 2596.99988365173 99 78 57
4.78767277672887 1006.03425502777 2599.99990463257 102 77 55
11.833936907351 1006.42085075378 2601.0000705719 100 76 52
18.8348013907671 1004.09853458405 2595.00002861023 100 76 52
25.8230865001678 1002.55012512207 2591.00008010864 97 72 50
32.8657329082489 1003.32283973694 2592.99993515015 99 74 52
39.9653315544128 1005.25605678558 2598.00004959106 101 76 54
47.1100732684135 1007.57598876953 2604.00009155273 104 82 59
54.1416816413403 1007.18712806702 2602.9999256134 78 56 33
61.1208043992519 1006.02400302887 2599.99990463257 77 55 34
67.9001361131668 1002.15232372284 2589.99991416931 89 67 46
74.6830850839615 999.054253101349 2582.00001716614 170 149 132
81.7705988883972 1000.21207332611 2585.00003814697 123 104 89
89.1833826899529 1004.85193729401 2596.99988365173 185 169 156
97.1056744456291 1014.13488388062 2621.00005149841 141 127 116
419.823974370956 972.428441047668 2513.99993896484 167 169 164
424.082696437836 966.621220111847 2499.00007247925 238 240 235
428.777515888214 961.974740028381 2486.99998855591 206 208 203
434.283047914505 959.262728691101 2480.00001907349 154 156 151
439.750701189041 956.551015377045 2473.00004959106 160 162 157
446.26373052597 956.160306930542 2471.99988365173 161 166 160
452.405035495758 954.996466636658 2469.00010108948 144 149 143
458.530247211456 953.833103179932 2466.00008010864 149 154 148
463.884681463242 951.12282037735 2459.00011062622 142 147 141
469.775468111038 949.573218822479 2454.99992370605 130 135 129
475.83881020546 948.410868644714 2451.99990272522 122 127 121
482.67325758934 948.796331882477 2453.00006866455 117 122 116
489.313840866089 948.795318603516 2453.00006866455 119 124 118
495.954632759094 948.794722557068 2453.00006866455 118 123 117
502.390742301941 948.407828807831 2451.99990272522 106 111 105
508.614122867584 947.634756565094 2450.00004768372 103 108 102
515.037298202515 947.248816490173 2448.99988174438 102 107 101
521.242439746857 946.476936340332 2447.00002670288 120 125 119
-61.1809976398945 1043.20967197418 2714.99991416931 17 14 5
-52.0631931722164 1009.01448726654 2625.99992752075 14 16 3
-44.3860404193401 996.33651971817 2592.99993515015 14 16 3
-37.9106588661671 1010.93947887421 2631.00004196167 19 17 5
-30.6443553417921 1006.32977485657 2618.99995803833 22 15 5
-23.4610177576542 1002.48849391937 2608.99996757507 26 16 4
-16.375819221139 1001.33657455444 2605.99994659424 42 29 13
-9.30685456842184 1000.18429756165 2602.9999256134 105 84 65
-2.25326814688742 998.647570610046 2598.99997711182 116 94 73
4.78601967915893 998.647570610046 2598.99997711182 124 96 75
11.8207531049848 998.263001441956 2598.00004959106 116 88 66
18.8282858580351 996.725499629974 2594.00010108948 108 80 58
25.8540008217096 996.724545955658 2594.00010108948 112 84 62
32.9303927719593 998.260259628296 2598.00004959106 115 84 64
39.9976633489132 999.02731180191 2599.99990463257 118 90 69
47.0576360821724 999.409794807434 2601.0000705719 110 83 62
53.9981834590435 997.486591339111 2595.99995613098 88 61 40
61.0291473567486 997.48432636261 2595.99995613098 73 46 27
67.8241029381752 994.023621082306 2586.99989318848 109 83 66
74.743814766407 992.86812543869 2584.00011062622 78 55 37
81.7737430334091 993.249297142029 2585.00003814697 39 16 0
89.1867876052856 997.856616973877 2596.99988365173 104 85 71
96.8870595097542 1004.76932525635 2615.00000953674 128 110 98
413.682788610458 967.177391052246 2517.99988746643 184 189 183
417.825609445572 961.025595664978 2502.00009346008 243 244 239
423.748642206192 959.099292755127 2496.99997901917 205 206 201
428.954899311066 955.63668012619 2487.99991607666 159 160 155
434.988230466843 954.095125198364 2483.99996757507 160 162 157
440.288573503494 951.017379760742 2476.0000705719 149 151 146
446.809411048889 950.628578662872 2474.99990463257 147 149 144
452.408790588379 948.319792747498 2469.00010108948 138 140 135
458.347618579865 946.779489517212 2464.99991416931 150 155 149
463.887602090836 944.47135925293 2459.00011062622 139 144 138
470.352083444595 944.084048271179 2457.99994468689 128 133 127
476.229131221771 942.544937133789 2453.9999961853 123 128 122
482.871741056442 942.542612552643 2453.9999961853 117 122 116
489.913493394852 943.30883026123 2456.00008964539 113 118 112
496.966302394867 944.075465202332 2457.99994468689 113 118 112
504.030168056488 944.842636585236 2460.00003814697 111 116 110
510.897517204285 945.22625207901 2460.99996566772 110 115 109
518.822073936462 947.530806064606 2467.00000762939 114 119 113
-68.8651651144028 1040.85576534271 2727.9999256134 23 16 8
-59.6736073493958 1010.33473014832 2648.00000190735 20 13 3
-52.0256608724594 1001.17993354797 2624.00007247925 19 15 3
-44.6275062859058 994.695663452148 2607.00011253357 20 18 5
-37.5087261199951 993.171095848084 2602.9999256134 20 14 2
-30.5168963968754 995.080292224884 2608.00004005432 26 18 5
-23.4080217778683 993.173599243164 2602.9999256134 34 22 8
-16.3639225065708 993.556141853333 2604.00009155273 61 45 29
-9.31081362068653 993.556559085846 2604.00009155273 111 90 71
-2.25682859309018 993.175208568573 2602.9999256134 119 97 76
4.78621572256088 991.649031639099 2598.99997711182 121 93 71
11.812137439847 990.504026412964 2595.99995613098 117 86 65
18.8217964023352 989.358723163605 2592.99993515015 115 84 63
25.8450899273157 989.357769489288 2592.99993515015 112 81 60
32.8683629631996 989.356517791748 2592.99993515015 113 81 60
39.860837161541 988.592028617859 2591.00008010864 109 81 60
46.9148047268391 989.353239536285 2592.99993515015 119 91 70
53.9171732962132 988.969683647156 2592.00000762939 87 59 38
60.9846040606499 989.730358123779 2594.00010108948 71 43 22
67.853070795536 987.438499927521 2588.00005912781 88 61 42
74.8335942625999 987.05381155014 2586.99989318848 53 27 10
81.9351896643639 988.195300102234 2589.99991416931 53 27 12
89.3277227878571 992.388844490051 2601.0000705719 75 56 42
97.0391109585762 999.252796173096 2618.99995803833 44 26 14
105.682894587517 1014.12868499756 2657.99999237061 185 168 158
409.945011138916 967.629194259644 2536.99994087219 222 224 219
413.360923528671 959.612667560577 2516.00003242493 238 240 235
417.664974927902 953.884720802307 2500.99992752075 183 184 179
423.415273427963 951.589584350586 2494.99988555908 151 152 147
428.788363933563 948.532223701477 2486.99998855591 138 139 134
434.468388557434 946.237742900848 2480.99994659424 148 149 144
440.29375910759 944.325029850006 2476.0000705719 146 148 143
446.633785963058 943.556845188141 2473.99997711182 134 136 131
452.596575021744 942.026197910309 2470.00002861023 143 145 140
458.53778719902 940.495848655701 2466.00008010864 137 139 134
464.268714189529 938.584506511688 2460.99996566772 129 134 128
470.929622650146 938.580453395844 2460.99996566772 118 123 117
477.396458387375 938.195407390594 2460.00003814697 118 123 117
484.25167798996 938.573479652405 2460.99996566772 114 119 113
491.511464118958 939.714848995209 2463.99998664856 116 121 115
498.585492372513 940.475225448608 2466.00008010864 117 122 116
505.465626716614 940.854668617249 2467.00000762939 110 115 109
511.936247348785 940.471827983856 2466.00008010864 118 123 117
-66.9746994972229 1005.09643554688 2653.00011634827 41 23 13
-59.6761293709278 1003.20482254028 2648.00000190735 71 51 40
-52.3451082408428 1000.17642974854 2640.00010490417 38 20 6
-45.1087318360806 998.284220695496 2634.99999046326 45 27 13
-37.9570424556732 997.907221317291 2634.0000629425 37 24 8
-30.7054240256548 994.120121002197 2624.00007247925 43 30 14
-23.4629791229963 988.438427448273 2608.99996757507 52 36 20
-16.3960419595242 988.4392619133 2608.99996757507 64 47 29
-9.33624058961868 989.197552204132 2611.00006103516 109 87 66
-2.26212735287845 988.440036773682 2608.99996757507 115 90 68
4.79378644376993 986.166775226593 2602.9999256134 116 88 66
11.8126403540373 983.514428138733 2595.99995613098 118 86 65
18.8153423368931 981.998443603516 2592.00000762939 116 84 63
25.8362218737602 981.99737071991 2592.00000762939 117 82 62
32.8697562217712 982.374966144562 2592.99993515015 117 82 62
39.8625284433365 981.615781784058 2591.00008010864 109 78 57
46.8806140124798 981.61393404007 2591.00008010864 109 81 59
53.9194531738758 981.990575790405 2592.00000762939 101 73 51
61.1047297716141 984.640061855316 2598.99997711182 89 61 39
68.1181102991104 984.258472919464 2598.00004959106 76 48 26
75.0970914959908 983.497738838196 2595.99995613098 63 36 17
82.1284353733063 983.494281768799 2595.99995613098 79 52 35
89.5031616091728 987.279057502747 2605.99994659424 66 43 29
97.3025038838387 994.852185249329 2625.99992752075 76 54 41
105.090826749802 1001.28829479218 2642.99988746643 213 195 183
402.468025684357 975.94279050827 2576.99990272522 162 164 159
404.357939958572 963.815867900848 2545.00007629395 223 225 220
408.336728811264 956.990897655487 2526.99995040894 226 228 223
413.203924894333 952.438652515411 2515.00010490417 203 205 200
418.006092309952 947.886765003204 2503.00002098084 158 159 154
423.591881990433 945.228517055511 2496.00005149841 134 135 130
429.139733314514 942.570447921753 2489.00008201599 165 166 161
434.824883937836 940.291523933411 2483.00004005432 132 133 128
440.655380487442 938.391447067261 2477.9999256134 156 158 153
446.458905935287 936.491847038269 2473.00004959106 131 133 128
452.23543047905 934.592545032501 2467.99993515015 143 145 140
458.542734384537 933.829605579376 2466.00008010864 127 129 124
465.027987957001 933.445632457733 2464.99991416931 125 130 124
471.699267625809 933.440685272217 2464.99991416931 118 123 117
478.176653385162 933.057487010956 2463.99998664856 119 124 118
485.042273998261 933.432102203369 2464.99991416931 113 118 112
492.511928081512 934.94313955307 2469.00010108948 117 122 116
499.599039554596 935.697197914124 2470.99995613098 114 119 113
506.492257118225 936.072945594788 2471.99988365173 115 120 114
-74.2196589708328 998.703062534332 2654.99997138977 58 38 29
-66.9776275753975 997.953951358795 2653.00011634827 86 64 53
-59.678740799427 996.075928211212 2648.00000190735 89 65 53
-52.4862036108971 995.702266693115 2647.0000743866 77 51 38
-45.2647916972637 994.575977325439 2644.00005340576 93 70 56
-38.074005395174 993.825495243073 2641.99995994568 76 59 41
-30.8940149843693 993.074774742126 2640.00010490417 91 76 57
-23.5899221152067 986.68110370636 2622.99990653992 52 35 17
-16.4596140384674 985.177397727966 2618.99995803833 70 52 32
-9.35810897499323 984.425663948059 2617.00010299683 110 88 67
-2.26569571532309 982.921123504639 2612.99991607666 120 95 73
4.79768216609955 979.911863803864 2605.00001907349 118 90 68
11.8131637573242 976.526021957397 2595.99995613098 119 88 67
18.8161749392748 975.020706653595 2592.00000762939 118 86 65
25.8074589073658 973.891139030457 2588.99998664856 118 83 63
32.8458547592163 974.642097949982 2591.00008010864 118 83 63
39.8181267082691 973.511934280396 2588.00005912781 116 85 64
46.8826703727245 974.638521671295 2591.00008010864 112 84 62
53.9010167121887 974.636375904083 2591.00008010864 96 68 46
61.0133558511734 976.138472557068 2595.00002861023 84 56 34
68.0686384439468 976.511657238007 2595.99995613098 77 49 27
74.9557092785835 974.627733230591 2591.00008010864 80 52 31
82.0687115192413 975.752711296082 2594.00010108948 100 73 54
89.4383415579796 979.510545730591 2604.00009155273 127 101 86
97.269631922245 987.405598163605 2625 128 105 91
104.657933115959 990.034341812134 2631.99996948242 156 136 125
112.168967723846 993.41493844986 2641.00003242493 196 176 165
390.898644924164 957.715153694153 2546.99993133545 193 195 190
396.541982889175 954.697906970978 2539.00003433228 235 236 231
402.300924062729 952.05694437027 2532.00006484985 215 216 211
407.213866710663 947.536051273346 2519.99998092651 178 179 174
412.883371114731 944.895565509796 2513.00001144409 179 180 175
418.013900518417 941.127300262451 2503.00002098084 142 143 138
423.769116401672 938.863158226013 2496.99997901917 150 151 146
429.319471120834 936.223447322845 2490.00000953674 140 141 136
435.182124376297 934.335768222809 2484.99989509583 150 151 146
441.373527050018 933.200657367706 2482.00011253357 139 140 135
446.826428174973 930.561721324921 2474.99990463257 131 133 128
452.974528074265 929.427087306976 2471.99988365173 132 134 129
459.106475114822 928.292870521545 2469.00010108948 121 123 118
465.788096189499 928.286671638489 2469.00010108948 118 120 115
472.469866275787 928.281009197235 2469.00010108948 120 122 117
479.539841413498 929.027557373047 2470.99995613098 116 118 113
486.620843410492 929.774522781372 2473.00004959106 114 119 113
494.510680437088 932.025790214539 2479.00009155273 114 119 113
502.02876329422 933.525383472443 2483.00004005432 118 123 117
-74.0832313895226 989.688754081726 2650.00009536743 101 77 65
-66.8039172887802 988.198041915894 2645.99990844727 94 64 53
-59.6363693475723 988.200962543488 2645.99990844727 100 66 54
-52.5084175169468 988.950550556183 2648.00000190735 81 48 31
-45.3867018222809 990.073204040527 2651.00002288818 79 46 29
-38.1766259670258 989.32820558548 2648.9999294281 97 75 54
-30.93053214252 987.088859081268 2642.99988746643 151 130 109
-23.6449670046568 981.861591339111 2628.99994850159 48 27 6
-16.4855066686869 979.621648788452 2622.99990653992 57 36 15
-9.36568900942802 978.12831401825 2618.99995803833 106 81 61
-2.26406543515623 975.140869617462 2611.00006103516 114 89 67
4.79606026783586 972.526490688324 2604.00009155273 119 91 69
11.8091534823179 969.164788722992 2595.00002861023 117 89 67
18.8170354813337 968.043744564056 2592.00000762939 117 86 65
25.8285794407129 967.669248580933 2591.00008010864 116 84 61
32.8600332140923 968.041300773621 2592.00000762939 116 84 61
39.8814864456654 968.039572238922 2592.00000762939 118 87 66
46.8486100435257 966.917157173157 2588.99998664856 113 85 63
53.7578351795673 965.047538280487 2584.00011062622 91 63 41
60.7574805617332 965.044915676117 2584.00011062622 79 51 29
67.8881630301476 966.909229755402 2588.99998664856 80 52 30
74.8433545231819 966.158926486969 2586.99989318848 86 58 37
82.0091217756271 968.022763729095 2592.00000762939 75 48 29
89.3736407160759 971.753537654877 2601.99999809265 92 66 51
97.0886722207069 978.471517562866 2619.99988555908 130 107 93
104.503504931927 981.454730033875 2628.00002098084 127 108 94
112.55619674921 989.666044712067 2650.00009536743 172 152 141
384.166121482849 951.22492313385 2548.00009727478 205 206 201
389.373332262039 947.108387947083 2536.99994087219 234 235 230
394.989490509033 944.112181663513 2529.00004386902 220 221 216
400.721222162247 941.489577293396 2522.0000743866 214 213 209
406.25324845314 938.493609428406 2513.99993896484 176 175 171
412.234991788864 936.617970466614 2509.0000629425 151 150 146
417.85541176796 933.995842933655 2502.00009346008 149 148 144
424.28657412529 933.240532875061 2500 141 140 136
430.017203092575 930.992066860199 2493.99995803833 133 132 128
436.240762472153 929.86398935318 2490.9999370575 148 149 144
442.270189523697 928.362846374512 2486.99998855591 135 136 131
448.27800989151 926.861941814423 2483.00004005432 132 133 128
453.897684812546 924.614667892456 2476.99999809265 127 128 123
459.484964609146 922.367930412292 2470.99995613098 114 116 111
466.360330581665 922.734320163727 2471.99988365173 114 116 111
473.623991012573 923.847556114197 2474.99990463257 115 117 112
481.486141681671 926.080942153931 2480.99994659424 112 114 109
488.593816757202 926.821768283844 2483.00004005432 114 119 113
496.310859918594 928.682565689087 2487.99991607666 110 115 109
-74.030764400959 981.814384460449 2648.00000190735 110 83 72
-66.8070465326309 981.076180934906 2645.99990844727 95 63 50
-59.6391670405865 981.079161167145 2645.99990844727 114 81 66
-52.5307133793831 982.194185256958 2648.9999294281 105 70 51
-45.3717149794102 982.567310333252 2650.00009536743 88 53 34
-38.1063632667065 980.344593524933 2644.00005340576 121 94 73
-30.8734774589539 978.121697902679 2638.00001144409 144 122 99
-23.6640740185976 975.52752494812 2631.00004196167 70 48 25
-16.492573544383 972.932875156403 2624.00007247925 62 40 17
-9.35898162424564 970.33816576004 2617.00010299683 114 89 67
-2.26070382632315 966.630578041077 2607.00011253357 118 93 71
4.79260412976146 964.776575565338 2601.99999809265 116 92 68
11.8142636492848 962.551414966583 2595.99995613098 115 89 66
18.8324451446533 961.809277534485 2594.00010108948 114 88 65
25.8297976106405 960.695803165436 2591.00008010864 114 86 62
32.8615829348564 961.065113544464 2592.00000762939 114 86 62
39.8372076451778 959.951102733612 2588.99998664856 111 83 59
46.8327179551125 959.578156471252 2588.00005912781 111 85 60
53.7187457084656 957.351088523865 2582.00001716614 101 73 49
60.6427527964115 956.236064434052 2578.9999961853 90 62 38
67.6291063427925 956.232964992523 2578.9999961853 80 52 30
74.702188372612 957.341969013214 2582.00001716614 82 54 32
81.9496512413025 960.304498672485 2589.99991416931 98 71 50
89.2403721809387 963.266611099243 2598.00004959106 147 121 104
96.6484621167183 966.969966888428 2608.00004005432 167 144 126
104.229934513569 971.785306930542 2621.00005149841 97 75 61
112.773716449738 984.386265277863 2654.99997138977 143 124 110
379.353880882263 949.549913406372 2562.00003623962 183 185 180
384.32714343071 944.721102714539 2549.00002479553 238 239 234
389.07653093338 939.521968364716 2535.00008583069 243 244 239
394.218534231186 935.434818267822 2523.9999294281 207 208 203
400.095343589783 933.200836181641 2517.99988746643 202 201 197
405.939728021622 930.967330932617 2512.00008392334 176 175 171
412.080019712448 929.474949836731 2507.99989700317 131 130 126
417.697608470917 926.871061325073 2500.99992752075 146 145 141
424.125909805298 926.120519638062 2499.00007247925 132 131 127
430.370837450027 924.999415874481 2496.00005149841 132 131 127
436.774671077728 924.249291419983 2493.99995803833 139 140 135
442.98979640007 923.128664493561 2490.9999370575 133 134 129
448.827654123306 921.26727104187 2486.00006103516 130 131 126
455.188125371933 920.517802238464 2483.99996757507 121 122 117
460.42212843895 917.545318603516 2476.0000705719 108 110 105
467.688024044037 918.64937543869 2479.00009155273 111 113 108
474.587619304657 919.012606143951 2480.00001907349 111 113 108
483.239233493805 922.711253166199 2490.00000953674 109 111 106
491.158008575439 924.927949905396 2496.00005149841 107 112 106
-74.0902498364449 975.423991680145 2650.00009536743 108 82 69
-66.8355226516724 974.323213100433 2647.0000743866 91 62 48
-59.7096718847752 975.062489509583 2648.9999294281 128 95 78
-52.5530949234962 975.43340921402 2650.00009536743 93 58 38
-45.3567951917648 975.067615509033 2648.9999294281 85 50 30
-38.1082184612751 973.229348659515 2644.00005340576 139 112 91
-30.8749824762344 971.022546291351 2638.00001144409 127 102 80
-23.6832164227962 969.183385372162 2632.99989700317 89 67 44
-16.5059473365545 966.607689857483 2625.99992752075 78 56 33
-9.36301425099373 963.663697242737 2618.00003051758 104 79 57
-2.26168148219585 959.982931613922 2608.00004005432 112 87 65
4.79836389422417 958.878636360168 2605.00001907349 118 94 70
11.8239428848028 956.301629543304 2598.00004959106 117 91 68
18.8624057918787 956.300973892212 2598.00004959106 116 90 67
25.8609689772129 954.827427864075 2594.00010108948 114 88 63
32.8885465860367 954.8259973526 2594.00010108948 114 88 63
39.8853085935116 954.087972640991 2592.00000762939 115 89 64
46.8892902135849 953.717768192291 2591.00008010864 115 89 64
53.8045726716518 951.874792575836 2585.99996566772 107 79 55
60.7162266969681 950.399696826935 2582.00001716614 99 71 47
67.632369697094 949.292302131653 2578.9999961853 95 67 45
74.7057870030403 950.39302110672 2582.00001716614 96 68 46
81.8902924656868 952.597737312317 2588.00005912781 99 72 51
89.1072377562523 954.802095890045 2594.00010108948 94 69 49
96.4677482843399 958.110153675079 2602.9999256134 69 46 28
103.996261954308 962.522387504578 2615.00000953674 104 83 66
112.354256212711 973.559439182281 2644.99998092651 138 119 104
370.977759361267 938.971519470215 2552.00004577637 181 186 180
377.58794426918 938.224256038666 2549.99995231628 199 201 196
384.03645157814 937.109351158142 2546.99993133545 199 200 195
389.701187610626 934.15492773056 2539.00003433228 181 182 177
395.010024309158 930.464684963226 2529.00004386902 181 180 176
400.423616170883 927.142679691315 2519.99998092651 158 157 153
406.434744596481 925.292432308197 2515.00010490417 141 137 134
412.254452705383 923.07448387146 2509.0000629425 139 135 132
418.542593717575 921.960353851318 2506.00004196167 126 125 121
424.814492464066 920.846521854401 2503.00002098084 138 137 133
430.897653102875 919.365108013153 2499.00007247925 151 150 146
436.959058046341 917.883634567261 2494.99988555908 130 129 125
443.532347679138 917.506277561188 2493.99995803833 129 130 125
449.919700622559 916.761338710785 2492.00010299683 115 116 111
456.296116113663 916.016578674316 2490.00000953674 111 112 107
462.289839982986 914.536356925964 2486.00006103516 116 117 112
469.393879175186 915.263593196869 2487.99991607666 113 115 110
476.700246334076 916.359007358551 2490.9999370575 103 105 100
485.381305217743 920.029819011688 2500.99992752075 107 109 104
-74.2616876959801 970.485210418701 2655.99989891052 78 61 45
