ply
format ascii 1.0
comment KinectMotionCapture
element vertex 794
property float x
property float y
property float z
property uchar red
property uchar green
property uchar blue
end_header
88.6951014399529 -160.474896430969 2782.00006484985 11 13 8
95.1451733708382 -158.568739891052 2749.00007247925 11 13 8
102.124184370041 -157.758325338364 2734.99989509583 11 14 7
111.711002886295 -160.812363028526 2788.00010681152 10 13 6
117.734827101231 -158.674910664558 2750.99992752075 10 11 5
125.878110527992 -159.478947520256 2765.00010490417 9 12 5
131.443291902542 -157.110512256622 2723.99997711182 9 12 5
139.384329319 -157.683402299881 2733.99996757507 7 10 3
147.27196097374 -158.140733838081 2742.00010299683 10 13 6
155.597656965256 -159.001514315605 2756.99996948242 15 18 11
163.708791136742 -159.573718905449 2766.99995994568 17 20 13
170.512184500694 -158.876955509186 2755.00011444092 13 16 9
179.575726389885 -160.256043076515 2779.00004386902 16 19 12
-137.546807527542 -166.1686450243 2750.99992752075 23 26 19
-130.136489868164 -166.293442249298 2753.00002098084 27 30 23
-121.378466486931 -164.605855941772 2724.99990463257 26 28 23
-115.574292838573 -166.965246200562 2763.99993896484 24 26 21
-107.44620859623 -166.062474250793 2749.00007247925 18 20 15
-99.0359932184219 -164.555355906487 2723.99997711182 14 16 11
-91.5016084909439 -164.376974105835 2720.99995613098 10 12 7
-85.6208875775337 -167.400181293488 2770.99990844727 9 11 6
-78.3119574189186 -167.946368455887 2779.99997138977 9 11 6
-70.6482827663422 -167.767375707626 2776.99995040894 10 12 7
-63.6138990521431 -169.219315052032 2801.00011825562 10 12 7
-55.8687746524811 -168.919041752815 2796.0000038147 10 12 7
-48.0472072958946 -168.256059288979 2785.00008583069 10 13 6
-40.3290614485741 -167.774066329002 2776.99995040894 10 11 5
-33.26765447855 -170.43349146843 2821.00009918213 10 13 6
-17.7524741739035 -169.347509741783 2802.99997329712 11 14 7
-10.2846818044782 -172.429203987122 2854.00009155273 11 13 8
81.7414522171021 -169.395372271538 2803.99990081787 10 12 7
87.7998247742653 -166.372254490852 2753.99994850159 10 13 6
94.2425206303597 -164.496794342995 2723.00004959106 10 13 6
102.867968380451 -166.426956653595 2755.00011444092 10 13 6
112.388864159584 -169.444143772125 2805.0000667572 10 13 6
117.389023303986 -165.695458650589 2743.00003051758 11 14 7
126.830443739891 -168.28927397728 2786.00001335144 11 14 7
131.970226764679 -165.204763412476 2734.99989509583 10 13 6
137.850865721703 -163.328245282173 2703.9999961853 10 13 6
147.428780794144 -165.800482034683 2744.99988555908 14 17 10
156.665429472923 -167.668372392654 2776.00002288818 16 19 12
162.934929132462 -166.334882378578 2753.99994850159 12 15 8
171.188041567802 -167.054697871208 2766.00003242493 20 23 16
207.126677036285 -178.512692451477 2956.00008964539 16 19 12
-139.992490410805 -176.764741539955 2799.99995231628 21 24 17
-131.030663847923 -175.00127851963 2772.0000743866 22 25 18
-123.111873865128 -174.500167369843 2763.99993896484 13 15 10
-117.53598600626 -177.471235394478 2811.00010871887 11 13 8
-111.624948680401 -180.315896868706 2855.99994659424 9 11 6
-92.1713411808014 -173.06150496006 2740.9999370575 5 7 2
-86.6687893867493 -177.10517346859 2805.0000667572 5 7 2
-78.3095434308052 -175.529271364212 2779.99997138977 5 7 2
-70.7224234938622 -175.531595945358 2779.99997138977 6 8 3
-62.6353845000267 -174.144580960274 2757.99989700317 7 9 4
-48.735786229372 -178.378641605377 2825.00004768372 6 8 3
-41.5476746857166 -180.653214454651 2861.00006103516 8 9 3
-33.1251174211502 -177.370920777321 2809.00001525879 8 11 4
-25.1313094049692 -175.098642706871 2773.00000190735 9 12 5
-10.2411219850183 -179.456740617752 2842.00000762939 9 11 6
75.3811001777649 -180.140048265457 2852.9999256134 114 116 113
80.7186737656593 -174.833849072456 2769.00005340576 11 14 7
87.7333730459213 -173.757806420326 2752.00009346008 11 14 7
95.1394587755203 -173.565551638603 2749.00007247925 11 14 7
104.619681835175 -176.908686757088 2802.00004577637 11 14 7
110.822848975658 -174.632415175438 2766.00003242493 12 15 8
118.241339921951 -174.439445137978 2763.00001144409 12 15 8
124.049678444862 -172.036603093147 2724.99990463257 13 16 9
129.987925291061 -170.075565576553 2694.00000572205 12 15 8
138.458415865898 -171.460270881653 2716.00008010864 11 14 7
146.403893828392 -172.087147831917 2726.0000705719 14 17 10
155.362710356712 -173.786923289299 2753.00002098084 16 19 12
162.752524018288 -173.655718564987 2750.99992752075 18 21 14
177.691295742989 -173.582136631012 2750 14 17 10
195.694535970688 -183.423072099686 2905.99989891052 14 17 10
-140.088051557541 -184.532091021538 2802.00004577637 13 16 9
-132.11365044117 -184.075459837914 2795.00007629395 12 15 8
-125.468567013741 -185.528561472893 2816.99991226196 11 13 8
-116.821423172951 -184.017673134804 2793.99991035461 8 10 5
-107.08774626255 -180.464759469032 2740.00000953674 6 8 3
-94.017818570137 -184.159711003304 2796.0000038147 7 9 4
-85.5846330523491 -182.450115680695 2769.99998092651 7 9 4
-78.4478783607483 -183.440819382668 2785.00008583069 8 10 5
-71.8649104237556 -186.077982187271 2825.00004768372 9 11 6
-62.5879615545273 -181.535243988037 2756.00004196167 9 11 6
-55.4057098925114 -182.656958699226 2773.00000190735 9 11 6
-49.0447357296944 -187.269553542137 2842.99993515015 8 10 5
-41.6479893028736 -188.917845487595 2868.00003051758 8 9 3
-33.5367769002914 -187.338143587112 2844.00010108948 8 11 4
-25.2936258912086 -183.847904205322 2790.99988937378 8 11 4
-10.1867401972413 -186.220467090607 2826.99990272522 9 11 6
81.9403827190399 -185.152411460876 2811.00010871887 11 14 7
86.6148099303246 -178.958207368851 2717.00000762939 11 14 7
96.0016176104546 -182.709559798241 2773.9999294281 11 14 7
103.832267224789 -183.167338371277 2780.99989891052 11 14 7
110.378615558147 -181.451439857483 2755.00011444092 12 15 8
116.440266370773 -179.20845746994 2720.99995613098 12 15 8
123.636044561863 -178.875252604485 2716.00008010864 13 16 9
129.067078232765 -176.170945167542 2674.99995231628 12 15 8
137.230575084686 -177.286192774773 2691.99991226196 12 15 8
147.419646382332 -180.771961808205 2744.99988555908 15 18 11
157.050773501396 -183.269515633583 2782.99999237061 17 20 13
164.463028311729 -183.066800236702 2779.99997138977 18 21 14
168.640151619911 -179.439678788185 2724.99990463257 12 15 8
-140.383392572403 -192.583933472633 2808.00008773804 13 16 9
-133.432745933533 -193.617284297943 2822.99995422363 10 13 6
-124.61818754673 -191.906973719597 2798.00009727478 10 12 7
-118.448168039322 -194.311663508415 2832.99994468689 9 11 6
-107.592269778252 -188.828334212303 2753.00002098084 8 10 5
-101.062290370464 -190.683797001839 2779.99997138977 9 11 6
-93.9138233661652 -191.578805446625 2792.99998283386 10 12 7
-86.2305909395218 -191.444665193558 2790.99988937378 10 12 7
-78.5015970468521 -191.173076629639 2786.99994087219 11 13 8
-72.2695142030716 -194.879770278931 2841.00008010864 12 14 9
-63.8348683714867 -192.824214696884 2811.00010871887 12 14 9
-54.9043565988541 -188.504621386528 2747.99990653992 11 13 8
-40.9060157835484 -193.241134285927 2816.99991226196 11 12 6
-33.1347323954105 -192.762210965157 2809.99994277954 9 12 5
-18.2067211717367 -197.222918272018 2875 9 12 5
-10.2116232737899 -194.410815834999 2834.00011062622 10 12 7
-2.50670732930303 -196.812018752098 2868.99995803833 10 12 7
82.3748856782913 -193.84728372097 2825.99997520447 1 3 0
85.8468562364578 -184.721484780312 2693.00007820129 10 13 6
92.9530560970306 -184.238284826279 2686.00010871887 10 13 6
102.895461022854 -189.036384224892 2756.00004196167 10 13 6
109.21311378479 -186.975091695786 2726.0000705719 11 14 7
116.094075143337 -186.079636216164 2713.00005912781 11 14 7
121.947728097439 -183.743640780449 2678.99990081787 12 15 8
128.001362085342 -181.956216692925 2653.00011634827 11 14 7
136.308506131172 -183.39204788208 2674.00002479553 13 16 9
146.125927567482 -186.61068379879 2720.99995613098 15 18 11
157.045617699623 -190.857604146004 2782.99999237061 18 21 14
166.283056139946 -184.263348579407 2687.00003623962 14 17 10
175.28934776783 -186.040624976158 2713.00005912781 15 18 11
-140.628546476364 -200.596421957016 2812.99996376038 15 18 11
-132.813736796379 -200.387269258499 2809.99994277954 12 15 8
-127.197042107582 -203.67220044136 2855.99994659424 12 14 9
-117.398872971535 -200.253397226334 2808.00008773804 11 13 8
-109.503500163555 -199.82947409153 2802.00004577637 11 13 8
-102.440185844898 -200.974255800247 2818.00007820129 11 13 8
-94.8520377278328 -201.191678643227 2821.00009918213 10 12 7
-87.2471481561661 -201.408848166466 2823.99988174438 10 12 7
-78.6960422992706 -199.272125959396 2793.99991035461 11 13 8
-72.5468248128891 -203.411474823952 2851.99999809265 11 13 8
-63.514731824398 -199.491113424301 2796.99993133545 12 14 9
-54.5028746128082 -194.57183778286 2727.9999256134 11 13 8
-48.1271557509899 -198.995783925056 2789.99996185303 11 13 8
-40.7739132642746 -200.281217694283 2808.00008773804 13 14 8
-32.9567156732082 -199.355289340019 2795.00007629395 10 13 6
-25.2828374505043 -198.999673128128 2789.99996185303 10 13 6
-17.6234934478998 -198.501154780388 2782.99999237061 10 13 6
-10.2364905178547 -202.63859629631 2841.00008010864 11 13 8
-2.48739891685545 -203.066751360893 2846.99988365173 2 4 1
102.55590826273 -195.909395813942 2746.99997901917 10 13 6
107.887297868729 -192.054599523544 2693.00007820129 11 14 7
115.362644195557 -192.264646291733 2696.00009918213 12 15 8
122.626312077045 -192.117854952812 2694.00000572205 13 16 9
135.029494762421 -188.899844884872 2648.9999294281 11 14 7
145.691335201263 -193.458735942841 2713.00005912781 13 16 9
155.347406864166 -196.305781602859 2753.00002098084 15 18 11
163.032323122025 -196.514204144478 2756.00004196167 16 19 12
162.750124931335 -187.524378299713 2630.00011444092 23 26 19
173.28055202961 -191.226229071617 2681.99992179871 23 26 19
183.689817786217 -194.499835371971 2727.9999256134 20 23 16
193.99893283844 -197.416514158249 2769.00005340576 17 20 13
-137.924090027809 -204.267293214798 2759.0000629425 12 15 8
-132.100075483322 -206.93750679493 2795.00007629395 17 20 13
-125.232979655266 -208.200827240944 2812.00003623962 13 16 9
-117.143854498863 -207.464814186096 2802.00004577637 13 16 9
-109.226033091545 -206.950604915619 2795.00007629395 13 16 9
-102.073036134243 -207.917034626007 2808.00008773804 12 15 8
-95.1176285743713 -209.475547075272 2828.9999961853 12 15 8
-87.6147449016571 -209.997206926346 2835.99996566772 13 16 9
-78.9185464382172 -207.482621073723 2802.00004577637 12 15 8
-70.9163099527359 -206.448689103127 2788.00010681152 10 13 6
-63.7849494814873 -208.00618827343 2809.00001525879 10 13 6
-56.5586946904659 -209.637477993965 2831.00008964539 11 14 7
-48.228919506073 -207.04759657383 2796.0000038147 15 18 11
-40.6708046793938 -207.419514656067 2801.00011825562 16 17 11
-32.8729934990406 -206.458181142807 2788.00010681152 12 15 8
-25.2638068050146 -206.459239125252 2788.00010681152 11 14 7
-17.8001653403044 -208.163261413574 2811.00010871887 12 15 8
-10.1820761337876 -209.274530410767 2825.99997520447 12 14 9
81.2615007162094 -206.444889307022 2788.00010681152 11 14 7
89.634008705616 -208.218902349472 2812.00003623962 11 14 7
97.2720310091972 -208.141475915909 2811.00010871887 11 14 7
107.04217851162 -197.841912508011 2671.99993133545 12 15 8
114.673927426338 -198.430255055428 2680.0000667572 12 15 8
122.57643789053 -199.388474225998 2693.00007820129 14 17 10
130.018696188927 -199.531957507133 2694.9999332428 12 15 8
141.294255852699 -205.227926373482 2772.0000743866 11 14 7
147.08237349987 -202.779591083527 2739.00008201599 11 14 7
153.028443455696 -200.775280594826 2711.99989318848 13 16 9
162.494197487831 -203.360721468925 2746.99997901917 20 23 16
169.798716902733 -203.132659196854 2743.99995803833 15 18 11
172.693014144897 -197.870656847954 2673.00009727478 17 20 13
-146.076261997223 -212.70389854908 2770.99990844727 16 18 15
-138.368919491768 -212.478935718536 2767.99988746643 13 16 9
-130.67738711834 -212.253674864769 2765.00010490417 13 16 9
-124.025963246822 -213.793754577637 2785.00008583069 13 16 9
-116.470649838448 -213.875010609627 2786.00001335144 13 16 9
-109.261088073254 -214.646935462952 2796.0000038147 14 17 10
-101.996541023254 -215.418592095375 2805.99999427795 14 17 10
-95.1140969991684 -217.1880453825 2828.9999961853 13 16 9
-87.7350717782974 -218.035981059074 2839.99991416931 13 16 9
-79.9858495593071 -218.039155006409 2839.99991416931 13 16 9
-71.7530399560928 -216.583296656609 2821.00009918213 10 13 6
-63.6463388800621 -215.203896164894 2802.99997329712 10 13 6
-55.8973290026188 -214.82227742672 2798.00009727478 11 14 7
-48.3133755624294 -215.054571628571 2801.00011825562 12 15 8
-40.4224544763565 -213.75098824501 2783.99991989136 14 15 9
-32.7774435281754 -213.445261120796 2779.99997138977 12 15 8
-25.2628643065691 -214.060604572296 2788.00010681152 12 15 8
-17.7425108850002 -215.136349201202 2802.00004577637 13 16 9
-10.2033149451017 -217.440262436867 2832.00001716614 12 14 9
82.8615128993988 -218.268349766731 2842.99993515015 66 68 63
90.3319343924522 -217.574149370193 2834.00011062622 9 12 5
97.4414497613907 -216.188699007034 2815.99998474121 12 15 8
109.722197055817 -210.269615054131 2739.00008201599 13 16 9
124.483563005924 -209.953770041466 2734.99989509583 13 16 9
130.83404302597 -208.183407783508 2711.99989318848 12 15 8
138.179913163185 -208.101630210876 2710.99996566772 12 15 8
147.721335291862 -211.166739463806 2750.99992752075 11 14 7
156.408339738846 -212.773054838181 2772.0000743866 11 14 7
159.944772720337 -207.547694444656 2703.9999961853 12 15 8
166.760548949242 -206.850856542587 2694.9999332428 16 19 12
176.498383283615 -209.684357047081 2732.00011253357 17 20 13
193.424671888351 -211.896449327469 2760.99991798401 23 26 19
-147.546753287315 -222.482040524483 2799.00002479553 0 1 0
-131.759375333786 -221.618413925171 2788.00010681152 11 14 7
-123.575933277607 -220.589980483055 2775.00009536743 13 16 9
-116.257183253765 -221.071556210518 2780.99989891052 13 16 9
-108.983382582664 -221.711859107018 2789.00003433228 15 18 11
-101.738221943378 -222.510948777199 2799.00002479553 15 18 11
-93.5303345322609 -221.163257956505 2782.00006484985 15 18 11
-87.4537006020546 -225.062221288681 2831.00008964539 14 17 10
-79.5603394508362 -224.588468670845 2825.00004768372 13 16 9
-71.9791874289513 -224.988907575607 2829.99992370605 12 15 8
-64.0298873186111 -224.196538329124 2819.9999332428 11 14 7
-48.1562837958336 -221.974849700928 2792.00005531311 9 12 5
-40.6532101333141 -222.612604498863 2799.99995231628 14 15 9
-33.4246307611465 -225.396737456322 2835.00003814697 12 15 8
-25.3162570297718 -222.138166427612 2793.99991035461 12 15 8
-17.8241431713104 -223.808631300926 2815.00005722046 13 16 9
-10.2713722735643 -226.671382784843 2851.0000705719 12 14 9
89.3085226416588 -222.755506634712 2802.00004577637 9 12 5
97.0225036144257 -222.91088104248 2803.99990081787 13 16 9
103.963069617748 -221.396550536156 2785.00008583069 11 14 7
110.479101538658 -219.246000051498 2757.99989700317 12 15 8
120.655305683613 -224.17014837265 2819.9999332428 11 14 7
125.16151368618 -218.600943684578 2750 12 15 8
131.118521094322 -216.052293777466 2717.99993515015 12 15 8
137.766942381859 -214.854821562767 2703.00006866455 11 14 7
145.997524261475 -216.121137142181 2719.00010108948 11 14 7
156.402438879013 -220.328018069267 2772.0000743866 11 14 7
158.282592892647 -212.691679596901 2676.00011825562 11 14 7
168.363034725189 -216.262012720108 2720.99995613098 15 18 11
170.419216156006 -209.658920764923 2638.00001144409 15 18 11
184.141159057617 -217.361271381378 2734.99989509583 18 21 14
192.9971575737 -218.943580985069 2755.00011444092 22 25 18
-146.48674428463 -228.465795516968 2779.00004386902 1 3 0
-137.908399105072 -226.827174425125 2759.0000629425 11 14 7
-130.856320261955 -227.654650807381 2769.00005340576 16 19 12
-124.105431139469 -229.139626026154 2786.99994087219 13 16 9
-116.628833115101 -229.3910831213 2789.99996185303 13 16 9
-107.885010540485 -227.011188864708 2760.99991798401 13 16 9
-101.07996314764 -228.659808635712 2780.99989891052 13 16 9
-94.4007262587547 -230.88376224041 2808.00008773804 12 15 8
-87.2957855463028 -232.367411255836 2825.99997520447 13 16 9
-79.4727057218552 -232.041865587234 2822.00002670288 14 17 10
-71.8491822481155 -232.291594147682 2825.00004768372 15 18 11
-64.1635805368423 -232.376545667648 2825.99997520447 14 17 10
-56.2125742435455 -231.392189860344 2813.99989128113 12 15 8
-48.8615073263645 -232.95670747757 2832.99994468689 11 14 7
-41.3920320570469 -234.43865776062 2851.0000705719 10 11 5
-33.3054065704346 -232.302159070969 2825.00004768372 10 13 6
-25.5689471960068 -232.0566624403 2822.00002670288 11 14 7
-17.7917759865522 -231.070756912231 2809.99994277954 12 15 8
-10.3646321222186 -236.580863595009 2877.00009346008 10 12 7
79.9989923834801 -225.709319114685 2744.99988555908 4 7 0
87.4883010983467 -225.705966353416 2744.99988555908 9 12 5
96.9840735197067 -230.471253395081 2802.99997329712 13 16 9
104.518905282021 -230.220556259155 2799.99995231628 11 14 7
111.235834658146 -228.32515835762 2776.99995040894 11 14 7
118.853650987148 -228.40279340744 2778.00011634827 9 12 5
126.248881220818 -228.069007396698 2773.9999294281 10 13 6
131.547555327415 -224.199771881104 2726.99999809265 10 13 6
138.678923249245 -223.701074719429 2720.99995613098 10 13 6
145.240098237991 -222.380056977272 2704.99992370605 11 14 7
152.446925640106 -222.127556800842 2701.99990272522 11 14 7
165.200993418694 -219.4844186306 2670.00007629395 15 18 11
177.583128213882 -225.971698760986 2749.00007247925 14 17 10
182.316288352013 -222.594410181046 2707.99994468689 15 18 11
-138.052776455879 -234.600260853767 2762.00008392334 9 12 5
-131.418108940125 -236.219599843025 2780.99989891052 18 21 14
-124.723806977272 -237.923711538315 2801.00011825562 13 16 9
-116.791307926178 -237.334072589874 2793.99991035461 13 16 9
-108.740232884884 -236.404299736023 2782.99999237061 13 16 9
-101.257592439651 -236.66350543499 2786.00001335144 12 15 8
-93.8926264643669 -237.26212978363 2792.99998283386 11 14 7
-86.7671146988869 -238.625079393387 2809.00001525879 13 16 9
-79.2441815137863 -239.053249359131 2813.99989128113 14 17 10
-70.8543807268143 -236.677691340446 2786.00001335144 15 18 11
-64.0474408864975 -239.653885364532 2821.00009918213 15 18 11
-57.2489872574806 -243.479296565056 2865.9999370575 14 17 10
-49.5666228234768 -244.161173701286 2874.00007247925 13 16 9
-41.24516248703 -241.359531879425 2841.00008010864 11 12 6
-33.4101468324661 -240.766391158104 2834.00011062622 9 12 5
-25.5225989967585 -239.323332905769 2816.99991226196 10 13 6
-17.8860165178776 -240.003868937492 2825.00004768372 11 14 7
-10.0724101066589 -237.540721893311 2796.0000038147 10 12 7
86.9429334998131 -231.742814183235 2727.9999256134 9 12 5
94.5582166314125 -232.163816690445 2733.00004005432 12 15 8
103.245556354523 -234.963029623032 2766.00003242493 10 13 6
111.111149191856 -235.638171434402 2773.9999294281 10 13 6
117.180332541466 -232.660427689552 2739.00008201599 9 12 5
123.695246875286 -230.871677398682 2717.99993515015 9 12 5
130.143359303474 -229.167655110359 2697.99995422363 10 13 6
140.457093715668 -234.088569879532 2756.00004196167 10 13 6
143.516182899475 -227.033033967018 2673.00009727478 10 13 6
151.199623942375 -227.621585130692 2680.0000667572 11 14 7
162.291899323463 -233.05082321167 2743.99995803833 14 17 10
170.082151889801 -233.468726277351 2749.00007247925 15 18 11
177.317634224892 -233.121991157532 2744.99988555908 15 18 11
-140.346169471741 -246.158301830292 2808.00008773804 9 12 5
-132.357731461525 -245.550379157066 2801.00011825562 12 15 8
-124.406926333904 -244.942143559456 2793.99991035461 13 16 9
-117.246225476265 -245.911598205566 2805.0000667572 13 16 9
-109.868757426739 -246.530085802078 2812.00003623962 14 17 10
-102.016560733318 -246.096208691597 2806.99992179871 15 18 11
-94.191238284111 -245.662048459053 2802.00004577637 15 18 11
-86.2074941396713 -244.70143020153 2790.99988937378 15 18 11
-78.3679038286209 -244.003519415855 2782.99999237061 14 17 10
-71.334607899189 -245.935648679733 2805.0000667572 14 17 10
-63.0231201648712 -243.395820260048 2776.00002288818 13 16 9
-56.0880750417709 -246.204107999802 2808.00008773804 13 16 9
-48.8057099282742 -248.135268688202 2829.99992370605 12 15 8
-41.2434227764606 -249.101713299751 2841.00008010864 16 17 11
-33.1493876874447 -246.560528874397 2812.00003623962 11 14 7
-25.4762247204781 -246.56181037426 2812.00003623962 11 14 7
-17.9105866700411 -248.053312301636 2828.9999961853 12 15 8
-10.3457579389215 -251.824259757996 2871.99997901917 11 13 8
82.4693664908409 -248.123079538345 2829.99992370605 6 8 3
86.5887328982353 -238.212183117867 2717.00000762939 10 13 6
94.3812802433968 -239.172756671906 2727.9999256134 10 13 6
102.046832442284 -239.694625139236 2733.99996757507 8 11 4
112.268052995205 -245.739385485649 2802.99997329712 9 12 5
116.490960121155 -238.72098326683 2723.00004959106 10 13 6
121.596738696098 -234.244912862778 2671.99993133545 9 12 5
129.028543829918 -234.502628445625 2674.99995231628 9 12 5
143.617585301399 -234.491154551506 2674.99995231628 10 13 6
153.844878077507 -239.043176174164 2726.99999809265 10 13 6
162.226065993309 -240.43907225132 2743.00003051758 12 15 8
171.250626444817 -242.623448371887 2767.99988746643 13 16 9
178.343862295151 -242.002606391907 2760.99991798401 15 18 11
186.87929213047 -243.309751152992 2776.00002288818 15 18 11
201.719105243683 -242.943063378334 2772.0000743866 19 22 15
-152.951300144196 -262.298196554184 2901.99995040894 10 12 9
-142.339318990707 -257.423728704453 2848.00004959106 13 16 9
-132.777318358421 -253.994911909103 2809.99994277954 15 18 11
-124.802321195602 -253.367781639099 2802.99997329712 12 15 8
-117.199391126633 -253.463417291641 2803.99990081787 12 15 8
-109.55148935318 -253.468364477158 2803.99990081787 13 16 9
-102.484621107578 -254.919290542603 2819.9999332428 13 16 9
-94.4560840725899 -254.019618034363 2809.99994277954 13 16 9
-86.3582119345665 -252.758026123047 2796.0000038147 13 16 9
-78.1955793499947 -251.043975353241 2776.99995040894 13 16 9
-70.7974880933762 -251.680076122284 2783.99991989136 14 17 10
-63.8830587267876 -254.395097494125 2813.99989128113 14 17 10
-55.9458322823048 -253.222495317459 2801.00011825562 14 17 10
-47.8723645210266 -250.964611768723 2776.00002288818 14 17 10
-40.7771021127701 -253.94994020462 2809.00001525879 13 16 7
-33.0772213637829 -253.680378198624 2805.99999427795 12 15 6
-25.4207607358694 -253.681629896164 2805.99999427795 11 14 5
-17.8654938936234 -255.129128694534 2822.00002670288 10 13 6
-10.3381043300033 -259.469270706177 2869.99988555908 11 13 8
81.475056707859 -252.760350704193 2796.0000038147 8 10 5
89.0069603919983 -252.485424280167 2792.99998283386 8 10 5
95.207504928112 -248.77505004406 2752.00009346008 9 12 5
104.207202792168 -252.386629581451 2792.00005531311 9 11 6
112.583629786968 -254.099398851395 2811.00010871887 9 11 6
118.539333343506 -250.478595495224 2770.99990844727 9 11 6
124.822460114956 -247.942358255386 2743.00003051758 8 11 4
130.807653069496 -245.134711265564 2711.99989318848 8 11 4
136.470407247543 -242.055729031563 2677.99997329712 9 12 5
148.443266749382 -249.913141131401 2765.00010490417 10 13 6
156.771838665009 -251.171946525574 2779.00004386902 11 14 7
162.337437272072 -248.092085123062 2744.99988555908 11 14 7
168.830648064613 -246.63895368576 2729.00009155273 12 15 8
178.207159042358 -249.342784285545 2759.0000629425 14 17 10
187.477275729179 -251.684635877609 2785.00008583069 16 19 12
192.335680127144 -248.152121901512 2746.00005149841 17 20 13
-141.983240842819 -264.529913663864 2841.00008010864 8 11 4
-132.677003741264 -261.463284492493 2808.00008773804 15 18 11
-124.97490644455 -261.375904083252 2806.99992179871 11 14 7
-117.319621145725 -261.381298303604 2806.99992179871 11 14 7
-109.585717320442 -261.200159788132 2805.0000667572 12 15 8
-100.699402391911 -258.038759231567 2770.99990844727 12 15 8
-94.1493883728981 -260.836780071259 2801.00011825562 12 15 8
-86.7867767810822 -261.678963899612 2809.99994277954 12 15 8
-78.8397192955017 -260.75142621994 2799.99995231628 12 15 8
-70.9723457694054 -259.916663169861 2790.99988937378 12 15 8
-64.1753375530243 -263.272285461426 2826.99990272522 13 16 9
-56.0631714761257 -261.412411928177 2806.99992179871 13 16 9
-48.1116585433483 -259.831577539444 2789.99996185303 13 16 9
-40.4123850166798 -259.274780750275 2783.99991989136 11 14 5
-32.7574908733368 -258.810788393021 2779.00004386902 10 13 4
-25.193152949214 -258.998334407806 2780.99989891052 10 13 4
-17.8203843533993 -262.165814638138 2815.00005722046 10 13 6
-10.272809304297 -265.612334012985 2851.99999809265 10 12 9
82.3164656758308 -263.078272342682 2825.00004768372 8 10 5
89.0986174345016 -260.373800992966 2796.0000038147 9 11 6
96.8984216451645 -260.835260152817 2801.00011825562 9 12 5
106.628522276878 -266.04551076889 2857.00011253357 9 11 6
117.593020200729 -255.978643894196 2749.00007247925 7 9 4
125.909045338631 -257.649272680283 2766.99995994568 8 11 4
135.480299592018 -261.55424118042 2809.00001525879 8 11 4
142.273589968681 -259.965181350708 2792.00005531311 8 11 4
149.080976843834 -258.562058210373 2776.99995040894 10 13 6
162.27126121521 -255.47581911087 2743.99995803833 10 13 6
169.751241803169 -255.468457937241 2743.99995803833 11 14 7
176.778480410576 -254.809141159058 2736.99998855591 13 16 9
184.57467854023 -255.266726016998 2742.00010299683 15 18 11
194.708704948425 -258.795917034149 2779.99997138977 16 19 12
199.664562940598 -255.436062812805 2743.99995803833 16 19 12
-133.096218109131 -269.973963499069 2816.99991226196 14 17 10
-126.126810908318 -271.513313055038 2832.99994468689 11 14 7
-118.609912693501 -271.998137235641 2838.00005912781 11 14 7
-109.463542699814 -268.553018569946 2802.00004577637 11 14 7
-103.020526468754 -271.720767021179 2835.00003814697 12 15 8
-93.7417820096016 -267.316371202469 2789.00003433228 12 15 8
-86.7519453167915 -269.237488508224 2809.00001525879 12 15 8
-79.5963332056999 -270.966559648514 2826.99990272522 12 15 8
-72.0625072717667 -271.641045808792 2834.00011062622 13 16 9
-63.9454126358032 -270.014703273773 2816.99991226196 13 16 9
-56.2803074717522 -270.113348960876 2818.00007820129 13 16 9
-48.247404396534 -268.198698759079 2798.00009727478 13 16 9
-40.6137593090534 -268.200755119324 2798.00009727478 12 15 6
-33.0270901322365 -268.585860729218 2802.00004577637 11 14 5
-25.1919999718666 -266.57423377037 2780.99989891052 11 14 5
-17.7372768521309 -268.588244915009 2802.00004577637 12 15 8
-10.1390723139048 -269.835025072098 2815.00005722046 12 14 11
81.875666975975 -269.335836172104 2809.99994277954 14 16 11
89.1264230012894 -268.085837364197 2796.99993133545 14 16 11
98.8312214612961 -273.832350969315 2857.00011253357 14 17 10
105.01891374588 -269.706308841705 2813.99989128113 12 14 9
111.412189900875 -266.634345054626 2782.00006484985 11 13 8
116.218909621239 -260.399401187897 2717.00000762939 9 11 6
136.486977338791 -271.217614412308 2829.99992370605 8 11 4
142.980560660362 -268.911212682724 2805.99999427795 8 11 4
150.738433003426 -269.096225500107 2808.00008773804 8 11 4
160.029619932175 -271.868199110031 2836.99989318848 9 12 5
171.228304505348 -265.241146087646 2767.99988746643 10 13 6
176.383092999458 -261.687874794006 2730.99994659424 12 15 8
186.114639043808 -264.937609434128 2765.00010490417 13 16 9
195.75060904026 -267.803519964218 2795.00007629395 14 17 10
202.638953924179 -266.836494207382 2785.00008583069 16 19 12
-142.370074987411 -280.793070793152 2848.99997711182 17 20 13
-134.838163852692 -281.292378902435 2854.00009155273 11 14 7
-126.432597637177 -279.918611049652 2839.99991416931 11 14 7
-117.977537214756 -278.24878692627 2822.99995422363 11 14 7
-110.59132963419 -279.042661190033 2831.00008964539 12 15 8
-102.906733751297 -279.146254062653 2832.00001716614 12 15 8
-95.2498614788055 -279.348075389862 2834.00011062622 12 15 8
-86.8714228272438 -277.282357215881 2812.99996376038 13 16 9
-79.5644596219063 -278.567731380463 2825.99997520447 13 16 9
-71.9574317336082 -278.965622186661 2829.99992370605 14 17 10
-63.6927336454391 -276.603013277054 2805.99999427795 14 17 10
-55.8782555162907 -275.81724524498 2798.00009727478 14 17 10
-48.5210306942463 -277.396947145462 2813.99989128113 14 17 10
-40.5537895858288 -275.427490472794 2793.99991035461 12 15 6
-33.202338963747 -277.696549892426 2816.99991226196 11 14 5
-25.5078598856926 -277.599394321442 2815.99998474121 12 15 6
-17.7047941833735 -275.727421045303 2796.99993133545 13 16 9
-10.196222923696 -279.079794883728 2831.00008964539 12 14 11
73.5202431678772 -274.429976940155 2783.99991989136 122 124 121
81.5513506531715 -275.904923677444 2799.00002479553 15 17 12
89.6002277731895 -277.182281017303 2812.00003623962 15 17 12
98.7920090556145 -281.514972448349 2855.99994659424 14 17 10
105.723068118095 -279.243022203445 2832.99994468689 13 15 10
110.686182975769 -272.436827421188 2763.99993896484 11 13 8
149.818927049637 -275.067508220673 2790.99988937378 8 11 4
159.79665517807 -279.199600219727 2832.99994468689 9 12 5
167.105317115784 -278.502136468887 2825.99997520447 9 12 5
170.045211911201 -270.906060934067 2749.00007247925 10 13 6
177.989616990089 -271.587818861008 2756.00004196167 11 14 7
186.711922287941 -273.353189229965 2773.9999294281 13 16 9
196.79220020771 -276.891767978668 2809.99994277954 14 17 10
207.795530557632 -281.415164470673 2855.99994659424 17 20 13
-144.961759448051 -293.817341327667 2901.00002288818 22 24 19
-135.351434350014 -290.17785191536 2865.00000953674 11 14 7
-126.51564180851 -287.854611873627 2842.00000762939 12 15 8
-117.930136620998 -285.834699869156 2822.00002670288 12 15 8
-110.507950186729 -286.549270153046 2828.9999961853 12 15 8
-103.265166282654 -287.871152162552 2842.00000762939 13 16 9
-95.4133495688438 -287.572085857391 2838.99998664856 13 16 9
-87.3922407627106 -286.664843559265 2829.99992370605 13 16 9
-79.1665241122246 -284.845590591431 2812.00003623962 13 16 9
-71.2166577577591 -283.734947443008 2801.00011825562 13 16 9
-63.5308027267456 -283.53562951088 2799.00002479553 13 16 9
-55.6958504021168 -282.525509595871 2789.00003433228 14 17 10
-48.5359467566013 -285.161823034287 2815.00005722046 14 17 10
-41.1904565989971 -287.493944168091 2838.00005912781 15 18 9
-33.3775281906128 -286.887943744659 2832.00001716614 11 14 5
-25.6696715950966 -287.091970443726 2834.00011062622 11 14 5
-18.1470159441233 -290.436059236526 2867.00010299683 12 15 8
80.906480550766 -281.298786401749 2776.99995040894 9 11 6
88.6400938034058 -281.80119395256 2782.00006484985 10 12 7
98.5105857253075 -288.482069969177 2848.00004959106 10 13 6
104.67317700386 -284.121602773666 2805.0000667572 11 13 8
111.722066998482 -282.597035169601 2789.99996185303 12 14 9
119.501337409019 -282.996624708176 2793.99991035461 11 13 8
127.438485622406 -283.699691295624 2801.00011825562 10 13 6
133.050307631493 -279.43953871727 2759.0000629425 9 12 5
152.925118803978 -288.541108369827 2848.99997711182 9 12 5
159.1687053442 -285.79917550087 2822.00002670288 9 12 5
168.339163064957 -288.323223590851 2846.99988365173 9 12 5
172.820657491684 -282.94774889946 2793.99991035461 9 12 5
175.139784812927 -274.635523557663 2711.99989318848 10 13 6
186.568588018417 -280.702918767929 2772.0000743866 11 14 7
196.012705564499 -283.427953720093 2799.00002479553 13 16 9
203.275114297867 -282.912254333496 2793.99991035461 16 19 12
207.641318440437 -278.548628091812 2750.99992752075 16 18 13
-152.547225356102 -301.084160804749 2894.99998092651 5 7 4
-144.65494453907 -301.091432571411 2894.99998092651 27 29 24
-135.439366102219 -298.186153173447 2867.00010299683 12 15 8
-126.821085810661 -296.320468187332 2848.99997711182 12 15 8
-118.216916918755 -294.246286153793 2828.9999961853 12 15 8
-110.893167555332 -295.292049646378 2838.99998664856 13 16 9
-103.696145117283 -296.857535839081 2854.00009155273 13 16 9
-95.8791822195053 -296.758413314819 2852.9999256134 13 16 9
-87.6350104808807 -295.202732086182 2838.00005912781 12 15 8
-79.9508914351463 -295.41489481926 2839.99991416931 12 15 8
-71.2385922670364 -291.465908288956 2802.00004577637 13 16 9
-63.1645396351814 -289.492785930634 2782.99999237061 13 16 9
-55.9127740561962 -291.264146566391 2799.99995231628 13 16 9
-48.8611422479153 -294.803529977798 2834.00011062622 13 16 9
-41.1449000239372 -294.909805059433 2835.00003814697 17 20 11
-33.3641059696674 -294.495582580566 2831.00008964539 12 15 6
-25.7589817047119 -295.849353075027 2844.00010108948 13 16 7
-18.3486621826887 -301.571875810623 2898.9999294281 14 17 10
-10.4761300608516 -302.612841129303 2908.99991989136 10 12 9
80.4946646094322 -287.404000759125 2763.00001144409 9 11 6
88.6357575654984 -289.37616944313 2782.00006484985 9 11 6
97.5373089313507 -293.324172496796 2819.9999332428 10 13 6
104.444183409214 -291.134893894196 2799.00002479553 12 14 9
111.276164650917 -289.049327373505 2779.00004386902 13 15 10
120.008766651154 -291.851937770844 2805.99999427795 13 15 10
127.61427462101 -291.741818189621 2805.0000667572 10 13 6
133.911848068237 -288.823217153549 2776.99995040894 10 13 6
141.788482666016 -289.440512657166 2782.99999237061 9 12 5
152.058944106102 -294.63341832161 2832.99994468689 9 12 5
167.444184422493 -294.51385140419 2832.00001716614 10 13 6
176.422923803329 -284.097939729691 2732.00011253357 9 12 5
185.280963778496 -286.272943019867 2753.00002098084 10 13 6
194.672882556915 -289.071321487427 2779.99997138977 12 15 8
199.555203318596 -285.214573144913 2743.00003051758 15 18 11
-150.80089867115 -305.442780256271 2861.99998855591 8 10 7
-141.200214624405 -301.607996225357 2825.99997520447 10 13 6
-137.416645884514 -310.473322868347 2908.99991989136 10 13 6
-127.482458949089 -305.677145719528 2864.00008201599 11 14 7
-119.422815740108 -305.042952299118 2858.00004005432 11 14 7
-111.98128759861 -306.009382009506 2867.00010299683 12 15 8
-102.274022996426 -300.464510917664 2815.00005722046 11 14 7
-93.3204367756844 -296.413421630859 2776.99995040894 11 14 7
-88.3716866374016 -305.490881204605 2861.99998855591 11 14 7
-79.7216892242432 -302.292853593826 2832.00001716614 11 14 7
-70.955365896225 -297.920256853104 2790.99988937378 12 15 8
-63.0705878138542 -296.642750501633 2779.00004386902 12 15 8
-55.6703545153141 -297.606468200684 2788.00010681152 12 15 8
-48.6173219978809 -301.024943590164 2819.9999332428 12 15 8
-41.1573424935341 -302.735179662704 2835.99996566772 13 16 7
-33.3152860403061 -301.776319742203 2826.99990272522 13 16 7
-26.0022226721048 -306.474775075912 2871.00005149841 13 16 7
-18.0945806205273 -305.194914340973 2858.99996757507 14 17 10
-10.4431947693229 -309.572368860245 2900.00009536743 9 11 8
81.0150057077408 -296.847581863403 2780.99989891052 11 13 8
88.8224914669991 -297.590494155884 2788.00010681152 11 13 8
95.9760844707489 -296.198219060898 2775.00009536743 13 16 9
102.94646769762 -294.48539018631 2759.0000629425 13 15 10
111.550904810429 -297.361850738525 2786.00001335144 12 14 9
120.131090283394 -299.810886383057 2809.00001525879 12 14 9
127.380475401878 -298.8440990448 2799.99995231628 12 15 8
141.37390255928 -296.16242647171 2775.00009536743 10 13 6
149.6362388134 -297.542601823807 2788.00010681152 9 12 5
170.762896537781 -294.637262821198 2760.99991798401 10 13 6
178.351491689682 -294.735312461853 2762.00008392334 10 13 6
186.550587415695 -295.793414115906 2772.0000743866 10 13 6
192.492693662643 -293.329805135727 2749.00007247925 12 15 8
199.254512786865 -292.253166437149 2739.00008201599 13 16 9
206.036522984505 -291.282892227173 2730.00001907349 13 16 9
-148.422315716743 -308.307319879532 2816.99991226196 7 9 6
-146.039411425591 -319.916188716888 2923.00009727478 17 19 14
-137.456953525543 -318.500608205795 2910.00008583069 10 13 6
-127.743035554886 -314.129292964935 2869.99988555908 11 14 7
-119.458518922329 -312.931656837463 2858.99996757507 11 14 7
-112.327098846436 -314.798384904861 2875.99992752075 11 14 7
-101.505883038044 -305.828332901001 2793.99991035461 11 14 7
-95.2646508812904 -310.321271419525 2835.00003814697 11 14 7
-87.5026509165764 -310.216546058655 2834.00011062622 11 14 7
-78.7324011325836 -306.170701980591 2796.99993133545 11 14 7
-72.0194429159164 -310.115307569504 2832.99994468689 11 14 7
-63.8843476772308 -308.148443698883 2815.00005722046 12 15 8
-56.0069307684898 -307.056874036789 2805.0000667572 12 15 8
-48.5803484916687 -308.482676744461 2818.00007820129 12 15 8
-41.0536415874958 -309.68913435936 2828.9999961853 13 16 7
-33.5139110684395 -311.333149671555 2844.00010108948 13 16 7
-25.3669377416372 -306.627422571182 2801.00011825562 13 16 7
-17.6189988851547 -304.767549037933 2783.99991989136 14 17 10
-10.2986199781299 -313.088089227676 2859.99989509583 10 12 9
81.4769491553307 -306.169182062149 2796.99993133545 8 10 5
88.4356573224068 -303.86608839035 2776.00002288818 10 12 7
96.4207798242569 -305.174857378006 2788.00010681152 14 17 10
103.687435388565 -304.184556007385 2779.00004386902 14 16 11
111.62530630827 -305.164128541946 2788.00010681152 12 14 9
119.39799785614 -305.596023797989 2792.00005531311 12 14 9
127.692431211472 -307.231456041336 2806.99992179871 14 17 10
133.70555639267 -303.503423929214 2773.00000190735 12 15 8
139.787539839745 -300.322473049164 2743.99995803833 11 14 7
146.891564130783 -299.549043178558 2736.99998855591 10 13 6
155.987069010735 -302.71515250206 2766.00003242493 10 13 6
171.867564320564 -304.121226072311 2779.00004386902 10 13 6
177.955150604248 -301.595360040665 2756.00004196167 10 13 6
186.002880334854 -302.461624145508 2763.99993896484 10 13 6
192.623138427734 -301.029533147812 2750.99992752075 11 14 7
197.571501135826 -297.189891338348 2716.00008010864 11 14 7
204.290583729744 -296.195030212402 2707.00001716614 13 16 9
-151.41773223877 -322.366803884506 2874.00007247925 1 3 0
-141.78529381752 -318.336397409439 2838.00005912781 10 13 6
-134.285166859627 -318.904459476471 2842.99993515015 10 13 6
-125.021487474442 -315.097361803055 2809.00001525879 11 14 7
-119.619436562061 -321.161240339279 2862.99991607666 10 13 6
-111.149616539478 -319.260269403458 2845.99995613098 10 13 6
-102.445125579834 -316.34920835495 2819.9999332428 10 13 6
-94.0836220979691 -314.11075592041 2799.99995231628 11 14 7
-86.5100920200348 -314.339905977249 2802.00004577637 10 13 6
-79.7415897250175 -317.822009325027 2832.99994468689 10 13 6
-71.6852098703384 -316.367596387863 2819.9999332428 10 13 6
-63.903696835041 -315.922439098358 2815.99998474121 11 14 7
-56.3034787774086 -316.374331712723 2819.9999332428 11 14 7
-48.4226569533348 -315.143018960953 2809.00001525879 11 14 7
-41.0369820892811 -317.277044057846 2828.00006866455 11 14 5
-33.5592813789845 -319.522827863693 2848.00004959106 12 15 6
-25.4561677575111 -315.373331308365 2811.00010871887 12 15 6
-17.5864323973656 -311.784267425537 2779.00004386902 14 17 10
81.1522752046585 -312.547773122787 2786.00001335144 3 5 0
88.6540338397026 -312.206745147705 2782.99999237061 10 12 7
97.8336408734322 -317.362248897552 2828.9999961853 15 18 11
104.577459394932 -314.440190792084 2802.99997329712 13 15 10
111.53943836689 -312.527477741241 2786.00001335144 14 16 11
119.520083069801 -313.531011343002 2795.00007629395 12 14 9
127.958759665489 -315.543681383133 2812.99996376038 14 17 10
134.325444698334 -312.508195638657 2786.00001335144 13 16 9
140.544414520264 -309.472411870956 2759.0000629425 12 15 8
147.205993533134 -307.67023563385 2743.00003051758 10 13 6
152.651950716972 -303.624510765076 2707.00001716614 9 12 5
164.640471339226 -312.364906072617 2785.00008583069 10 13 6
173.281103372574 -314.262807369232 2802.00004577637 10 13 6
176.396459341049 -306.402951478958 2732.00011253357 10 13 6
185.791537165642 -309.645980596542 2760.99991798401 10 13 6
193.733617663383 -310.309112071991 2766.99995994568 11 14 7
198.65258038044 -306.261837482452 2730.99994659424 12 15 8
204.506635665894 -303.896576166153 2710.00003814697 15 18 11
214.154958724976 -307.137906551361 2739.00008201599 14 16 11
-152.358040213585 -332.254707813263 2891.99995994568 0 1 0
-139.829501509666 -321.577817201614 2799.00002479553 11 14 7
-133.616834878922 -325.031846761703 2828.9999961853 11 14 7
-127.017587423325 -327.911138534546 2854.00009155273 11 14 7
-116.437904536724 -320.219606161118 2786.99994087219 10 13 6
-111.807607114315 -328.958004713058 2862.99991607666 9 12 5
-102.403357625008 -323.908150196075 2819.00000572205 10 13 6
-94.9522033333778 -324.717730283737 2825.99997520447 11 14 7
-86.6907313466072 -322.654366493225 2808.00008773804 9 12 5
-79.1744217276573 -323.233336210251 2812.99996376038 10 13 6
-70.9442272782326 -320.709377527237 2790.99988937378 10 13 6
-64.286045730114 -325.539231300354 2832.99994468689 10 13 6
-56.120790541172 -323.014467954636 2811.00010871887 10 13 6
-48.1787510216236 -321.178734302521 2795.00007629395 10 13 6
-40.730070322752 -322.560042142868 2806.99992179871 11 14 5
-33.4160886704922 -325.894504785538 2835.99996566772 11 14 5
-25.6902426481247 -326.011061668396 2836.99989318848 11 14 5
-17.6930669695139 -321.300745010376 2796.0000038147 13 16 9
82.371287047863 -324.955374002457 2828.00006866455 3 5 0
90.0190323591232 -324.720948934555 2825.99997520447 11 13 8
96.9639122486115 -322.188019752502 2803.99990081787 14 17 10
104.833051562309 -322.872012853622 2809.99994277954 12 14 9
111.733675003052 -320.683091878891 2790.99988937378 14 16 11
120.924837887287 -324.928134679794 2828.00006866455 12 14 9
128.224909305573 -323.887377977371 2819.00000572205 13 16 9
135.523647069931 -322.961211204529 2811.00010871887 13 16 9
142.472624778748 -321.345329284668 2796.99993133545 12 15 8
148.808136582375 -318.58029961586 2773.00000190735 11 14 7
153.4333974123 -312.598258256912 2720.99995613098 10 13 6
163.9224588871 -318.563729524612 2773.00000190735 7 10 3
172.715485095978 -320.852369070053 2792.99998283386 8 11 4
182.908177375793 -325.438052415848 2832.99994468689 8 11 4
184.436112642288 -314.860135316849 2740.9999370575 10 13 6
193.723559379578 -317.836821079254 2766.99995994568 11 14 7
201.115339994431 -317.596793174744 2765.00010490417 13 16 9
207.740873098373 -316.207766532898 2753.00002098084 9 12 5
214.53483402729 -315.163046121597 2743.99995803833 14 16 11
-143.168896436691 -337.07258105278 2865.9999370575 11 14 7
-136.396139860153 -339.667677879334 2888.00001144409 10 13 6
-129.324868321419 -341.791957616806 2905.99989891052 11 14 7
-121.235929429531 -341.328322887421 2901.99995040894 9 12 5
-112.11396753788 -337.688505649567 2871.00005149841 9 12 5
-103.196948766708 -334.165751934052 2841.00008010864 9 12 5
-95.1150506734848 -332.994908094406 2831.00008964539 11 14 7
-86.716890335083 -330.412149429321 2809.00001525879 9 12 5
-78.7198022007942 -329.005122184753 2796.99993133545 9 12 5
-71.0928738117218 -329.009264707565 2796.99993133545 9 12 5
-64.1010254621506 -332.306653261185 2825.00004768372 9 12 5
-57.215727865696 -337.132811546326 2865.9999370575 10 13 6
-48.2450649142265 -329.254388809204 2799.00002479553 10 13 6
-41.2356778979301 -334.315091371536 2842.00000762939 8 11 2
-33.3671383559704 -333.140820264816 2832.00001716614 10 13 4
-25.4896301776171 -331.142634153366 2815.00005722046 10 13 4
-17.9072394967079 -332.90833234787 2829.99992370605 12 14 9
83.4735780954361 -337.119847536087 2865.9999370575 139 141 138
89.2178416252136 -329.469382762909 2801.00011825562 12 14 9
96.5437218546867 -328.40570807457 2792.00005531311 13 16 9
103.335171937943 -325.812518596649 2769.99998092651 11 13 8
112.528271973133 -330.629080533981 2811.00010871887 13 15 10
121.003814041615 -332.857459783554 2829.99992370605 12 14 9
128.036066889763 -331.086426973343 2815.00005722046 13 16 9
135.37172973156 -330.255955457687 2808.00008773804 13 16 9
143.279939889908 -330.836474895477 2812.99996376038 13 16 9
150.731950998306 -330.35808801651 2809.00001525879 12 15 8
156.80830180645 -327.056795358658 2780.99989891052 11 14 7
165.687024593353 -329.635322093964 2802.99997329712 8 11 4
174.746870994568 -332.330971956253 2825.99997520447 8 11 4
181.413561105728 -330.439865589142 2809.99994277954 8 11 4
186.243012547493 -325.491100549698 2767.99988746643 9 12 5
193.923324346542 -325.716108083725 2769.99998092651 10 13 6
202.995732426643 -328.17479968071 2790.99988937378 12 15 8
209.540858864784 -326.517701148987 2776.99995040894 12 15 8
219.761580228806 -330.503970384598 2811.00010871887 17 19 14
-152.446895837784 -348.229616880417 2894.00005340576 2 4 0
-144.110143184662 -347.154855728149 2884.99999046326 10 13 6
-137.947097420692 -351.494640111923 2921.0000038147 15 18 9
-126.825734972954 -342.958182096481 2849.99990463257 9 12 5
-120.936840772629 -348.380267620087 2894.99998092651 9 12 5
-112.69349604845 -347.303658723831 2885.99991798401 9 12 5
-103.772401809692 -343.819826841354 2857.00011253357 10 13 6
-96.3192507624626 -345.028847455978 2867.00010299683 10 13 6
-85.9403535723686 -335.045218467712 2783.99991989136 10 13 6
-79.7285884618759 -340.946853160858 2832.99994468689 10 13 6
-72.1564069390297 -341.673195362091 2838.99998664856 10 13 6
-65.0277212262154 -344.926506280899 2865.9999370575 9 12 5
-57.112742215395 -344.328194856644 2861.00006103516 8 11 4
-49.6212244033813 -346.497535705566 2878.99994850159 8 11 4
-41.4365045726299 -343.731939792633 2855.99994659424 11 14 7
-33.3534963428974 -340.725183486938 2831.00008964539 8 11 4
-25.7960632443428 -342.893213033676 2848.99997711182 18 21 14
-18.2289332151413 -346.745848655701 2881.00004196167 8 10 5
81.4885422587395 -336.73307299614 2798.00009727478 6 8 3
89.3084481358528 -337.450355291367 2803.99990081787 0 2 0
96.6421067714691 -336.362063884735 2795.00007629395 11 14 7
103.889018297195 -335.153043270111 2785.00008583069 16 19 12
111.841566860676 -336.230099201202 2793.99991035461 24 27 20
119.928278028965 -337.547421455383 2805.0000667572 11 14 7
127.392306923866 -337.05922961235 2801.00011825562 14 17 10
134.882226586342 -336.690902709961 2798.00009727478 15 18 11
142.762780189514 -337.28489279747 2802.99997329712 16 19 12
150.401741266251 -337.276786565781 2802.99997329712 15 18 11
157.927423715591 -337.027698755264 2801.00011825562 14 17 10
163.372814655304 -332.566887140274 2763.99993896484 13 16 9
176.283180713654 -343.025356531143 2851.0000705719 11 14 7
179.208815097809 -333.991974592209 2776.00002288818 8 11 4
185.560122132301 -331.81631565094 2757.99989700317 9 12 5
195.172965526581 -335.4152739048 2788.00010681152 10 13 6
204.8030346632 -338.772892951965 2815.99998474121 10 13 6
210.435047745705 -335.513561964035 2789.00003433228 11 12 4
217.1700745821 -334.178745746613 2778.00011634827 19 20 14
-152.912467718124 -357.207834720612 2903.00011634827 2 4 0
-144.851341843605 -356.847047805786 2900.00009536743 6 9 0
-135.625436902046 -353.409469127655 2871.99997901917 13 16 7
-128.064587712288 -354.155272245407 2878.00002098084 9 12 5
-118.047781288624 -347.763240337372 2825.99997520447 9 12 5
-111.984357237816 -352.938264608383 2868.00003051758 9 12 5
-89.8557007312775 -358.247220516205 2911.00001335144 9 12 5
-80.3150609135628 -351.237237453461 2854.00009155273 9 12 5
-73.0418562889099 -353.702962398529 2874.00007247925 9 12 5
-64.8425444960594 -351.73773765564 2858.00004005432 9 12 5
-56.6903203725815 -349.525928497314 2839.99991416931 10 13 6
-49.1186119616032 -350.759655237198 2849.99990463257 11 14 7
-40.8393368124962 -346.454679965973 2815.00005722046 16 19 12
-33.2455821335316 -347.318291664124 2822.00002670288 11 14 7
-25.6678462028503 -348.919987678528 2835.00003814697 13 16 9
-18.0887077003717 -351.87503695488 2858.99996757507 10 12 7
89.4626602530479 -345.692574977875 2809.00001525879 5 7 2
97.155287861824 -345.810323953629 2809.99994277954 16 19 12
104.666493833065 -345.312356948853 2805.99999427795 19 22 13
112.075462937355 -344.567865133286 2799.99995231628 20 23 14
118.254199624062 -340.377390384674 2766.00003242493 11 14 5
