ply
format ascii 1.0
comment KinectMotionCapture
element vertex 792
property float x
property float y
property float z
property uchar red
property uchar green
property uchar blue
end_header
-30.8191888034344 320.082098245621 2615.9999370575 9 12 5
-23.6310716718435 319.349497556686 2609.99989509583 40 43 36
-16.5135487914085 319.35065984726 2609.99989509583 66 69 62
-9.40316542983055 319.596111774445 2611.99998855591 126 129 122
-2.28271004743874 319.96351480484 2615.00000953674 132 135 128
4.84484573826194 319.718718528748 2612.99991607666 136 139 132
11.9523117318749 319.228798151016 2608.99996757507 133 136 129
19.0598424524069 319.105565547943 2608.00004005432 133 135 130
26.2019857764244 319.47135925293 2611.00006103516 139 141 136
33.30934420228 319.347321987152 2609.99989509583 138 141 134
40.4421016573906 319.467574357986 2611.00006103516 144 147 140
47.5072935223579 319.098025560379 2608.00004005432 144 147 140
54.7025389969349 319.584488868713 2611.99998855591 145 148 141
61.7773719131947 319.336473941803 2609.99989509583 142 145 138
68.9994618296623 319.8222219944 2614.00008201599 138 141 134
76.1265978217125 319.818109273911 2614.00008201599 162 165 158
83.4126770496368 320.425271987915 2618.99995803833 150 153 146
90.5528515577316 320.420354604721 2618.99995803833 122 125 118
97.9164838790894 321.149110794067 2625 120 123 116
105.152361094952 321.388065814972 2627.00009346008 122 125 118
112.740777432919 322.605341672897 2637.00008392334 144 147 140
119.792059063911 322.23179936409 2634.0000629425 70 75 68
127.260372042656 322.95885682106 2640.00010490417 1 6 0
134.098827838898 322.095185518265 2632.99989700317 2 7 0
141.48885011673 322.57679104805 2637.00008392334 14 19 12
149.351164698601 324.036568403244 2648.9999294281 11 16 9
157.160148024559 325.251251459122 2658.99991989136 14 19 12
163.600966334343 323.65220785141 2645.99990844727 9 14 7
171.455100178719 324.866086244583 2655.99989891052 12 15 8
177.815675735474 323.266357183456 2642.99988746643 22 25 18
188.094928860664 328.63786816597 2687.00003623962 17 22 15
196.140512824059 329.850316047668 2697.00002670288 16 19 12
-232.36221075058 325.452297925949 2721.99988365173 196 198 197
-223.216235637665 322.953581809998 2700.99997520447 188 190 189
-215.062916278839 321.769624948502 2690.99998474121 181 181 181
-207.117661833763 320.824325084686 2683.00008773804 175 173 174
-199.736565351486 320.715695619583 2681.99992179871 167 163 162
-192.431911826134 320.726275444031 2681.99992179871 167 163 162
-185.26466190815 320.975691080093 2684.00001525879 163 162 160
-178.085818886757 321.224749088287 2686.00010871887 160 160 158
-171.022608876228 321.712583303452 2690.00005722046 145 147 144
-164.241224527359 322.798132896423 2698.99988174438 101 103 100
-160.839721560478 330.93985915184 2766.99995994568 207 209 206
-141.176119446754 320.550739765167 2680.0000667572 4 5 0
-133.372515439987 319.362193346024 2670.00007629395 29 30 22
-118.149921298027 317.581802606583 2654.99997138977 19 22 15
-109.993562102318 314.956545829773 2632.99989700317 19 22 15
-102.503396570683 314.005464315414 2625 20 23 16
-95.310740172863 313.891351222992 2624.00007247925 19 22 15
-88.8958722352982 316.528171300888 2645.99990844727 19 22 15
-82.5459435582161 319.882482290268 2674.00002479553 20 23 16
-74.5795592665672 317.015796899796 2650.00009536743 18 21 14
-66.9470950961113 315.105617046356 2634.0000629425 12 15 8
-45.537069439888 316.072076559067 2641.99995994568 14 17 10
-38.3032187819481 315.835177898407 2640.00010490417 19 22 15
-30.9151839464903 313.922941684723 2624.00007247925 19 22 15
-23.6142966896296 312.010318040848 2608.00004005432 18 21 14
-16.5018271654844 312.011420726776 2608.00004005432 4 7 0
-9.40369628369808 312.490671873093 2611.99998855591 11 14 7
-2.28371168486774 312.969535589218 2615.9999370575 24 27 20
4.84882760792971 312.849849462509 2615.00000953674 46 49 42
11.9758946821094 312.729775905609 2614.00008201599 101 104 97
19.0828442573547 312.369972467422 2611.00006103516 116 119 112
26.2134987860918 312.488347291946 2611.99998855591 112 115 108
33.2856997847557 312.008172273636 2608.00004005432 104 107 100
40.428888052702 312.245339155197 2609.99989509583 80 83 76
47.5281849503517 312.123239040375 2608.99996757507 78 81 74
54.7265596687794 312.598913908005 2612.99991607666 75 78 71
61.7808550596237 312.236785888672 2609.99989509583 68 71 64
69.0561234951019 312.950938940048 2615.9999370575 63 66 59
76.1308744549751 312.707662582397 2614.00008201599 41 44 37
83.4173485636711 313.301295042038 2618.99995803833 21 24 17
90.6616598367691 313.655376434326 2621.99997901917 8 11 4
98.1457903981209 314.726769924164 2631.00004196167 12 15 8
105.47848790884 315.199613571167 2634.99999046326 12 15 8
112.832568585873 315.672039985657 2638.99993896484 12 15 8
119.753241539001 314.947903156281 2632.99989700317 8 11 2
126.59253180027 314.103811979294 2625.99992752075 25 28 19
133.851617574692 314.335882663727 2628.00002098084 19 22 13
142.247900366783 317.079305648804 2651.00002288818 12 15 6
149.190291762352 316.47327542305 2645.99990844727 14 17 8
155.868455767632 315.38850069046 2637.00008392334 14 15 7
163.177147507668 315.618991851807 2638.99993896484 18 19 11
169.979676604271 314.892321825027 2632.99989700317 14 15 7
178.430944681168 317.155092954636 2651.99995040894 26 27 19
185.7950091362 317.384451627731 2654.00004386902 25 26 18
196.00573182106 322.277098894119 2694.9999332428 33 34 26
-232.118397951126 317.699640989304 2719.00010108948 201 203 202
-223.558649420738 316.075682640076 2704.99992370605 174 176 175
-215.23417532444 314.685016870499 2693.00007820129 151 151 151
-207.283079624176 313.761293888092 2684.99994277954 157 157 157
-199.598297476768 313.187777996063 2680.0000667572 160 162 159
-192.298725247383 313.198119401932 2680.0000667572 162 164 161
-185.136541724205 313.441872596741 2681.99992179871 166 168 165
-178.029090166092 313.802152872086 2684.99994277954 167 169 166
-170.90468108654 314.162105321884 2687.99996376038 153 155 152
-164.006680250168 314.98920917511 2694.9999332428 82 87 83
-159.976482391357 321.660101413727 2752.00009346008 182 187 183
-152.144491672516 320.967227220535 2746.00005149841 228 230 225
-142.07935333252 315.247654914856 2697.00002670288 15 18 11
-133.779421448708 313.034176826477 2677.99997329712 11 12 6
-125.629812479019 310.937136411667 2660.00008583069 29 30 24
-117.889367043972 309.657871723175 2648.9999294281 18 21 14
-109.748929738998 307.09233880043 2627.00009346008 19 22 15
-102.430917322636 306.630492210388 2622.99990653992 19 22 15
-95.6065654754639 307.687968015671 2631.99996948242 18 21 14
-89.0015587210655 309.680372476578 2648.9999294281 17 20 13
-81.7169547080994 309.451222419739 2647.0000743866 16 19 12
-74.3303596973419 308.754026889801 2641.00003242493 17 20 13
-67.204974591732 309.108644723892 2644.00005340576 19 22 15
-38.6680774390697 311.575353145599 2664.99996185303 19 22 15
-31.022934243083 307.836025953293 2632.99989700317 13 16 9
-23.7242635339499 306.317627429962 2619.99988555908 18 21 14
-16.5596902370453 305.96798658371 2617.00010299683 16 19 12
-9.41501930356026 305.734872817993 2615.00000953674 18 21 14
-2.28296546265483 305.735200643539 2615.00000953674 11 14 7
4.84909676015377 305.735141038895 2615.00000953674 11 14 7
11.9857210665941 305.851578712463 2615.9999370575 3 6 0
19.0985202789307 305.499970912933 2612.99991607666 1 4 0
26.1647738516331 304.797291755676 2607.00011253357 7 10 3
33.2237221300602 304.327964782715 2602.9999256134 8 11 4
40.4466204345226 305.261254310608 2611.00006103516 6 9 2
47.5854687392712 305.375784635544 2611.99998855591 5 8 1
54.7086447477341 305.372983217239 2611.99998855591 5 8 1
61.8552826344967 305.486679077148 2612.99991607666 7 10 3
69.1391304135323 306.184530258179 2618.99995803833 7 10 3
76.1933177709579 305.829882621765 2615.9999370575 12 15 8
83.4538042545319 306.293100118637 2619.99988555908 9 12 5
90.8395498991013 307.106733322144 2627.00009346008 17 20 13
98.3003973960876 308.036774396896 2634.99999046326 22 25 18
104.923814535141 306.394636631012 2621.00005149841 21 24 17
111.256703734398 304.167717695236 2601.99999809265 15 18 11
118.531718850136 304.629057645798 2605.99994659424 12 15 6
125.876292586327 305.206924676895 2611.00006103516 20 23 14
134.011700749397 307.537734508514 2631.00004196167 14 17 8
142.845898866653 311.153829097748 2661.99994087219 12 15 6
149.705857038498 310.327738523483 2654.99997138977 15 18 9
155.876904726028 308.21567773819 2637.00008392334 42 43 35
162.876784801483 307.856470346451 2634.0000629425 47 48 40
170.3762114048 308.431953191757 2638.99993896484 33 34 26
177.700415253639 308.656394481659 2641.00003242493 34 35 27
184.824869036675 308.529913425446 2640.00010490417 29 30 22
195.143431425095 313.545018434525 2683.00008773804 34 37 28
-223.818227648735 309.060841798782 2707.99994468689 170 172 169
-215.48518538475 307.702571153641 2696.00009918213 164 164 162
-207.371145486832 306.572169065475 2686.00010871887 177 179 176
-199.683204293251 306.011974811554 2680.99999427795 170 174 173
-192.093580961227 305.565625429153 2677.00004577637 172 177 173
-184.939205646515 305.803716182709 2678.99990081787 173 178 174
-177.839562296867 306.155622005463 2681.99992179871 168 173 169
-170.913711190224 306.84968829155 2687.99996376038 160 162 159
-164.015382528305 307.657599449158 2694.9999332428 95 97 92
-159.403666853905 313.031643629074 2742.00010299683 213 215 210
-153.814852237701 316.921412944794 2776.00002288818 215 217 212
-142.403036355972 308.59512090683 2703.00006866455 13 15 10
-133.436873555183 304.949015378952 2671.0000038147 23 25 20
-126.297801733017 305.298417806625 2674.00002479553 16 18 13
-118.073739111423 302.907258272171 2653.00011634827 18 21 14
-109.62949693203 299.602210521698 2624.00007247925 19 22 15
-102.35833376646 299.265295267105 2621.00005149841 20 23 16
-95.8660095930099 301.32582783699 2638.99993896484 19 22 15
-89.0735611319542 302.700966596603 2651.00002288818 18 21 14
-81.4126431941986 301.106959581375 2637.00008392334 13 16 9
-74.0247741341591 300.311803817749 2630.00011444092 14 17 10
-66.9544190168381 300.772339105606 2634.0000629425 18 21 14
-59.7712211310863 300.775736570358 2634.0000629425 18 21 14
-52.4280667304993 299.865186214447 2625.99992752075 15 18 11
-44.9387468397617 297.698229551315 2607.00011253357 13 16 9
-37.5818945467472 295.75914144516 2589.99991416931 5 8 1
-30.8007430285215 298.50161075592 2614.00008201599 13 16 9
-23.7436667084694 299.41663146019 2621.99997901917 20 23 16
-16.3897331804037 295.763492584229 2589.99991416931 17 20 13
-9.34712029993534 296.449363231659 2595.99995613098 9 12 5
-2.28308979421854 298.619389533997 2615.00000953674 21 24 17
4.85492404550314 298.961907625198 2618.00003051758 18 21 14
11.9588822126389 298.047870397568 2609.99989509583 10 13 6
19.041083753109 297.476053237915 2605.00001907349 7 10 3
26.0357148945332 296.218752861023 2594.00010108948 13 16 9
33.0851189792156 295.988768339157 2592.00000762939 17 20 13
40.3093881905079 297.128707170486 2601.99999809265 17 20 13
47.4240742623806 297.240525484085 2602.9999256134 14 17 10
54.4393062591553 296.781033277512 2598.99997711182 13 16 9
61.4561848342419 296.435356140137 2595.99995613098 13 16 9
68.9316764473915 298.144668340683 2611.00006103516 12 15 8
75.9935453534126 297.912418842316 2608.99996757507 15 18 11
83.8087201118469 300.420254468918 2631.00004196167 12 15 8
91.1902487277985 301.100671291351 2637.00008392334 4 7 0
97.5968465209007 298.697799444199 2615.9999370575 8 11 4
103.848539292812 296.180486679077 2594.00010108948 17 20 13
110.877826809883 296.060562133789 2592.99993515015 13 16 9
118.265144526958 296.853691339493 2599.99990463257 15 18 9
125.641986727715 297.532290220261 2605.99994659424 24 27 18
133.356675505638 298.895478248596 2618.00003051758 21 24 15
141.833901405334 301.742374897003 2642.99988746643 13 16 7
149.206325411797 302.077203989029 2645.99990844727 15 18 9
155.766934156418 300.813376903534 2634.99999046326 39 40 32
163.009092211723 300.919145345688 2635.99991798401 51 52 44
170.643463730812 301.70950293541 2642.99988746643 33 34 26
177.911669015884 301.814556121826 2644.00005340576 31 32 24
186.304852366447 303.745597600937 2661.00001335144 26 27 19
194.280803203583 304.877102375031 2671.0000038147 32 35 26
-224.490880966187 302.585661411285 2716.00008010864 201 203 200
-215.576112270355 300.47994852066 2697.00002670288 184 184 182
-207.304522395134 299.153655767441 2684.99994277954 170 172 169
-199.693471193314 298.718333244324 2680.99999427795 162 171 166
-192.10347533226 298.282653093338 2677.00004577637 167 173 169
-184.810683131218 298.292249441147 2677.00004577637 165 170 164
-177.649840712547 298.524379730225 2678.99990081787 166 168 163
-170.668229460716 299.090474843979 2684.00001525879 166 167 162
-163.780480623245 299.879163503647 2690.99998474121 116 117 111
-157.377168536186 301.670461893082 2707.00001716614 123 124 118
-151.772662997246 305.244594812393 2739.00008201599 214 215 209
-141.672879457474 299.679934978485 2688.99989128113 24 26 21
-133.943483233452 298.795521259308 2680.99999427795 22 24 19
-126.351654529572 298.133552074432 2674.99995231628 19 21 16
-117.990933358669 295.465052127838 2651.00002288818 18 21 14
-109.50992256403 292.127311229706 2621.00005149841 19 22 15
-102.363727986813 292.132824659348 2621.00005149841 20 23 16
-95.326155424118 292.472392320633 2624.00007247925 20 23 16
-89.1454890370369 295.709609985352 2653.00011634827 19 22 15
-81.8183273077011 295.37969827652 2650.00009536743 17 20 13
-74.0287080407143 293.154507875443 2630.00011444092 16 19 12
-67.0088157057762 293.826997280121 2635.99991798401 12 15 8
-59.8878599703312 294.164717197418 2638.99993896484 12 15 8
-52.4907559156418 293.05300116539 2628.99994850159 14 17 10
-44.8721721768379 290.157318115234 2602.9999256134 15 18 11
-37.6274324953556 289.044767618179 2592.99993515015 15 18 11
-30.5784977972507 289.26956653595 2595.00002861023 10 13 6
-23.3917441219091 287.93329000473 2582.99994468689 10 13 6
-16.4159219712019 289.160579442978 2594.00010108948 6 9 2
-9.35121811926365 289.49561715126 2596.99988365173 7 10 3
-2.28845002129674 292.17129945755 2621.00005149841 6 9 2
4.82736434787512 290.164709091187 2602.9999256134 9 12 5
11.8724582716823 288.826644420624 2591.00008010864 18 21 14
18.9324505627155 288.714319467545 2589.99991416931 17 20 13
26.0571744292974 289.381951093674 2595.99995613098 10 13 6
33.0741181969643 288.823068141937 2591.00008010864 10 13 6
40.1721000671387 289.044052362442 2592.99993515015 14 17 10
47.0257624983788 287.704139947891 2581.00008964539 13 16 9
54.1070438921452 287.924379110336 2582.99994468689 14 17 10
60.9622821211815 287.029623985291 2575.00004768372 15 18 11
68.0640786886215 287.360668182373 2578.00006866455 15 18 11
75.6188929080963 289.363265037537 2595.99995613098 8 11 4
83.462730050087 292.034178972244 2619.99988555908 13 16 9
90.9184068441391 293.032795190811 2628.99994850159 16 19 12
97.3781570792198 290.91015458107 2609.99989509583 14 17 10
103.854015469551 289.12153840065 2594.00010108948 10 13 6
111.01196706295 289.338856935501 2595.99995613098 8 11 4
118.908226490021 291.339039802551 2614.00008201599 12 15 6
126.371800899506 292.112857103348 2621.00005149841 22 25 16
133.363664150238 291.771739721298 2618.00003051758 21 24 15
140.12399315834 290.984511375427 2611.00006103516 11 14 5
147.917091846466 292.314380407333 2622.99990653992 11 14 5
156.070664525032 294.201076030731 2640.00010490417 16 17 9
162.893891334534 293.524205684662 2634.0000629425 33 34 26
170.587763190269 294.407099485397 2641.99995994568 28 29 21
178.8629591465 296.181052923203 2657.99999237061 31 32 24
187.924832105637 299.068808555603 2684.00001525879 27 28 20
195.745632052422 299.839019775391 2690.99998474121 28 31 22
200.434297323227 295.929193496704 2655.99989891052 28 30 25
-224.667370319366 295.413702726364 2717.99993515015 197 199 196
-215.347096323967 292.816042900085 2694.00000572205 194 194 192
-207.160532474518 291.630864143372 2683.00008773804 182 184 181
-199.480071663857 291.097491979599 2677.99997329712 171 178 171
-192.041411995888 290.889889001846 2676.00011825562 172 179 172
-184.681951999664 290.790587663651 2674.99995231628 170 173 166
-177.526235580444 291.017085313797 2677.00004577637 169 170 164
-170.295387506485 291.134536266327 2677.99997329712 166 165 160
-163.180157542229 291.469097137451 2680.99999427795 145 142 135
-156.047970056534 291.803300380707 2684.00001525879 124 121 114
-149.342179298401 293.006956577301 2694.9999332428 7 8 2
-141.890928149223 292.796909809113 2693.00007820129 22 23 17
-133.750513195992 291.064292192459 2677.00004577637 11 13 8
-126.027509570122 290.092289447784 2667.99998283386 23 26 19
-118.308581411839 289.011240005493 2657.99999237061 17 20 11
-109.891638159752 285.972505807877 2630.00011444092 18 21 12
-102.095626294613 284.238189458847 2614.00008201599 20 23 14
-95.549076795578 285.983055830002 2630.00011444092 21 24 15
-88.8476669788361 287.510097026825 2644.00005340576 21 24 15
-81.8534418940544 288.275688886642 2651.00002288818 18 21 12
-74.1732940077782 286.539793014526 2634.99999046326 18 21 12
-66.8089240789413 285.782247781754 2628.00002098084 18 21 12
-60.2087043225765 288.504123687744 2653.00011634827 17 20 11
-53.4319467842579 291.00826382637 2676.00011825562 16 19 10
-45.1503470540047 284.812122583389 2618.99995803833 15 18 9
-37.8760956227779 283.835530281067 2609.99989509583 32 35 28
-30.7097174227238 283.402323722839 2605.99994659424 7 10 3
-23.5740933567286 283.077448606491 2602.9999256134 12 15 8
-16.3724757730961 281.338483095169 2586.99989318848 7 10 3
-9.42012574523687 284.492939710617 2615.9999370575 19 22 15
-2.27809161879122 283.73196721077 2608.99996757507 18 21 14
4.81834402307868 282.535672187805 2598.00004959106 15 18 11
11.8547473102808 281.338930130005 2586.99989318848 17 20 13
18.9407486468554 281.773179769516 2591.00008010864 16 19 12
26.1187627911568 282.968282699585 2601.99999809265 16 19 12
33.139668405056 282.314211130142 2595.99995613098 20 23 16
40.0967299938202 281.44234418869 2588.00005912781 19 22 15
46.9917729496956 280.461370944977 2578.9999961853 21 24 17
54.1308149695396 281.00249171257 2584.00011062622 25 28 21
61.107512563467 280.673295259476 2581.00008964539 25 28 21
68.2788342237473 281.213700771332 2585.99996566772 22 25 18
75.4771679639816 281.753718852997 2591.00008010864 11 14 7
83.3396315574646 284.468173980713 2615.9999370575 5 8 1
90.8193737268448 285.551130771637 2625.99992752075 12 15 8
98.0174839496613 285.65502166748 2627.00009346008 17 20 13
104.259759187698 283.148884773254 2604.00009155273 10 13 6
111.830219626427 284.33945775032 2615.00000953674 8 11 4
119.323767721653 285.20342707634 2622.99990653992 23 26 17
126.715824007988 285.740822553635 2628.00002098084 22 25 16
132.708251476288 283.233463764191 2605.00001907349 24 27 18
139.057800173759 281.704425811768 2591.00008010864 21 24 15
146.796748042107 283.001840114594 2602.9999256134 17 20 11
156.492471694946 287.777870893478 2647.0000743866 14 15 7
163.706183433533 287.769794464111 2647.0000743866 27 28 20
171.242132782936 288.304924964905 2651.99995040894 30 31 23
180.352538824081 291.339993476868 2680.0000667572 18 19 11
189.334765076637 293.939679861069 2703.9999961853 17 18 10
195.901021361351 292.734354734421 2693.00007820129 21 24 15
201.048135757446 289.572149515152 2664.00003433228 23 25 20
-224.017053842545 287.170201539993 2710.00003814697 201 203 200
-215.357661247253 285.485327243805 2694.00000572205 194 194 192
-207.170709967613 284.329891204834 2683.00008773804 183 185 182
-199.415400624275 283.703953027725 2677.00004577637 169 174 167
-191.979125142097 283.501535654068 2674.99995231628 174 177 170
-184.622064232826 283.404737710953 2674.00002479553 172 172 164
-177.535071969032 283.731639385223 2677.00004577637 174 171 162
-170.113086700439 283.528178930283 2674.99995231628 175 171 162
-162.944838404655 283.748388290405 2677.00004577637 161 154 146
-155.590653419495 283.650279045105 2676.00011825562 152 145 137
-149.017155170441 285.035759210587 2688.99989128113 20 17 10
-141.318410634995 284.300953149796 2681.99992179871 38 38 30
-134.156972169876 284.625828266144 2684.99994277954 15 18 11
-124.994590878487 280.497997999191 2645.99990844727 27 30 23
-117.424309253693 279.655992984772 2638.00001144409 16 19 10
-111.276134848595 282.312005758286 2663.00010681152 15 18 9
-102.022677659988 276.91063284874 2611.99998855591 21 24 15
-95.1542556285858 277.657687664032 2618.99995803833 23 26 17
-88.7513682246208 279.994696378708 2641.00003242493 22 25 16
-81.5179497003555 279.892951250076 2640.00010490417 18 21 12
-73.9518627524376 278.518557548523 2627.00009346008 16 19 10
-67.0919790863991 279.794365167618 2638.99993896484 9 12 3
-60.0755959749222 280.645787715912 2647.0000743866 12 15 6
-52.5960065424442 279.27029132843 2634.0000629425 23 26 17
-45.0664535164833 277.152270078659 2614.00008201599 23 26 17
-38.1682850420475 278.850793838501 2630.00011444092 11 14 7
-31.0176927596331 279.06459569931 2631.99996948242 8 11 4
-23.7564407289028 278.111726045609 2622.99990653992 9 12 5
-16.4872370660305 276.204228401184 2605.00001907349 9 12 5
-9.38099436461926 276.204854249954 2605.00001907349 10 13 6
-2.28781322948635 277.79558300972 2619.99988555908 10 13 6
4.82415407896042 275.780975818634 2601.0000705719 12 15 8
11.8507705628872 274.190127849579 2585.99996566772 13 16 9
19.0002024173737 275.56774020195 2598.99997711182 14 17 10
26.130136102438 275.990694761276 2602.9999256134 16 19 12
33.2051962614059 275.777131319046 2601.0000705719 15 18 11
40.2692146599293 275.56324005127 2598.99997711182 18 21 14
47.0852740108967 273.970633745193 2584.00011062622 23 26 19
54.1335716843605 273.968100547791 2584.00011062622 23 26 19
61.1343011260033 273.753136396408 2582.00001716614 23 26 19
68.49355250597 275.022149085999 2594.00010108948 25 28 21
75.7140591740608 275.548607110977 2598.99997711182 40 43 36
83.0252766609192 276.286751031876 2605.99994659424 36 39 32
90.2705937623978 276.706486940384 2609.99989509583 36 39 32
97.7239459753037 277.655929327011 2618.99995803833 30 33 26
105.025798082352 278.074890375137 2622.99990653992 9 12 5
111.878633499146 277.327388525009 2615.9999370575 9 12 5
119.238801300526 277.851700782776 2621.00005149841 18 21 12
126.191794872284 277.421534061432 2617.00010299683 20 23 14
132.562071084976 275.824993848801 2601.99999809265 22 25 16
139.279454946518 275.07621049881 2595.00002861023 26 29 20
146.465718746185 275.281131267548 2596.99988365173 20 23 14
154.667437076569 277.287632226944 2615.9999370575 18 19 11
163.219556212425 279.717683792114 2638.99993896484 21 22 14
171.2506711483 281.087338924408 2651.99995040894 24 25 17
177.871406078339 280.124872922897 2642.99988746643 21 22 14
187.593519687653 283.931404352188 2678.99990081787 20 21 13
194.601193070412 283.498108386993 2674.99995231628 23 26 17
202.567487955093 284.442245960236 2684.00001525879 19 21 16
-223.862409591675 279.588669538498 2707.99994468689 202 204 199
-215.767696499825 278.669863939285 2698.99988174438 192 193 188
-207.721203565598 277.750641107559 2690.00005722046 193 194 188
-199.7230052948 276.831060647964 2680.99999427795 202 200 188
-192.203715443611 276.530623435974 2677.99997329712 189 185 173
-184.838175773621 276.436418294907 2677.00004577637 109 97 85
-177.67633497715 276.651650667191 2678.99990081787 109 95 84
-170.121371746063 276.246935129166 2674.99995231628 122 106 93
-162.709310650826 276.048421859741 2673.00009727478 113 97 84
-155.30751645565 275.849550962448 2671.0000038147 103 89 76
-148.304015398026 276.373296976089 2676.00011825562 21 11 0
-141.905009746552 278.136104345322 2693.00007820129 14 8 0
-132.464662194252 273.804903030396 2651.00002288818 27 27 17
-124.906279146671 273.088157176971 2644.00005340576 23 24 16
-116.940446197987 271.338224411011 2627.00009346008 23 26 17
-109.693676233292 271.137148141861 2625 19 22 13
-102.26209461689 270.419299602509 2618.00003051758 20 23 14
-95.1953083276749 270.630687475204 2619.99988555908 21 24 15
-87.9492163658142 270.325362682343 2617.00010299683 19 22 13
-80.8735266327858 270.536065101624 2618.99995803833 19 22 13
-73.6740231513977 270.333290100098 2617.00010299683 17 20 11
-66.9173523783684 271.886229515076 2631.99996948242 16 19 10
-59.6019588410854 271.269530057907 2625.99992752075 23 26 17
-52.1992482244968 270.032674074173 2614.00008201599 22 25 16
-44.8790453374386 268.898725509644 2602.9999256134 14 17 8
-38.3298434317112 272.826343774796 2641.00003242493 11 14 7
-31.0546010732651 272.208243608475 2634.99999046326 9 12 5
-23.757629096508 270.969927310944 2622.99990653992 10 13 6
-16.5576841682196 270.247757434845 2615.9999370575 8 11 4
-9.46429464966059 271.488070487976 2628.00002098084 7 10 3
-2.2529975976795 266.529679298401 2579.99992370605 12 15 8
4.77617001160979 266.013085842133 2575.00004768372 12 15 8
11.9384406134486 269.111901521683 2605.00001907349 11 14 7
18.9645998179913 267.974764108658 2594.00010108948 10 13 6
26.1013265699148 268.593460321426 2599.99990463257 14 17 10
33.2323871552944 268.901884555817 2602.9999256134 17 20 13
40.2867160737515 268.590152263641 2599.99990463257 17 20 13
47.1787452697754 267.451673746109 2588.99998664856 18 21 14
54.2200766503811 267.345875501633 2588.00005912781 21 24 17
61.3741353154182 267.756253480911 2592.00000762939 21 24 17
68.6818063259125 268.682718276978 2601.0000705719 20 23 16
81.3726261258125 263.820320367813 2553.99990081787 10 13 6
89.4795507192612 267.224907875061 2586.99989318848 11 14 7
97.8034138679504 270.732313394547 2621.00005149841 11 14 7
104.670636355877 270.00430226326 2614.00008201599 11 14 7
111.285395920277 268.759518861771 2601.99999809265 16 19 12
117.970801889896 267.824321985245 2592.99993515015 20 23 14
125.619322061539 269.057810306549 2605.00001907349 22 25 16
132.568582892418 268.741697072983 2601.99999809265 22 25 16
139.930382370949 269.251465797424 2607.00011253357 25 28 19
147.206082940102 269.55434679985 2609.99989509583 25 28 19
155.088886618614 270.889610052109 2622.99990653992 18 19 11
162.547141313553 271.398335695267 2628.00002098084 20 21 13
169.902890920639 271.700143814087 2631.00004196167 22 23 15
179.831817746162 275.925666093826 2671.99993133545 22 23 15
185.711875557899 273.851633071899 2651.99995040894 23 24 16
193.519338965416 274.668663740158 2660.00008583069 28 31 22
201.671525835991 275.898307561874 2671.99993133545 39 41 36
-224.451586604118 272.921770811081 2714.99991416931 212 214 209
-216.657251119614 272.429376840591 2710.00003814697 193 194 189
-208.734884858131 271.735519170761 2703.00006866455 200 199 194
-200.775414705276 270.940780639648 2694.9999332428 77 69 56
-192.930549383163 270.246207714081 2687.99996376038 69 60 45
-185.261234641075 269.752383232117 2683.00008773804 134 116 102
-177.751109004021 269.459247589111 2680.0000667572 133 114 99
-170.129463076591 268.96470785141 2674.99995231628 133 111 97
-162.717074155807 268.771439790726 2673.00009727478 131 109 95
-155.373096466064 268.678396940231 2671.99993133545 128 109 94
-148.255690932274 268.987238407135 2674.99995231628 77 63 50
-141.437545418739 269.899129867554 2684.00001525879 30 20 8
-132.521003484726 266.687721014023 2651.99995040894 21 19 7
-124.109163880348 264.179795980453 2627.00009346008 17 17 7
-116.946086287498 264.185547828674 2627.00009346008 23 26 17
-109.155714511871 262.682437896729 2611.99998855591 24 27 18
-102.110788226128 262.888610363007 2614.00008201599 26 29 20
-95.2725932002068 263.697892427444 2621.99997901917 25 28 19
-87.5501707196236 261.992573738098 2605.00001907349 19 22 13
-79.3334022164345 258.375912904739 2569.00000572205 20 23 14
-73.9591419696808 264.212995767593 2627.00009346008 20 23 14
-66.9206082820892 264.719218015671 2631.99996948242 20 23 14
-59.2870898544788 262.710720300674 2611.99998855591 24 27 18
-51.8822744488716 261.305302381516 2598.00004959106 22 25 16
-44.9846908450127 262.414008378983 2608.99996757507 15 18 9
-37.8962904214859 262.617200613022 2611.00006103516 13 16 9
-30.7968240231276 262.819975614548 2612.99991607666 12 15 8
-23.6319806426764 262.418955564499 2608.99996757507 13 16 9
-16.5964737534523 263.727515935898 2621.99997901917 10 13 6
-9.48636699467897 264.93513584137 2634.0000629425 9 12 5
-2.26620747707784 261.012703180313 2595.00002861023 12 15 8
4.86358441412449 263.728380203247 2621.99997901917 11 14 7
11.9390226900578 262.01805472374 2605.00001907349 9 12 5
18.9509019255638 260.70973277092 2592.00000762939 8 11 4
26.1427592486143 261.915653944016 2604.00009155273 13 16 9
33.2723148167133 262.115359306335 2605.99994659424 17 20 13
40.2576960623264 261.308938264847 2598.00004959106 18 21 14
47.1992641687393 260.50215959549 2589.99991416931 19 22 15
54.3065220117569 260.700881481171 2592.00000762939 23 26 19
61.5428797900677 261.402159929276 2598.99997711182 21 24 17
68.8435882329941 262.203633785248 2607.00011253357 16 19 12
97.2110852599144 261.986553668976 2605.00001907349 12 15 8
104.875922203064 263.389676809311 2618.99995803833 13 16 9
110.99137365818 260.970890522003 2595.00002861023 16 19 12
118.65895986557 262.272775173187 2608.00004005432 17 20 11
125.625386834145 261.965274810791 2605.00001907349 21 24 15
133.899703621864 264.272004365921 2628.00002098084 19 22 13
140.366524457932 262.958228588104 2615.00000953674 20 23 14
147.607997059822 263.152539730072 2617.00010299683 21 24 15
155.096307396889 263.748675584793 2622.99990653992 21 22 14
161.998197436333 263.338983058929 2618.99995803833 22 23 15
170.104682445526 264.839380979538 2634.0000629425 24 25 17
178.830787539482 267.143756151199 2657.00006484985 26 27 19
186.000809073448 267.034649848938 2655.99989891052 27 28 20
191.127553582191 264.110237360001 2627.00009346008 31 34 25
201.152667403221 267.921388149261 2664.99996185303 30 32 27
-225.949987769127 267.291605472565 2733.00004005432 207 209 204
-217.70653128624 266.323566436768 2723.00004959106 111 112 107
-209.593966603279 265.453010797501 2713.99998664856 89 86 79
-201.30617916584 264.288604259491 2701.99990272522 113 96 80
-193.22657585144 263.319432735443 2691.99991226196 125 106 89
-185.269802808762 262.447774410248 2683.00008773804 143 116 97
-177.626699209213 261.966973543167 2677.99997329712 139 111 90
-169.819369912148 261.192351579666 2670.00007629395 144 111 92
-162.359401583672 260.906517505646 2667.00005531311 145 114 94
-155.089601874352 260.913819074631 2667.00005531311 140 111 93
-147.985503077507 261.214315891266 2670.00007629395 131 112 95
-140.600994229317 261.025309562683 2667.99998283386 112 99 82
-132.227405905724 258.879244327545 2645.99990844727 31 25 9
-124.58747625351 258.004695177078 2637.00008392334 23 21 8
-117.841981351376 258.988738059998 2647.0000743866 17 20 11
-109.871335327625 257.232874631882 2628.99994850159 15 18 9
-102.350011467934 256.357192993164 2619.99988555908 16 19 10
-95.6404879689217 257.535994052887 2631.99996948242 18 21 12
-88.4281918406487 257.442444562912 2631.00004196167 20 23 14
-80.263651907444 254.315197467804 2598.99997711182 16 19 10
-73.906347155571 256.862968206406 2625 18 21 12
-66.8983682990074 257.453382015228 2631.00004196167 16 19 10
-59.358011931181 255.890667438507 2615.00000953674 14 17 8
-51.9846007227898 254.719018936157 2602.9999256134 17 20 11
-44.9178628623486 254.917025566101 2605.00001907349 17 20 11
-38.0142107605934 256.288945674896 2618.99995803833 17 20 13
-30.6568592786789 254.529178142548 2601.0000705719 16 19 12
-23.3070086687803 251.790374517441 2572.99995422363 17 20 13
-16.4580047130585 254.433512687683 2599.99990463257 15 18 11
-9.38597228378057 255.021274089813 2605.99994659424 13 16 9
-2.27504898793995 254.923701286316 2605.00001907349 12 15 8
4.8378468491137 255.217224359512 2608.00004005432 10 13 6
11.9900098070502 255.999684333801 2615.9999370575 10 13 6
19.1857796162367 256.781846284866 2624.00007247925 8 11 4
26.2845661491156 256.1936378479 2618.00003051758 13 16 9
33.4271229803562 256.192207336426 2618.00003051758 22 25 18
40.3835885226727 255.016177892685 2605.99994659424 12 15 8
47.31085896492 254.035502672195 2595.99995613098 17 20 13
54.68625202775 255.403101444244 2609.99989509583 12 15 8
62.5640675425529 258.531719446182 2641.99995994568 15 18 11
75.9873390197754 255.198180675507 2608.00004005432 8 11 4
90.0070071220398 254.603326320648 2601.99999809265 8 11 4
98.1859862804413 257.436513900757 2631.00004196167 10 13 6
106.042206287384 259.095102548599 2648.00000190735 11 14 7
112.408138811588 257.133156061172 2628.00002098084 15 18 11
118.573546409607 254.975199699402 2605.99994659424 17 20 11
126.933410763741 257.513344287872 2631.99996948242 20 23 14
134.466469287872 258.192121982574 2638.99993896484 15 18 9
140.963569283485 256.913900375366 2625.99992752075 13 16 7
148.291766643524 257.200717926025 2628.99994850159 14 17 8
156.167939305305 258.367657661438 2641.00003242493 20 21 13
162.748038768768 257.382035255432 2631.00004196167 22 23 15
170.564696192741 258.352637290955 2641.00003242493 25 26 18
178.502514958382 259.42063331604 2651.99995040894 29 30 22
186.289548873901 260.19486784935 2660.00008583069 29 30 22
193.246334791183 259.794920682907 2655.99989891052 29 32 23
199.048399925232 257.927596569061 2637.00008392334 34 36 31
207.796290516853 259.874522686005 2657.00006484985 38 43 37
-218.915566802025 260.336220264435 2737.99991607666 216 217 212
-209.835067391396 258.348941802979 2717.00000762939 227 222 216
-201.01723074913 256.551384925842 2697.99995422363 134 113 96
-192.732825875282 255.32391667366 2684.99994277954 139 116 98
-184.725731611252 254.381388425827 2674.99995231628 146 115 95
-177.170410752296 254.00909781456 2671.0000038147 161 129 108
-169.44545507431 253.351151943207 2664.00003433228 154 117 98
-162.062376737595 253.168404102325 2661.99994087219 138 103 83
-154.980361461639 253.460824489594 2664.99996185303 135 104 83
-147.881418466568 253.75297665596 2667.99998283386 121 100 81
-140.607446432114 253.759503364563 2667.99998283386 122 107 88
-132.833167910576 252.814561128616 2657.99999237061 28 21 3
-125.396400690079 252.439945936203 2654.00004386902 24 21 6
-117.135055363178 250.257730484009 2631.00004196167 19 22 11
-110.963046550751 252.545803785324 2654.99997138977 17 20 9
-103.80020737648 252.740919589996 2657.00006484985 14 17 6
-95.4632088541985 249.891772866249 2627.00009346008 16 19 8
-88.432289659977 250.276476144791 2631.00004196167 20 23 12
-80.8232873678207 248.948574066162 2617.00010299683 16 19 8
-73.5718980431557 248.571574687958 2612.99991607666 17 20 9
-66.4946213364601 248.765051364899 2615.00000953674 14 17 6
-59.3834668397903 248.863071203232 2615.9999370575 14 17 6
-52.326537668705 249.246150255203 2619.99988555908 17 20 9
-45.1268814504147 248.963013291359 2617.00010299683 15 18 9
-37.9869528114796 248.964920639992 2617.00010299683 15 18 11
-30.5050536990166 246.207624673843 2588.00005912781 14 17 10
-23.2628025114536 244.306161999702 2568.00007820129 16 19 12
-16.2941832095385 244.877845048904 2573.99988174438 14 17 10
-9.48365870863199 250.491410493851 2632.99989700317 13 16 9
-2.28214194066823 248.588979244232 2612.99991607666 13 16 9
4.81952121481299 247.161909937859 2598.00004959106 11 14 7
11.9584836065769 248.208001255989 2608.99996757507 13 16 9
19.0111845731735 247.351050376892 2599.99990463257 11 14 7
26.0448213666677 246.779248118401 2594.00010108948 16 19 12
33.5563644766808 250.012427568436 2628.00002098084 26 29 22
40.6644120812416 249.630182981491 2624.00007247925 5 8 1
47.6775728166103 248.867094516754 2615.9999370575 7 10 3
55.212639272213 250.672250986099 2634.99999046326 12 15 8
62.9222020506859 252.76243686676 2657.00006484985 19 22 15
69.7215795516968 251.142203807831 2640.00010490417 19 22 15
75.4372477531433 246.287271380425 2588.99998664856 16 19 12
83.2642763853073 248.566687107086 2612.99991607666 14 17 10
90.8759906888008 249.894484877586 2627.00009346008 7 10 3
99.5713695883751 253.790229558945 2667.99998283386 8 11 4
107.04830288887 254.261165857315 2673.00009727478 13 16 9
112.456083297729 250.070810317993 2628.99994850159 20 23 16
118.123978376389 246.92665040493 2595.99995613098 20 23 14
124.43134188652 245.399281382561 2579.99992370605 18 21 12
133.249700069427 248.722463846207 2615.00000953674 14 17 8
139.842689037323 247.765153646469 2605.00001907349 13 16 7
148.749798536301 250.80218911171 2637.00008392334 13 16 7
155.46540915966 250.034481287003 2628.99994850159 17 18 10
162.693575024605 250.122427940369 2630.00011444092 18 19 11
170.184910297394 250.590473413467 2634.99999046326 20 21 13
178.174048662186 251.723885536194 2647.0000743866 25 26 18
186.157867312431 252.761781215668 2657.99999237061 26 27 19
192.964017391205 252.182811498642 2651.99995040894 24 27 18
201.321929693222 253.600418567657 2667.00005531311 26 28 23
208.665877580643 253.686398267746 2667.99998283386 27 32 26
-210.307642817497 251.504689455032 2723.00004959106 225 215 205
-200.951531529427 249.112069606781 2697.00002670288 144 122 101
-192.310571670532 247.457951307297 2678.99990081787 150 125 105
-184.388563036919 246.634796261787 2670.00007629395 159 128 107
-176.912903785706 246.365547180176 2667.00005531311 161 129 106
-169.325739145279 245.911210775375 2661.99994087219 162 127 105
-161.886915564537 245.64129114151 2658.99991989136 146 114 91
-154.580146074295 245.555847883224 2657.99999237061 134 103 82
-147.666275501251 246.116816997528 2664.00003433228 125 100 80
-140.561014413834 246.400341391563 2667.00005531311 119 101 81
-133.338868618011 246.498748660088 2667.99998283386 33 20 3
-125.543758273125 245.488151907921 2657.00006484985 31 22 7
-118.075303733349 245.031580328941 2651.99995040894 23 25 14
-110.96803098917 245.313853025436 2654.99997138977 22 24 13
-103.023514151573 243.655443191528 2637.00008392334 19 21 10
-95.3221395611763 242.366224527359 2622.99990653992 17 19 8
-87.7303928136826 241.169109940529 2609.99989509583 15 17 6
-80.7342752814293 241.542473435402 2614.00008201599 11 12 4
-72.0828846096992 236.556053161621 2559.99994277954 16 17 9
-65.9381821751595 239.608511328697 2592.99993515015 19 20 12
-59.363454580307 241.644248366356 2615.00000953674 20 21 13
-52.5486171245575 243.125274777412 2631.00004196167 18 21 10
-45.1806597411633 242.110967636108 2619.99988555908 14 17 8
-37.6838371157646 239.89500105381 2595.99995613098 14 17 8
-30.8836400508881 242.114380002022 2619.99988555908 12 15 8
-23.227620869875 236.940607428551 2563.99989128113 14 17 10
-16.3519009947777 238.697305321693 2582.99994468689 13 16 7
-9.40124411135912 241.192981600761 2609.99989509583 12 15 8
-2.28573963977396 241.84013903141 2617.00010299683 14 17 10
4.80118859559298 239.160150289536 2588.00005912781 12 15 6
11.8031799793243 237.958431243896 2575.00004768372 16 19 10
18.8073050230742 237.68050968647 2572.00002670288 14 17 10
26.2267384678125 241.375908255577 2611.99998855591 18 21 14
33.353578299284 241.374582052231 2611.99998855591 28 31 24
40.5267775058746 241.650134325027 2615.00000953674 12 15 8
47.8255487978458 242.479875683784 2624.00007247925 10 13 6
55.2780032157898 243.771269917488 2638.00001144409 10 13 6
62.404029071331 243.491396307945 2634.99999046326 12 15 8
68.7211155891418 240.439087152481 2601.99999809265 12 15 8
75.9651586413383 240.897879004478 2607.00011253357 13 16 9
83.2361802458763 241.356372833252 2611.99998855591 14 17 10
90.8109024167061 242.553696036339 2625 12 15 8
98.4188839793205 243.658319115639 2637.00008392334 12 15 8
105.731472373009 243.930950760841 2640.00010490417 14 17 10
111.434496939182 240.692257881165 2605.00001907349 16 19 12
117.947265505791 239.486023783684 2592.00000762939 20 23 14
124.629825353622 238.741502165794 2584.00011062622 19 22 13
132.593184709549 240.398854017258 2601.99999809265 15 18 9
140.493154525757 241.778701543808 2617.00010299683 17 20 11
146.782025694847 240.386575460434 2601.99999809265 17 20 11
156.832486391068 244.999095797539 2651.99995040894 20 21 13
162.948235869408 243.329241871834 2634.0000629425 19 20 12
170.644551515579 244.060978293419 2641.99995994568 19 20 12
178.114593029022 244.422882795334 2645.99990844727 21 22 14
185.815870761871 245.061576366425 2653.00011634827 22 23 15
194.136723875999 246.438875794411 2667.99998283386 20 23 14
201.25524699688 246.245592832565 2665.99988937378 20 25 18
213.367834687233 251.963198184967 2727.9999256134 23 28 22
-210.625529289246 244.447529315948 2726.99999809265 132 120 108
-200.960084795952 241.766929626465 2697.00002670288 152 127 107
-191.959872841835 239.713400602341 2674.00002479553 154 127 106
-184.120208024979 239.004164934158 2665.99988937378 162 131 110
-176.588818430901 238.653227686882 2661.99994087219 162 132 108
-169.142201542854 238.391622900963 2658.99991989136 159 127 104
-161.893904209137 238.398656249046 2658.99991989136 139 107 84
-154.703170061111 238.495081663132 2660.00008583069 132 102 78
-147.728115320206 238.949865102768 2664.99996185303 117 92 72
-140.51441848278 239.045694470406 2665.99988937378 112 91 72
-133.1447660923 238.872230052948 2664.00003433228 69 53 37
-125.02945959568 237.263768911362 2645.99990844727 23 11 0
-117.94688552618 237.537994980812 2648.9999294281 23 25 14
-111.265458166599 238.708674907684 2661.99994087219 22 24 13
-102.832667529583 236.023113131523 2631.99996948242 21 23 12
-94.2360535264015 232.530042529106 2592.99993515015 19 21 10
-87.0955809950829 232.354640960693 2591.00008010864 16 18 7
-80.1818668842316 232.806622982025 2595.99995613098 14 15 7
-72.846345603466 232.002854347229 2586.99989318848 14 15 7
-65.8648014068604 232.274904847145 2589.99991416931 15 16 8
-58.9574389159679 232.905372977257 2596.99988365173 16 17 9
-52.1914102137089 234.342738986015 2612.99991607666 18 19 11
-44.7687692940235 232.820227742195 2595.99995613098 18 19 11
-37.7726033329964 233.360111713409 2601.99999809265 17 19 8
-30.4488446563482 231.657579541206 2582.99994468689 15 17 6
-23.2648905366659 230.313494801521 2568.00007820129 17 19 8
-16.2893161177635 230.762764811516 2572.99995422363 18 20 9
-9.33682173490524 232.467368245125 2592.00000762939 15 17 6
-2.25526979193091 231.570765376091 2582.00001716614 16 18 7
4.76058619096875 230.135723948479 2565.99998474121 12 14 3
11.6982711479068 228.879734873772 2552.00004577637 17 19 8
25.986909866333 232.10683465004 2588.00005912781 27 29 18
33.0102667212486 231.836467981339 2585.00003814697 31 32 24
40.0791130959988 231.924533843994 2585.99996566772 15 18 11
47.5724786520004 234.075084328651 2609.99989509583 13 16 9
54.5470044016838 233.445063233376 2602.9999256134 14 17 10
61.4357553422451 232.635423541069 2594.00010108948 12 15 8
68.9090341329575 233.977779746056 2608.99996757507 12 15 8
76.2016251683235 234.512716531754 2615.00000953674 14 17 10
84.1958820819855 236.930578947067 2641.99995994568 13 16 9
91.0570695996284 236.029997467995 2631.99996948242 12 15 8
97.4154397845268 234.053030610085 2609.99989509583 12 15 8
103.733517229557 232.255175709724 2589.99991416931 16 19 12
111.225470900536 233.147263526917 2599.99990463257 18 21 14
117.815904319286 232.155963778496 2588.99998664856 18 21 12
126.178741455078 234.571769833565 2615.9999370575 17 20 11
133.414342999458 234.745532274246 2618.00003051758 15 18 9
140.552952885628 234.739661216736 2618.00003051758 18 21 12
146.731987595558 233.209237456322 2601.0000705719 18 21 12
155.597344040871 235.892593860626 2631.00004196167 20 23 14
163.821399211884 237.409949302673 2648.00000190735 20 23 14
170.910283923149 237.223505973816 2645.99990844727 20 23 14
178.391516208649 237.574711441994 2650.00009536743 22 25 16
186.804443597794 239.091008901596 2667.00005531311 23 26 17
194.072261452675 239.082977175713 2667.00005531311 22 25 16
201.188340783119 238.895356655121 2664.99996185303 15 21 11
208.058133721352 238.438561558723 2660.00008583069 17 22 16
-210.86597442627 237.280786037445 2730.00001907349 145 133 119
-201.415538787842 234.942436218262 2703.00006866455 154 127 108
-192.183241248131 232.690572738647 2677.00004577637 154 126 105
-184.335112571716 232.002913951874 2668.99991035461 161 129 108
-176.529884338379 231.314957141876 2661.00001335144 158 126 103
-169.276520609856 231.322094798088 2661.00001335144 143 111 88
-161.961615085602 231.242030858994 2660.00008583069 138 106 83
-154.942333698273 231.596350669861 2664.00003433228 118 90 68
-147.90067076683 231.950387358665 2667.99998283386 110 88 67
-140.783905982971 232.217237353325 2671.0000038147 110 92 72
-133.400306105614 232.049077749252 2668.99991035461 105 89 73
-125.743582844734 231.358930468559 2661.00001335144 19 10 0
-117.773801088333 229.972928762436 2644.99998092651 22 24 13
-110.434219241142 229.716867208481 2641.99995994568 22 24 13
-102.055624127388 227.112859487534 2611.99998855591 22 24 13
-94.0220057964325 224.943220615387 2586.99989318848 21 23 12
-87.906077504158 227.381721138954 2615.00000953674 18 20 9
-80.5250704288483 226.689651608467 2607.00011253357 17 18 10
-74.1729736328125 229.040682315826 2634.0000629425 15 16 8
-66.5034204721451 227.391511201859 2615.00000953674 12 13 5
-59.1188929975033 226.437628269196 2604.00009155273 12 13 5
-51.7941564321518 225.483417510986 2592.99993515015 17 18 10
-44.7362028062344 225.57245194912 2594.00010108948 19 20 12
-37.8177836537361 226.530775427818 2605.00001907349 19 20 12
-30.6269843131304 225.923478603363 2598.00004959106 18 19 11
-23.2930686324835 223.576679825783 2571.00009918213 17 18 10
-16.2773560732603 223.577544093132 2571.00009918213 18 19 11
-9.23996139317751 223.056316375732 2565.00005722046 18 19 11
-2.25099921226501 224.100068211555 2576.99990272522 15 16 8
4.72182873636484 221.317246556282 2545.00007629395 14 15 7
11.781289242208 223.490938544273 2569.9999332428 19 20 12
19.0722141414881 226.794838905334 2608.00004005432 24 25 17
26.2089446187019 226.96778178215 2609.99989509583 27 28 20
32.8584387898445 223.748981952667 2572.99995422363 28 29 21
39.9568453431129 224.182233214378 2578.00006866455 15 18 11
47.2828783094883 225.571736693382 2594.00010108948 13 16 9
54.6960383653641 226.96091234684 2609.99989509583 16 19 12
61.3673329353333 225.306272506714 2591.00008010864 14 17 10
68.4893727302551 225.477427244186 2592.99993515015 13 16 9
76.8168494105339 229.213446378708 2635.99991798401 13 16 9
84.2950940132141 229.992657899857 2644.99998092651 13 16 9
97.9048237204552 228.071987628937 2622.99990653992 14 17 10
104.859441518784 227.632984519005 2618.00003051758 15 18 11
111.572451889515 226.758971810341 2608.00004005432 14 17 10
118.640050292015 226.667195558548 2607.00011253357 17 20 11
124.30290132761 224.053755402565 2576.99990272522 17 20 11
134.490206837654 229.438796639442 2638.99993896484 16 19 10
140.77365398407 227.95507311821 2621.99997901917 20 23 14
147.584408521652 227.427423000336 2615.9999370575 21 24 15
156.431883573532 229.942247271538 2644.99998092651 20 23 14
164.385110139847 230.978816747665 2657.00006484985 21 24 15
171.240419149399 230.450257658958 2651.00002288818 21 24 15
177.254527807236 228.878363966942 2632.99989700317 21 24 15
185.76155602932 230.522483587265 2651.99995040894 21 24 15
193.061545491219 230.601623654366 2653.00011634827 22 25 16
201.498687267303 231.984242796898 2668.99991035461 30 33 22
209.552928805351 232.844993472099 2678.99990081787 21 26 20
-209.715828299522 228.581354022026 2714.99991416931 144 130 117
-200.529426336288 226.568847894669 2690.99998474121 152 125 106
-191.616654396057 224.724322557449 2668.99991035461 152 124 103
-183.928191661835 224.226653575897 2663.00010681152 159 127 106
-176.271721720695 223.72867166996 2657.00006484985 155 123 102
-169.09259557724 223.819807171822 2657.99999237061 136 104 81
-162.090018391609 224.163293838501 2661.99994087219 128 96 75
-155.414000153542 225.01178085804 2671.99993133545 112 84 62
-148.350238800049 225.354790687561 2676.00011825562 82 61 40
-141.05324447155 225.36064684391 2676.00011825562 119 102 82
-133.655726909637 225.197792053223 2674.00002479553 100 87 70
