ply
format ascii 1.0
comment KinectMotionCapture
element vertex 791
property float x
property float y
property float z
property uchar red
property uchar green
property uchar blue
end_header
-69.7778778334381 -49.6672951696017 2845.45207765188 13 16 9
-49.9374258726197 -44.8902768852794 2867.55449445231 17 18 13
-88.4848966593106 -49.4676210656038 2851.2457147557 17 17 15
-110.18563795987 -51.3235780795696 2846.14587721058 13 15 12
-112.368071623428 -50.0684498986757 2853.79587165865 15 17 14
186.069640942287 -70.6201209522733 2706.43247219408 26 28 23
176.761863114326 -70.6648688595281 2708.59662462005 22 25 18
198.633538743277 -64.8375010631764 2735.61198736444 14 17 10
194.057640789151 -64.0081340519722 2741.45025091275 19 20 14
185.567369628416 -63.9104106576505 2744.19879709676 19 20 14
189.634871904304 -61.4747468532013 2756.80398034207 20 21 15
175.631918206653 -62.3971901051701 2755.25810321244 20 21 15
193.174177170062 -57.494217101155 2778.20713426256 18 19 13
194.206128324931 -55.6557961698079 2788.24696176768 17 20 13
166.701434208694 -59.0414245251639 2776.38342253748 17 20 13
170.113854864796 -56.7677041060015 2788.24613735903 14 17 10
179.949227288609 -53.3434430865159 2804.89632911205 13 16 9
152.287933580381 -56.7086349870281 2793.18561293456 12 15 8
142.14802098997 -56.8917233457024 2794.77962482144 12 15 8
136.002218193159 -56.3530267982632 2799.38596941816 7 12 6
145.957741267596 -52.9436030910651 2815.91904274723 9 14 8
169.709985383171 -47.1080911174653 2842.48267879637 13 18 11
146.674784426422 -49.5853454590388 2834.54907893731 15 20 13
146.264304733693 -48.0542122799581 2843.2325221153 17 22 15
150.755845008766 -45.670974952826 2855.42404012745 20 25 18
170.778857404234 -40.5905055910862 2878.71756894052 21 26 19
154.163586804708 -41.9165435914038 2875.574346444 19 25 15
114.568459747447 -47.2053124416479 2856.16032521364 18 24 14
93.6883836327445 -49.218167841122 2850.26874452015 19 25 15
103.998025729445 -45.8529719773175 2866.45704712321 16 22 12
97.8894397282089 -45.3179222059381 2871.02663604167 18 21 14
66.9810827145776 -49.0058339369452 2858.33693378172 15 18 11
9.44124501694033 -57.1755410184271 2827.41061633519 11 14 7
-7.6501893283849 -58.4400030809613 2824.73113058052 8 11 4
-33.9508608257702 -61.2379515726818 2815.83652390103 9 12 5
-19.465770687197 -57.1738330746019 2834.86012884451 10 13 6
-30.8106793591074 -57.4474754539561 2836.24719418043 12 15 8
-42.1816947753433 -57.7176939835093 2837.65967785589 13 16 9
-66.180850022175 -60.0702292156749 2830.66452758485 14 17 10
-75.9488573963916 -60.0522976342888 2833.27676859464 14 17 10
-46.0674353529784 -53.5201066403621 2862.15286524889 14 17 10
-40.5545021096207 -51.0195851422905 2874.73003755503 16 17 12
-86.7103451678069 -56.946902707913 2853.42314992976 16 17 12
-101.608265478057 -57.7516710119517 2852.74859557057 17 18 13
-103.771372330249 -56.4876425258298 2860.37808274803 17 19 16
-115.308679471819 -56.7361160041872 2861.95248265592 20 22 19
176.831205814082 -79.9536706200401 2699.98160622971 19 21 16
144.93918579344 -84.3496951094355 2684.12228883822 27 30 23
179.208828175965 -76.0259605375345 2721.12922585294 22 25 16
193.349357339026 -71.6065926860521 2741.85972639908 20 19 14
197.398363535759 -69.1358842004446 2754.47809693584 19 20 14
184.20808489985 -69.9425348746488 2753.52535452365 19 20 14
163.890344453983 -72.0802380965553 2747.09381865179 21 22 16
152.975356849892 -72.4300005189167 2748.06521652108 21 22 16
177.65562551974 -66.1182734317563 2776.47074471872 18 21 14
199.310560535886 -60.4161322424706 2802.30293321575 17 20 13
172.573892419228 -63.725953387911 2791.08243785966 15 18 11
172.845867053864 -62.0170725621254 2800.47916993721 12 17 10
171.546920834941 -60.6056368770827 2808.64531758729 11 16 9
159.851362781406 -61.1039110612897 2808.99687410765 11 16 9
128.84743708359 -65.1134052745197 2795.03235555458 7 12 6
133.148878651784 -62.6733998708148 2807.4045919379 9 14 8
131.847653053169 -61.2611608565123 2815.572884314 10 15 9
149.175911289651 -56.499784644309 2837.33843987573 14 19 13
137.416722707585 -56.9893607521395 2837.75155903767 16 21 14
136.196125748434 -55.5870044527551 2845.84158448582 19 24 17
152.108839620457 -51.1426740944863 2866.22549928837 22 27 20
141.167432169864 -51.4872778417813 2867.22237000587 20 26 16
92.5355151635769 -58.4744984814327 2841.44535351105 19 25 15
108.536344491426 -54.0411290544015 2861.74338838423 20 26 16
97.4911266968927 -54.3721298811325 2862.84133380214 17 23 13
64.1554486494944 -58.5804825879248 2848.38785236491 20 23 16
48.0461533686083 -59.7588008230266 2846.1376031402 13 16 9
23.6027199858668 -62.363083893345 2838.20392652857 10 13 6
-29.1631035916091 -69.8176015405846 2810.93336939208 9 12 5
-12.2310331168229 -65.2536091216892 2831.70427133665 9 12 5
-28.565060086128 -66.4028002774689 2829.67287903109 10 13 6
-27.3876431819655 -64.5584241629629 2839.56703888133 12 15 8
-51.323081880883 -66.9779737427976 2832.51885966961 13 16 9
-71.9825258318259 -68.8196699183911 2827.79980003515 14 17 10
-64.92316567941 -65.9829704773689 2841.62581708449 14 17 10
-44.3013643065728 -60.8937527162612 2864.32310873971 14 17 10
-50.6275268909375 -60.3320978187026 2869.10516003756 16 17 11
-86.2326755994545 -63.0012839080984 2863.76269279247 16 17 11
-88.3612736228883 -61.73035920881 2871.35655509356 17 19 14
-92.1806769413593 -60.7415270276312 2877.83728656285 19 21 16
202.582941048316 -80.7299621310678 2731.20491482049 22 25 16
194.88126443878 -80.5023685152455 2734.56842735528 23 26 17
210.623704013523 -75.7161379220908 2756.48780366447 20 19 14
208.44490933629 -74.4313371272096 2764.12946110395 19 18 13
192.925018940776 -75.7223921460295 2761.31058656247 21 22 16
163.964902197169 -79.5765995966491 2748.12774066655 22 23 17
157.78798440754 -79.0394646108312 2752.76521370923 22 23 17
161.10670395962 -76.6938588909773 2764.71001265419 18 21 14
170.023645275084 -73.3007632036755 2780.85991697947 18 21 14
157.534289631711 -73.9710171207981 2780.60823545272 15 18 11
172.122178706712 -69.5396439600517 2800.89238877165 12 17 10
171.620732310854 -67.9643152839435 2809.65963115543 11 16 9
121.46373083071 -75.6559778061605 2781.25043433748 11 16 9
140.971043417538 -70.3418749300879 2805.0215297526 9 14 8
112.289232397253 -73.9785469355144 2792.94707983323 8 13 7
126.272686020327 -69.7210597261438 2812.44023744107 8 13 7
133.068925993898 -66.8113121368632 2826.51674023323 11 16 10
129.381187950925 -65.8353356395514 2832.86828836005 12 17 10
119.198677238388 -66.0437618444651 2834.50834573453 13 18 11
115.51301739248 -65.0677655306918 2840.85816509407 19 24 17
102.03409571039 -65.8619547639199 2840.19020769813 20 26 16
107.348744311068 -63.2659538461745 2852.95016776911 20 26 16
83.1696796990387 -65.9661012411705 2844.7681377654 23 29 19
73.7097499168327 -66.0144741706389 2847.08391510785 19 25 15
32.0730949570525 -71.7714553220962 2826.93220636024 22 25 18
21.674182148768 -71.9513917434103 2828.78294343723 8 11 4
21.1945526948725 -70.3771033435254 2837.52867502749 8 11 4
14.9264522782522 -69.8256428350718 2842.25457646071 9 12 5
10.3199824209375 -68.9828835420197 2848.12121898742 9 12 5
-12.6353319389345 -71.3349070350444 2841.50669080971 11 14 7
-30.6539720632211 -72.8069096686074 2838.36169918822 11 14 7
-36.1575877976197 -72.1010175892099 2843.72254042981 12 15 8
-64.3421846711178 -75.2953206752079 2833.92312405683 13 16 9
-97.682336620307 -79.3414927133442 2820.86702435593 13 16 9
-64.4775698367401 -71.9989884177898 2851.9915395579 13 16 9
-80.1549638335342 -73.0143092736623 2850.70522434967 18 18 10
-88.2473720105108 -72.732638738027 2854.44840871988 15 15 7
-70.8578887927223 -68.1532628295737 2874.7628193758 17 18 12
-78.9133530906598 -67.8761447571621 2878.47032862206 20 22 17
-90.3942838739638 -68.1685383654897 2879.99489950683 17 19 14
200.323210478461 -88.652258814422 2730.36904471814 19 21 16
202.754005661351 -86.4185596356856 2741.79519610782 21 24 15
200.53357075426 -85.1174527732299 2749.47579288144 20 19 14
197.545779788622 -83.9725826034807 2756.52456796203 19 18 13
183.570460157442 -84.9867416752371 2754.964805354 21 22 16
173.491617365947 -85.2260290079072 2756.50681805359 23 24 18
167.338002113389 -84.6942216189183 2761.12160090698 23 24 18
160.390050409222 -84.3151742000604 2765.13117798041 18 21 14
158.195882352682 -83.0164204480491 2772.78603917183 18 21 14
157.609081201513 -81.4138644040081 2781.63401589631 15 18 11
165.02015843086 -78.2880084398554 2796.4849447988 12 17 10
157.307273769721 -78.0651805599106 2799.85995362621 11 16 9
135.962231959824 -80.4269510563828 2793.06475092274 11 16 9
122.572380769109 -81.2599811933203 2792.31408588077 10 15 9
110.75477989997 -81.7847837391578 2792.79041575942 8 13 7
123.11972149578 -77.7641777315971 2811.09197203908 8 13 7
150.133433384695 -71.0341889555227 2839.95269420803 10 15 9
126.212340731072 -73.8296153884635 2831.52857643629 11 16 9
116.835190172824 -73.9022079176094 2833.76573243191 11 16 9
102.550657631551 -74.8745830653028 2832.50718501088 18 23 16
98.0257366059174 -74.0398782250422 2838.29403878682 20 26 16
86.137140799857 -74.5546381034307 2838.83972122746 19 25 15
67.6529714267993 -76.2625594863989 2834.77496640219 23 29 19
48.2852451318472 -78.1119064326205 2830.1915899805 20 26 16
18.957818794056 -81.7425210446991 2818.75735033527 22 25 18
29.1904222023791 -78.2119060438086 2834.99770461851 6 9 2
13.8163304233965 -79.298721381645 2833.42077267757 7 10 3
2.54867208521681 -79.637606800948 2834.74077018294 9 12 5
-11.2420546643337 -80.4174908334719 2834.3803255259 9 12 5
-20.0651351619912 -80.3050551319426 2837.45718182871 11 14 7
-10.5069638514901 -76.9424078120128 2852.9748355452 11 14 7
-25.1831621411438 -77.8633286176769 2852.09761307291 12 15 8
-30.6605924243741 -77.1601774266172 2857.4328568765 13 16 9
-102.653572112899 -88.0624741519149 2818.59036034613 13 16 9
-108.281900488355 -87.3397838814265 2824.07256031858 13 16 9
-96.1463694569797 -83.5426431597399 2841.21770559198 17 18 10
-74.6027146332611 -78.1482488843662 2864.37172534716 13 14 6
-71.6283244653431 -75.9798646898182 2875.26773240704 17 20 13
-83.9440057710319 -76.4383806751904 2876.22920423947 21 23 18
166.947751600794 -102.902825327906 2704.68576582098 23 25 20
188.790808458577 -96.6918840472884 2731.67285543473 24 26 21
188.880739163586 -94.9031652205641 2741.23822196184 20 21 15
163.919373350192 -98.143997353305 2731.07912294829 18 21 14
186.002016149754 -91.9631729385692 2757.83241359776 20 23 16
171.991117725555 -93.0019461497129 2756.31195705819 21 24 17
169.781671286409 -91.6903423397052 2763.98009067644 20 23 16
166.005718674523 -90.6928205499327 2770.41639063142 21 24 17
161.444793011279 -89.8520583057292 2776.23810226309 19 22 15
168.81971562599 -86.6780959995728 2791.11782313604 15 20 13
169.878795779063 -84.7546878007074 2801.11781222189 15 20 13
162.977164789211 -84.3859467325005 2805.08291541539 15 20 13
161.677048989324 -82.9324220253591 2813.24400373757 14 19 12
137.105396595402 -85.9641761268928 2804.08392121348 11 14 7
124.517959539569 -86.6689619870807 2803.93440194333 11 14 7
169.197682183395 -76.4293518568357 2845.90816366137 11 14 7
149.399217691042 -78.5273033796219 2840.3723509673 12 15 8
131.964391279543 -80.1555498184124 2836.67071646483 13 16 9
123.414062561951 -80.0896021642427 2839.48359713113 16 19 12
114.03418128756 -80.1747646162287 2841.72532259736 18 21 14
117.704251210518 -77.8119607452423 2853.31902139289 20 23 16
118.961642532373 -75.9124471547401 2863.12561616924 21 24 17
63.6268321293305 -84.5284325874833 2832.90979024574 22 25 18
25.3303484863943 -89.9201694433702 2815.05489632718 16 19 12
15.7381663784455 -89.9774606321714 2817.50365814098 8 10 5
15.2185420964779 -88.3647244085151 2826.28342261519 7 9 4
-13.4424222020586 -91.9007869504267 2815.5903108759 7 9 4
-26.4345811382873 -92.5521039805259 2815.83478374614 8 10 5
-30.3054172543584 -91.5395837228504 2822.3630876564 10 12 7
-25.8254450766593 -89.0221032939105 2834.54658973042 11 13 8
-18.789780255235 -86.0596305452713 2848.37720951179 12 15 8
-0.799744947956871 -81.153280840881 2869.46418364052 14 17 10
-54.1021562076423 -88.9984752506609 2842.78387001758 14 17 10
-116.639476772133 -96.6880715605153 2819.58332324927 14 17 10
-82.5323669479139 -88.9543887728586 2851.17089178021 8 13 6
-71.9795102160017 -85.4121510292731 2867.09151194262 10 15 8
-65.6008448012306 -82.6225250066187 2880.18317919992 17 22 15
-106.858161301493 -88.1481441872235 2862.45440519153 21 26 20
135.908652614753 -116.903913258457 2680.89697782523 21 23 20
184.966646069455 -104.978472556419 2729.61017495079 22 24 19
184.264885117637 -103.329272954528 2738.56507671726 20 21 15
181.236334910254 -102.16225192828 2745.65105244052 19 22 15
186.862498678534 -99.2418326544965 2759.4709716134 21 24 17
186.242919616245 -97.6025806038122 2768.34573579242 20 23 16
174.59414892154 -98.1925822049626 2768.66438904599 19 22 15
173.995801226525 -96.5556364460134 2777.51874887435 19 22 15
172.628024551302 -95.080181344631 2785.74378414327 17 20 13
165.967164823075 -92.9266412790401 2799.12504631038 14 19 12
167.847767038624 -90.8260783357694 2809.70031560972 14 19 12
164.155666188059 -89.8327309794849 2816.0536286636 13 18 11
146.818935248011 -91.514119150339 2812.26277607465 11 14 7
140.695814500635 -90.9895467857889 2816.84834676705 11 14 7
145.061256060367 -88.4261975681235 2829.13880005084 10 13 6
144.620424324672 -86.8080035331755 2837.83951569971 11 14 7
138.527399367343 -86.2868107350809 2842.39603816813 12 15 8
140.559699585726 -84.2047395248617 2852.82306433623 14 17 10
135.294862747269 -83.5292294212639 2857.9512850471 17 20 13
121.863628920548 -84.4091120931721 2857.24863835863 19 22 15
121.493328835622 -82.7993379428935 2865.88055949091 20 23 16
99.8112138773162 -85.2236827197185 2859.42932385799 16 19 12
21.2962909517884 -98.318962529785 2813.21722861304 12 15 8
-12.2157119873703 -102.869882585099 2798.98947170439 6 8 3
-26.8508068762281 -103.855058853763 2798.08059203486 6 8 3
-37.3855612041467 -104.06451463484 2800.07058469744 6 8 3
-35.4879498507343 -101.964017312528 2810.62897337019 7 9 4
-24.3998514287398 -98.1789634726059 2827.39911182674 10 12 7
-23.2432704513594 -96.2435057144421 2837.30083807512 11 13 8
-32.9244972442591 -96.3017501728086 2839.83782562823 12 15 8
-36.7575484247529 -95.2879342597196 2846.3284170416 13 16 9
-50.6618286601728 -96.1057936779408 2846.08634542007 12 15 8
-64.6038230922712 -96.9187364581439 2845.88099787641 11 14 7
-99.6802021605174 -101.52817465908 2831.79809138632 12 15 8
-112.900345357313 -102.17323251571 2832.26803089442 12 17 10
-89.3115193511274 -94.5227934923017 2865.81092038917 17 24 16
-106.777120214384 -95.9246141202533 2863.52328905399 21 26 20
186.601269259743 -112.150696716921 2731.88084019277 21 23 18
187.467096039746 -110.15989165429 2742.06310934985 15 16 10
175.825776891774 -110.772711780227 2742.37739783336 12 15 8
171.225001293753 -109.921307333537 2748.23744596847 12 15 8
187.893031106586 -104.69688233087 2770.58984186386 16 19 12
185.722539141295 -103.36786965043 2778.21672009026 17 20 13
171.696590629581 -104.463050986089 2776.71954560625 22 25 18
167.149447891349 -103.617849314011 2782.52691444414 22 25 18
161.016466783934 -103.095039600257 2787.12287498083 18 23 16
144.515670496709 -104.661254612239 2783.90181369937 16 21 14
147.142854792855 -102.368769316807 2795.12425923405 14 19 12
129.780324661486 -104.087153018033 2791.3641557047 14 19 12
152.516438793008 -97.7985328782265 2817.45294534236 12 15 8
148.822262372816 -96.7987911054571 2823.8073743756 12 15 8
133.031764746417 -98.1923330695941 2821.27236434046 11 14 7
144.695962579423 -94.1651010787385 2838.85188090033 11 14 7
135.359350589681 -94.2822100568715 2841.05536100987 11 14 7
139.822428311302 -91.6980879171315 2853.24578991277 12 15 8
131.296756289775 -91.6558434939279 2856.03768944257 16 19 12
110.505736277783 -93.9853106403278 2850.10446980052 19 22 15
88.0047677655647 -96.6212435890789 2843.0807311732 20 23 16
115.478926314485 -89.6241768058944 2871.4447489893 13 16 9
-8.83772679887418 -109.970051097665 2802.35245939466 6 8 3
3.80661036150842 -105.804489795418 2820.35480957723 5 7 2
-43.9314776313315 -113.092635910168 2796.56917863206 6 8 3
-5.5173665665551 -104.079246349402 2832.19282275006 7 9 4
-24.3197682220777 -105.873699793736 2828.4568666865 11 13 8
-42.3488986271177 -107.504213260605 2825.34605774279 12 14 9
-49.566176231572 -107.102463040552 2829.61938611048 12 15 8
-45.057681585611 -104.522680658347 2841.7653567504 12 15 8
-53.1012980695063 -104.277780654043 2845.46552491657 12 15 8
-77.9934686402712 -107.131556223311 2838.01432584859 11 14 7
-104.661444870685 -110.283423246822 2829.5364293612 12 15 8
-103.514636905337 -108.324104158043 2839.44433366075 13 18 11
-108.269916473362 -107.44865365121 2845.45391468288 15 22 14
-79.0349272428172 -100.413340271563 2873.48065808974 18 25 17
-73.4842773157922 -97.7038410491822 2885.98949035506 22 27 21
215.399830612204 -115.354018204834 2746.26721267527 9 11 6
189.795635929195 -118.980062868573 2735.38613931615 23 25 20
176.598402426092 -119.946099299426 2734.46386033512 14 15 9
141.420834973325 -125.532227331614 2716.37506178406 11 14 7
154.80309873173 -120.873339469669 2736.40588297359 10 13 6
194.26840247665 -110.791635157968 2776.49575587996 15 18 11
183.429176462965 -111.262252192584 2777.40978362892 18 21 14
178.103527182284 -110.579989731184 2782.59739399836 20 23 16
187.059575537323 -106.946718476043 2798.6733044532 20 23 16
157.91106151846 -111.17949027527 2785.73349148203 18 23 16
142.200163192502 -112.618772620443 2783.1261985732 16 21 14
137.628475658137 -111.766791135157 2788.95693870305 14 19 12
141.874292566475 -109.122891189826 2801.35427567168 14 19 12
130.105660477365 -109.738796880806 2801.79544383294 13 16 9
140.042863011634 -105.964668950985 2818.29314444639 13 16 9
146.826859908557 -102.848726615058 2832.35132930113 12 15 8
132.638005482372 -103.950866991373 2831.01661349956 11 14 7
98.1360205362343 -109.08987037651 2815.02468534035 11 14 7
123.642359052957 -102.26378627842 2842.53423006889 12 15 8
122.410582353262 -100.776183370349 2850.62241991114 15 18 11
102.41565950738 -102.992839350905 2845.29923773333 19 22 15
71.7095721290577 -107.289645430251 2832.4983352122 19 22 15
37.6021830094246 -112.212710286111 2817.49989910346 18 21 14
8.29486155308956 -116.157170615148 2806.09208127365 8 11 4
-16.7728482232414 -117.454870080092 2807.08733945339 6 8 3
18.2733933771981 -108.928853070206 2840.45938607304 6 8 3
-12.0793414297244 -113.004344346162 2828.69213615342 7 9 4
-32.5611454130166 -115.157455823048 2823.84270445061 10 12 7
-56.4482440875196 -117.93644234362 2816.79930966093 11 13 8
-58.6817151001333 -116.584584078379 2824.48568828686 13 16 9
-30.7309919021805 -109.539402787121 2852.36935905828 13 16 9
-57.2201617440973 -112.781374729958 2843.72722265159 13 16 9
-76.2282210732108 -114.591563232678 2840.19781333284 13 16 9
-90.2344036133509 -115.449029017383 2840.06278600996 15 18 11
-127.11322985009 -120.54620335183 2825.00800475534 19 24 17
-88.6911821016043 -111.655597556114 2859.22500569823 21 28 20
-95.0962691042445 -111.096582826028 2864.08582032574 20 25 18
-64.0364101766013 -103.652885119148 2893.07423859906 17 22 16
-127.545351093129 -113.570230121607 2861.24840673736 11 16 10
201.474388839951 -125.80001431747 2736.13323894555 23 25 20
181.294142714724 -128.312873722272 2729.62061710075 14 16 11
157.914104452103 -131.488704367793 2720.71544789698 11 12 6
164.306581030005 -126.406074399957 2744.79078355116 9 12 5
177.805831061974 -121.696788705577 2764.69798686404 11 14 7
175.610091859924 -120.342185055718 2772.34615363567 11 14 7
173.430866101927 -118.989455092681 2779.97853708532 13 16 9
165.714447344031 -118.805189562403 2783.36275482149 15 18 11
158.782498397521 -118.452942899046 2787.36006421797 16 21 14
124.737669053011 -123.748571929125 2770.93732299026 15 20 13
145.697048187317 -117.579338994798 2795.97392564452 15 20 13
152.365409643489 -114.408145226128 2810.13877206371 16 21 14
127.773344100762 -117.694903464267 2801.03631175618 15 18 11
128.849319204992 -115.684831127675 2811.00705282606 15 18 11
132.37788173692 -113.184055464138 2822.72054054007 14 17 10
126.243571314018 -112.664498360981 2827.31830184112 12 15 8
99.0246508822938 -116.418796624835 2816.64272152887 11 14 7
97.7103906939436 -114.906805008328 2824.80921405422 11 14 7
119.228445638419 -108.808046263486 2849.30145942467 14 17 10
118.825950381843 -107.144266804232 2857.95736887725 17 20 13
79.1551886953226 -113.326816380411 2838.75021651079 18 21 14
29.4762005259326 -121.446177427128 2812.7637155415 17 20 13
-1.49459189030532 -125.791830516775 2800.23288860287 8 11 4
-50.7216026064543 -133.700395210979 2775.18332104993 8 10 5
-47.266740505072 -131.188616636856 2786.96870599758 8 10 5
-32.7544367726578 -124.724474306694 2815.52960587386 8 10 5
-54.948371711705 -127.242760021421 2809.6004994775 10 12 7
-63.0391275283273 -127.007219765685 2813.34886106467 11 13 8
-57.7640020590802 -124.191692996283 2826.11562236442 14 17 10
-72.5487782899501 -125.244446148772 2825.36570415612 14 17 10
-39.5005447035626 -117.134262503631 2856.53219646427 14 17 10
-59.309456819518 -119.152796580008 2852.41159202672 15 18 11
-82.5580505583115 -121.803498107629 2846.13243909082 17 20 13
-70.3672628845591 -117.727604657201 2863.18151416993 20 25 18
-92.8475647237685 -120.208270826699 2857.53121418635 24 29 22
-95.8639759073261 -119.012558593714 2864.60089513168 21 26 19
-126.116375807213 -122.911587801363 2854.12483946724 17 22 16
-106.126242662815 -117.420381280084 2875.97340177215 10 15 9
154.884260681822 -143.539082461555 2699.99911124091 21 23 18
143.164635773596 -144.206071047743 2700.39916457669 11 13 8
148.61102747976 -141.110349546021 2714.37135263005 11 12 6
143.926133392379 -140.239215201261 2720.31201559827 11 14 7
178.66928536405 -128.972728901654 2766.33285407903 11 14 7
175.686127147443 -127.777051431254 2773.36951947451 11 14 7
164.801658638635 -128.278746736004 2774.33306704469 13 16 9
144.370966420966 -130.80905126844 2768.0717202542 12 15 8
145.339497063916 -128.764087135096 2778.14399827014 13 18 11
111.262770415415 -134.152433363021 2761.76663509817 17 22 15
164.154273691366 -121.145344473355 2810.76396112494 17 22 15
157.248322932595 -120.800915894296 2814.73660944612 14 19 12
123.835539199937 -126.00272373146 2799.08961801086 15 18 11
111.216942283742 -126.82287533211 2798.98809194873 15 18 11
115.509626600741 -124.118853424881 2811.33000288803 14 17 10
117.423101741359 -121.922837992516 2821.85818320863 13 16 9
107.210664357608 -122.237776208436 2823.54403848073 12 15 8
124.608836267291 -116.876716109467 2845.1511978729 13 16 9
128.702529560178 -112.517822538315 2865.94825212185 17 20 13
101.334668182183 -116.324860577928 2855.42802944483 15 18 11
66.4786304659053 -121.611085062676 2839.80944013446 17 20 13
-8.81551709472239 -134.993887371604 2796.10987599498 6 9 2
-49.8145269139245 -141.389366431949 2776.83625522645 9 11 6
-67.0162068472178 -142.97530074479 2774.31375842857 8 10 5
-32.0908441502783 -134.168375722931 2807.76432150482 6 8 3
-40.9747985220705 -134.109962037026 2810.90961089485 7 9 4
-59.8589843338639 -136.021875993742 2807.27222831989 10 12 7
-52.9479004772799 -132.838499356732 2821.19424718475 12 14 9
-56.00987906065 -131.628934415323 2828.30712980745 14 17 10
-80.8457693837297 -134.674672275085 2820.82841556424 15 18 11
-98.2109813315137 -136.23878191814 2818.46508279753 15 18 11
-69.3293438970097 -128.824892308177 2846.78709420184 18 21 14
-52.9444129181598 -123.874448693637 2866.62728711841 22 25 18
-78.7422429798172 -127.067477098124 2858.70831557417 22 27 20
-111.412560202893 -131.547424219425 2846.46841901583 23 28 21
-139.108674470208 -135.038817199287 2837.6447512681 20 25 18
-128.587350170469 -131.233554236867 2853.55780858931 18 23 17
-90.6823060817779 -122.266331518016 2886.8596307016 106 108 105
123.852077502855 -158.121149774274 2676.28898640346 7 9 6
150.259405271341 -150.28330808764 2707.00536395136 15 17 12
153.378226445183 -147.672292486287 2719.10943747637 9 10 4
129.11582546391 -151.132108959306 2709.70553115951 8 11 4
124.398569375274 -150.253579577884 2715.6768992482 8 11 4
178.130641527367 -134.693567592606 2776.2154044219 13 16 9
173.583278439573 -133.836129890586 2782.02152143227 14 17 10
142.861798352196 -138.656877319999 2767.89643308378 12 15 8
132.692953552196 -138.994693839661 2769.5420438371 12 17 10
161.563326367951 -130.923301279952 2800.61188116096 16 21 14
141.056115112653 -133.494141843193 2794.43251011365 16 21 14
162.131377559533 -127.160576937771 2819.32975073189 13 18 11
161.654543845931 -125.455140502321 2828.05332248833 15 18 11
133.028573027806 -129.722064095153 2816.01657333213 15 18 11
113.166846172737 -132.101046610502 2810.5851173574 14 17 10
120.736311482532 -128.689153997759 2825.23648846286 13 16 9
108.099411460107 -129.530335114124 2825.15624580902 13 16 9
105.993713907381 -128.162743261736 2832.71308024115 13 16 9
141.028379526091 -117.318747169865 2875.67306659379 17 20 13
134.15409138956 -116.981861334936 2879.6157261193 16 19 12
54.2506028060834 -131.645515883961 2832.18014572352 17 20 13
6.89166935483776 -139.531420175458 2808.10601926909 7 10 3
-53.853579152813 -150.080680339464 2775.04644393511 8 10 5
-62.8012993782407 -150.024621210178 2778.25540176288 7 9 4
-46.9168503123201 -144.939879040208 2798.57273134963 6 8 3
-46.7037566640522 -143.046950657291 2808.0003931265 6 8 3
-48.1268546019171 -141.491650704411 2816.26856219284 10 12 7
-53.699683441752 -140.772905395469 2821.69623336957 11 13 8
-55.9274690429303 -139.387871533657 2829.37206295922 16 19 12
-47.2461248242482 -135.842919015839 2844.31656499342 17 20 13
-65.3732458926921 -137.620340964993 2841.32443739458 17 20 13
-35.5755217654998 -129.939218361524 2870.11417356878 18 21 14
-51.1753744091465 -131.219295742744 2868.78998954943 21 24 17
-60.9008724119064 -131.336233428234 2871.3799517437 18 23 16
-82.5111440414563 -133.761543875687 2866.2744266667 21 26 19
-116.087274250481 -138.484767458826 2853.55272478888 15 20 13
-138.721198340742 -141.052299443526 2848.0678127011 16 21 15
-113.641570937123 -134.408485990516 2873.19387091722 7 12 6
109.93209103243 -169.030193440613 2666.21803370459 3 5 2
162.834941863026 -153.14347987821 2727.53168155826 10 11 5
100.986645576738 -165.119062474714 2688.69303653455 8 11 4
109.552934899992 -161.240643521379 2705.11975074691 8 11 4
147.324779632548 -150.877458142721 2744.01549423029 10 13 6
164.787762739678 -145.098224354175 2766.91373641632 12 15 8
166.537912385398 -142.833469396924 2777.59427953799 13 16 9
169.117123010579 -140.398349713661 2788.84328233689 13 16 9
139.132439043282 -145.122944834658 2775.38924259784 12 17 10
156.857261890569 -139.376484230515 2798.03231791354 14 19 12
157.115526966046 -137.472621214675 2807.41350766146 16 21 14
178.2288124556 -131.054452976999 2832.26048650069 15 20 13
163.337266975341 -132.460544863095 2830.25190572817 16 19 12
149.20460968934 -133.687338879661 2828.87980908923 15 18 11
139.87150676354 -133.87050608843 2831.08990586604 14 17 10
117.578904122977 -136.815257702479 2823.90456226982 13 16 9
117.906673140001 -134.919167330703 2833.21822021172 13 16 9
96.3199522548903 -137.677537323201 2826.72162563493 10 13 6
88.5051054549129 -137.501723596628 2830.20483304482 9 12 5
135.389334410215 -125.816607890246 2872.60966094953 14 17 10
139.141984328409 -123.253373205017 2884.09139516023 13 16 9
-5.36266933943796 -149.779804713952 2800.53447437028 7 10 3
-37.2838266105426 -154.529349212011 2787.59015943756 7 9 4
-48.671401238165 -155.000141304261 2789.04873133969 7 9 4
-52.6313050933127 -153.93511446431 2795.65772038159 6 8 3
-53.0364489441633 -150.280254644001 2813.94102002764 8 10 5
-58.6208474311385 -149.559505335558 2819.37988384476 9 11 6
-44.1415496614748 -144.776563732873 2838.30299895526 14 17 10
-34.5957225383522 -141.019716300863 2853.77464802789 17 20 13
-49.3338659969123 -142.165872735969 2852.99222775171 20 23 16
-66.6387916140883 -143.812028868043 2850.58149404475 19 22 15
-57.8427334011127 -140.235276827562 2865.40738343127 18 21 14
-54.0536604175896 -137.675085916761 2876.85339886819 14 19 12
-73.9527076659252 -139.817691975436 2872.84097557633 19 24 17
-97.3144810362059 -142.621847496875 2866.69689212087 14 17 10
-99.4710268915715 -141.23412041363 2874.30124369087 17 19 14
-110.144690725276 -141.518527564243 2876.44025332584 8 10 5
116.232745383736 -175.370021713175 2672.23436486866 2 4 1
123.907819456738 -171.608209978806 2688.14639417742 5 7 2
159.004396070524 -161.591296955176 2725.49883155816 11 12 6
115.169559767015 -169.649683255759 2700.78521162534 9 12 5
122.984918948739 -165.905248806342 2716.56016626048 8 11 4
154.48931122333 -156.822878636177 2750.5329363873 9 12 5
176.705258560367 -149.899368671559 2777.04442290252 11 14 7
179.275696513327 -147.435987908976 2788.29796011944 11 14 7
122.393118385497 -158.286982263547 2754.28111081457 11 14 7
151.138190419146 -149.966704520435 2785.43858854593 10 15 8
148.166251208919 -148.746229740682 2792.46044827072 12 17 10
150.001331290828 -146.466839761222 2803.05449116386 16 21 14
148.667970785488 -144.897790886326 2811.23151754846 16 21 14
148.960963390756 -142.978698692609 2820.5759714801 16 19 12
129.964616818575 -145.286068323122 2815.69150505641 16 19 12
135.108124033986 -142.31357369006 2828.56576544619 14 17 10
130.59761913569 -141.453059336507 2834.33448915978 14 17 10
121.227747550011 -141.644181115922 2836.58227344146 13 16 9
114.277173497241 -141.307925767015 2840.60044135307 12 15 8
117.095003557693 -138.874066841133 2851.6126778647 10 13 6
119.136027310698 -136.619607379261 2862.00590036764 15 18 11
115.483547618275 -135.589105226491 2868.31471540508 14 17 10
82.3045625368088 -140.822145274359 2853.85674603584 16 19 12
7.05465737981026 -154.897336667563 2810.21524549782 8 11 4
-14.9448394068949 -157.655090515616 2804.12845242738 7 9 4
-11.4074882130919 -155.033296658617 2815.81566427608 7 9 4
-12.7958039028728 -153.454798892189 2824.04586542918 6 8 3
-66.4604305551846 -162.759417285812 2796.52436779737 6 8 3
-79.5787481734469 -163.584591693076 2796.91981414825 8 10 5
-48.2386122722014 -153.356278141641 2836.55429846354 10 13 6
-31.1619563402772 -148.003655602163 2857.06540356638 14 17 10
-40.0135715144758 -147.979836857964 2860.18335493042 18 21 14
-66.555729289496 -151.549362434085 2851.64258645056 18 21 14
-58.603716628121 -148.097154300475 2865.90812376443 17 20 13
-74.2655331098145 -149.432811643811 2864.65368544638 15 18 11
-83.1925398422144 -149.398823492183 2867.84533655022 16 19 12
-93.8331497322245 -149.703348685168 2869.95449656835 11 14 7
-103.644594651025 -149.834942375793 2872.63163362996 17 19 14
-128.834344582184 -153.018815002622 2865.52472346682 17 19 14
150.528809417163 -175.107812748204 2700.4878516915 9 11 6
164.525674969506 -169.855489533652 2721.23756404593 12 14 9
164.553154954486 -167.885350840738 2730.83846912621 11 12 6
152.856071587783 -168.639801412405 2731.22906522129 10 13 6
156.837451468902 -165.766847442972 2743.85513798233 11 14 7
164.803048804275 -161.995209793288 2759.47688328884 11 14 7
191.77921478407 -153.896039716198 2789.58943401996 11 14 7
166.692363764116 -157.724436219529 2779.64178542891 11 14 7
157.373100214783 -157.937006185517 2781.84214737299 11 14 7
152.806367416918 -157.067470478434 2787.66571071193 7 12 5
157.012127298974 -154.222053025131 2800.07270285815 7 12 5
135.696323479755 -157.123742458501 2793.32826618081 12 17 10
119.109583259208 -158.940340031197 2790.22955492875 13 18 11
116.118937932116 -157.708352137874 2797.26828847097 16 19 12
128.433139125907 -153.083215651505 2815.53054353716 16 19 12
123.08402681324 -152.394044390737 2820.74043192668 15 18 11
133.91094699656 -148.141536639454 2837.7011725932 14 17 10
135.08787408199 -146.033950387344 2847.55691649729 14 17 10
130.608333224918 -145.173948835663 2853.2949682521 16 19 12
129.392053551071 -143.604724300312 2861.35604351972 14 17 10
111.049249684164 -145.758359598685 2857.21678697912 17 20 13
99.1929420802427 -146.488637387544 2857.76226021077 15 18 11
56.131729039175 -153.927997944534 2836.43965716069 18 21 14
14.5376139751154 -160.991520270781 2816.43847404082 10 13 6
-12.3893602317486 -164.862070895517 2806.90707817741 8 10 5
-28.6754820013466 -166.432721903251 2804.89040688243 8 10 5
-66.5427058417616 -172.564042603751 2788.13580896331 8 10 5
-74.6770372614116 -172.361027397442 2791.93258679854 8 10 5
-72.8382087913957 -170.054646935226 2802.51858046332 8 10 5
-72.6312177437118 -168.102599568737 2811.94356445283 8 10 5
-74.0679269428917 -166.503330831624 2820.21908897774 9 12 5
-51.6875687372851 -158.08766703974 2853.43165781661 16 19 12
-36.1711784774252 -153.025310196213 2872.70087446244 16 19 12
-45.0227012975506 -153.011616248453 2875.82023055802 15 18 11
-69.9543953130095 -156.290660559725 2868.47113338923 15 18 11
-83.1089449886568 -157.13401286097 2868.90558323548 13 16 9
-94.598664738069 -157.627102842594 2870.46888237184 13 16 9
-101.85777191235 -157.253470438614 2874.78790392166 15 17 12
-109.976974198035 -157.05131750766 2878.56944790514 14 16 13
147.496720961726 -183.480413979124 2699.06825204283 10 12 7
153.68964100148 -180.005301450195 2713.6599619148 14 16 11
175.57209635507 -172.850238455993 2740.46838746286 10 11 5
150.583916877993 -176.759450133731 2730.43436317659 10 13 6
168.696416712817 -170.543410600313 2754.03997526979 12 15 8
183.963064159533 -163.106737271497 2784.54221750708 12 15 8
165.187423556931 -165.534983204535 2779.45645225768 15 18 11
167.762355386321 -163.017210020202 2790.6974878127 14 17 10
163.221020248152 -162.147853939319 2796.49585744879 9 14 7
153.901745330395 -162.373144996449 2798.69811085359 8 13 6
132.578883950563 -165.327517891021 2791.96846903083 12 17 10
131.202815217971 -163.725177968343 2800.18298491412 13 18 11
152.328167951558 -157.039986962725 2824.97851495314 17 20 13
141.389173294627 -157.625826763792 2826.00864431426 16 19 12
119.935773481223 -160.562563838113 2819.40602251921 15 18 11
121.858407148546 -158.244176329995 2829.90735959005 14 17 10
134.3554777708 -153.582194150965 2847.98291467518 14 17 10
146.126114746797 -149.111550710884 2865.39086173206 15 18 11
132.728485688204 -150.234891584598 2864.69082802797 13 16 9
120.10931125335 -151.173306072384 2864.60735465348 16 19 12
104.182494075986 -152.825636899022 2862.24596082848 14 17 10
73.4398400555776 -157.699883269591 2849.56705278835 16 19 12
-27.3174648861647 -177.783048824273 2788.21552383528 8 11 4
-41.9789864113223 -179.027702912947 2787.37123691474 9 11 6
-55.0295624031323 -179.909548828913 2787.70812869538 9 11 6
-68.1141940692869 -180.786882057204 2788.07783344881 8 10 5
-45.5406796422366 -174.000985492112 2812.83734259847 8 10 5
-58.6098791969372 -174.880087276778 2813.19198442896 8 10 5
-57.5360674023133 -172.735278554055 2823.14495971824 8 10 5
-81.5063137024441 -175.915237982022 2816.24339537056 11 14 7
-67.8598755344915 -171.114351774111 2834.57399085495 9 12 5
-54.9630882338246 -166.501846216821 2852.25993399261 12 15 8
-55.4468702415396 -164.726053818694 2860.98000692726 13 16 9
-50.0012844173656 -161.718843977807 2873.54916790045 13 16 9
-74.0984102525219 -164.881894207542 2866.77109763456 19 22 15
-80.4826077948877 -164.340962758381 2871.61384142024 16 19 12
-93.6651701991291 -165.204446556005 2872.07874590447 28 31 24
-100.922192123122 -164.835941959141 2876.39645465758 16 18 13
-113.305532455493 -165.517159959979 2877.45802816432 25 27 24
124.145696772272 -194.725658395588 2691.32692726677 7 8 2
147.516332664788 -187.092008185226 2719.42065119422 9 12 3
125.592637797604 -190.312242439036 2711.90969293942 10 13 4
148.354548635471 -182.887362929977 2739.2218367455 11 14 5
177.555917537971 -173.989735973978 2771.25812013897 14 17 8
151.680620453751 -178.138874024852 2760.72356844605 16 19 10
135.199572232113 -180.044998219407 2757.53313547228 18 21 12
182.116968544585 -167.098521651659 2802.552755594 17 20 11
172.04491568202 -167.527868146818 2804.11577861301 16 19 10
177.891059706617 -164.252740259843 2817.66449051935 13 16 7
186.988511019716 -160.245211367097 2833.54467063112 14 17 8
185.744568307767 -158.645994683039 2841.62844503603 16 19 10
164.449361931192 -161.657132264917 2834.87973118221 15 18 11
144.687054392037 -164.289978087117 2829.38707124298 15 18 11
120.014914909478 -168.016706558723 2820.42915294977 15 18 11
133.259068890117 -163.103690004189 2839.14264976276 15 18 11
140.918976572529 -159.485294533532 2853.67368922301 15 18 11
144.57894706184 -156.79019766531 2865.22796630358 22 24 19
130.363416630138 -158.122430987005 2863.95408564866 4 6 1
120.188173544818 -158.536321508661 2865.61729369816 16 18 13
110.809087514234 -158.764817788989 2867.87975199476 17 19 14
96.4893219985985 -160.083160473886 2866.70698744702 9 11 6
-27.0588768007203 -183.582707629493 2798.73496999041 7 9 4
-48.3358568360517 -186.306062680554 2793.34253229564 7 9 4
-38.2182185669069 -182.139541003698 2809.60306193258 7 9 4
-39.6464597046084 -180.513906258063 2817.86594282073 7 9 4
-17.7595076242412 -173.835123819585 2841.90614063332 9 11 6
-13.2553273615472 -170.95927526691 2854.0126370689 9 11 6
-71.3912532567882 -181.593829707041 2824.04254737755 13 16 9
-66.0998633493666 -178.531445911928 2836.75667248917 13 16 9
-51.5204794421567 -173.500479544141 2855.54374263358 13 16 9
-50.3132801508972 -171.350432093704 2865.3634878852 13 16 9
-72.6945813178861 -174.218032623439 2859.67172965807 13 16 9
-80.778227906793 -174.035854407882 2863.42125640526 17 20 13
-88.025424035147 -173.673718796588 2867.73014933133 13 16 9
-98.676914432156 -174.02385574128 2869.85685525074 20 23 16
-111.053216716938 -174.727071839726 2870.9146911814 19 21 16
-128.579154426202 -176.493202438138 2868.74082008077 20 22 17
86.2266776436562 -213.79711577375 2652.44716177307 8 8 6
123.445845704201 -202.619745800184 2691.77138523425 9 10 4
87.4229620495828 -209.308227760652 2673.26767843717 10 13 6
122.538776243927 -198.730512231504 2710.51846409263 12 15 6
142.992803175371 -189.750033981784 2745.56042903294 15 18 9
142.288411070179 -187.917417512891 2754.49117248276 15 18 9
164.552423497097 -180.620458291554 2780.89973401614 19 22 13
120.330870687779 -189.155727913245 2756.64027459491 20 23 14
189.614297817639 -170.779342567024 2818.32405881224 19 22 13
195.502951796202 -167.471538842122 2831.8257282313 16 19 10
178.277209977561 -169.60872984977 2827.9916914223 16 19 10
168.202064746266 -170.052900459946 2829.5599762069 17 20 11
164.527382505551 -168.997707146349 2835.88718936021 16 19 12
149.594185899275 -170.558281759228 2833.94246340911 16 19 12
139.455785603274 -170.993577084516 2835.5725874868 16 19 12
138.19002451575 -169.376867640917 2843.67544243897 16 19 12
137.75526058582 -167.576531991763 2852.34321221598 16 19 12
124.343959991222 -168.751442428063 2851.66437650808 8 10 5
125.555337726133 -166.581977235582 2861.4767647276 9 11 6
112.919652464726 -167.565925894421 2861.41675462053 12 14 9
114.980184633029 -165.215110471596 2871.77602576776 14 16 11
1.62878550194145 -186.91208215719 2810.41594097555 7 9 4
-18.7330330482673 -189.513812585775 2805.51400549111 8 10 5
-15.2065579817302 -186.770220238537 2817.1936778893 8 10 5
-29.8534361017997 -188.074788208676 2816.34404293855 9 11 6
-15.492505951535 -182.951033267237 2835.33432678228 9 11 6
-17.6761310909046 -181.504476455286 2842.95687347339 11 13 8
-26.5141887503129 -181.523952911825 2846.06809887858 12 14 9
-64.6199270380126 -187.937887278819 2829.59211950799 14 17 10
-71.8792795748824 -187.579539391368 2833.91398159334 13 16 9
-63.1918003821044 -183.757381236486 2848.81142063548 11 14 7
-53.5959575798919 -179.761779374895 2864.19811559898 11 14 7
-60.8002514790784 -179.410254565916 2868.46631209122 11 14 7
-100.98522998448 -186.136377215442 2851.26703380801 11 14 7
-104.888947582551 -185.048153053561 2857.81680051199 9 12 5
-130.867038855389 -188.666957115853 2850.14009831348 16 19 12
-137.357745855229 -188.116536330677 2855.08686720322 12 14 9
106.377317035145 -214.565538396499 2679.31223740884 15 16 10
98.4443861019857 -214.424519524969 2682.91784677296 16 19 12
157.936356111054 -195.707934042039 2748.60609826907 18 21 12
104.496335914807 -206.705906690313 2716.86077433027 17 20 11
104.485903529729 -204.652974487614 2726.48675226788 16 19 10
158.301562639776 -189.600213946777 2777.09784714864 16 19 10
206.387499143765 -174.101867679349 2831.91621242656 19 22 13
182.03155933111 -177.999057647704 2822.66983516362 20 23 14
161.577709821176 -180.933091862906 2816.49115497748 19 22 13
164.276016302222 -178.34828617227 2827.59977030443 18 21 12
184.675853064407 -171.594495364022 2851.68870008956 15 18 11
159.329955493984 -175.656480889442 2842.032475066 16 19 12
166.962263427314 -171.947803919293 2856.57757791889 17 20 13
125.330940266683 -179.774171670296 2835.30918189186 18 21 14
116.759373204113 -179.840452518059 2838.16269586352 18 21 14
122.798242499658 -176.512253613423 2851.51218485357 16 18 13
112.60336903698 -176.955306189506 2853.19919629689 23 25 20
120.346768909177 -173.260044435164 2867.63596597528 5 7 2
103.60316768472 -175.204186056654 2864.71187097365 29 31 26
-13.0874784711215 -197.979689251275 2801.15913921332 8 10 5
-17.8248893090007 -197.072834924087 2807.14633485134 8 10 5
-28.3401058592494 -197.473439255013 2809.14517788406 8 10 5
-28.9412185240914 -195.63346907107 2817.97227644699 9 11 6
-17.8987106012558 -191.189529102228 2834.69030386104 9 11 6
-25.911498737365 -191.032693500805 2838.37287490243 11 13 8
-28.9318391306392 -189.760062329384 2845.43508902558 12 14 9
-52.833850131969 -193.125307543025 2838.49348901768 11 14 7
-92.7368572335339 -199.998457734807 2821.0359395687 11 14 7
-76.54135571656 -194.459079489144 2840.97719445992 10 13 6
-64.4521589436149 -189.856332888819 2858.04928213985 9 12 5
-80.1166472616308 -191.350970727379 2856.82133208452 10 13 6
-105.12662507477 -194.865839737606 2849.58482667159 13 16 9
-133.614381455552 -199.105110086415 2840.24056003397 12 15 8
-136.72593218401 -197.819771542028 2847.39146922412 19 22 15
-153.445024246496 -199.471202705915 2845.81668310226 13 15 10
-134.37960831992 -193.421832384447 2867.08375974868 12 14 9
95.5456727148056 -225.065944356167 2671.78175609714 11 12 6
121.892005996771 -212.191383442214 2721.65235898569 19 22 13
81.7474154420581 -220.037116750565 2700.32772488366 17 20 11
99.0425272441384 -213.685848081878 2723.30811925174 17 20 11
237.07182417154 -175.848644655416 2847.04887353745 15 18 9
130.938796892311 -199.74727213202 2776.01208607618 17 20 11
168.561212550889 -188.617654655415 2813.5260271919 18 21 12
173.63972954511 -185.424826619055 2826.43225865128 18 21 12
181.973021224498 -181.467690296045 2841.66179925776 16 19 10
198.40086023793 -175.594783585302 2862.73995353665 18 21 14
194.011558061618 -174.731754917296 2868.38794954103 19 22 15
160.587179645883 -180.778216971479 2852.87697347988 22 25 18
131.879663691329 -185.656994661445 2841.01196945994 22 25 18
116.028929825299 -187.458466726257 2838.59706679194 22 25 18
100.941011477724 -189.062190583353 2836.8123592566 18 20 15
126.528782038923 -181.113964429053 2864.07518865535 14 16 11
120.426459330287 -180.620731806249 2868.64473858797 22 24 19
122.504353004294 -178.222761207227 2878.98013783092 3 5 0
-24.5136868546747 -208.384013677158 2794.20520583892 1 3 0
-14.4441220248148 -204.056654856416 2810.48936361011 7 9 4
-27.4292851325493 -205.04221763586 2810.776628737 7 9 4
-41.2764166964763 -206.212426093568 2810.52988467403 7 9 4
-34.4132923834799 -202.654892199036 2824.44388995339 7 9 4
-6.69424683538722 -194.388434689296 2852.37711596421 8 10 5
-24.678435115062 -196.504325228587 2849.29341734498 9 11 6
-40.2128581401793 -198.048251431236 2847.94325748778 15 18 11
-101.864943157818 -209.920806207094 2815.97976657945 16 19 12
-74.7764438769649 -201.868594639379 2843.15389049376 18 21 14
-58.4763085286539 -196.272191724884 2862.98247638055 20 23 16
-69.0658027693591 -196.677656697796 2865.05613450068 21 24 17
-104.195073639783 -202.500197222401 2851.20504634569 18 21 14
-119.969605035912 -204.012320760231 2850.08861723039 16 19 12
-131.543139867618 -204.586452590903 2851.74712393237 22 25 18
-125.2672422268 -201.248036073407 2864.85973011293 17 19 14
129.922043115221 -224.149472259021 2699.85879770521 32 33 27
112.671506648628 -226.406133697577 2696.06704002567 24 27 20
122.757724887964 -219.64575395053 2723.31134935244 20 23 14
185.141151472328 -199.917810148813 2790.230267045 18 21 12
198.01445254835 -194.709281698533 2809.26834974535 16 19 10
153.086083897287 -203.847651077541 2784.38265962467 15 18 9
212.106837923484 -187.268278413911 2838.1018551355 15 18 9
163.858557224567 -197.172500412202 2810.95844216744 16 19 10
167.327407892042 -194.334015917698 2822.68131142782 16 19 10
147.616525617287 -197.166644524792 2817.16711324919 14 17 8
186.437079187773 -185.746323297166 2854.86522913693 18 21 14
197.307926488319 -181.17392075014 2871.73473137358 20 23 16
184.058397640104 -182.45004186221 2870.91021282377 23 26 19
125.49079530763 -194.605730476202 2837.34254138739 24 27 20
110.435672898707 -196.245798799639 2835.5309765384 24 27 20
122.145668255012 -191.482175110708 2852.95583926725 32 34 29
120.093365518595 -190.020477830043 2860.44574311626 25 27 22
120.506481811014 -187.980576506328 2869.65305691414 13 15 10
-34.9617027981366 -216.596464004922 2797.29190510244 8 10 5
-18.2581409774594 -210.68372096959 2818.09037476643 7 9 4
-36.2235035986944 -212.842571781377 2814.9939936576 7 9 4
-40.9674207032835 -211.928069889928 2820.98685764998 7 9 4
-21.5833407240651 -205.464770194067 2843.29322691836 7 9 4
-35.4331254340692 -206.66070840186 2843.05292031449 8 10 5
-40.1279766380198 -205.752231586835 2848.99761380387 12 15 8
-33.9285718653253 -202.366431878943 2862.1791753184 12 15 8
-58.7386059066515 -206.030636358324 2854.76619450147 15 18 11
-41.5605502493999 -200.178254567836 2875.10274397906 17 20 13
-54.6417231317302 -201.174049936987 2875.48652276171 20 23 16
-74.519812592361 -203.682103762728 2871.50730109721 20 23 16
-97.8522269127149 -206.939068745679 2865.40065086984 17 20 13
-124.661763151144 -210.941772701678 2857.18941673208 23 26 19
-109.858819521016 -205.678760157924 2875.72019244335 20 22 17
-96.6682418974285 -200.804968245809 2893.07577943819 20 22 19
115.973252723589 -235.445849757279 2689.87335765511 24 25 19
140.880983061702 -226.906842619794 2719.14106919463 24 27 18
140.875899460976 -224.797797736451 2728.75344228063 22 25 16
182.67028503192 -209.998599220911 2780.00370346565 20 23 14
177.328375068829 -209.309864180136 2785.2065042887 19 22 13
149.837360432224 -214.202160471867 2773.55206599601 18 21 12
173.783887418785 -206.140199787904 2801.01061745289 12 15 6
169.256968727118 -205.254380792962 2806.79223813298 13 16 7
138.64825090485 -208.838656006279 2802.29146604277 16 19 10
139.688213808809 -206.560690684867 2812.25803545173 15 18 9
164.039225021718 -198.549705218122 2839.3228000493 14 17 10
190.143944841046 -190.162039890322 2867.4242515926 13 16 9
176.07062515401 -191.659905008442 2866.03329603116 15 18 11
150.636036229792 -195.911128174173 2856.4934499156 16 19 12
108.895436505466 -204.086053832299 2835.38508383817 15 18 11
104.352579011985 -203.196178035707 2841.18159454858 16 18 13
109.586943594417 -199.950937158199 2853.92532045398 14 16 11
86.3021007296481 -203.574371862055 2846.40902365695 9 11 6
-29.9317102436936 -223.223585809894 2801.77866543781 1 3 0
-30.5632487440488 -221.330085691719 2810.62772776228 9 11 6
-38.621830153748 -221.190504447276 2814.35832238771 8 10 5
-38.3922648640711 -219.106306832362 2823.7416959142 6 8 3
-41.4620313171112 -217.801852250067 2830.84828735913 11 13 8
-104.39033771266 -228.358888976362 2807.04255458245 9 12 5
-14.5784511796694 -205.585574855552 2876.03128655776 10 13 6
-33.4663490801295 -207.965823015029 2872.46680973236 10 13 6
-26.3289285036841 -204.36132767378 2886.10183172795 10 13 6
-59.6170799006988 -210.006567335705 2873.23043620648 17 20 13
