ply
format ascii 1.0
comment KinectMotionCapture
element vertex 774
property float x
property float y
property float z
property uchar red
property uchar green
property uchar blue
end_header
-76.3914671958759 1016.22904285118 2826.92979700075 16 19 8
-121.318932581875 999.736142371702 2860.97406835952 19 22 11
-64.2129182132414 1025.13726121432 2795.0442554098 20 23 12
-118.333313714355 1004.79825252238 2838.46154833262 21 24 13
-98.2503524767719 1015.03723750502 2808.60742010446 19 22 11
-106.94069063431 1013.40461281117 2807.23977994094 16 19 8
-108.48220763868 1014.73627030483 2798.71823774536 17 20 9
-128.535916566162 1008.36596540645 2808.85140324943 20 21 15
-132.908936873619 1008.5138198409 2803.21168868012 20 21 15
-142.237148769158 1006.59037504812 2802.61520379909 20 21 13
-152.952808992996 1004.07691894142 2803.48060170408 20 22 11
15.9181883596586 1026.85401548025 2838.32008288734 30 27 20
23.4331114587745 1031.7303289258 2821.56037879654 35 32 25
-59.9108881571124 1000.49256441298 2889.43724761469 31 31 23
-48.5771322989206 1006.85662553963 2869.27766052414 20 21 13
-72.8505140011924 999.022727227005 2882.51995941533 17 20 11
-97.0142015909623 991.197286795748 2895.84152627347 19 25 15
-104.692255719382 991.803853585175 2884.10313573534 17 20 9
-83.3318707787547 1002.28205280228 2853.94121424915 18 21 10
-123.346381458521 987.985359606595 2882.91227018653 18 21 10
-82.5112766728864 1006.40754394852 2833.5595872963 16 19 8
-110.044112897626 997.129481259668 2850.6074951667 18 21 10
-98.4507035199849 1003.75299514537 2829.40211952684 19 22 11
-79.0443701995522 1013.6035161511 2800.29085274117 21 24 13
-82.0414926644859 1014.33000137201 2793.18111902461 20 23 12
-90.7811187410545 1012.70456625887 2791.77807989039 16 19 8
-104.496613245207 1009.02520478258 2795.40307488219 17 20 9
-122.430956349698 1003.58881493351 2803.37164552305 19 20 14
-133.201742907274 1001.09083705489 2804.19686509552 19 20 14
-142.528821961085 999.181056239351 2803.60156512339 20 21 13
-166.629360115917 991.121238299683 2818.20305429252 19 21 10
-173.057703835925 990.389345404367 2814.77434018964 18 20 9
-102.46811985923 1021.84357376325 2731.47684761394 17 19 8
-117.505774542975 1017.58413970041 2736.61081002867 16 16 6
39.5371503617086 1030.5487281391 2807.29072468123 44 35 28
-41.6366403585124 1000.46917420723 2873.04158091973 18 14 5
-69.6809545800572 991.233307079369 2889.71862672658 24 24 14
-63.5601423385808 995.482186821094 2874.41519710627 20 23 12
-112.834695724771 977.768993727 2911.47776267962 11 17 5
-90.510348184458 988.456831266324 2880.78066348415 16 19 8
-118.215411152292 979.247252397145 2897.70377292001 17 20 9
-97.5384056083237 989.336549821462 2868.27952189009 16 19 8
-81.393239459707 997.66126678497 2842.97191454956 16 19 8
-101.714132244156 991.379892458004 2852.91154874759 16 19 8
-98.764146090665 994.441317992969 2840.24394593148 15 18 7
-108.146204220023 992.541839981517 2839.60884263991 17 20 9
-109.585744518064 993.849437321644 2831.16110366562 21 24 13
-101.719631735972 998.941000319995 2813.42174364597 20 23 12
-91.0748191807897 1005.19052118546 2792.76214668329 15 18 7
-106.216970892218 1000.95960311959 2797.82050141172 16 19 8
-122.013603900661 996.442135475923 2803.63799387972 19 20 14
-119.312954894908 999.484078847017 2790.78954256309 19 20 14
-138.579052026928 993.519354016283 2800.26038790295 19 20 12
-157.057378903248 987.851140242074 2809.06876997076 18 20 9
-158.597265346676 989.150369450073 2800.54824554795 18 20 9
-99.2392156503106 1015.66812565592 2728.84582832727 17 19 8
-117.778224563127 1009.99480637019 2737.60990035437 16 16 6
-154.620115314087 998.6656940005 2755.30960121488 28 28 20
-87.3740703338646 975.327787154722 2916.33606183733 30 23 15
-74.986277660055 983.750281409195 2885.83478180442 14 16 5
-88.0817917407719 980.412267593022 2888.6759062002 15 21 9
-42.2838049730756 1000.26815063035 2835.51767008623 15 18 7
-51.8007243763297 998.372135252783 2834.78452604103 16 19 8
-62.7507515558408 997.768117849618 2825.60852155703 16 19 8
-91.8269876392128 989.937452765329 2834.13381408008 15 18 7
-95.4500517058119 990.361249961535 2827.80411986991 15 18 7
-107.009543565766 987.608098099488 2829.29162873657 17 20 9
-101.301209840682 991.782458736441 2813.68880718304 18 21 10
-96.3794402415561 995.662975010884 2798.74933675807 16 19 8
-100.801644082368 995.791740203753 2793.07416578205 15 18 7
-112.347285403059 993.039461056215 2794.57142514365 18 19 13
-118.184389154478 992.592519370909 2790.33772021653 17 18 12
-120.486868060883 993.583904948158 2782.49814806032 17 18 10
-112.239021600565 998.886391467009 2763.80154667063 17 19 8
-111.106100527861 1001.30835434679 2752.28384333038 17 19 8
-124.026523094318 997.983031300565 2755.25195958273 18 20 9
-113.861398405761 1004.13251443244 2734.24411993765 19 19 9
-118.414866590062 1004.25003795306 2728.4734412194 17 17 9
539.053374748173 1201.20090509128 2382.25458489144 241 233 222
-55.4949331130963 982.320440073082 2877.72509929346 22 20 8
-39.702693682391 992.071590365402 2843.52273317385 20 24 10
-38.9192604197073 994.209736175594 2832.98557217849 14 17 6
-40.3763825574086 995.483826761872 2824.5249180351 17 20 9
-46.2486339131967 995.034933885862 2820.26572397633 16 19 8
-58.6838633409579 992.006034637289 2822.35173742821 16 19 8
-90.7088455232752 981.244524968664 2843.54619312763 17 20 9
-86.3364325382445 984.811829188231 2829.44222699467 14 17 6
-76.2451197861218 990.66367270414 2809.6144085275 15 18 7
-82.8203278326145 989.929929479831 2806.07951444485 15 18 7
-99.4460937956347 985.195046404704 2812.52988611667 16 19 8
-105.98258623689 984.464320088557 2809.02307308372 17 20 9
-104.663260294323 986.874200405727 2797.64043741114 15 18 7
-112.639016138668 985.571399057055 2795.55715273044 17 18 12
-124.309494698826 984.678295722907 2787.09245001738 16 17 9
-69.5153992924742 1008.72587360978 2720.71485835052 16 18 7
-79.0550844711531 1006.84104846059 2719.96556206661 17 19 8
-99.45072472585 1008.50767044325 2687.89707823349 28 27 22
527.341715231916 1185.20197150889 2405.79682339155 205 183 172
519.995116940384 1184.63949498259 2400.46826845135 224 200 188
513.399384485983 1184.36271340355 2394.45044265279 220 197 183
-18.0454213655876 987.641692908448 2853.02463613842 29 17 3
5.06519213156675 998.308430647 2821.66207993394 29 21 8
7.27446736542925 1000.98755209207 2809.69091462527 17 17 5
-31.162361910299 988.00836882281 2836.10693456474 16 18 7
-38.4969158526687 986.991410094114 2833.25517652375 17 18 10
-48.0241775727612 985.122278003789 2832.51467128151 16 17 9
-53.8722216319596 984.675525420216 2828.27303644964 17 18 10
-85.9772246600166 974.006050721921 2849.40994950553 18 19 11
-99.7456060176898 970.443505534074 2852.99719738608 17 18 10
-73.5939261840999 982.484091827437 2817.67065625921 16 17 9
-66.4275263748619 987.139905043994 2800.65688884358 14 15 7
-66.5464339951196 988.956724907176 2790.69901073519 16 17 9
-91.8433761953381 980.861351075184 2805.66805761089 16 17 9
-108.428226503936 976.170538264709 2812.14860761539 16 17 9
-114.238185116223 975.726393076555 2807.93459494375 16 17 9
-118.625017430712 975.847319256235 2802.28473135885 20 17 10
-97.7176000356035 987.942536749106 2760.68642145461 18 15 8
-109.981572971089 984.950642401171 2762.89706430667 15 17 6
-106.741269010346 988.164385301969 2749.20565395302 16 18 7
-96.9413231055776 1001.91494329645 2685.97739919397 38 33 29
534.459059634306 1176.42047307982 2412.14689484892 170 155 150
524.091631761843 1174.72506245999 2409.56347301411 225 201 189
513.741511968835 1173.03140209213 2406.99231256382 226 199 188
500.402664555111 1170.20751737679 2407.18927586335 231 205 190
55.4618927873021 1006.3134445719 2795.24469101032 208 189 172
-22.837822091428 978.455666453516 2858.14983890082 38 25 9
-19.0156516076461 981.679446122606 2844.88028684557 28 19 4
-1.18152316848552 990.25877375302 2818.3279662315 24 22 10
-21.8799118634996 984.167033750145 2827.99490612303 18 19 11
-38.8104000227862 979.490937246964 2834.22497041429 16 17 9
-55.6752122847946 974.819971634077 2840.50237607703 15 16 8
-65.8893429565901 972.68676896548 2840.49793840987 16 17 9
-60.758012751851 976.461797523295 2825.7101431011 18 19 11
-62.9658823273598 977.421047772164 2817.93869801912 18 19 11
-84.0493438233922 971.07451111589 2828.56053093027 17 18 10
-75.4012363561196 976.245894059582 2810.15312874404 14 15 7
-70.4454395083467 980.007479127476 2795.23801746481 16 17 9
-77.7706102303082 978.996945848345 2792.39279958969 16 17 9
-109.442233474943 968.458468569081 2813.84454242712 16 17 9
-119.532625472932 966.334334211992 2813.9298514981 16 17 9
-124.613695871381 966.171474810642 2809.01061358668 20 15 9
-116.214962591545 971.323263460581 2790.42262995813 20 15 9
-119.225087323631 971.994816789928 2783.30348685678 17 17 7
-132.12765029057 968.753327291595 2786.28497454742 16 18 7
-117.565135071019 976.405156796337 2761.06169809453 16 18 7
-102.25552574905 990.199036475668 2703.06277199072 26 21 15
-99.275601673074 993.356556338627 2689.18232192105 34 26 23
-100.492920745277 994.840049700056 2679.66153017463 58 46 46
538.529443083442 1166.51939727278 2421.22322387661 209 199 197
530.438980174322 1165.67752838234 2416.58904705206 214 203 199
511.012044416959 1160.62779605657 2422.24252729273 216 199 191
498.43948959021 1158.10704660119 2421.76149125271 214 197 189
488.152163460709 1156.42958557 2419.23593332201 225 207 195
73.8318415593326 1005.5774162887 2778.91479034099 212 195 179
19.3056402889633 986.929840238214 2819.57640018274 34 22 8
18.5498281609529 988.431841763394 2810.39025841671 34 24 12
-28.1574448064059 972.609851171349 2844.38274419682 28 24 13
-30.3164499556903 973.559269520761 2836.64696665675 20 17 8
-55.3216568685855 965.856438279557 2850.59445034458 16 17 9
-73.6065081620689 960.672389545796 2858.31020827653 16 17 9
-69.8612439000255 963.855407028061 2844.98469879137 16 17 9
-50.120851170544 973.162128058911 2816.11254986941 17 18 10
-44.3569368568095 977.167744637715 2800.54945962584 17 18 10
-79.2785801169988 965.588222239626 2824.58036149019 15 16 8
-95.9481078301612 960.973045465436 2830.99961567143 15 16 8
-87.3217726833579 966.088487326355 2812.57644138985 15 16 8
-86.6892196467566 968.142289012255 2801.92918240201 16 17 9
-88.9627171931902 969.082910151164 2794.11036232025 16 17 9
-119.115262745606 959.204025392422 2814.19629022622 16 17 9
-122.772085548702 959.593005325725 2807.84194723122 16 15 10
-120.053827576289 962.474181119628 2795.00574118787 17 16 11
-114.558045838907 966.458603305407 2779.24787408668 18 19 11
-104.900267154793 972.097707364329 2759.10469995425 18 20 9
-107.998900898085 972.751515821399 2751.92130490053 17 19 8
-97.0941177139806 978.931157840529 2730.21477561546 17 17 7
-99.2897381318623 981.880396397226 2711.3460767985 22 19 10
-93.4899605784774 986.109652057334 2694.57478625254 28 21 13
-94.6882399963231 987.575988028947 2685.06770985233 36 27 22
-95.9178796224605 989.039663986319 2675.53788629438 51 37 36
531.897082812103 1152.74579961653 2439.81298120372 198 193 190
523.846576579304 1151.90985613416 2435.20779983991 211 201 200
508.974557552929 1148.57226666275 2436.76110003748 204 194 192
486.584173446923 1142.45965788246 2445.20137064214 241 230 224
477.85305630818 1141.35232435354 2441.33675636979 255 250 244
468.378414062118 1139.96819494864 2438.16677948305 230 216 207
-37.4875865441879 960.030494045701 2863.49323896455 28 22 10
-26.994197785841 965.674620577487 2843.95584184754 29 25 14
-32.1089150563261 965.504554618122 2839.01217609788 23 20 11
-54.1660695906885 958.978180198961 2850.16228386139 17 18 10
-62.9109874522911 957.430570431742 2848.75550832297 17 18 10
-55.5341770380866 961.956339980862 2831.89361334844 16 17 9
-59.18444865578 962.338382656344 2825.54398430897 17 18 10
-74.490371030949 958.30861789302 2830.48463706935 15 16 8
-87.5633558895748 955.109720482403 2833.34279803104 14 15 7
-90.4676743519173 955.768815476637 2826.30029304873 15 16 8
-111.415972785058 949.547040503781 2837.02074049122 15 16 8
-89.1423569889127 959.83249629577 2805.04949552263 15 16 8
-92.839543120939 960.210678628571 2798.66583759712 16 17 9
-92.978196816041 961.961006697799 2788.69301386661 16 17 9
-105.972847533207 958.76755906902 2791.60798852339 15 16 10
-111.823663261214 958.320641693178 2787.36434361495 16 17 11
-90.7774583865086 968.291485927934 2755.73705981183 17 18 12
-88.9508343866083 970.851774588896 2743.48760606898 18 20 9
-89.5829972337281 980.04253599289 2691.20081859788 36 27 20
-92.1761353165658 980.943272272486 2683.14978776812 56 45 39
500.37985482627 1132.1737943563 2468.73634091414 194 190 189
498.507387621426 1133.55163885519 2458.7400831725 235 229 229
484.467180641227 1130.52261193826 2459.66290797507 252 246 246
469.709690357126 1127.22148400815 2461.29941718697 253 253 253
459.520628003029 1125.57378993118 2458.84524353961 253 252 250
450.85246708853 1124.47711273333 2455.02632155418 253 248 244
439.943598056885 1122.55747168466 2453.284003849 255 248 242
29.8168851552574 977.54734383245 2801.21087116104 37 30 20
8.99506425725072 971.610149269995 2810.7894096946 24 17 7
-5.82877824515204 967.870163506833 2814.84566912438 25 21 12
-35.3320198940408 958.661552351144 2832.93561309639 16 16 6
-59.5055395990078 953.121377285704 2836.38074577637 15 17 6
-68.9820618272632 951.311449816065 2835.67761703469 17 19 8
-79.1646539555262 949.23031938564 2835.69601160994 16 18 7
-81.3401899639097 950.151693065717 2827.94810844554 15 17 6
-44.4752104762769 965.79332440877 2781.87908505104 16 18 7
-92.970474421163 949.264594117661 2819.51257370885 15 17 6
-103.100285611167 947.187152452089 2819.56954347399 15 17 6
-83.0990609795084 956.540923311862 2789.6516788518 15 17 6
-81.1213153689674 959.08352285723 2777.51168679074 16 18 7
-78.4803078333922 961.893976927635 2764.61912203765 16 19 10
-79.4435478954778 963.342013823803 2755.282337994 14 19 13
-88.9339249992478 961.530236670574 2754.56886171135 14 19 12
-90.6391852626138 962.703989357554 2745.9278187139 17 18 10
-76.8924553268877 969.840059097657 2721.34588078038 18 18 8
-128.4989066582 951.768180993067 2764.12699568709 22 18 7
-69.8502688025027 978.200998947125 2682.02870398986 23 14 5
-78.7262548239971 976.652210720042 2680.52690837607 57 44 36
-84.1223148998764 976.45594745835 2675.37915852812 71 58 52
474.190982342209 1113.73935464089 2492.88761555001 241 237 236
460.98319978389 1111.01308499381 2493.18037947687 255 254 253
453.879822788085 1110.47049133639 2488.02824155519 255 254 255
448.289066617593 1110.47291617805 2481.50502764144 247 251 252
445.70632380409 1111.56393294855 2472.22745974326 253 254 255
437.079691053584 1110.47623591375 2468.43868789646 237 236 232
432.960940523003 1111.02099676807 2460.51523606566 237 234 229
428.824268750811 1111.5644149312 2452.57849146634 232 228 219
85.9999347376337 990.50466475953 2749.37056850952 74 67 57
50.9289636203913 979.455390214162 2772.06086860418 31 24 14
15.2900406773049 968.148143460444 2795.5731782487 17 13 4
-12.8063259013149 959.563449163819 2812.21578850983 14 14 4
-45.1785217960623 949.364378925431 2833.1613904458 13 15 4
-105.954219476491 928.624150830324 2881.63325699693 15 17 6
-48.1178408763188 951.71779521134 2816.22091837532 17 19 8
-51.0837484617708 952.350751489163 2809.13363372554 18 20 9
-66.40534989161 948.390871431447 2814.06327438439 17 19 8
-60.6874710154068 952.262984701433 2798.46584137212 16 18 7
-66.5821038435626 951.81347355286 2794.1904193747 15 17 6
-84.7027142295067 946.780977352634 2802.02600668906 14 16 5
-88.4101165259585 947.142380463525 2795.63485785787 15 17 6
-77.8362450147734 952.887711663114 2774.92128039838 16 18 7
-68.0767725429046 958.355892709578 2754.85125498121 16 19 10
-72.6214989539717 958.438337866017 2749.08673568211 13 20 12
-94.1713012784049 952.069923536531 2760.60543398902 14 19 12
-81.7391308413664 958.600418024388 2737.53754972117 16 18 7
-54.0747921728242 976.595594788829 2666.28368479396 38 28 19
-67.1697334110657 973.447672455414 2669.12618730632 62 49 41
-74.6793341455765 972.443357957399 2666.14759815554 66 51 46
485.652350847178 1106.84846627683 2494.98582484589 219 219 219
446.465022009852 1094.95404291156 2518.39291842405 255 254 255
431.815323833737 1091.71577524089 2520.10788683503 255 253 254
426.315357812396 1091.71977030547 2513.65079106847 246 251 255
428.372958015554 1094.42063871798 2500.3344523396 243 251 254
431.886229009071 1097.65666494426 2485.60599785364 242 247 251
427.814748789149 1098.19408312748 2477.71677608776 241 245 246
427.475759072856 1100.07663584571 2466.36435761481 225 227 226
427.096699074495 1101.95618139947 2454.98287610738 210 211 206
-80.7556309353719 929.020087687132 2867.78894891778 18 18 8
-59.395679971985 938.494366062177 2837.62133329822 16 16 6
-41.1202391090697 946.88515735851 2810.1529378753 16 16 6
-45.561604156698 946.970967816007 2804.46365895734 17 17 7
-47.1085706521506 948.125461634772 2795.93726894044 20 20 10
-48.6824089533713 949.277898025217 2787.39138855679 17 17 7
-63.2703744767151 945.621375375273 2791.6193574767 18 18 8
-86.4376978973893 938.766287425693 2804.43308838191 18 18 8
-94.4408084731869 937.519889079786 2802.33055384195 18 18 8
-85.9883586678689 942.404852190192 2783.78015894512 20 20 10
-86.8896576763048 943.819969679844 2774.48811054987 15 20 13
-89.9538761540497 944.434028560816 2767.32946251716 12 19 11
-82.4114741248469 949.037189223726 2749.3529638103 13 18 11
-98.2549185998545 944.859934217089 2755.13824489125 19 19 9
-112.629576895072 941.218541054147 2759.52092140687 20 17 8
-98.1818749007552 948.46783561561 2734.21237547793 30 21 12
-60.0791422005447 964.729581974821 2684.10332581318 32 22 13
-53.6330006735612 969.036034114161 2666.56565821493 28 15 7
-57.6933355886524 969.36060110043 2659.91847441429 63 48 41
-62.4604967415361 969.419062538976 2653.99288041862 55 42 36
462.585802962067 1087.87769114628 2527.57330019565 204 205 207
448.652726822357 1084.93040970816 2528.57420048774 241 242 244
424.834697001727 1078.50877353331 2538.44804822012 255 255 255
404.918862150038 1073.43145271523 2544.98201196175 250 250 252
404.811461712558 1075.30654957131 2533.79773421099 244 249 253
414.503000163157 1080.65020716619 2513.67753675916 242 250 253
417.30573850071 1083.58486709328 2499.66751213686 237 242 246
421.555818868807 1087.04868255378 2484.23900918199 240 245 248
424.989196126371 1090.24113558722 2469.45241731501 226 230 231
427.612519755435 1093.16257528597 2455.31226417856 216 218 215
22.0711816335957 955.495078420626 2790.54370531106 6 6 0
-80.4944725155108 920.255593156211 2877.8147563247 18 18 8
-77.4007310115179 923.003777610754 2865.24977820223 18 18 8
-58.2418602545043 931.58173158337 2837.18771134953 16 16 6
-41.4243806638188 939.353249809384 2811.12963968117 16 16 6
-48.0478762924617 938.639422176286 2807.55954729908 17 17 7
-57.571758163264 936.867109896799 2806.82198259315 18 18 8
-31.6050532655525 948.057074414352 2771.35704062071 16 16 6
-60.6788674409233 939.142599574883 2789.75977559114 17 17 7
-86.0150789683511 931.559573870743 2804.70295043778 17 17 7
-86.8461015793076 932.961505486735 2795.46178011377 16 16 6
-150.644717879681 914.491119554188 2829.40251592001 20 22 11
-63.5618682141841 948.550347573301 2730.90167128116 19 19 9
-80.1710501947965 944.143606654804 2737.36572714047 21 14 4
-116.428820933284 932.377855805273 2764.13250276222 30 22 11
-72.4851730453562 950.58835871432 2708.38664601682 32 19 10
-55.4418844263689 958.79371905037 2680.02409789248 30 15 8
-51.0986987386461 962.26304579039 2664.66311688649 101 86 79
-53.7749205388196 963.103710493715 2656.55184709958 115 102 96
434.680179620675 1069.37379557003 2552.94978694854 220 221 223
420.827119292437 1066.45743152542 2554.00884901267 254 255 255
400.141242240222 1061.16108969773 2561.21851997423 253 253 255
381.05663595896 1056.40023009351 2567.12162535509 250 250 252
377.984414806165 1057.19883721582 2558.72307415648 244 249 253
394.571478102855 1064.86779847744 2532.49715485101 243 248 254
408.002638772764 1071.47001248785 2508.9187865668 232 237 241
414.541561236101 1075.68761414385 2491.44792780414 241 246 249
421.751076885459 1080.16297009587 2473.22975977735 230 235 238
425.883951544184 1083.5775609497 2457.71604257012 215 219 218
-16.682304077986 934.146117605636 2827.80399276291 5 6 0
-51.3290038970109 923.44815470663 2850.8036356388 19 19 9
-49.7891390775946 925.632206110173 2839.57972943661 19 19 9
-39.4998756673339 930.962451244078 2819.89276762737 18 18 8
-68.0307828393447 922.383378977235 2837.4557297217 18 18 8
-54.1774926586844 929.018236846542 2814.1835374761 18 18 8
-58.5989135201233 929.094898760433 2808.50837570814 19 19 9
-75.3381714233068 924.720168196355 2814.87859337099 16 16 6
-84.0719407880017 923.228306404063 2813.48018199038 17 17 7
-79.1156428473543 926.705421659743 2798.56369859137 16 16 6
-75.6608819826812 929.654786129001 2785.02641349523 15 15 5
-108.141089504556 921.187038173813 2797.25663962786 20 20 10
-56.6053324961338 948.871443616499 2692.71671762855 32 18 9
-54.3017665954255 951.524976816069 2679.57873939784 76 61 54
-53.4468487771309 953.654495774817 2667.85802427946 125 110 103
395.241292776739 1047.13354410895 2588.47366130033 253 254 255
392.22421236949 1047.92232911639 2580.11473857696 250 251 255
377.728744065259 1044.7781060931 2581.94198786818 248 249 253
364.038313970579 1041.89941187534 2583.11913486442 254 255 255
362.536244305142 1043.2120310643 2573.39105582472 247 248 253
373.117255937993 1048.70803231442 2552.68139148646 239 242 247
388.881326741982 1056.02637929045 2527.09242253524 225 228 233
403.760436392593 1063.0736189684 2502.09558977523 228 232 235
411.756698664758 1067.76145263254 2483.21349630059 237 241 244
418.916175019262 1072.18154403562 2464.9584793182 197 203 203
-11.0904851894076 930.330121583264 2813.31156549233 18 20 9
-11.1379475008211 931.958372324044 2803.40422999624 18 18 6
-15.6191787895443 932.025300291831 2797.68595554578 18 18 6
-9.14801286557498 935.985253906776 2781.40000468984 17 17 5
-18.0522309390914 934.491592375026 2779.87802228661 17 17 5
-85.0497423234313 912.25891105128 2834.9479223507 16 16 4
-79.260363027122 915.962902406663 2819.40146994821 17 17 5
-100.97745020037 909.822360896003 2830.80005411893 18 18 6
-75.0925563132425 920.766722548545 2795.27456157206 18 18 6
-48.6840265220683 931.95488131188 2758.89456764118 17 17 5
-73.2664937469769 924.779959844869 2773.15117831763 18 18 6
-67.0681774582498 928.718407034605 2756.66732400392 21 19 7
-74.4538195179185 927.747424301228 2753.77846949689 20 14 0
-72.6172420651892 930.129776166192 2741.53562441648 22 14 1
-75.7757250018045 930.703877170709 2734.30843967132 28 14 3
-84.5874254051502 929.215858543759 2732.85355388405 31 14 4
-52.6555820234229 942.658613480059 2689.37302920558 58 39 32
-43.3613465389167 947.851254655417 2668.96405342683 131 114 107
385.6323020014 1033.48507397054 2608.61163381082 236 237 239
374.224864648005 1031.40795472967 2607.74213226034 254 255 255
369.737927730549 1031.66892670196 2600.78537344277 248 252 255
363.709626176757 1031.4104519676 2595.17898314141 251 255 255
360.723174875281 1032.18858499323 2586.84250463311 252 255 255
356.955097212949 1032.706241898 2579.17283128436 247 248 252
359.98442701087 1035.55261555029 2565.32662045999 242 243 247
368.996957793757 1040.46442160354 2545.94733955213 226 227 231
387.704506321653 1048.73057368571 2517.5565202458 217 221 224
399.505898479402 1054.65985632784 2495.26336271449 236 240 243
3.40441315473949 926.304363790107 2810.2122545523 3 10 2
-1.81078943620561 926.108831692735 2805.19561585836 20 20 10
-4.8247900471996 926.684660159803 2798.07317818438 22 20 8
-7.25253759671984 929.116372099056 2780.26891518773 21 19 7
-24.1780304230255 924.809478844742 2786.50447078972 20 18 6
-54.8422408095477 915.633252746416 2806.22304104262 19 17 5
-82.4602754139181 907.493686105158 2823.21465901931 20 18 6
-64.4520524989027 915.505322777497 2795.55063111033 21 19 7
-54.5088500796891 920.689300101478 2775.61206142808 21 19 7
-53.2759534796838 922.795192172689 2764.16523152019 20 18 6
-53.5188218662617 924.386055683242 2754.11634709337 22 20 8
-68.7776225800558 920.607806157795 2759.09243332597 23 21 8
-66.2011686086865 923.21801649841 2746.15176356555 25 18 2
-67.9318121923007 924.292748641309 2737.49181809897 33 21 7
-66.1558363818815 926.640319189802 2725.20486542053 59 43 30
-64.4289241638081 928.983974783956 2712.88232566691 71 53 41
-56.4299025288118 933.615992288608 2694.00194979342 100 82 72
-47.8192426911996 938.495590418015 2674.33088644447 124 107 100
383.812277924139 1024.31915142746 2610.95094219887 251 251 251
367.799799275554 1020.71684001908 2614.14652574431 253 253 253
351.073493463509 1016.86206457956 2618.05839859423 251 251 253
348.920684647923 1017.88867632161 2609.09217280223 252 253 255
352.835737702591 1020.96541398507 2594.65417187888 253 253 255
355.169686734882 1023.52497168104 2581.53744854718 247 247 249
355.935493997196 1025.56829036728 2569.75169866369 243 243 245
355.146168684773 1027.09624470224 2559.30635730198 238 239 241
368.629489438807 1033.48276727744 2535.76470845626 199 203 206
376.737658036109 1038.07045490776 2516.96323100551 216 220 223
18.6332949777319 924.06079500787 2796.53813242191 173 169 158
10.4236498453036 922.84062086266 2794.28600940493 66 60 38
1.49104760733731 921.367014442299 2792.74384677526 49 42 16
-13.2906364598027 917.859919976714 2796.83184739481 33 25 2
-14.1294431438737 919.186003532645 2787.58465004471 32 24 1
-17.9152018836801 919.493562564691 2781.13642622464 29 22 0
-34.7953749425942 915.231026255102 2787.40505976985 23 16 0
-46.5385393948992 912.749097637281 2788.76049977672 31 20 0
-51.7465925311649 912.551097790897 2783.74903137543 26 15 0
-51.9187001571793 914.126056092725 2773.75106789401 28 18 0
-54.2805556546315 914.938597770255 2765.86754650018 29 19 0
-58.8119195361332 914.990281987114 2760.11255817371 40 29 7
-60.4987708722418 916.052371216529 2751.48429460307 56 40 17
-61.5013313598365 917.36494991288 2742.11832022134 104 74 50
-62.5353068033419 918.674983647452 2732.72955957691 109 81 59
-62.1868566126493 920.486987983192 2721.87512362177 127 102 82
-60.4693914151917 922.800006355724 2709.54558033773 127 104 86
-55.2883220068257 926.369164682762 2693.55746815962 136 114 100
-28.4691456335415 937.739035220008 2655.00600784731 180 166 155
402.688878192398 1020.26996565536 2606.08775530964 205 206 208
371.971031814415 1011.8608878751 2622.06592508054 252 252 252
351.380489418212 1006.76829903378 2629.34603269485 254 254 254
335.467014024543 1003.20673724551 2632.61329774044 252 252 252
333.361196070164 1004.22067683676 2623.68136691664 253 253 253
337.324952257108 1007.26329282843 2609.27820462324 252 252 252
345.785484689985 1011.82312769756 2590.73202215698 248 246 247
345.066177420763 1013.33470880707 2580.33735543543 244 242 243
345.822107809747 1015.35034263959 2568.54430536644 242 243 245
356.325518180503 1020.65341764338 2547.77740900771 209 213 216
370.482533630615 1027.21374601914 2523.48968507896 218 222 225
37.6819248406663 921.410497757238 2789.33637136789 254 250 239
28.6884608467499 919.943301822406 2787.74982674583 167 159 148
13.8090881586872 916.461521408695 2791.76743349697 94 82 60
-0.282365095210846 913.235568240105 2795.12218457019 78 64 38
-11.3923948879293 911.019710684798 2795.70320295377 62 48 22
-14.4281737409551 911.572196995722 2788.56456505772 55 41 15
-17.482246691287 912.123271382935 2781.41295270548 50 36 10
-27.0963579866466 910.412663978716 2780.61058578847 47 31 6
-37.4134492089673 908.452731197086 2780.53209299007 55 39 14
-46.2602055747359 906.996056466892 2779.05224762754 63 47 22
-51.4883905363128 906.79384637571 2774.02586943371 75 59 34
-58.1578802259437 906.090163634234 2770.42278083814 89 71 47
-60.5283004468449 906.888319781592 2762.53268335094 99 81 57
-60.7804683355864 908.434996175114 2752.47683370007 112 90 66
-58.9339192115974 910.728649263122 2740.24047354316 138 102 76
-60.68293549776 911.769402735128 2731.56733168076 136 102 77
-63.1657929932417 912.558330721679 2723.59567927123 133 106 85
-64.2617553675449 913.844165058882 2714.16186040308 128 106 85
-55.5519624183218 918.617275540545 2694.56241585843 143 121 107
377.669008838612 1003.52822688134 2628.62467139097 223 224 226
366.292506348561 1001.50291271531 2627.77815206305 253 253 253
347.254306518989 996.963757989037 2633.71602145002 255 255 255
327.519411112302 992.178904024543 2640.38263345904 253 253 253
324.674752162226 992.927409708721 2632.14849870691 255 255 255
320.283212021717 993.172212357764 2625.26081314801 253 253 253
327.27750751419 997.17997270922 2608.11929560176 255 254 255
331.16119178995 1000.17883220079 2593.65816031285 253 253 253
336.494030370724 1003.67419468568 2577.77969505625 250 251 253
347.029691262827 1008.91727082305 2557.03587388262 232 236 239
358.966292981839 1014.65330258721 2534.839753794 201 206 210
45.5432794055222 916.464291233759 2782.65893182734 173 169 160
32.0859624435577 913.509797112248 2785.23972019611 158 151 141
12.7678226639194 908.564497496349 2793.44296567055 177 155 142
0.150686948942269 905.867017475062 2795.39879007648 166 140 127
-10.2267488462739 903.919173711938 2795.27690791965 151 123 111
-11.8014472993349 904.958146659256 2786.72982927887 135 107 95
-17.0492452842443 904.752147531668 2781.68950847066 133 107 94
-25.9370132795032 903.303670600065 2780.17967994913 142 114 102
-36.9823489558914 901.111504470188 2780.807422003 141 113 101
-45.1070461639376 899.91398442143 2778.61699429674 136 106 95
-53.2191849571508 898.717183025254 2776.43567409353 137 109 97
-58.4458862638402 898.512295525727 2771.4106523482 134 106 94
-63.6776296466057 898.306760586546 2766.38197221492 133 103 92
-63.2037288796161 900.079997633387 2755.61828169582 134 107 88
-62.770060301943 901.850094911842 2744.82541010055 144 112 89
-63.7955503956156 903.122699500289 2735.44261108129 133 102 81
-63.4379932929296 904.88651141282 2724.59453281688 150 125 105
-61.7107514757929 907.140577985385 2712.2717782106 139 118 99
371.97152647524 993.195411128455 2634.32298907425 239 240 242
352.900674889193 988.697343718486 2640.23739662148 254 254 254
333.130815931305 983.95601851701 2646.87888328784 255 255 255
314.20171797887 979.469195756983 2652.89610802562 254 254 254
303.752067672538 977.721787927134 2651.48785464687 255 255 255
297.135657637055 977.218225817603 2646.6889271696 254 254 254
297.359923163079 978.948596719956 2635.74405361138 254 254 254
301.333743334791 981.916283207339 2621.34810185962 253 253 253
314.314450334058 987.853987741343 2598.6748608541 251 252 254
323.412726266971 992.544388887961 2579.35632249886 240 244 247
34.9077590594318 903.772690366641 2803.29263450547 246 245 241
26.675838931197 902.575684613103 2801.02448122113 169 165 156
15.4950581817053 900.392799075129 2801.55408325898 164 157 149
2.8680966277661 897.719088117727 2803.50319957658 177 157 148
-7.51193534967487 895.787523327883 2803.37951784805 170 145 138
-14.9310200803983 894.842687627925 2800.46655247495 159 132 125
-20.1473201785061 894.636432221128 2795.44906385898 136 109 102
-24.6391649303273 894.675784536271 2789.72266132948 126 101 94
-31.3221043805139 893.976986595714 2786.10984745794 125 98 91
-40.1760840562524 892.541881293915 2784.62458054025 131 104 97
-49.0131273753107 891.107909050625 2783.15159688812 129 100 94
-54.9508650238602 890.65604106337 2778.84491534865 131 104 97
-60.8893083500719 890.203817189279 2774.53772044575 132 105 98
-63.9635988420664 890.730969287078 2767.37133079498 131 102 96
-66.3421188183095 891.501226084195 2759.47522030656 129 102 93
-66.6080297672587 893.003176151481 2749.4091814704 129 106 90
-66.2001552353049 894.74656937271 2738.5974759596 150 127 113
-64.4179077486926 896.975040878901 2726.31446649294 140 121 107
-62.6846516361368 899.199603281242 2713.99592233333 136 120 107
371.685621147243 984.630875219898 2635.30768024385 252 253 255
341.816966059588 976.727847108177 2650.66897351587 253 253 253
322.846453864891 972.281401805384 2656.6563807054 255 255 255
290.142063700749 963.412412226699 2674.89753731145 253 253 253
272.115220116949 959.225818838295 2680.33530958787 254 254 254
260.25375007076 957.009715856201 2680.37129717502 253 253 253
257.545988219888 957.741949064776 2672.23631962834 255 255 255
61.5868845498158 901.925605780979 2799.1560832697 239 243 244
31.6344193143756 893.642179210425 2816.92506171923 240 240 240
18.9550469662128 890.989135565125 2818.8362890176 189 189 187
10.7709744606406 889.804011673871 2816.60288168002 191 188 181
4.82109190071656 889.351816995318 2812.28739438036 218 213 207
-5.5593182636926 887.43665111729 2812.16352155975 219 204 199
-12.9694113030618 886.497980531792 2809.25710568312 220 201 195
-21.8391840183996 885.072947142543 2807.76044107021 213 194 188
-27.7651217465205 884.622393543331 2803.46232020252 207 188 182
-33.6915890754308 884.171797040548 2799.16381519859 200 181 175
-41.073537516382 883.23499863307 2796.27810590197 190 171 165
-50.6226823685736 881.570280029606 2795.52306698189 180 159 154
-58.7044629339468 880.392357179249 2793.36355525245 180 159 154
-63.170136400442 880.427746149602 2787.65639924811 181 160 155
-62.6153852851801 882.158483304048 2776.95110360157 176 155 150
-67.1153591381177 882.191033816755 2771.21906813775 170 149 144
-70.9104971027115 882.46455572193 2764.76387271271 165 145 138
-75.4314296319012 882.495159014484 2759.01633951711 113 95 83
-73.574292373451 884.699646288347 2746.78749775943 118 100 88
-68.2284557228354 888.107640915366 2730.91801254562 138 124 115
-62.2484279735021 891.751252740309 2714.27442281195 142 129 120
385.110059442743 978.77959268136 2635.12852769169 206 207 209
351.28563273285 969.732601575674 2653.79217539636 250 251 253
253.032775420111 943.392673442703 2708.41603034773 253 253 253
225.933245199356 936.337543072484 2722.08361173642 254 254 254
207.340835210542 931.964146373871 2728.34548328967 253 253 253
86.861254837109 900.977311987768 2786.59523330859 252 255 255
51.5328382326929 891.077622570269 2809.10472855075 248 252 253
28.3314838070288 885.05946777247 2820.66299225639 241 243 242
14.9166924938413 882.190088498138 2823.27503949898 237 237 237
5.25965543001217 880.531316042443 2822.44152285354 221 220 216
-2.15410698873209 879.597854985668 2819.53276782981 234 230 227
-8.08261293497914 879.147392051222 2815.23278566522 223 224 219
-15.4842471848298 878.214903153008 2812.3325330571 221 223 220
-24.3460911276752 876.801336071682 2810.84196873671 216 218 215
-35.3864275743607 874.667227716825 2811.47362891295 217 219 216
-41.2889085280344 874.218395146494 2807.19252107899 219 221 218
-47.9194335258781 873.529269689925 2803.61745807855 219 219 217
-55.2715782039281 872.600083431545 2800.75339272273 220 220 218
-63.3386132943292 871.431490646351 2798.60491203842 219 219 217
-67.7886050726375 871.462643218959 2792.9088080893 216 216 214
-70.0918400537176 872.211815504373 2785.06716650332 215 215 213
-73.1343914969655 872.719553095093 2777.92368682803 216 215 213
-76.9094338434733 872.986518066765 2771.48302593324 221 211 209
-80.6983147277463 873.25230221873 2765.03232720602 224 213 209
-82.37157786448 874.233474343951 2756.41379862703 219 210 205
-84.779341049642 874.973820216212 2748.49633760765 227 219 216
-81.565912307304 877.620926358656 2734.78257470774 165 157 154
353.7840312901 960.550159164069 2662.96761567712 220 221 223
175.906960994587 912.577386023206 2767.21644789052 254 254 254
155.931320700169 907.777947668993 2774.94379602609 251 251 251
136.034262605123 902.984626015665 2782.72784658028 252 254 253
120.766121844726 899.636781676699 2786.46430547169 253 255 254
107.818972535012 897.012339045195 2788.18126592874 253 254 255
87.3703637554679 891.99500434035 2796.79968205701 253 254 255
63.245490550047 885.787106759789 2808.92283731196 250 254 255
43.7234274955056 881.02261054761 2816.97887578034 251 252 254
27.2695836737133 877.220445937277 2822.32356525505 252 254 253
17.5836267400626 875.573082085474 2821.46943624265 252 254 253
7.1760283077773 873.688572752892 2821.32600934788 251 251 249
-0.983232371369436 872.521709214021 2819.11068112507 251 250 248
-9.8685223941366 871.117464217622 2817.60287298216 242 246 245
-18.0004746567322 869.952633733598 2815.40735151112 241 250 247
-26.1198094903905 868.788765658216 2813.22098155838 242 251 248
-36.4226081486243 866.912018991933 2813.15327109878 241 250 247
-45.2402643382688 865.512666010516 2811.69481142091 239 248 245
-54.7684350105668 863.876879370884 2810.95482920053 243 249 247
-62.8243466462948 862.717432356067 2808.81445847103 240 246 244
-70.8678749786245 861.558809295483 2806.68306883593 241 247 245
-76.7355651528923 861.112257471946 2802.42719313287 241 247 245
-79.7285452033571 861.613018036322 2795.31961347809 238 244 242
-87.0395806900441 860.691990971558 2792.48509590331 237 241 240
-92.9136926554186 860.244381216987 2788.2245595482 239 235 234
-97.3640380323459 860.269361889575 2782.52846248302 234 226 224
-101.11363827174 860.529725102458 2776.10621167544 231 226 223
-102.045810695051 861.73299917276 2766.79070945418 235 230 227
-105.126197815593 862.226130736954 2759.61943342954 228 224 221
-104.004308622086 864.131909505447 2748.09111827033 252 248 247
164.955525151931 899.866883784978 2787.62104094405 254 254 254
147.283999860389 895.83011611045 2793.31714993017 255 255 255
131.9669975405 892.511221924041 2797.01804019556 253 253 253
112.137257191619 887.77205532666 2804.85145960364 253 255 254
96.9377082187472 884.462198220714 2808.63754008145 253 255 254
81.7901708211526 881.156385759346 2812.46163982411 251 253 252
68.9572482576426 878.565224140262 2814.26186873911 251 253 252
54.659452075879 875.503638397163 2817.46786997376 251 253 252
41.159150513459 872.682296148983 2820.01817232881 252 253 255
28.4497027887998 870.10059967454 2821.9079587324 252 253 255
18.7609151541603 868.46667747969 2821.05155129206 251 252 254
8.35019754095434 866.59828526403 2820.90594487285 246 247 249
-1.29384519183295 864.967759288356 2820.08228564631 243 244 246
-10.9163614749588 863.338787605351 2819.27394479831 241 242 244
-19.0443880390632 862.182519793182 2817.08131252151 244 245 247
-28.6288002019199 860.556346608169 2816.30090281543 250 251 253
-41.8528465961847 857.75571128267 2819.0515733221 251 252 254
-49.9234539835221 856.603557369839 2816.90058626964 251 252 254
-57.981533630882 855.452239112214 2814.758685076 253 253 255
-65.3013728348371 854.53647322969 2811.91781214761 254 254 255
-74.7834918548072 852.917571285198 2811.21159375412 255 255 255
-83.5229618146696 851.534519119112 2809.80960103262 255 255 255
-90.8075450519381 850.6210222833 2806.99459187708 254 254 255
-99.517547614097 849.239879354536 2805.6139703717 254 252 255
-103.922893978367 849.263058403433 2799.95019044853 252 250 253
-107.625337512849 849.518997188824 2793.56210213211 250 248 249
-112.051991336304 849.540161735201 2787.88316025022 246 246 246
-115.780007712782 849.793730116117 2781.47652162832 244 242 245
-118.816098439467 850.279168959527 2774.33761251679 239 239 241
-119.055912671624 851.695100666127 2764.28976157059 238 238 240
-120.734529482294 852.642372189168 2755.66688580885 240 240 242
281.00165547898 921.690909536901 2727.34630804608 220 221 223
259.071029273514 916.486611099439 2736.12446773552 246 246 246
200.948413680168 900.221179926164 2776.66109937508 250 250 250
170.058908228698 892.214450645211 2793.75219890091 253 253 253
145.449634778539 886.099812666361 2805.52437998208 255 255 255
128.598432917632 882.343244070779 2810.581247087 255 255 255
116.386716549536 880.000329061318 2811.59802241907 254 254 254
101.166100392721 876.721504889251 2815.36898803358 253 255 254
84.4798826191151 872.977714764919 2820.54581482681 252 254 253
70.8809464467146 870.175983655946 2823.02471418241 252 254 253
58.0797003835851 867.61175330488 2824.84774800371 252 254 253
47.5737829348009 865.752496596724 2824.63317546517 253 255 254
36.3437504413842 863.66145019779 2825.12753904611 250 251 253
26.6392348111295 862.040005295763 2824.26008772307 250 251 253
17.7017405898923 860.653576644897 2822.7145258859 249 250 252
7.29445158734121 858.8018319903 2822.5714892629 244 245 247
-3.08712110207265 856.952051156233 2822.44710489125 242 243 245
-14.9207656197161 854.638200485465 2823.73780531575 241 241 243
-24.5097886653471 853.02539484502 2822.9541207916 244 244 246
-34.0772852613169 851.414143497245 2822.18575464598 251 251 253
-45.8207123929564 849.106954617286 2823.54218379924 254 252 255
-54.6087997727767 847.731554198133 2822.10498603007 255 253 255
-62.6521143761352 846.589557232603 2819.97383554611 254 252 255
-69.2312124771386 845.912304880366 2816.4361131403 255 252 255
-80.1481013915535 843.844356338631 2817.15759817968 255 253 255
-88.8707401602922 842.473481317282 2815.76786842747 255 253 255
-96.857269046257 841.33524821474 2813.67790218662 255 252 255
-104.114421821037 840.428992032779 2810.88281463407 255 252 255
-109.933782419869 839.985638518057 2806.66199027171 254 252 255
-113.616099661409 840.234903367319 2800.28845812976 252 252 254
-117.31227621243 840.482925970319 2793.90487278637 248 248 250
-118.189727075428 841.652217824109 2784.62886726538 247 247 249
-123.334457292963 841.436047752413 2779.66321096348 248 248 250
-125.66909097751 842.140557002968 2771.7985815602 240 240 242
-131.534388605794 841.692287200251 2767.54443156288 238 238 240
-133.903635385455 842.393584555756 2759.65498859642 241 241 243
-134.203844600971 843.782339152092 2749.56321838047 244 244 246
-122.030717112786 849.301475047709 2726.30242562009 247 247 247
256.623120711883 906.260207283761 2749.11945080827 216 217 219
216.95177268742 895.757815441366 2773.41805056851 244 244 244
184.417118483656 887.364944112576 2791.78495850441 254 254 254
159.730021626438 881.309719766555 2803.50102467873 254 254 254
137.450807015738 875.959973695119 2813.26078510223 254 254 254
119.855955755305 872.010848292313 2819.0129206552 254 254 254
107.669513342053 869.691717145411 2820.04784360944 252 254 253
94.7565938455583 867.143363530138 2821.79029787148 252 254 253
79.605830267421 863.902649445988 2825.61238862313 253 255 254
66.0206575517957 861.129157022606 2828.10140843678 253 255 254
54.7423313601407 859.05343580402 2828.56084051029 253 255 254
45.7511120266725 857.67388665716 2826.97636703876 252 254 253
35.2766056424634 855.833365169458 2826.78465994886 251 252 254
27.0715782517224 854.687707187477 2824.53626187043 244 245 247
17.3877849859791 853.081432771935 2823.68361499614 240 241 243
6.98171320092023 851.246096787077 2823.54154387323 235 239 242
-5.62256899449753 848.721431871278 2825.5078558894 236 239 244
-16.7097046299998 846.660243318916 2826.1059596881 248 248 250
-27.0298036401491 844.831274649469 2826.02624431618 249 247 250
-36.5893385344358 843.234289878186 2825.26372204104 253 251 254
-48.3253491977544 840.949448563602 2826.62564074528 255 253 255
-59.2963564536517 838.89677154786 2827.30797159727 255 253 255
-67.3248031198634 837.763984722286 2825.18764584942 255 252 255
-73.1629352420295 837.319887174425 2820.95320984052 255 252 255
-81.1729464381534 836.188235364636 2818.84625410745 255 252 255
-92.7780119710317 833.912796831278 2820.30285088117 255 252 255
-100.752011278922 832.783644179345 2818.22201359314 255 252 255
-107.279073408427 832.112519123208 2814.72204420953 255 252 255
-111.657847534612 832.126689084668 2809.07777591304 255 254 255
-116.758756946221 831.911738978164 2804.14389242791 255 254 255
-121.86462324868 831.696257462212 2799.20611841809 250 249 254
-125.558958903614 831.935945576568 2792.82382536373 251 250 255
-129.267229387365 832.174445070569 2786.43142463399 253 252 255
-132.989376651268 832.411581415359 2780.02895742554 249 248 253
-140.935854749492 831.282806230064 2777.96807276167 250 250 252
-146.071699937793 831.063831059728 2773.0088431987 249 249 251
-148.423392255636 831.752510725842 2765.13206192516 247 247 249
-148.712197305175 833.120083975184 2755.0484515448 243 243 245
-149.730049586958 834.257688851086 2745.67050553822 243 243 245
-151.470054624836 835.166052756073 2737.00293106574 244 244 246
223.691602693306 888.467937523493 2778.26697250605 240 241 243
191.852063846412 880.391841686794 2795.90405782274 243 243 243
164.790011325638 873.707182250051 2809.6009785813 254 254 254
145.546487261753 869.330754183994 2816.6258649208 254 254 254
125.609219759312 864.730373809332 2824.38174410307 253 253 253
110.344117908603 861.513375635954 2828.12106872659 254 254 254
99.7118291067194 859.676800281035 2827.81500178282 252 254 251
87.5829774022856 857.383961884917 2828.8918066489 250 255 251
72.452407356244 854.177623312797 2832.72871024166 253 255 252
61.9150232898362 852.348557068414 2832.49147980113 253 255 252
51.4036366049431 850.521526799672 2832.27281125286 251 253 250
41.6701694464963 848.925039424527 2831.38449876397 248 250 249
31.9582669800975 847.330288671559 2830.51153329987 246 247 249
23.0155730009312 845.965315377048 2828.96260519983 234 238 241
14.8358162820648 844.829650528737 2826.73257698794 230 234 237
4.43769428339991 843.011318012222 2826.59606048374 233 236 241
-6.6764469229359 840.967129830501 2827.17496795507 237 242 248
-17.7602510482975 838.925209700845 2827.77558443492 247 251 252
-28.0768329615193 837.112945146275 2827.69820881423 246 250 249
-37.6330170188213 835.529744290767 2826.93847992761 247 251 250
-50.0985926360373 833.039855217888 2829.00551944897 252 254 253
-63.9861622685343 830.099027089514 2832.50951432497 254 255 255
-73.4564150943604 828.522070696306 2831.81211045134 254 255 255
-79.2748457931307 828.079389952011 2827.5919636011 252 254 253
-85.0939231554595 827.636597076941 2823.37134740268 252 252 252
-93.8004726590505 826.288652726602 2821.9933972505 252 252 252
-102.490061733198 824.941843384934 2820.62774782462 252 252 252
-109.728313059224 824.047932061667 2817.84642486479 252 252 252
-114.812956278261 823.831720355736 2812.92403222251 254 253 255
-119.19001728373 823.840293692821 2807.28097745578 252 251 255
-122.865780506749 824.073420966237 2800.91211472172 251 250 255
-128.680933603953 823.629631636473 2796.6943382596 251 250 255
-133.790561778283 823.410569815487 2791.75411353065 250 249 254
-138.90507792622 823.191041911935 2786.8100485675 249 248 253
-144.726666984155 822.746014271793 2782.58760026781 245 245 247
-151.248811835367 822.076134341826 2779.09149630801 248 248 250
-156.372040953395 821.855004433299 2774.14110701242 248 248 250
-158.719425431245 822.530112773555 2766.26737984258 246 246 248
-159.703286537148 823.651293549106 2756.91399157351 245 245 247
-160.718557199556 824.769740210468 2747.53752552075 246 246 248
-164.520293515596 824.990581583303 2741.07757444968 245 245 245
-168.335787450661 825.209999358115 2734.60734849914 246 246 246
207.835291190898 875.917476892189 2792.64665390248 238 239 241
172.163920125488 866.796884668404 2813.67614931152 241 242 244
152.106266097232 862.236050648473 2821.34525251915 254 255 255
135.207960170661 858.590135248162 2826.36853336187 245 246 248
119.906429412073 855.40298528152 2830.08160107969 254 255 255
106.954686108032 852.900525818756 2831.79584912101 243 243 245
94.8052795238259 850.627839099065 2832.85814986532 255 255 255
80.4062838230681 847.678259622486 2835.99135674276 253 253 253
67.5734394345198 845.185024449547 2837.79213834522 253 253 253
57.807669910896 843.59971068551 2836.88017130196 253 253 255
49.572799271091 842.468064616712 2834.61021018851 248 248 250
40.5977732986038 841.111405188346 2833.03788604789 235 235 237
32.390395852675 839.981856528858 2830.78757148417 235 235 237
23.4470977820194 838.62776741438 2829.23826059584 222 222 224
14.5208453260324 837.274929338781 2827.7010182971 219 220 222
4.12380061201478 835.473004514261 2827.56566032474 251 252 255
-6.98913199107132 833.447902417736 2828.14524613612 252 253 255
-17.332570928039 831.649961796095 2828.04876831632 231 232 234
-28.3874716667021 829.629262208702 2828.67044496426 237 241 242
