ply
format ascii 1.0
comment KinectMotionCapture
element vertex 786
property float x
property float y
property float z
property uchar red
property uchar green
property uchar blue
end_header
-58.1484558816345 373.607588718777 2809.726673691 31 33 28
-64.7570842657832 373.084226436842 2806.16832363628 28 31 24
-66.3027922554205 372.938632494523 2797.63626073629 28 31 24
-70.758522506619 372.575723354762 2791.93429532246 27 30 23
-75.9425035296859 372.158360122601 2786.93916619096 25 28 21
-73.2537352126952 372.328008459375 2774.06755356889 24 27 20
-62.0512986773829 373.132065426502 2752.5495711523 22 25 18
-73.7324991237198 372.229689897664 2753.95793093727 24 27 20
-88.9274160006404 371.065560873139 2758.99356896227 25 28 21
-96.2850386265202 370.485588986287 2756.1273013648 24 27 20
-90.2366752761627 370.904206547686 2739.5166198579 21 24 17
-101.135502127097 370.060194603427 2740.25769242974 14 17 10
-104.296013465861 369.792420186026 2733.02447851056 13 16 9
-104.681204718182 369.731069304396 2722.86405240942 7 9 6
-109.977037569706 369.303950304871 2717.78779008554 8 10 7
-118.748770568854 368.61808618408 2716.36594059324 125 127 124
-128.887759986593 367.830501811455 2716.42279024669 119 121 118
-134.173133670042 367.403928511712 2711.35381828402 120 122 119
-139.464057881214 366.976811364022 2706.28111434767 122 124 123
-148.186634438187 366.294496320596 2704.89491738612 139 141 140
-156.89270757079 365.61336430148 2703.52098457838 146 148 147
-164.220011279351 365.03468069026 2700.67640785946 147 149 148
-166.788998029141 364.809375816849 2692.63747570302 153 155 154
-171.410215295505 364.431422005954 2686.81517453899 159 161 160
-174.018386279037 364.202738246839 2678.74752530354 160 162 161
-175.977737153792 364.021994553231 2669.91572028515 165 167 166
-173.275724808128 364.186821758405 2655.81864749294 154 156 155
149.114332836447 382.109269589734 2826.62528143417 95 100 96
133.759725877682 380.962387638441 2830.31020744151 45 50 44
129.224826641728 380.588065961051 2824.55049845731 38 43 37
100.904726208307 378.516827126875 2839.82887457919 33 38 32
42.5546050906584 374.2058056774 2862.96944333411 34 37 30
61.670969876479 375.517576046186 2836.07479497252 38 41 34
58.7184164380732 375.256405364021 2828.9926620996 33 36 29
48.2095760863088 374.457103208609 2828.78133956509 34 37 30
55.7637185611144 374.94345647597 2812.02753594592 35 36 30
57.9919108459439 375.050190027112 2800.0570543594 33 34 28
35.5141297217529 373.399471959814 2810.92693709195 33 35 30
-29.3309993595849 368.737611144076 2861.47066706846 34 36 31
-20.2957677311333 369.32903197689 2843.32099551432 33 35 30
-0.981490393571205 370.649863144852 2815.33453297366 32 34 29
-9.13763722340333 370.018548978654 2813.12417470983 31 33 28
-14.3370651362267 369.597178692678 2808.11782750176 31 33 28
-43.7628313747393 367.456607672925 2826.29973606888 30 32 27
-52.559313166463 366.78053802743 2824.85999525962 30 32 27
-61.3392520183331 366.105718928832 2823.43225311478 29 31 26
-63.5563426073817 365.896185777886 2815.64820340496 26 28 23
-73.0482590626367 365.170937193057 2814.93940917199 25 28 21
-75.2895374144504 364.959347479877 2807.13781481986 24 27 20
-72.5088610386946 365.103017620199 2794.33299120335 24 27 20
-83.4343492164684 364.276155108991 2795.05452879862 22 25 18
-81.4360465956974 364.363734807182 2782.91729827049 21 24 17
-78.0589087290358 364.54831204486 2769.30973841415 19 22 15
-79.7236222466116 364.375900980723 2760.69127003324 24 27 20
-99.8687876538631 362.897386146306 2770.7826201874 24 27 20
-102.238715531066 362.675023391915 2762.88771048122 23 26 19
-88.4096660162164 363.595988745951 2738.3339670384 21 24 17
-88.0641645340783 363.564172086212 2727.46805418465 14 17 10
-115.795535775899 361.551387283087 2745.64387647824 12 15 8
-108.4563052928 362.012591646434 2727.49911455648 10 12 9
-107.470350688286 362.025144235534 2715.86266794889 11 13 10
-114.860776311096 361.447067515609 2712.97233588126 126 128 125
-122.935567252697 360.820783276491 2710.8209797146 125 127 124
-128.928487243933 360.34105520042 2706.47415420043 116 118 115
-135.610130549352 359.812781494882 2702.86314367076 121 123 122
-145.715233639191 359.043681897631 2702.94435739848 140 142 141
-155.111757309514 358.324555577198 2702.30474644157 142 144 143
-161.762887597261 357.798429752975 2698.71557185201 143 145 144
-165.016574532887 357.510817673529 2691.41500694955 153 155 154
-168.288866413381 357.221638642245 2684.10094698859 157 159 158
-172.254025801791 356.883552961253 2677.519401492 172 174 173
-175.561188800319 356.591362281092 2670.18004745879 167 169 168
-173.527136986338 356.673289994796 2656.83337254911 174 176 175
130.199313301265 373.214100548424 2843.74659586793 34 39 33
124.15558864665 372.731765259363 2839.36292776299 48 53 47
110.417992325289 371.727761708238 2841.75041526195 47 52 46
108.996803183705 371.558880792523 2833.30850077917 51 56 50
92.2501751459679 370.351636027175 2838.454088508 48 53 47
71.866746736577 368.826344861861 2837.25656117895 36 39 32
80.2884144755596 369.322858324649 2819.89665997189 43 46 39
92.4060274703749 370.068132270508 2799.04181075403 37 40 33
70.4909900834849 368.512951317055 2809.0847912394 37 40 33
38.8947837606826 366.305198196668 2828.16303443775 42 43 37
29.1828658570887 365.576077221845 2827.2947368454 40 42 37
3.79824129403783 363.79009533777 2840.99714258993 39 41 36
-18.4924190953621 362.214075426236 2852.00275702036 34 36 31
-25.8292430631375 361.646684240939 2849.15163053775 30 32 27
0.174205741047206 363.324379150308 2814.9001801156 27 29 24
-13.1542485276477 362.352624511103 2817.58442676716 21 23 18
-14.6586153955539 362.176684148925 2809.08217921797 21 23 18
-25.7340586135024 361.356948455494 2809.69504730316 28 30 25
-60.933039282731 358.91677724583 2833.57119397657 30 32 27
-68.9575048898654 358.303479216489 2831.45638549657 33 35 30
-62.4196354365629 358.667546593172 2815.20057557986 34 36 31
-66.8373698607296 358.295789180034 2809.52610933367 26 29 22
-61.8644403277264 358.553320811563 2794.6053747051 25 28 21
-64.8887806076421 358.274169260278 2787.47111094212 22 25 18
-62.9007079599806 358.330313556826 2775.32601078463 21 24 17
-73.8594566408757 357.519436874559 2776.02381257977 22 25 18
-79.0737722382207 357.09304149351 2771.00635304136 25 28 21
-89.2782970102712 356.332992188716 2771.01583418843 25 28 21
-95.1981191608531 355.859387488325 2766.72202987503 23 26 19
-100.411310941066 355.432876936042 2761.7056789093 23 26 19
-91.5205182600354 355.947037999814 2742.21557803751 23 26 19
-95.3822257513792 355.609723207753 2735.70903093357 16 19 12
-123.795100802373 353.636499434439 2754.62605358549 13 16 9
-108.739276071688 354.559226822194 2728.49126686694 11 13 10
-107.749611679302 354.544149711881 2716.85736961387 10 12 9
-114.443799731733 354.017433303562 2713.23697854036 84 86 83
-119.750271546174 353.582895545674 2708.15296622775 101 103 100
-125.752028032187 353.102048344226 2703.79972928134 116 118 115
-133.818236643785 352.484076705989 2701.65463673381 109 111 110
-143.243214891034 351.776069779555 2700.99416029174 131 133 132
-153.330514804953 351.024381863111 2701.08866259225 138 140 139
-157.942902425111 350.63556341026 2695.27300167265 141 143 142
-161.88600103428 350.290803680588 2688.70741470036 150 152 151
-164.489728080753 350.034333125002 2680.64284622411 152 154 153
-167.791020557039 349.731348845472 2673.30769318606 163 164 166
-171.783213986217 349.382365444621 2666.70649493727 172 174 173
-168.418299536382 349.51864100371 2651.85479277849 157 159 158
158.479989015269 367.491660531345 2819.75431804727 9 14 10
119.948503079539 364.919026134705 2843.68435731707 44 49 43
113.916945345908 364.43705665985 2839.30951112573 44 49 43
110.186155536492 364.102760195531 2832.89788433177 48 53 47
107.206268404068 363.816393323998 2825.79551458004 48 53 47
80.5589520379746 362.012512163148 2839.81780853223 34 36 31
78.3705624786246 361.777306670295 2832.05443477588 45 48 41
86.7775673855333 362.219960639091 2814.68363135997 46 49 42
89.8059923967627 362.317191379593 2802.05817079182 43 46 39
36.2255634044075 358.79504425019 2841.01163668565 38 41 34
37.0557273036889 358.752724053293 2830.49701275881 40 41 35
22.1020085830497 357.702281742262 2834.47303969114 36 38 33
1.22025195586462 356.274553650645 2844.03067639519 34 36 31
-6.90492523946773 355.661214550382 2841.84285972759 29 31 26
-12.0456462893546 355.238092676742 2836.87876702818 26 28 23
-23.8598609114193 354.390169716891 2838.19127228852 24 26 21
-8.3089453462033 355.282830216583 2813.65027181616 23 25 20
-9.08915080119943 355.135688753459 2804.43809357247 32 34 29
-30.4609096033295 353.680641270584 2814.87541549384 38 40 35
-51.7413966292697 352.232863754266 2825.37923357444 39 41 36
-61.9823626506417 351.486329190936 2825.36236613701 33 35 30
-68.5595863551516 350.972232217496 2821.82682893538 29 31 26
-64.9770361751874 351.101137723061 2808.36789486036 22 25 18
-72.3018330880203 350.539246457345 2805.52551490473 21 24 17
-59.4291696207119 351.253638582655 2782.74749373002 20 23 16
-53.1417526191413 351.550260821081 2766.30948938619 20 23 16
-69.1467432102688 350.439282198361 2771.99348801141 22 25 18
-82.9475540203506 349.468208722813 2775.57035340495 27 30 23
-83.1684985906498 349.353101221603 2765.52872094093 27 30 23
-87.6858152979918 348.966963202075 2759.78169805485 24 27 20
-93.6287902227 348.490952642412 2755.47109761523 24 27 20
-79.1097643783076 349.300212734155 2730.18163582312 24 27 20
-94.9664913387975 348.200726938193 2735.97287765471 18 21 14
-109.360232479534 347.193961293403 2740.35506551615 14 17 10
-112.517969641845 346.891979664151 2733.12398386744 6 8 5
-105.242418306433 347.242711896134 2714.93250000942 13 15 12
-107.776086851794 346.978380308735 2706.9189730951 32 34 31
-113.794626320206 346.495815035652 2702.55356110421 112 114 111
-120.504243900302 345.970006908841 2698.92198943744 112 114 111
-130.65026695171 345.229856888955 2698.97398052409 108 110 109
-140.084889492563 344.534413941902 2698.3065763668 127 129 128
-149.498510303383 343.8405781759 2697.65469942951 139 141 140
-154.121529556178 343.44498838211 2691.83100263733 142 144 143
-158.754482642742 343.048536983585 2686.00039470988 148 150 149
-160.689456606377 342.819296613353 2677.18572091234 153 155 154
-164.001289995426 342.504077205538 2669.84286456833 163 164 166
-168.004105205106 342.145622744645 2663.23391839139 165 167 166
-165.988610593349 342.159335680373 2649.87344544849 161 163 162
190.641360376483 361.807755573617 2792.39966240706 34 39 35
159.731354992974 359.81069117056 2809.50634123204 40 45 39
120.495253545581 357.311069028812 2834.16099613086 42 47 41
118.28199298612 357.059632569966 2826.37980511974 36 41 35
90.7941878938248 355.276829014522 2841.02765977179 37 42 36
61.9022046753921 353.411426816768 2857.12754509057 39 41 36
55.2044179515288 352.890388679871 2853.50486850193 66 69 62
84.1650501256339 354.523222195497 2817.69151181764 26 29 22
72.832317031597 353.720550603464 2818.11795141385 23 26 19
-1.63386646086128 348.996937397248 2866.62730193005 26 27 21
11.2685765433485 349.657233627813 2845.1056312 37 39 34
6.86441207177824 349.274940424163 2839.44094873619 35 37 32
14.3774379114747 349.608095425122 2822.65656281134 33 35 30
-9.40561435070064 348.062000326245 2835.05112431149 36 38 33
-7.1479602776825 348.078723910202 2823.10124980872 42 44 39
-8.6339826675661 347.870267956506 2814.61213586526 52 54 49
-22.6703352752677 346.91051799287 2818.01860381584 43 45 40
-32.2526390394029 346.217830602211 2817.24415634555 29 31 26
-41.8141597915289 345.526770013889 2816.4850776413 23 25 20
-59.3848886704391 344.358494552834 2823.50382220581 21 23 18
-68.1523310928587 343.7160084995 2822.08530276261 22 24 19
-84.8849982280027 342.599825912628 2828.47650892476 17 20 13
-64.6586106254512 343.681972387384 2798.67997233717 20 23 16
-66.2283868726539 343.466472948404 2790.13040223552 23 26 19
-85.0815919953272 342.225111637432 2798.6891554657 30 33 26
-70.1668807019382 342.986235527411 2773.68629068056 31 34 27
-83.9651634529486 342.045077355346 2777.26543472201 32 35 28
-83.4679981041362 341.950075785669 2766.50914619786 30 33 26
-72.358896303772 342.480890852204 2744.92211941594 28 31 24
-74.8082228764468 342.209520981699 2736.96940367026 27 30 23
-69.5171937811811 342.393727827994 2721.04385816927 28 31 24
-98.7725975256244 340.542909096448 2740.58577042572 21 24 17
-106.141380989687 339.981912811739 2737.71150821363 17 19 14
-107.209837823167 339.791017259398 2728.290148771 17 19 16
-112.491799715161 339.352204023529 2723.22358809107 15 17 14
-107.358406675737 339.523434378341 2707.18399759761 1 3 0
-113.376969531829 339.040419131981 2702.81856637329 34 36 33
-118.015809300726 338.637969121208 2696.98336620301 106 108 105
-128.857469043159 337.873100933383 2697.76598683352 112 114 111
-135.553773271717 337.350529581845 2694.14408269431 122 124 123
-143.61402467499 336.748521660031 2692.0033895136 136 138 137
-148.936060878287 336.30599436588 2686.90805377477 139 141 140
-155.62188066332 335.78404086391 2683.29375316195 141 143 142
-159.59601343337 335.419418910768 2676.70556825805 155 156 158
-161.559896447662 335.170894635845 2667.87013447298 158 159 161
-163.551031032528 334.920092577596 2659.01463942839 170 172 171
-160.876666921934 334.938264230112 2644.89678100124 162 164 163
149.930074832941 351.865720768362 2838.17965377293 49 54 50
191.849036924855 354.12691442055 2792.00119130618 31 36 32
147.037008597548 351.421735531395 2821.25854198657 47 50 43
139.391301183583 350.844675502695 2818.18345032732 50 53 46
106.42406934367 348.822972188492 2837.50408135434 37 40 33
79.732375143676 347.162440419224 2851.49463648358 31 34 27
49.3425587958307 345.29411289909 2868.97876904257 26 29 22
36.5942988581813 344.432074729359 2870.84913005301 46 49 42
61.0642655095366 345.684596807364 2839.18927647255 16 19 12
43.7458770368737 344.562571249707 2845.15614561845 22 25 18
-6.49179175836223 341.440245780778 2871.71325743426 32 35 28
-37.8189037648773 339.532093573705 2890.98809038293 37 40 33
12.5103228004972 342.236814768412 2834.85229506072 31 34 27
-8.32143858089585 340.921691361473 2844.44674475033 35 38 31
-7.50826650662928 340.827391625783 2833.91953980031 46 49 42
-5.25348336650722 340.813154797618 2821.96772175344 56 59 52
-16.3497197479332 340.04783406852 2822.5657920532 39 42 35
-15.6278307662698 339.946124448358 2811.97237650874 27 30 23
-28.9036603872268 339.059204995271 2814.69520159745 19 22 15
-47.2631466506881 337.888860582192 2822.37718525054 17 20 13
-60.4376694190634 337.009991286455 2825.17349061431 19 22 15
-85.9447085638148 335.443936192931 2840.02330601787 19 22 15
-74.319712857142 335.950057020958 2818.81013665717 22 25 18
-72.207864294096 335.924069134529 2806.75464276358 25 28 21
-70.8669152398849 335.853965485707 2795.37512053839 29 32 25
-97.6183839723896 334.22345087497 2811.7928636116 35 38 31
-81.9424779689792 334.947710304065 2786.10628728447 34 37 30
-85.6985115874926 334.593007944887 2779.67655183171 30 33 26
-66.6671927829423 335.497471609229 2750.24782099915 30 33 26
-75.4945100211268 334.860261604751 2748.78592374843 26 29 22
-64.4776698941119 335.317212132181 2727.13164037209 25 28 21
-106.512126791179 332.851440108569 2759.63876113074 25 28 21
-101.877255578336 332.956282952042 2744.47248188957 23 26 19
-87.4882957047192 333.594691189522 2719.08786710118 21 23 18
-99.8020340227956 332.766397861404 2721.27339303107 14 18 17
-114.865445560103 331.788576520622 2726.40530576837 15 17 14
-106.94109557129 332.068167297931 2707.44875292555 10 12 7
-107.418133724438 331.887047062088 2697.22084391348 12 14 9
-114.836408422331 331.326791068805 2694.31070819951 46 47 42
-125.688014504111 330.579928950377 2695.08620972066 108 109 104
-132.393330735713 330.058965002857 2691.45778072993 118 118 116
-139.779119309823 329.501124176565 2688.57120713368 137 139 138
-145.112102586868 329.054551093128 2683.46791513475 130 132 131
-152.488547179994 328.497307515588 2680.58782373789 139 140 142
-157.148408735287 328.086824551665 2674.73763821455 148 149 151
-160.467799973339 327.748227589806 2667.38889013556 157 161 160
-161.787512062016 327.516642258619 2657.78518429463 169 173 172
-161.127337316362 327.39045480148 2645.91187016918 162 166 165
167.436532746766 345.226320264097 2823.66396166696 19 24 20
121.821599946544 342.613728449051 2853.5750698381 42 44 39
126.616020682869 342.711171405592 2839.75915612176 46 49 42
105.941018712807 341.442616456577 2848.23244330327 48 51 44
87.6514924440843 340.303840449312 2854.73026572057 40 43 36
80.9139311124851 339.783960937649 2851.07846706159 39 42 35
74.1795529209326 339.264330984265 2847.42927166985 38 41 34
80.3877224612353 339.434098199346 2832.16850771063 41 44 37
54.6497429494783 337.902952622859 2845.61604970802 40 43 36
59.2939522906435 337.98827074546 2831.691477608 49 52 45
44.2579715088125 337.028327247094 2835.60803493392 47 50 43
-11.3523095302939 333.921550314783 2876.79752605643 48 51 44
-12.6639457282631 333.693182548736 2868.43472752782 48 51 44
-8.76753015381793 333.738945203421 2855.20290004056 47 50 43
24.1540693379263 335.312822445159 2814.85012021868 51 54 47
-9.32848357614002 333.385972766088 2836.26773771232 30 33 26
-12.2547272100753 333.069019310648 2829.20439482739 28 31 24
-11.5039040889524 332.944408182558 2818.63183825746 24 27 20
-19.6370396700474 332.353339851408 2816.43836519201 17 20 13
-32.9011639192518 331.494272050754 2819.16981682862 15 18 11
-42.459669259463 330.829826014445 2818.41276439174 16 19 12
-52.7276410553028 330.128958478176 2818.37655120456 23 26 19
-43.3109041663171 330.453120968224 2799.26705061011 26 29 22
-52.1357367549538 329.826910942665 2797.80701025194 29 32 25
-75.4184459933831 328.451259244432 2810.56484994025 29 32 25
-66.8497924781848 328.727786497792 2792.07535095648 29 32 25
-67.0021653642205 328.550913989984 2782.08311471784 26 29 22
-88.7040982395377 327.260923477926 2793.51725355961 23 26 19
-86.7181381355051 327.19392892726 2781.36999825163 18 21 14
-77.6549558557487 327.489412211123 2762.00405310988 24 27 20
-67.9748177175721 327.813803934923 2741.85016775713 23 26 19
-103.015027313503 325.843569713245 2767.07912239962 22 25 18
-123.753574161347 324.61013414161 2777.97659568809 22 25 18
-105.687595716511 325.36080831111 2749.08262115949 20 23 16
-93.3859812443054 325.813185512694 2725.88930722421 19 21 16
-98.6865380773503 325.366525566836 2720.80922692954 15 17 14
-122.818406161181 323.963301076656 2735.42172132267 15 17 14
-102.353872183808 324.824028608543 2703.32662733549 16 18 13
-103.535889077162 324.584446497041 2693.82269917494 8 11 4
-115.109132516063 323.819075459029 2695.31001325327 0 2 0
-125.959635538906 323.091114534485 2696.08641014365 115 117 112
-130.60445158269 322.676185964309 2690.24710891482 118 120 115
-137.310879618397 322.157391011269 2686.61788493996 133 135 132
-142.650357333268 321.707147787666 2681.50986639446 131 135 136
-150.713489120707 321.120439914561 2679.36716265956 131 135 138
-155.377314978505 320.703740673751 2673.51377736505 131 135 138
-160.050910458149 320.286179038836 2667.65330549496 158 162 163
-162.715559993758 319.968123899846 2659.54455554516 180 184 185
-163.390844987132 319.747990632034 2649.17273555911 189 193 192
152.330452539009 336.826917659641 2837.37319656066 47 52 48
147.022756912881 336.377397081398 2832.28822118989 33 38 32
102.324972002974 333.95431571914 2861.62981824121 36 39 32
82.4873258457286 332.781162154294 2869.47556911912 39 42 35
94.2100539172053 333.186057723282 2849.56777193868 37 40 33
79.0325584298683 332.247161792983 2853.38184884459 39 42 35
87.5739889442402 332.489868967736 2836.10777512741 48 51 44
76.238024109986 331.742810971863 2836.53215365999 54 57 50
79.3542533376677 331.713112959345 2823.969406846 49 52 45
60.4671126132876 330.592886943102 2831.26913637922 48 51 44
31.8427738498004 328.993956011843 2847.56439260471 38 41 34
-10.0079193844242 326.566036193627 2866.61863294089 51 54 47
-3.12377339442649 326.722201367452 2850.61279320989 47 50 43
-3.77438546377062 326.506524814308 2841.49421283337 38 41 34
-13.381071706601 325.851542422619 2840.7025754442 30 33 26
-16.2933460189008 325.524172255336 2833.64901197893 30 33 26
-23.6602282588259 324.979023944439 2830.7762082779 29 32 25
-27.3338783472374 324.613793928768 2824.40584660259 32 35 28
-33.2265043405442 324.140323790814 2820.13175804558 31 34 27
-31.7933761304847 324.021838416387 2808.81881339469 32 35 28
-36.2492959155298 323.61703350782 2803.1164983734 35 38 31
-45.0846743743833 323.000461656706 2801.6488619081 37 40 33
-55.3557381175116 322.315220557111 2801.61048645333 36 39 32
-67.7729354058769 321.527581478501 2803.7209242125 36 39 32
-70.7700015927268 321.1931360108 2796.60615194705 35 38 31
-75.224544656129 320.788267978171 2790.90454014391 34 37 30
-76.8202193782583 320.519626851788 2782.33592651197 33 36 29
-87.7389329397111 319.805534448918 2783.06294637402 32 35 28
-78.667966532135 320.043454967548 2763.70205806888 32 35 28
-86.0356908400011 319.497794095131 2760.82864133861 30 33 26
-106.855857145388 318.315051957924 2771.66720371269 29 32 25
-125.465849959781 317.239779995891 2780.40340248787 26 29 22
-113.020181000004 317.631884462051 2757.31421143161 24 27 20
-96.479409887418 318.212791610692 2729.7837949133 23 26 19
-98.270788505082 317.928065622524 2721.07293540094 18 20 15
-111.945713421606 317.085616642351 2724.74200415071 17 19 14
-116.535330962374 316.669410267886 2718.94241654536 13 16 9
-102.424193410277 317.124955664994 2693.35547619073 12 15 8
-114.691757400561 316.348713314939 2695.57473852472 1 4 0
-122.100621788197 315.799279026616 2692.67147935955 11 13 8
-128.815149537731 315.282210191057 2689.03639247241 91 93 88
-136.210406624725 314.733766226185 2686.14300254606 114 116 113
-140.869940275103 314.31161955197 2680.29270117198 109 113 114
-147.578440755973 313.794874696899 2676.66198522154 138 142 145
-152.251035223545 313.371568289556 2670.80250438508 143 147 150
-158.959096617847 312.854754453717 2667.17210638847 174 178 179
-162.298237668358 312.491742023777 2659.80921205681 176 180 181
-166.326826487691 312.096630348 2653.18139636418 177 181 182
163.508472886291 329.970547516777 2838.03084446546 30 35 31
158.190995582187 329.516896327856 2832.93875722522 59 64 60
141.249357181369 328.520786696302 2837.94404722121 14 19 13
111.237052171638 326.918202007808 2854.46844969335 25 28 21
76.7386938427586 325.111778994479 2875.15029814823 33 36 29
82.3382501584238 325.169855240163 2860.68310284346 28 31 24
91.7003525919897 325.399713549491 2842.76826104923 31 34 27
71.1920286484022 324.24751409131 2851.36296605272 51 54 47
30.2077659801174 322.154869835606 2878.45780736276 37 40 33
50.9219080721302 322.905286498243 2850.24850524309 39 42 35
91.1642171087825 324.546064813232 2804.08649529825 40 43 36
80.5633396212939 323.850530937347 2803.80897868667 38 41 34
-20.3284995613049 319.032601821705 2886.27173296984 48 51 44
-11.1036549005394 319.251339877105 2868.25762823762 32 35 28
-4.96071710240109 319.326845382821 2852.94909894225 24 27 20
-1.12731799444576 319.295071092996 2839.67119673368 30 33 26
-5.53457245486211 318.888286512774 2834.00415021736 36 39 32
-15.1430004876849 318.246296297636 2833.21102149837 38 41 34
-22.5123701707781 317.705882808832 2830.33643857952 23 26 19
-21.7642439859826 317.530528601111 2819.76166991919 31 34 27
-25.4671386830647 317.154147105159 2813.37005171849 33 36 29
-26.9858187328147 316.874915163554 2804.85690504612 33 36 29
-30.723881673705 316.495647307762 2798.43977801497 31 34 27
-38.8469071522892 315.920655084472 2796.25371540725 32 35 28
-56.3987929555885 314.927413363971 2803.28700629981 33 36 29
-73.881273269049 313.939727050386 2810.37063885237 33 36 29
-71.083229637281 313.850556944323 2797.5769312716 33 36 29
-77.6943492746602 313.344724710652 2794.01715852442 33 36 29
-78.5627271191764 313.091429862922 2784.74052454605 34 37 30
-90.9062172443993 312.333790102205 2786.90454615324 35 38 31
-90.3772817897663 312.140483989868 2776.17108500194 28 31 24
-96.2861328994744 311.66482941723 2771.8852234472 30 33 26
-115.659170104404 310.603362005381 2781.30308713444 30 33 26
-130.711271548415 309.732401362568 2786.44374007024 28 31 24
-114.019030297039 310.237150123644 2759.02303620785 27 30 23
-100.276823626025 310.609227082549 2734.40326382926 28 31 24
-100.654621429861 310.368918850126 2724.24729094244 29 32 25
-112.927030396194 309.616705131027 2726.46286828262 31 34 27
-115.426060246347 309.284200277803 2718.47410638665 9 12 5
-129.03825786116 308.476481620502 2722.18852893501 12 15 8
-117.038484795065 308.76050585509 2698.77555098185 7 10 3
-118.240275500955 308.479857320325 2689.25708035307 0 2 0
-125.652618647671 307.935155960208 2686.35132333443 113 118 112
-132.372640888412 307.419927210516 2682.71226269374 125 130 126
-138.407197631681 306.933611129128 2678.3352204399 123 127 128
-145.802465349339 306.390151177635 2675.44184805217 145 149 152
-152.512031758257 305.875620107389 2671.81037060099 150 154 157
-159.89366810251 305.333152429509 2668.92688491281 168 172 173
-162.554449967962 304.987145165961 2660.8205026596 178 182 183
-165.909377317818 304.611427865064 2653.44610014998 180 184 185
131.987209303862 321.006241797364 2865.77533182018 26 31 27
125.206102240061 320.489335469648 2862.09198099038 44 49 45
132.373843998525 320.574031293614 2846.29136387783 15 17 12
113.199085621772 319.522801766422 2853.3829427176 24 27 20
74.0685223684676 317.618096271567 2878.11711787571 30 33 26
72.7656781625892 317.33945976704 2869.76073270576 27 30 23
85.989102136371 317.679924493602 2848.470127921 31 34 27
73.1332494983068 316.905663844743 2850.26293729722 44 47 40
11.0868167203133 313.82226082241 2886.78684306339 38 41 34
33.2825708749041 314.53743594129 2857.18075242924 42 45 38
74.9440489249649 316.066615666522 2809.57688986153 47 50 43
11.6900330754097 313.175602384096 2857.57761710304 46 49 42
-9.94863781091548 312.041782287575 2867.82337031545 27 30 23
-0.811919675379746 312.197979924991 2849.74506400484 16 19 12
3.01245598537436 312.129243745385 2836.46043328756 16 19 12
-7.3573230873949 311.468117903851 2836.35061913218 20 23 16
-20.6689773498581 310.685988216148 2839.04800495454 24 27 20
-28.7605372038227 310.121341627249 2836.88480485229 23 26 19
-16.9302836259277 310.378425665325 2815.8188754054 21 24 17
-25.0570847672513 309.810901735197 2813.63011356756 24 27 20
-28.7737924002482 309.424600226615 2807.22843182801 24 27 20
-36.8895891940813 308.857911761531 2805.04765150831 22 25 18
-55.1933796665909 307.8765271561 2812.77096734754 22 25 18
-59.6222219306737 307.461795302201 2807.08823111713 24 27 20
-79.9927904337869 306.400877573003 2817.01829696842 24 27 20
-78.617059045484 306.221672845347 2805.66343658103 23 26 19
-72.9678501744613 306.212679127403 2789.99656464447 21 24 17
-75.2834008427603 305.881066392938 2782.14052076481 20 23 16
-89.0680817222109 305.089563120639 2785.7302831248 20 23 16
-92.1076889872972 304.72857000822 2778.58424297778 20 23 16
-100.142803097106 304.168148893173 2776.46198300294 24 27 20
-132.2631693386 302.653573520585 2798.86946141369 24 27 20
-131.720370084296 302.436067464559 2788.14563337214 22 25 18
-103.04505218085 303.324678634992 2748.41627228661 22 25 18
-103.374330915993 303.065855983663 2738.29537812896 23 26 19
-100.940095717877 302.913607441121 2725.23761854587 18 19 11
-112.514003861465 302.212929914332 2726.72477845098 24 27 18
-103.884255901642 302.298669012674 2707.04356512512 7 10 1
-118.920166412395 301.464056029644 2712.19613932203 10 13 4
-103.491987741983 301.80733920699 2685.09330829245 6 11 4
-108.867784261816 301.344786021714 2679.95860464075 5 10 4
-119.055792862493 300.697567872111 2679.98063022496 38 43 37
-127.164861322976 300.130771029087 2677.80472686873 114 116 113
-135.261626538335 299.564933546243 2675.6377472568 124 126 125
-142.665894514191 299.02582727533 2672.73757796505 136 137 139
-151.418125219343 298.43611667371 2671.33064761542 156 157 159
-158.126567347495 297.923984287607 2667.69999732918 173 175 174
-161.464546784067 297.538299833773 2660.33783023798 178 178 178
-162.136219136557 297.251333319804 2649.96829060884 175 175 175
103.570302178063 312.389672765733 2890.8312593046 26 31 27
103.864000489345 312.159134577424 2881.16211776927 41 46 42
118.069886227176 312.477879144129 2859.34857383796 20 22 17
103.570585062133 311.658821291772 2862.41985865577 20 23 16
73.7080795839158 310.237075501087 2879.05376998985 26 29 22
75.4818287004939 310.06225536042 2867.9874633566 28 31 24
78.7428985968393 309.943742216403 2855.52926476822 32 35 28
63.6158537746545 309.105851913232 2859.3807205284 40 43 36
24.9269590292207 307.354024370921 2884.43584497051 34 37 30
-19.3218570465126 305.154027188899 2905.45819371811 40 43 36
10.4210594697385 306.057632833031 2868.97290685906 44 47 40
-6.72625193496934 305.152203328653 2875.06489052419 41 44 37
-13.2981317007375 304.65422762632 2871.53330891522 23 26 19
-6.39296819027257 304.670463404811 2855.54199646336 18 21 14
-3.29525523940122 304.538701590448 2842.96530983188 25 28 21
-18.1110751038172 303.725801807423 2847.04250578772 25 28 21
-29.1653317020946 303.057173743349 2847.67149789559 19 22 15
-27.6142531688686 302.864269994276 2836.4436810074 25 28 21
-35.6963424763785 302.308052769557 2834.28738900278 28 31 24
-34.206913876949 302.11014722033 2823.01485542681 31 34 27
-40.8270780350799 301.608159126044 2819.44825110781 30 33 26
-58.4080765348265 300.699417124775 2826.46086559316 27 30 23
-67.9036494743759 300.092766250162 2825.75002141748 27 30 23
-65.7535154155904 299.916251405674 2813.72122457106 27 30 23
-80.3127302870901 299.123896779567 2817.98454302776 27 30 23
-78.9332381801313 298.917016069616 2806.63226868128 26 29 22
-73.9992601198543 298.837693117695 2791.68159106399 23 26 19
-66.9794554750622 298.831133732966 2774.53823232578 22 25 18
-75.7812675440892 298.248487942238 2773.095100695 20 23 16
-79.5734067529943 297.847136466422 2766.63866076523 22 25 18
-103.290769506996 296.729657160766 2780.31804964443 26 29 22
-136.114437176451 295.291337892392 2803.45081824524 26 29 22
-141.917285152489 294.823204702059 2799.2418387216 22 25 18
-108.27003916591 295.754967939386 2754.47110762503 21 24 17
-112.794105752981 295.326286092642 2748.71927059123 22 25 18
-120.828268805021 294.773563094307 2746.59773905094 16 17 9
-122.56936282328 294.44199778697 2737.92309466743 21 24 15
-113.207499760589 294.496789303354 2717.53711934193 10 13 4
-108.798079969971 294.374858418309 2702.20625689978 14 17 8
-96.85222808019 294.510707339111 2678.753439798 8 13 6
-98.8027283829909 294.162129245512 2669.92690615676 12 17 11
-114.517033768685 293.33981712374 2675.82279636665 0 3 0
-123.324385704987 292.756343542153 2674.37564457492 101 103 100
-132.797516883153 292.15096740517 2673.6810753678 118 118 116
-140.208922403821 291.616384565155 2670.77604930658 136 134 135
-148.968219224886 291.036697565157 2669.36375287322 141 139 140
-155.683459899763 290.526374301649 2665.72818333893 164 163 161
-159.700967632193 290.106317383432 2659.10827421011 179 178 176
-159.033284127411 289.841355898677 2647.23970042658 183 182 180
115.672501804219 305.44664129434 2881.04250691807 24 29 25
120.59820169462 305.35978272543 2867.32082673859 39 44 40
114.610623873107 304.876602209702 2862.97785638997 18 20 15
131.807817102131 305.226486454649 2838.39249183147 18 21 14
88.7603716241987 303.413291047767 2866.46347109122 26 29 22
85.8830004066018 303.042701898251 2859.43528518852 24 27 20
69.9604516683205 302.207535702245 2863.94511361037 31 34 27
47.2174180337159 301.133330184203 2874.62533481005 37 40 33
26.855393803054 300.14747640645 2883.3269381713 29 32 25
10.3743231717921 299.301815883655 2888.66686562684 30 33 26
-9.83377661340024 298.328373825779 2897.48011497133 40 43 36
-20.1406070407608 297.704181645073 2897.41612070867 34 37 30
-13.1010112926404 297.684074847152 2881.5220769725 27 30 23
-18.1513964321567 297.241860689403 2876.6233739962 27 30 23
-5.23876374107912 297.418909159049 2855.10693671946 27 30 23
-7.36685736055942 297.074119159856 2847.38671770957 29 32 25
-13.2396494389648 296.600114347828 2843.12700447253 30 33 26
-24.3081771181837 295.948990774319 2843.74573983295 30 33 26
-47.1853622290386 294.898476521963 2855.56416287173 28 31 24
-31.6023130924439 295.152576199039 2831.04351675159 30 33 26
-47.0387456697294 294.356521986227 2835.90593926268 26 29 22
-48.4863578665455 294.031981307245 2827.44408169587 26 29 22
-71.1631551074783 292.997588687489 2839.40785183729 27 30 23
-74.0597279311377 292.625290900213 2832.36573762598 27 30 23
-71.8881316422795 292.419774675804 2820.35235231047 24 27 20
-79.9089176179648 291.876111169167 2818.24056398642 21 24 17
-83.5838710467649 291.475547254362 2811.86907851867 22 25 18
-79.352327097141 291.332432932277 2797.64419941424 21 24 17
-67.286895273853 291.440903669799 2775.51296631153 18 21 14
-63.9208051768376 291.262506655957 2761.89555915506 19 22 15
-73.4555459704014 290.665779712843 2761.15637163278 21 24 17
-92.2154171669605 289.774354492698 2769.78455711313 24 27 20
-121.532789981901 288.549919953203 2789.28471942732 24 27 20
-114.656656979519 288.48171598985 2772.03689780747 23 26 19
-104.337724826135 288.518320037358 2751.10959353836 23 26 19
-101.145677093016 288.325756439272 2737.36594760151 24 27 20
-106.414719235598 287.865558934986 2732.30893888514 24 25 17
-108.897054020777 287.491825007523 2724.33177628765 21 24 15
-108.619277038626 287.202404874881 2713.41546368618 13 18 11
-113.931117665673 286.738687940212 2708.32741160845 11 16 9
-106.803317421717 286.656012212667 2690.02662453431 9 14 7
-104.584849350604 286.41933473704 2676.81231758398 5 7 2
-112.037709856293 285.886560397527 2673.87695460282 9 10 5
-122.906597918263 285.251098303042 2674.64049231079 111 110 105
-131.697989997235 284.679472789647 2673.20526465007 127 124 119
-139.792176650041 284.129478408765 2671.0402345416 152 144 141
-147.873873010929 283.580466852505 2668.88396941348 164 156 153
-153.239723015345 283.112195324494 2663.75674171556 183 176 170
-155.916091771091 282.72253440154 2655.63913355557 162 155 149
-153.243474464402 282.487680175713 2641.51872720704 124 117 111
148.048406504522 299.086570515984 2853.83994616054 24 29 25
152.886231149881 298.95364859609 2840.05462449765 41 46 42
147.583841678584 298.487818405345 2834.97341306036 23 28 22
147.687295663864 298.196852183805 2825.16575879617 15 18 11
101.505429991585 296.411070080702 2855.90510981281 25 28 21
81.6841108726365 295.483024669524 2863.76364355331 24 27 20
64.2398254567746 294.634797881928 2869.64063416305 37 40 33
38.453939498821 293.52415313878 2883.05557767484 35 38 31
29.5460015604583 292.954060213162 2881.53557671927 27 30 23
40.4104548461142 293.008725182901 2862.23886047227 31 34 27
23.9019260512294 292.198675904002 2867.55935777401 37 40 33
-0.100415108208907 291.157286734786 2879.79721403069 30 33 26
-0.647829920014331 290.851119500669 2870.75298519536 25 28 21
3.27922924303747 290.681979288222 2857.54228337405 27 30 23
-3.33569302673453 290.184880762041 2853.97950377843 28 31 24
-5.46756665633996 289.825509591938 2846.25676517905 33 36 29
-3.15568786691656 289.600670030477 2834.34497576545 34 37 30
2.07548259907853 289.462044039131 2819.60973336091 33 36 29
-26.062525761394 288.310953620782 2836.25980927483 27 30 23
-20.8663131417535 288.16947969466 2821.49891627906 29 32 25
-20.8869460331003 287.868404198842 2811.60155206141 27 30 23
-59.0829224547262 286.428450194093 2838.250619846 26 29 22
-71.492813840806 285.762399226673 2840.36726415443 26 29 22
-71.4704748899337 285.46476945642 2830.50106859555 25 28 21
-65.6696767151244 285.334681829225 2814.94347361586 21 24 17
-59.2158361634485 285.219935915828 2798.62432407138 19 22 15
-70.1763153340553 284.596119665113 2799.32152441854 18 21 14
-77.5058038254219 284.078584221422 2796.47567363147 18 21 14
-71.9031965033106 283.932437190883 2780.77432452901 17 20 13
-78.5412889644865 283.433338489087 2777.1950327129 20 23 16
-85.8894320936137 282.914260072793 2774.33565096534 21 24 17
-103.189642334011 282.114901051978 2781.55236889857 23 26 19
-112.61916775768 281.539888974916 2780.88956423342 23 26 19
-106.473673114459 281.40012533078 2764.34676143973 22 25 18
-108.861653483386 281.019853475173 2756.43796525631 22 25 18
-90.1952817200162 281.218213395929 2726.74109997058 23 26 19
-103.901855126906 280.522072787573 2730.38796713502 22 25 16
-102.200984815978 280.247618971551 2718.03299332981 22 25 18
-97.7661124338081 280.044396206117 2702.72017025507 16 21 14
-110.048381465612 279.388455365887 2704.9293819415 13 18 11
-125.058026404533 278.661800754729 2710.1015434424 10 12 7
-110.369872884027 278.725695397177 2683.6955793829 16 17 11
-110.245051882306 278.39866392273 2672.66848969513 12 13 7
-118.379803259934 277.853263929369 2670.47407662343 65 60 54
-129.915675497855 277.220131311721 2671.98915169656 115 108 102
-138.695137909989 276.66002532933 2670.56233597759 110 99 95
-145.423225537869 276.153402641098 2666.91776663407 105 92 86
-150.119350551854 275.698679262953 2661.04077439218 101 88 79
-150.782254188411 275.345307560785 2650.677549514 102 89 81
-146.108172614958 275.123779027887 2634.30271045845 95 85 76
182.775414880957 292.57119539016 2824.63585409815 78 83 79
168.857629640988 291.847627222971 2826.89413926509 40 45 41
144.903004292259 290.83515028273 2837.9316955482 31 36 30
106.358159101657 289.406814990921 2861.8578465096 13 16 9
77.248283596377 288.258928337317 2877.80341141728 21 24 17
80.5576594411601 288.043832882213 2865.37974163338 21 24 17
73.0811474551585 287.519472677981 2862.42757028567 26 29 22
34.2726565360012 286.110034282732 2887.39773117767 24 27 20
-3.58577319246733 284.737221350242 2911.8217605881 30 33 26
58.2981052170597 286.162597886484 2846.76341917236 37 40 33
58.4083949384531 285.849638769957 2836.96090335784 35 38 31
25.9918761511737 284.635416263948 2856.68484807901 25 28 21
29.1379422160114 284.407093695877 2844.14272455249 25 28 21
27.7229735122133 284.051199539047 2835.70437213887 31 34 27
6.80639344806622 283.163764581645 2845.23950128154 32 35 28
-1.32759616741129 282.626423569276 2843.0456812478 34 37 30
1.71934296882403 282.390077238882 2830.43195233035 35 38 31
1.00070315153999 282.050258909543 2821.26313390798 33 36 29
-17.5149895582825 281.236341542965 2828.83398002477 28 31 24
-25.6246210096092 280.700944785223 2826.65753311506 27 30 23
-24.1569354031528 280.417287341889 2815.36880322921 25 28 21
-44.0087695182314 279.575730318294 2824.44098518475 24 27 20
-78.4058788023958 278.362181231791 2847.66960199165 23 26 19
-68.8807420065083 278.287760252321 2828.63666389923 21 24 17
-40.547273470481 278.688771678932 2791.12709238141 19 22 15
-53.0102326525723 278.042590801944 2793.20536735791 19 22 15
-62.5443187991594 277.472408607089 2792.46678885759 18 21 14
-83.5833782982314 276.615241245565 2803.14831998459 17 20 13
-85.8585355252071 276.229930524964 2795.32158065871 16 19 12
-86.7245943650787 275.878122935876 2786.04583431282 19 22 15
-109.035756596748 274.998502920412 2798.27544502924 21 24 17
-119.149997883891 274.421589898891 2798.35130222264 22 25 18
-120.017182556741 274.069681859713 2789.07503370462 22 25 18
-111.723419198559 273.935808648309 2770.38418222032 21 24 17
-108.453467833289 273.677157811184 2756.69667554407 22 25 18
-101.728433652076 273.496835501669 2739.33875126262 23 26 19
-104.890967539291 273.079902694676 2732.10331563826 20 22 17
-95.2619113949267 272.611273050042 2700.79246443164 21 26 20
-104.082620754487 272.058468405488 2699.33578490294 18 23 17
-128.103913460412 271.161146141379 2714.03100024182 14 15 10
-120.984542793771 270.972427438975 2695.72356525862 11 10 5
-106.390140773553 270.945824309209 2669.24947482377 12 9 4
-117.276587384613 270.346580246995 2670.00046741626 35 24 18
-129.4988101668 269.719743008658 2672.25335532597 58 43 36
-140.320860898542 269.125693326902 2673.05105617621 123 103 94
-145.685497570455 268.651245124766 2667.92467676285 143 121 110
-151.731637521045 268.161888438909 2663.53922219356 160 138 124
-151.03858224211 267.815348477521 2651.68862773951 154 135 120
-145.688103302246 267.563920470334 2634.56893549397 147 129 115
201.137442938867 285.393173604582 2809.50261819623 52 57 53
171.613673576855 284.293425211142 2825.14838644401 32 37 33
129.036806562319 282.868314806272 2852.32713269534 16 18 13
95.944876289308 281.694825933821 2871.56166354039 15 18 11
73.8013760563092 280.805377022992 2881.44239849701 21 24 17
77.1233918065879 280.55781922269 2869.0280216992 20 23 16
36.6648271576224 278.227948147534 2866.85951620482 37 40 33
13.343910110466 277.329240933913 2878.35703742584 32 35 28
42.269525216438 277.691686288698 2842.51186135507 23 26 19
12.2150302975554 276.635058878008 2860.24348147213 26 29 22
13.8568406764255 276.3375067705 2849.0809079706 34 37 30
3.46721308091391 275.754294095657 2848.95709984304 33 36 29
-8.39092394883978 275.138235795234 2850.23864477589 34 37 30
-14.2570273320277 274.663094064244 2845.98377455803 34 37 30
-20.124189891005 274.187866061454 2841.72813608405 33 36 29
-25.9924597648504 273.712547770374 2837.47169443657 29 32 25
-34.0763441708598 273.186930900239 2835.31425612356 26 29 22
-33.3166192992596 272.860979162129 2824.74713279264 23 26 19
-44.3377542939165 272.269672985672 2825.40082158545 22 25 18
-46.5503585499492 271.87518018006 2817.61908725707 21 24 17
-54.6209787280683 271.35063540988 2815.47126989633 19 22 15
-37.9566613819984 271.365745109369 2789.26287990988 18 21 14
-48.9776081628894 270.774441371518 2789.91641067819 19 22 15
-66.4733308556422 270.046169539284 2796.99146305587 18 21 14
-78.8560438191817 269.430675827676 2799.12806566528 18 21 14
-81.8619245394376 269.014986172385 2792.00649203862 17 20 13
-92.7637831224737 268.433325589246 2792.74640122751 19 22 15
-104.349820510295 267.839308150528 2794.22560311601 22 25 18
-120.883463478305 267.14590867128 2800.7632276241 23 26 19
-117.485948365541 266.86139113569 2787.16806361082 23 26 19
-100.00080381375 266.856867202149 2759.08424159947 22 25 18
-103.815131297616 266.418740558557 2752.61153064219 23 26 19
-106.238054381819 266.007212706096 2744.67753989799 25 28 21
-113.588602646351 265.497921331634 2741.81646418975 23 25 20
-127.916207241618 264.854049646501 2746.24843397387 20 25 19
-102.504842691256 264.974878383473 2709.08951547091 20 25 19
-134.899676306477 263.986996195197 2732.53573105904 18 23 17
-142.913074727117 263.467072556323 2730.42941837841 12 13 8
-113.673841002753 263.639622371921 2688.63485717868 22 19 14
-103.221570683905 263.452926413908 2666.56804490354 8 3 0
-112.062240872096 262.909042618466 2665.09694053005 32 17 10
-127.716228863101 262.243831050496 2671.03735185186 54 35 28
-137.182243913333 261.692354621291 2670.34821429038 118 94 84
-145.948408686812 261.154502744673 2668.93115103489 125 98 87
-151.992312209154 260.664933882099 2664.54731662545 152 126 109
-154.666361765382 260.233051249545 2656.4311758414 158 135 117
-146.612109486451 259.981263801391 2636.33076929926 159 138 121
175.043214682387 277.098496135724 2832.53853124104 28 33 29
168.925151095666 276.602336861994 2828.10090323655 29 34 30
148.844001865546 275.799518134285 2835.77200935927 21 26 20
127.294039730574 274.969321543439 2844.84827624537 13 16 9
90.4053883994265 273.812645633726 2867.50604575333 18 21 14
79.0708763620302 273.21455517916 2867.93223199933 17 20 13
86.1711209027827 273.010540348403 2852.08122233681 23 26 19
63.3729519303063 272.170870208454 2862.72295719837 20 23 16
-12.3482054906463 269.883374775824 2911.56992637733 33 36 29
12.230222341032 270.041736043803 2879.98315648096 22 25 18
26.0492803143584 269.969753393767 2857.88721373746 17 20 13
35.9844034274319 269.812163526046 2839.15106220909 25 28 21
2.23912340202892 268.77280299556 2860.38271852035 30 33 26
5.37136618040179 268.47636583311 2847.83022918462 30 33 26
-7.23961478896262 267.866524420063 2849.80138407514 33 36 29
-20.5569576995774 267.245270661101 2852.49546094335 33 36 29
-28.6324799313666 266.728011917888 2850.34412688445 26 29 22
-20.4046342828041 266.52372169753 2832.84017019886 23 26 19
-19.6445730825259 266.172540274547 2822.27316288645 23 26 19
-32.1752244017826 265.569227462706 2824.30258352331 19 22 15
-40.9976956403348 265.03727536986 2822.84473239322 17 20 13
-32.9748009161288 264.816390797082 2805.19241283205 18 21 14
-22.1185001492574 264.641794069661 2784.6535887653 18 21 14
-53.5475921631527 263.698551495948 2805.09441831699 16 19 12
-63.0710533609324 263.155646141726 2804.36368023138 15 18 11
-69.6818613923877 262.665456001643 2800.80391812724 16 19 12
-68.3618741585708 262.313847320379 2789.40777435261 19 22 15
-67.8055177632231 261.946183139856 2778.69301359142 18 21 14
-89.4944466509173 261.196532511882 2790.13931622938 20 23 16
-103.946809413016 260.575031555305 2794.48095946804 20 23 16
-106.245457683664 260.159334844385 2786.63674259523 20 23 16
-119.921701043267 259.554903343864 2790.30576670591 20 23 16
-105.252672906823 259.414337741506 2765.12052819915 19 22 15
-100.58583787034 259.104819702018 2749.9750269193 21 24 17
-105.828940742695 258.633855310209 2744.93676759708 22 25 18
-111.077272114703 258.16246072723 2739.89442136785 24 26 21
-112.838184961492 257.744549896294 2731.20526701251 21 23 20
-139.000807035015 256.953225805952 2748.05383378383 19 24 20
-120.607474311784 256.839500002309 2718.15775037226 19 24 20
-121.745563034449 256.426238600038 2708.68478696027 17 18 13
-94.5514548253321 256.017211023818 2657.99391609601 19 14 8
-108.902234988508 255.404020138136 2662.40924082066 23 8 1
-125.250433036216 254.766464634022 2669.08187564683 43 25 15
-134.723689246419 254.227729971966 2668.3872588765 85 61 49
-143.497035454315 253.699892911542 2666.96504037296 115 87 75
-149.547561338144 253.209394444862 2662.57640056372 149 120 102
-153.575995554684 252.745273917391 2655.94834740252 149 122 103
-146.865166091618 252.418158569953 2637.34434565287 157 131 114
-133.540198255962 252.168720672649 2611.18392321374 148 129 114
186.387676300116 269.692969673232 2823.43317240216 26 33 26
175.570836682789 269.10682045037 2822.99965428864 29 36 29
150.814804523739 268.265289148188 2834.69215617463 19 24 18
133.899174873149 267.573464198227 2839.71784173062 18 21 14
105.472599578894 266.677359933126 2854.92498424186 16 19 12
74.8645249273436 265.750202973675 2872.25595839009 17 20 13
78.9124945649564 265.44590349299 2859.13222254381 18 21 14
85.9615694110589 265.190527062361 2843.24385872099 20 23 16
80.7329510664485 264.717290451085 2838.21579355579 19 22 15
71.6963399538324 264.178332011203 2836.60296684951 23 26 19
37.654205445377 263.215804589665 2857.61981618566 19 22 15
40.8200272647141 262.888584959402 2845.09151309407 19 22 15
16.7934388451769 262.106311964098 2857.31310446894 23 26 19
3.39411727217964 261.505282689285 2859.9481501733 23 25 20
-3.21690514010475 261.017212423603 2856.38824339752 30 32 27
-16.5500323044872 260.421556746166 2859.07100758265 31 33 28
-26.1148342655373 259.888422541079 2858.31005571126 27 30 23
-18.5732530876099 259.624396286734 2841.54363979673 25 28 21
-11.8525304729789 259.342414995982 2825.41711167508 21 24 17
-19.9768636589492 258.828888436349 2823.23041241807 21 24 17
-46.4952817497606 258.039091280667 2838.58602616842 20 23 14
-44.2636263429712 257.684781378835 2826.61571979693 19 22 13
-28.1762818546123 257.530389199172 2801.22324794147 18 21 12
-31.9226454399377 257.080223777839 2794.79974448589 19 22 13
-53.8693823650329 256.36951603045 2806.05905935198 17 20 13
-68.4680199213319 255.768562668274 2810.29476894829 17 20 13
-67.8309250581199 255.382198375647 2799.63844250573 17 20 13
-55.7013836265816 255.149955441321 2777.55225252131 14 17 10
-75.3028537060874 254.483650552375 2786.80681639588 16 19 12
-95.5379220264481 253.81459160693 2796.83709406336 23 26 19
-104.258353349328 253.301444134136 2795.45330909489 22 25 18
-105.130044663486 252.890009693759 2786.17347210345 22 25 18
-111.002328599143 252.413384646693 2781.91411395792 20 23 16
