ply
format ascii 1.0
comment KinectMotionCapture
element vertex 782
property float x
property float y
property float z
property uchar red
property uchar green
property uchar blue
end_header
124.959874852701 1074.37394190202 2783.51438514183 44 45 37
109.559325099857 1076.29295878015 2798.52372885185 34 35 27
94.2092193359723 1079.24506938129 2804.82815854374 39 40 32
95.0070813444213 1077.93695516166 2814.14824939318 42 43 35
163.70315166379 1057.67770305554 2787.18559897955 47 48 40
130.151972665657 1066.62061020429 2779.50449429914 31 32 24
112.457521184847 1071.37728933027 2775.11698211841 23 24 16
110.652579908243 1070.92024011728 2782.64484227496 30 31 23
119.8000064821 1066.88601013187 2798.24705534651 31 32 24
190.409899237725 1042.9677548936 2799.68187275121 34 37 30
207.002587991305 1036.54140751661 2820.99724386633 33 34 28
143.577347108782 1055.16155285237 2790.5387809793 32 33 27
119.215408308441 1062.04834826172 2781.12140178829 33 34 28
118.176014419744 1060.33166212683 2797.99427676674 48 49 43
132.542998172792 1050.66502834796 2851.75584148851 37 38 32
106.692905992752 1066.23696182701 2709.33362554738 39 42 33
98.3772824813611 1065.77703143599 2730.41199967608 30 33 22
208.748097842007 1028.11301822015 2831.84592710611 32 35 26
191.254075624639 1032.76258132163 2827.27521740553 36 39 30
161.768232038306 1040.25417738311 2761.92506953216 32 34 23
126.852893569001 1050.43851448218 2744.07882450038 32 34 21
108.39026305917 1055.32937893893 2739.01738360023 26 30 16
84.876584336631 1061.82280920582 2730.23271812635 22 25 16
171.259712843744 1032.23835799419 2813.19920667761 48 49 41
30.5379406946518 1072.95080489744 2744.28782731783 48 49 43
123.573745387209 1047.35547259637 2715.19946016243 27 30 21
152.938882849591 1036.99123802253 2747.08585719964 32 33 25
162.649493606439 1032.90464001816 2763.55313149813 31 33 22
134.35822285144 1040.890610494 2750.79029499891 27 29 16
108.447208796572 1048.10170309667 2740.0290829742 21 23 12
85.765792542182 1054.27223474362 2731.88294000107 24 27 18
68.5679433669337 1057.48161083058 2673.38471476797 31 31 21
101.921342165852 1045.94785246746 2708.56844887655 27 24 15
129.676934792124 1036.20996958913 2739.12641674498 31 28 19
118.689043651832 1038.67072666006 2739.75481534972 23 20 11
105.185445916343 1041.91566636846 2738.51438014598 28 25 16
94.1377517061186 1044.38425741072 2739.20100622568 24 26 15
67.2277609767073 1051.80910837006 2727.9832900969 29 29 19
37.1468155217061 1049.39583334857 2813.474312101 43 44 36
109.715007634269 1037.23216045177 2706.36846512363 26 22 11
130.808338838558 1029.66371591374 2731.8855648054 29 25 14
120.650084381869 1031.84761926503 2733.14795009562 30 26 15
118.744779166041 1031.46166062835 2740.76496597134 28 24 13
108.559631532301 1033.64907222958 2742.05353806611 28 24 13
115.812493343175 1030.42678811185 2756.58292023203 24 24 14
55.617074774803 1048.09470201334 2720.2237789542 27 24 15
46.122311967201 1050.04233348575 2722.2791374269 25 25 15
116.150197511369 1027.43792334994 2783.61229415397 26 26 16
130.61401475961 1024.4778818425 2714.42382300109 22 18 7
121.275444716439 1026.39119846619 2716.32915146941 35 26 17
104.504417963354 1030.59406351757 2712.5237655214 41 33 22
111.623021725451 1027.42734237942 2727.17791788834 32 23 14
111.351663057741 1026.54498949623 2736.07992401789 45 36 27
113.592269119059 1024.89526006219 2746.85199575209 32 25 15
127.508143042836 1019.67032474659 2766.39684959066 27 24 15
105.677296968463 1025.41305707547 2758.88621572514 25 22 13
113.005455397972 1022.22127452481 2773.33598127537 24 21 12
132.113552703093 1015.44149039209 2796.45681810754 23 23 13
97.4880925563029 1024.13608855556 2788.46194328842 26 27 19
110.992845989223 1023.266753782 2700.07841148148 47 35 23
105.716889987656 1023.91583234669 2705.2215802556 61 47 34
108.678046646292 1022.05047113281 2716.72691419557 40 26 13
106.724426468326 1021.69063972789 2724.38838379147 55 39 26
109.751651015046 1019.81736238873 2735.82928134177 92 75 65
102.863660648323 1020.96532104664 2739.6653333334 37 23 14
123.405418753137 1013.78546234224 2764.25547328049 25 18 10
129.066679036769 1011.13826478603 2777.44618527108 26 19 11
128.095968399802 1010.50802655957 2785.58848649054 19 16 7
112.785892589796 1013.29445966564 2791.8776529079 19 21 10
91.6557608487776 1018.74746038534 2785.13093087392 20 21 13
126.093315143776 1007.4573628883 2819.20240742052 24 25 17
121.230957387398 1013.83194202199 2699.80840816405 51 39 25
108.588213248795 1016.71359523457 2699.18373551599 86 70 55
106.593580917623 1016.36872288842 2706.88371984394 94 76 62
110.380142708273 1014.28070304131 2719.01923245257 61 43 29
110.081506162137 1013.43239378907 2727.94329428485 90 71 57
108.97856821788 1012.8306317189 2736.21235256967 124 106 94
109.554107078681 1011.7275692817 2745.72290702737 35 18 8
122.628234765193 1006.87560028506 2764.63159374606 29 20 11
120.787209669987 1006.51243778288 2772.18140925305 27 18 9
113.114822123439 1007.89881930345 2775.34423112707 22 18 9
115.477652906383 1006.28156418828 2785.99013221573 19 19 9
97.7356858722214 1010.67643179609 2781.70361710825 19 21 10
101.803925681796 1008.55502483677 2793.56435388072 20 22 11
116.874182309734 1003.16361041439 2813.40440348615 20 21 13
119.363107124888 1001.53175645709 2823.92724903931 20 21 13
130.281483245799 1003.85215298853 2707.88312667697 103 86 68
107.003237931399 1009.89951121175 2698.9309394437 108 87 70
108.291354884594 1008.58188102446 2709.18251565929 119 93 78
112.905397825338 1006.27611704789 2721.94575690041 110 84 69
112.612508816039 1005.44253305984 2730.86193495603 160 134 121
109.860400963326 1005.34602966625 2737.86014769198 142 116 103
108.77879445167 1004.75455157188 2746.10650358176 48 26 15
115.199407884911 1001.93742581069 2759.98519130169 42 32 23
115.00774521918 1001.09184722836 2768.80262289754 35 25 16
108.157376645067 1002.22378697776 2772.60402132263 27 20 10
98.7875911576892 1004.09999650095 2774.54583160175 15 13 1
97.7900719714717 1003.49890729526 2782.71044589438 17 19 8
104.381528203219 1000.66160036775 2796.42246695744 16 18 7
128.730237595859 992.600038715116 2823.03053842219 17 19 8
109.277748175865 997.45466364172 2817.54048892165 17 19 8
57.5784929160048 1011.77736628766 2788.82630650763 21 18 11
91.3615836486423 1000.09658297113 2830.68996482851 22 19 12
112.667654745599 992.989656932549 2854.5106891016 18 19 11
138.443675001481 980.426523224228 2922.87740811502 40 41 33
132.314942753995 996.927806748866 2701.21931156263 188 176 160
123.792589675054 998.54300951036 2703.77543277792 99 81 61
111.156034467701 1001.37470250854 2703.15199852751 94 68 51
109.988811498376 1000.80627020704 2711.48030450927 110 83 66
112.959199340315 999.018350701534 2722.96502589709 116 89 72
111.840530719509 998.444105234958 2731.24563803427 159 131 117
111.568989811594 997.623633625022 2740.13867910587 141 111 100
110.491516785248 997.044299698936 2748.37947332286 43 19 7
112.758815339611 995.485509443475 2759.11126040401 60 47 39
110.894815506175 995.145279635193 2766.68083856553 41 31 22
103.199540906298 996.517327535168 2769.8685061247 33 26 16
95.4927648777017 997.89088434181 2773.06737175687 18 16 4
81.9007600555617 1000.98321273708 2771.9372819825 16 18 7
98.5479625958923 995.240635926815 2793.09745911037 16 18 7
105.180023587281 992.435360484849 2806.76442480729 17 19 8
89.8983882576148 996.020311679239 2804.40519719222 18 20 9
62.7145400650497 1003.05882620864 2793.51652592833 22 19 12
71.079245999838 999.75692056627 2808.37050778741 21 16 10
87.1625477328708 994.227033456297 2828.64230199038 18 15 8
111.869142039266 986.215871184718 2854.88787728074 16 17 9
81.1624141927973 994.257264973181 2841.68093951954 16 17 9
104.301017415823 986.723626793843 2866.57881880514 21 22 14
83.7859033732591 991.806992233822 2860.69325419759 23 24 16
29.6003494497104 1004.87548696813 2848.80314335363 28 29 21
146.295662139979 968.933836020242 2953.6208901171 44 45 37
101.292397014204 981.011289170233 2931.34253479542 52 52 44
112.787381827286 995.42222730907 2686.82480369773 193 174 157
116.485719253523 993.431600938071 2699.03352969118 105 78 59
113.668937887826 993.357756999722 2706.09261512398 126 98 77
113.329062145096 992.560937132263 2715.05001797952 157 126 106
113.836142984814 991.520638299082 2724.61927583089 192 159 142
111.89389057607 991.1998394591 2732.26335022586 178 145 130
113.277368676573 989.912337156991 2742.4161163662 163 129 117
110.544787149707 989.828468179342 2749.39307181077 96 66 55
110.318085070877 989.018147568037 2758.24008694909 91 72 66
107.614649350142 988.930853211633 2765.18826860481 49 34 27
104.923200477434 988.842093653489 2772.12510154142 41 34 24
97.2204773478662 990.206648016798 2775.32127314213 27 25 13
92.8629161440346 990.601931341527 2781.00722029107 13 13 1
95.2371764249467 989.054187892698 2791.63116008337 20 18 6
92.5887888133272 988.960943279603 2798.52589544032 20 16 5
91.642051114734 988.379634419469 2806.63715943861 23 16 6
92.4082301334468 987.309148834638 2815.95359055678 27 17 8
90.6552834565573 986.967020658749 2823.41283402809 25 14 8
88.0672169166044 986.867350992637 2830.24861928919 22 13 8
88.0487380107127 986.033611045524 2838.89232710628 15 16 8
111.981440723475 978.350195364751 2864.44070022665 16 17 9
64.9556560805244 990.96733851104 2839.83956710095 17 18 10
77.8314622740734 986.457050579121 2857.47778036401 19 20 12
95.0901542045513 980.711037879338 2878.03124731097 22 23 15
74.5076693283036 985.754555083577 2872.21813464704 23 24 16
25.3356708029471 998.916029666471 2846.83395304939 23 24 16
29.6692354649366 996.852340099411 2858.42268771582 31 32 24
137.64937031972 964.615602654877 2948.67491201268 41 42 34
70.1501559763194 982.129628172575 2919.59129254531 45 45 37
94.5349930554178 994.318034574186 2664.01948398029 189 161 149
96.5237862142247 992.840278027023 2675.01619213158 144 112 97
106.725664552569 988.984380294862 2692.37878021962 125 90 70
117.820901818878 984.882043316523 2710.30758261659 160 125 105
118.312149226895 983.861902937547 2719.88958388897 190 155 135
116.359918417964 983.55256364044 2727.5418732674 194 159 140
113.597977412415 983.479531119586 2734.54638148474 182 144 131
114.985008303203 982.212527903121 2744.69225205391 174 136 125
115.574081462546 981.180454777679 2754.1792124058 141 108 101
117.021525998416 979.906189274277 2764.26616469516 91 62 58
109.334104786212 981.259969263792 2767.44873371347 43 22 17
98.2945179179855 983.573039921392 2768.15029492765 35 26 19
92.2508971589835 984.451237764201 2772.60499310711 31 27 18
88.7205877241151 984.610256772073 2778.92095825902 20 16 4
87.7213568819339 984.047831022678 2787.08155780937 25 17 4
91.7991285262953 982.040742355211 2798.91593313538 44 28 15
94.2299695631292 980.509912246361 2809.48152545837 40 20 9
89.0743228499935 981.14305731886 2814.50758029376 42 19 13
84.7674558286364 981.535383066236 2820.14328665676 31 7 3
70.2564956924125 984.823951782071 2818.47981954253 30 12 8
84.6919552465937 979.903131046257 2837.46376916714 17 17 9
46.1675678232369 989.154727975355 2827.59028748321 16 16 8
94.1957218952187 974.769787089365 2869.87850518035 17 17 9
89.1216876548686 975.394884428306 2874.82470707533 18 18 10
65.0772185371018 981.362297708166 2866.64486939139 16 18 7
30.5770446324374 990.257142886252 2851.41110262987 19 21 10
22.7961117611675 991.626839324086 2854.68417766388 22 24 13
65.6523458190605 977.202571056708 2909.19888539042 34 36 25
102.86714893698 986.30707633519 2652.67848035203 179 161 149
101.566858102275 985.793808058531 2661.13077147244 177 153 143
100.285959156363 985.277931257595 2669.56385385737 146 112 100
100.656400971479 984.29088789755 2679.26092514439 136 100 84
112.503166882042 980.014819604601 2697.88637306013 183 145 126
121.152431709461 976.668591359042 2713.88124391138 188 151 132
124.116232737812 974.960284578223 2725.36073937652 188 153 134
122.17753551497 974.65944076453 2732.99833407517 191 156 137
119.429088014118 974.592314151622 2739.98857015225 185 148 132
118.347372484117 974.052080673051 2748.22779820902 187 145 133
118.943891189117 973.037421261219 2757.70445344275 153 116 108
120.399011305293 971.783004124707 2767.78085018745 82 49 42
118.552208449177 971.471283191865 2775.32880005494 49 24 19
109.204571709143 973.288843996936 2777.25762239744 36 26 17
99.0005251038193 975.345958254243 2778.58421934091 30 23 13
92.1296047539135 976.456914388854 2782.40878951028 29 21 8
84.4103478961111 977.806380124901 2785.62394728206 29 13 0
84.2655404406125 977.017886443414 2794.3860759961 69 41 29
84.1443254007164 976.226641400468 2803.1255215847 89 59 48
81.5060874669173 976.14739018527 2810.00810994343 93 63 55
72.0897343895608 977.974557277742 2812.00374881962 59 28 25
59.2513950399209 980.759274654353 2811.58763218177 31 7 3
63.43020934681 978.76963999293 2823.31909095574 16 16 8
41.939483480117 983.155112215806 2825.59035605503 15 15 7
69.3875550440532 973.880597101649 2862.05352428603 17 17 9
29.7784203833871 984.116011293523 2843.19242613245 14 16 5
26.3112544992703 984.275489557791 2849.44595876913 17 19 8
11.5920465684836 987.562242055647 2847.9895532296 20 22 11
-30.0802115581855 998.32089842812 2828.26601357512 19 21 10
23.7858775221258 982.580987816817 2873.45947103241 26 28 17
105.350772231474 978.206135406479 2655.66058703247 166 148 136
105.679891042433 977.242522835085 2665.39522961316 177 153 141
103.594717865373 976.969933468025 2673.17410110478 146 112 100
108.867621420203 974.60969263189 2686.70804499013 162 126 110
118.280026407991 971.083138967712 2703.38900555869 188 149 132
121.204750534072 969.405763703808 2714.90273330076 183 146 127
124.168375163715 967.723779257459 2726.37851350288 181 146 127
120.582626243974 967.898501641706 2732.74754777264 187 152 133
120.306567181556 967.140647860303 2741.63548270875 182 145 129
117.571825771173 967.079400355526 2748.61123950577 183 141 129
117.337026078945 966.316450074669 2757.45929437975 143 110 95
115.462941417895 966.018252116157 2765.03233679314 74 46 32
114.437971955919 965.484073911185 2773.2143201987 57 34 20
107.586154757392 966.5865480009 2777.02117429889 47 31 16
97.3784116702796 968.62755801823 2778.35382210305 71 55 40
89.6649737889295 969.967621762343 2781.56459115549 58 35 19
81.9398875812634 971.309284938635 2784.78635293079 99 66 51
81.7893267723888 970.536966391296 2793.55180413202 90 47 31
79.1278093129586 970.467785158204 2800.45602106487 92 46 33
79.865134501226 969.455129408705 2809.7925572388 126 82 73
72.9913663070376 970.561419171177 2813.6209828894 141 100 94
54.2007695990212 974.973288053514 2808.956012609 48 17 12
-21.1641691188853 994.226197197597 2773.25606077855 15 15 7
56.5530189237378 971.921234167135 2836.82840921249 15 15 7
16.1892916785269 982.272301749114 2817.28296765402 15 15 7
27.2857085703455 978.410838545197 2833.75808830904 15 15 7
37.593296895218 974.778050343978 2849.56548216682 16 18 7
16.8602366602411 979.693704548882 2843.92112899748 17 19 8
14.2457975127335 979.621949569639 2850.77897686921 18 20 9
-8.32223181629166 985.026907252513 2844.0502998183 17 19 8
20.3613156212068 976.376273260241 2872.10885277123 22 24 13
-9.22272943663849 983.69623471563 2860.72819610781 25 27 16
106.213869445139 970.578255301807 2657.34782540633 92 72 61
108.168684022806 969.175426948817 2668.36720043661 132 108 96
110.972356557782 967.53949432036 2679.99500899469 141 107 95
118.709869312517 964.523990737934 2695.4294728538 174 138 122
125.691886395507 961.73041131968 2710.16444547097 181 142 125
126.994419759743 960.53633143981 2720.38344529581 180 143 124
125.863490217239 960.027953609012 2728.66683534368 176 141 122
122.281334268995 960.20713049262 2735.03130552457 183 148 129
120.358201174086 959.924963662565 2742.65068436407 177 140 124
117.623476407533 959.871203100533 2749.62531806666 176 134 122
113.241990381649 960.277463320806 2755.3334005372 115 82 65
106.370521409934 961.376400008485 2759.16029196515 68 41 22
105.324197234749 960.857769108597 2767.36118303171 54 31 13
101.791781510359 961.031206166087 2773.67710877881 85 64 47
96.593280480052 961.667100109 2778.74531230282 109 86 70
88.8778823098706 962.998873536738 2781.95891541419 91 58 41
81.9920575781046 964.100019739951 2785.80007360065 125 82 66
80.155884706004 963.807833693294 2793.33458048923 122 69 55
78.3353543770979 963.514088437303 2800.85378455163 141 88 74
79.9173973853948 962.286894803327 2810.8001213664 154 106 96
74.74105881936 962.921115223175 2815.84656458174 155 110 104
69.5648887064193 963.555491313313 2820.89281751267 36 6 0
35.4019305942854 972.131792005857 2805.37127122005 16 16 8
8.64627574968502 977.864922117175 2804.16937378669 16 16 8
77.2367271670236 957.584544758233 2869.42058929884 15 15 7
35.9229563012531 968.07149581492 2849.38156226388 16 18 7
70.4929544915886 957.898407278561 2881.73917946825 18 20 9
39.4172966990061 965.582197180917 2868.95144829552 17 19 8
29.9266404546099 967.393610648142 2871.02319969392 16 18 7
21.2864742313892 968.972244811756 2873.70171592587 20 22 11
-13.5263260003793 977.631837749964 2858.81282406495 23 25 14
104.646929895757 963.632932760337 2657.09651654552 139 120 106
113.092775521738 960.446915599346 2673.26970654256 94 71 57
115.094036196047 959.061937446122 2684.24032166055 154 121 106
124.472303733155 955.634994011526 2700.94012103186 176 140 126
126.561275142564 954.239194401782 2711.82523749984 180 141 124
125.406570398522 953.746623086166 2720.12956263627 183 146 128
121.80691454989 953.932828516141 2726.51070950285 182 145 129
117.391588115494 954.345608710925 2732.25109450792 179 142 126
115.45700840464 954.074955540108 2739.88047613445 172 132 120
113.537950444533 953.802299675062 2747.49440258837 171 129 117
109.975835924465 953.98419824376 2753.83856907095 120 85 66
103.928146774487 954.849817892416 2758.2991662744 105 74 54
99.5430277011393 955.258907907017 2764.01010033042 113 84 66
96.8323592595644 955.210016485731 2770.96012608981 171 140 122
91.6223414655439 955.846772611439 2776.03963850019 170 134 118
86.4124278103784 956.483751484096 2781.11901457725 174 127 111
80.3618644444288 957.350205223957 2785.58234264133 149 93 78
81.8932527285043 956.149859605629 2795.57501222107 118 59 45
80.0768806562626 955.865542829079 2803.08903138999 174 118 105
79.9691871957897 955.11930952468 2811.80805929304 179 137 125
73.9444672589982 955.983271884405 2816.24609267483 87 50 41
73.0196298535115 955.463949915819 2824.32644772282 25 1 0
80.6394137333477 952.633442922151 2838.43322852032 16 16 8
46.4483791818169 961.121822446126 2822.95255725739 17 17 9
52.3769958907554 958.751921955245 2835.83679598024 17 17 9
31.7472601620832 963.556203499711 2830.10596303729 17 17 9
27.3544823342071 963.211435520176 2844.43839166438 16 18 7
48.9421713389295 956.648329858855 2867.89875093574 16 18 7
14.3564589731611 964.430605927591 2861.41615610737 16 18 7
705.107358346616 852.076389118389 2415.98409464728 172 175 166
694.998290418299 854.331669515331 2414.35326885611 196 197 189
688.77525865911 855.37008916666 2417.54519693789 222 225 218
114.768846976924 952.643631775327 2675.59282122945 73 50 34
120.842788759064 950.164404959455 2689.76581770712 172 139 124
125.339814527725 948.125897371739 2702.60575835239 166 128 115
127.430273132662 946.753569814696 2713.48559101209 173 134 119
127.097152810284 946.049540815613 2722.42257118554 177 138 121
121.858125136133 946.689069565263 2727.53048104313 183 146 130
119.089842951382 946.654753406232 2734.53556388378 180 143 127
114.682533411361 947.068586853023 2740.26783232404 173 133 121
112.761656816705 946.806466762484 2747.88234536808 171 127 116
109.197649181305 946.993380463394 2754.22765050782 129 92 74
105.641781668491 947.179195965775 2760.56537254075 128 93 74
98.7610655473779 948.267622575923 2764.40299990962 141 108 91
94.3781363642486 948.6787363043 2770.11146026827 163 127 111
89.9995621999654 949.089346944269 2775.81600822707 165 126 111
87.302853336261 949.046479581478 2782.75128156606 174 122 109
82.9360343850221 949.455975140929 2788.44398339095 100 42 28
84.4731844389561 948.275778124533 2798.42795349349 148 90 76
84.3521272960892 947.546371475137 2807.15810260044 183 131 118
85.1009851038391 946.58698492668 2816.47531354809 134 100 90
77.3905830558745 947.901794148892 2819.68646273841 35 8 0
80.7264452031431 946.254378167031 2830.7874963789 30 13 3
86.6586229467021 943.917758919901 2843.66327998844 16 16 8
74.6977296961884 946.372879091905 2843.84180788573 16 16 8
59.2802941832633 949.746858636344 2841.64861337786 17 17 9
54.9749767939485 950.150592848886 2847.28143260915 16 16 8
20.564414585591 958.57508177254 2832.02786071549 15 15 7
57.584154288763 947.975280967073 2866.26698206595 18 20 9
120.717191785961 930.463294438 2918.10715082224 17 19 8
61.1757748047514 945.557146480009 2885.73008731428 17 19 8
-13.3651240948311 964.59332761128 2843.57590895546 18 20 9
715.164157830106 845.781841777559 2385.67288430763 128 129 115
702.516060719532 848.81083003126 2380.78068538998 128 129 115
694.982221941376 850.247753226197 2382.38154693375 124 122 109
687.432664599483 851.686422120546 2383.99775923005 126 124 111
684.410276943355 851.725064359329 2391.24438934082 126 122 110
678.795459934124 852.563783014118 2395.27877622263 126 119 109
671.871058631606 853.804022347235 2397.72077429254 130 123 113
664.934641285734 855.045435718495 2400.17419310681 134 130 119
663.240338113996 854.678207057896 2408.99582186899 139 136 127
662.551938621717 853.128140283269 2429.74659374962 158 155 148
654.297479737703 854.770856226678 2430.61571631515 165 165 157
107.181690417949 948.16824056687 2661.11620242394 92 73 56
114.820762901227 945.292283734705 2676.62779397908 84 58 43
119.266695019935 943.291778673488 2689.51251677524 175 139 125
122.127957693063 941.727663089357 2701.07252294702 167 129 116
124.210714347805 940.379998915851 2711.9566963618 170 128 114
123.050138302007 939.913924110375 2720.26327345703 172 133 118
120.265889300562 939.889063932337 2727.28247615084 173 136 120
117.493648405722 939.862735872577 2734.29030941155 174 137 121
114.733334111143 939.834845306521 2741.28653031964 168 128 116
111.157652502498 940.02793516546 2747.64285289592 162 118 107
106.760461224939 940.442910766381 2753.3649049421 149 105 92
105.692505030028 939.965572538817 2761.58117388509 141 99 85
100.478267549319 940.601681246551 2766.66497219482 159 117 105
96.9342816990415 940.791142202391 2772.99001892279 162 120 108
92.5615113830838 941.203320959292 2778.68857180741 144 100 89
90.7095429567324 940.943436170041 2786.23398980312 180 128 115
87.1914266407599 941.129871735338 2792.53379485251 199 142 131
84.5241514450259 941.091313551419 2799.43920322934 158 110 96
81.0240572589462 941.275758947106 2805.72174402551 168 128 116
81.7651827683941 940.335332669787 2815.04383093989 26 9 0
79.9876952415835 940.067060849746 2822.51652790081 27 23 12
62.9157662636239 943.852502129635 2819.07163736138 17 19 8
50.0521497808508 946.517102274344 2818.69837456482 15 15 7
80.7300583260653 937.67152173072 2849.05671410801 15 15 7
70.4648504233671 939.654910392004 2850.45494173479 16 16 8
43.8690268386597 945.940180141461 2840.51092975193 17 17 9
25.7787310752668 949.972618974934 2836.6235391944 15 15 7
77.56287588392 934.909758705166 2889.45230545831 16 18 7
74.2187459031802 935.077962526536 2895.5823719906 9 11 0
36.1633256694107 944.343139846698 2878.15596950635 14 16 5
732.173173495055 832.925959677721 2418.86106929519 143 141 126
707.956094677173 839.46447103885 2399.43227732237 143 137 121
686.85765504222 845.030997783259 2384.1355117134 145 139 123
681.236968793409 845.868333471202 2388.17593123877 146 139 123
674.961514213086 846.903677926647 2391.4207083115 140 130 118
668.02510202047 848.137542638468 2393.87523769707 141 131 119
661.731587101162 849.174410329774 2397.13738597781 142 132 120
658.057124621824 849.417516229495 2403.58440706995 132 124 113
656.366040574994 849.062854888877 2412.40098174911 131 122 113
650.730694368049 849.899666906511 2416.45637406986 139 132 122
647.078916008361 850.138615798332 2422.8814838998 147 140 130
642.105701919808 850.775298311683 2427.72585760993 145 141 132
639.131428619217 850.812133764861 2434.92463865452 145 142 133
109.663480610512 940.121605143666 2664.0921030717 91 70 51
114.060420688941 938.158883598571 2677.01989130092 97 71 54
116.062902677733 936.844867883985 2687.97880541813 169 133 119
118.100568688646 935.526298726707 2698.9034542781 164 126 113
121.808608471423 933.766314645223 2711.06845685842 164 122 110
123.100913021419 932.65742387209 2721.28536097622 168 128 116
121.138163407331 932.421116730509 2728.93730156298 167 129 116
118.36785188975 932.402093451879 2735.94213928009 168 130 117
114.783879169493 932.601194956511 2742.30546869216 164 124 112
111.208130529115 932.799305616115 2748.66111575979 160 116 105
105.152533776871 933.656546100273 2753.13080376604 156 110 97
103.249285304574 933.412914800815 2760.72474134674 153 107 94
100.528674724738 933.387802835746 2767.68112520315 161 117 106
96.9847079540522 933.582155798898 2774.00542994826 164 120 111
93.4489658017523 933.775458880309 2780.32206053978 171 127 116
90.7600697879101 933.746702603232 2787.24748999106 219 170 156
85.5603311952926 934.380924526917 2792.31716955645 209 157 144
82.046249137445 934.572040766606 2798.61227672624 165 121 108
77.6957553745299 934.984005838401 2804.28874024695 132 98 86
80.1223295797246 933.618603508226 2814.83378160139 29 19 9
70.7037224653728 935.362319024274 2816.84399287619 15 17 6
78.235384120072 931.948977731999 2839.62655459104 14 14 6
71.3823725244835 933.023815039261 2843.43901729153 14 14 6
60.2399217672054 935.216465839017 2844.26052187055 16 16 8
19.0305838273583 945.237737729519 2824.18628073174 16 16 8
43.031438512954 937.559106848314 2858.16840233462 16 18 7
54.3518853245115 933.211439721899 2882.99505028528 22 24 13
44.8953736438664 934.962600345908 2885.04146312905 28 30 19
722.219123547611 828.399093605427 2418.07870664368 157 146 128
677.871664795988 840.900391942617 2373.83081494655 162 149 132
678.064221553668 839.984746986299 2385.11122323206 166 150 134
673.080477725624 840.625823319601 2389.96540372449 166 147 132
671.360506287825 840.289604869063 2398.80793815881 169 150 133
665.731306104559 841.12422683092 2402.85755107648 179 158 141
662.724769732978 841.175671938866 2410.0865483689 164 143 126
658.412335664183 841.617289814049 2415.72049753733 172 153 138
654.103572469492 842.058032135437 2421.35093087998 168 149 134
651.78620962474 841.907930642086 2429.34260433176 147 135 121
646.826248643487 842.543119297158 2434.17403830202 147 139 126
637.867742917511 844.360480072241 2434.29923019979 137 131 117
628.217505619662 846.377868859313 2433.66484840356 143 139 127
621.220984054911 847.6077534226 2436.17965554846 140 138 126
110.212969607574 933.372472083484 2656.0418397032 119 102 84
112.144892100152 932.090880076306 2667.06602823342 139 118 97
116.547301920303 930.159371118482 2679.98377172148 153 124 106
116.114095428862 929.51460391306 2689.01138007312 159 123 109
116.519993979542 928.651406834534 2698.65493787126 164 126 113
118.588736135851 927.352625503594 2709.54580302738 164 122 110
120.692594768998 926.049712026903 2720.40240773221 163 123 111
118.723969121596 925.824406228496 2728.0585573132 161 123 110
114.300760013245 926.247025483554 2733.80531572122 161 123 110
113.183440457285 925.801620700348 2742.06588346233 162 120 108
108.776324630309 926.222152172751 2747.79696957741 161 117 106
104.373331890277 926.642281802185 2753.52402079842 161 115 102
99.1433918601952 927.2795445022 2758.62324141226 156 110 95
96.413124733099 927.263197908138 2765.58791884484 162 120 106
92.8596725455937 927.463569064659 2771.92109110471 162 120 106
88.4771714583659 927.881292302137 2777.62814947525 194 150 139
83.2598356104763 928.51720192002 2782.71505393479 200 152 138
78.8835622093247 928.934257996367 2788.41602672711 198 149 134
76.1970180517464 928.91304808436 2795.33800540089 146 104 90
73.5223340261606 928.890578889572 2802.24839290972 68 36 23
70.8594697694451 928.866619625109 2809.14726344498 28 22 10
54.6309141035417 932.356787287184 2806.32544136881 13 16 7
4.33114163638937 944.651231049999 2779.35514626605 14 21 13
27.1381930148542 938.035018353219 2804.44666634887 14 14 6
53.413000481604 929.138646563559 2849.10389818477 16 16 8
-32.7845192061509 949.882030637135 2806.93630466809 15 17 6
-8.81448787729422 942.314196012218 2840.93265868158 19 21 10
29.3246888953487 931.854287874984 2875.45673355818 18 20 9
690.883658169131 830.167734740112 2390.83620862812 159 144 125
677.48730144106 833.305104479791 2385.25411451794 162 143 126
673.803086725908 833.561646350875 2391.70883389371 160 139 122
672.737517760592 833.0460143597 2401.34530140168 165 144 125
669.730787460233 833.105916457637 2408.57324132881 178 152 135
668.048754173307 832.77747566041 2417.37695308473 185 160 140
662.434380116138 833.606926299212 2421.4126077593 188 163 143
661.439725199202 833.080526431841 2430.98024805633 183 161 140
657.818090530978 833.326538534371 2437.3740429736 186 165 146
652.21089299997 834.153728175012 2441.40290542614 186 169 149
641.935099769786 836.342104425127 2439.94752872805 183 168 147
630.959673279285 838.728746323678 2437.74034746398 157 146 126
623.300478654309 840.144735036032 2439.46878332412 142 134 115
615.625604822135 841.562228610975 2441.21256645075 124 119 100
600.519573040433 845.131061750708 2434.43027836294 121 118 99
588.059587402009 847.92419476648 2430.80338843353 126 123 104
113.496396947845 925.122567692896 2659.66865519524 131 114 96
116.245606852343 923.65159636818 2671.32616474184 151 130 109
121.469290400163 921.538035370391 2684.87252564938 151 122 104
119.419893675294 921.333290563158 2692.60584319878 167 131 117
118.202136960791 920.913461652666 2700.96236642024 164 124 112
116.186352200354 920.704243647939 2708.66296792873 164 122 110
119.103673317066 919.212256140226 2720.15664673913 159 119 107
116.309604585333 919.211441793158 2727.18238444895 158 120 107
112.70408904053 919.423152838064 2733.56558036171 158 118 106
110.757330341441 919.205291970351 2741.19891538226 159 117 105
107.998996200804 919.200090647929 2748.18981650791 161 114 104
104.423266911983 919.408000731068 2754.54365816665 159 113 98
95.86872281578 920.90448858505 2757.14929154944 151 108 91
90.6313471302815 921.54215794814 2762.2558357744 156 117 100
84.5592252312071 922.395289962849 2766.74254072572 148 109 92
80.9942942225397 922.60195668885 2773.08584330028 131 93 74
77.437521902497 922.807817719909 2779.42150109978 120 77 58
73.8887002902908 923.012676437914 2785.7494118703 114 67 49
72.0333034164864 922.784123524016 2793.29360352752 107 66 48
71.8831496760162 922.120538106183 2802.04291763675 90 57 40
74.2961132957434 920.803967698928 2812.59425716688 28 15 6
64.015847297441 922.738528443743 2814.01499229192 25 22 13
37.5526172638869 928.804419850548 2803.97139913391 8 9 3
-12.8754023219768 940.972385609183 2777.14714870966 15 15 7
82.6439686504066 914.563553482846 2870.40960229451 15 15 7
4.27183708683287 932.41393717051 2842.15419585938 9 11 0
-2.69995607903928 933.493193362127 2846.08395730591 12 14 3
693.543707731947 822.570170667183 2394.98596969632 160 144 128
684.697332136158 824.345267527449 2395.00606130537 163 144 127
677.779934788522 825.55356036712 2397.44548818033 164 141 123
677.378245584982 824.862699273526 2407.86552137344 172 146 129
674.384717490468 824.929015752869 2415.07940327223 188 159 141
672.715795426538 824.612308001265 2423.86836125088 194 163 145
665.138956438306 826.009776778977 2425.51775398454 185 156 138
661.509548066361 826.262711693944 2431.91858295786 189 160 142
657.887533808974 826.514255750582 2438.31193719237 200 175 155
652.944388362211 827.147324540344 2443.12698640347 202 180 159
645.335750991559 828.547150882273 2444.80760695398 204 183 162
635.038333464309 830.716611659311 2443.37649920121 180 165 144
627.390551186892 832.120488306328 2445.09539258948 170 157 138
621.7434239783 832.948420030861 2449.16345828047 149 141 122
611.373754541492 835.125750963779 2447.80293453636 135 128 109
599.620742601858 837.692521361113 2444.92437488693 128 121 103
595.964466870944 837.944669584814 2451.3516619755 123 121 108
590.95608458829 838.582424384721 2456.23079973877 118 118 108
570.946741582747 843.482344264982 2444.20213507553 119 121 110
564.527783553414 844.5124999618 2447.58984224876 124 125 117
577.987546445916 839.909964413052 2473.16360578309 133 136 127
572.296954083297 840.739529599252 2477.27492943163 137 140 133
559.706176300943 843.516423344272 2473.78031819173 155 157 152
115.971544364705 917.103482575514 2662.6470802943 146 129 111
119.536059761928 915.448571042397 2674.93907503438 152 131 110
121.520078161311 914.20794039254 2685.9054774883 152 123 105
119.470501086269 914.0136558036 2693.6374281124 164 128 114
118.252540865761 913.606825690099 2701.99223220181 159 119 107
115.419030166213 913.618767514876 2709.05525101211 160 118 106
117.514508659289 912.364216524744 2719.91269152353 154 114 104
115.538103848223 912.160399527228 2727.57372773564 154 114 102
112.753957180234 912.165941324986 2734.58867325406 154 114 102
109.156264525264 912.381632589662 2740.96317480483 153 111 99
103.912173821939 913.019853643313 2746.07630560213 156 109 99
101.985197115085 912.809877454617 2753.68883145985 152 109 92
94.2560586894037 914.083647638659 2756.92465170214 153 112 92
88.1817974948813 914.933865028922 2761.41391178569 157 120 101
82.1039212652357 915.784656089456 2765.90667686434 142 105 86
77.6962952074549 916.209910421851 2771.63757160951 139 103 81
74.9706276540318 916.208433810982 2778.59548382042 118 76 52
71.4160645855295 916.418851774552 2784.92827428784 118 72 49
68.7121636610297 916.414867009556 2791.86494261855 123 80 61
70.2435109081922 915.340071196159 2801.83909674222 91 54 36
69.2663161773308 914.903891237133 2809.95915503559 43 26 16
74.2483141091905 912.965125198904 2822.30243155415 30 21 14
59.7159441566246 915.956359573145 2820.70417058988 25 22 15
74.1235145735946 911.648733403198 2839.62518465098 17 17 9
56.1545189705561 915.503067494165 2835.64366504424 15 15 7
38.9841452948643 919.149192501891 2832.31712242912 15 15 7
87.0566601870744 905.747733871227 2882.91806251847 15 15 7
85.4274641919277 905.503578915389 2890.2399393343 18 20 9
38.0205743098743 916.71878195825 2866.22445547983 27 29 18
692.96884533448 815.926829425403 2395.12145232957 174 164 152
684.769353800256 817.499401278989 2395.94635877004 155 137 125
679.804134129619 818.138437192045 2400.78244607355 169 141 127
679.407769022807 817.465656998282 2411.19452001081 170 137 122
677.074279913168 817.351803434125 2419.19651181191 177 138 123
673.442996312556 817.611284415896 2425.5982354092 187 149 136
667.18489655109 818.621751060382 2428.82911797786 196 160 148
664.221366694721 818.691008231374 2436.01277654977 193 157 143
661.931665689079 818.569806447323 2443.97237218 216 183 166
656.335516860401 819.390413966748 2447.99123594244 222 191 173
648.736362082929 820.778430488368 2449.66418562403 215 186 168
639.784939623099 822.54672077397 2449.78959633072 213 187 170
632.820651032583 823.748718452795 2452.27651732506 209 188 171
624.500231013321 825.331476982227 2453.21966411058 193 176 160
616.83444675186 826.726124144208 2454.95779784899 185 169 154
608.477027029676 828.312590534961 2455.93747570818 169 155 142
605.523653951549 828.376439464817 2463.11184778484 162 149 133
599.862074634603 829.20171147643 2467.19465773747 157 145 129
593.514879974961 830.217912809719 2470.51350311457 146 138 127
590.578612794026 830.278072079944 2477.67143411253 146 139 129
587.653898643164 830.336303156546 2484.81817776701 207 206 201
585.428350406322 830.200645263382 2492.71620535608 199 199 197
578.391089656039 831.407124736308 2495.27492637659 173 175 174
570.650618688306 832.806823651178 2497.08647847152 164 165 167
567.748911879029 832.860090377875 2504.21110922445 158 158 158
564.858634866485 832.911398515554 2511.32434165686 196 196 196
559.888032799421 833.539908888171 2516.16732942987 209 207 208
552.120228988515 834.941048602124 2518.00581049265 199 201 200
547.141818234352 835.569540913774 2522.85655507678 205 207 206
541.460268512191 836.391243685244 2526.96006131114 201 203 202
536.479914817643 837.018919496526 2531.81285594219 222 222 220
110.083515640202 911.960254272024 2649.41606493986 129 116 107
117.638529766389 909.306946231426 2664.97822029204 151 125 110
119.586831235845 908.094654711913 2675.97556383229 153 124 108
119.135208104987 907.499502215354 2685.01412714682 151 118 103
116.26601874428 907.52366681855 2692.11076887377 152 116 102
115.855744622905 906.923183684684 2701.1090598765 153 115 102
113.016318347159 906.943478240452 2708.17671841142 148 111 95
116.744832746853 905.297022627518 2720.30460993639 148 111 95
115.587766170936 904.895489044382 2728.59816291168 145 106 91
115.273497157699 904.28303391674 2737.50255103627 142 103 86
107.555231567822 905.547105764624 2740.72934564372 143 101 85
103.961638562231 905.767292553606 2747.09911174552 145 103 89
99.5469985077975 906.195612958306 2752.83651832891 149 112 94
93.4744016876055 907.042613117588 2757.32460116947 152 117 97
86.5652379802695 908.09982135246 2761.19542931622 156 119 100
80.4833334312738 908.947889999109 2765.69225910512 153 112 94
79.4197593849204 908.534865041219 2773.89467103664 153 110 91
77.5367553155215 908.329900822815 2781.46279064831 152 105 87
73.9880138411442 908.544597232196 2787.78916783429 156 109 91
67.9188176131951 909.391535543661 2792.27354513558 145 103 87
65.2249237867477 909.393896203565 2799.19933841896 122 86 70
64.2361745467226 908.972028078184 2807.32875522797 62 39 25
66.6608225951975 907.701395599518 2817.86170234185 44 24 13
66.5693068362936 907.062261098689 2826.54917423369 25 15 5
49.4531502709656 910.663457316273 2823.17543368206 27 20 10
51.0783015441962 909.59889035601 2833.05492720114 24 17 7
57.8724565754731 907.255060596836 2846.49306749186 17 17 7
53.5640916358044 907.671929305952 2852.12663387085 16 18 7
55.2806445589349 906.59696012311 2861.91690164437 12 18 8
86.3389263168686 898.265164533195 2891.8215877726 18 24 14
689.806765344473 810.013298283333 2392.05057739344 228 218 208
684.841497233097 810.652988960205 2396.88661602551 170 152 142
681.828265171191 810.738949366227 2404.11716089142 160 132 120
682.089882277487 809.899644341337 2415.31737037933 165 133 118
680.418496464499 809.610654650853 2424.10501602187 182 145 129
676.139822300026 810.059515474836 2429.70437060158 187 149 138
669.230748182789 811.249245297599 2432.13827599151 191 155 143
664.951666476663 811.697390903939 2437.73814097496 190 154 140
663.325971410321 811.400813135224 2446.4815365453 215 182 167
660.390756056445 811.473695010108 2453.63654266802 221 190 172
651.470375104472 813.222504250224 2453.73400798854 216 187 169
642.526528991439 814.973799896127 2453.85440707119 219 194 174
635.569758377587 816.166947991789 2456.33517056809 218 195 177
629.273386936305 817.173911747185 2459.60491304803 210 188 174
623.642936170257 817.994021164989 2463.65757491857 204 185 171
616.656581765125 819.189424546947 2466.16738222721 193 175 161
612.370298373606 819.634160277918 2471.7752404108 179 163 148
604.688177594637 821.018850314816 2473.53073036934 176 163 147
597.672506917115 822.216580157807 2476.06964316191 162 152 142
593.379887900824 822.660712381023 2481.68354407074 159 152 142
591.833783326304 822.348158152608 2490.34992857792 246 243 238
590.994747396047 821.843654093124 2499.75980072985 230 230 228
585.351933851289 822.661358086337 2503.8254323851 213 214 216
579.013538833012 823.668738206652 2507.13650551768 206 207 209
574.054301488575 824.296759376628 2511.96828025705 197 198 200
571.181220843418 824.353965330276 2519.06390258981 231 232 234
568.319748241947 824.409177186135 2526.14829269037 238 238 240
561.973423895102 825.415434046555 2529.46740578075 236 237 239
557.02182099682 826.040605770839 2534.29202054906 236 240 241
550.663992498482 827.047297404387 2537.62283101465 230 232 231
545.708504529758 827.671838495828 2542.45139692261 236 238 237
538.631886286414 828.870719246078 2545.05032360342 225 227 226
531.543645982968 830.070475453406 2547.66066176956 225 227 226
523.732919151547 831.463345528371 2549.54298827526 206 206 206
516.619519840432 832.665270958325 2552.17798909777 204 204 202
506.635338138936 834.638487350494 2551.88174769164 204 204 202
492.323535484099 837.771497908498 2547.20934920467 204 204 202
473.649176061774 842.068706846816 2538.19483447578 200 200 198
106.91085451443 905.355110517046 2647.87448874583 96 83 74
114.457722072927 902.745228066989 2663.43831547684 145 117 103
113.968667077763 902.170598097191 2672.51101596548 143 111 96
111.06802951274 902.206452162501 2679.6371585268 147 114 99
107.365671381225 902.44540880498 2686.11249367234 147 114 99
107.749450124011 901.65835749985 2695.76676245465 142 109 92
108.160716745501 900.867781942019 2705.39425625008 150 114 98
111.87737973637 899.251892018933 2717.5293988036 149 112 96
112.35131718167 898.453356839136 2727.09583597319 139 100 83
110.382715502372 898.269372128622 2734.74619235674 133 95 76
104.303154525159 899.114255858311 2739.24116567356 138 97 79
100.701967577603 899.340281359029 2745.61794755494 145 104 86
97.1088169107008 899.565234790052 2751.98690774227 150 113 94
91.0302561636271 900.409874487187 2756.48092388367 155 119 97
86.6144872104306 900.840623953837 2762.21943030791 162 121 101
82.2026955235979 901.270944029602 2767.95371286965 162 117 98
81.1427044489164 900.870453560937 2776.15037642331 162 115 95
78.4246775227073 900.883345622488 2783.09857769494 160 112 92
74.0372233786903 901.310702464017 2788.80946852361 153 106 88
68.8109745451406 901.946025609396 2793.90531039005 149 108 90
64.4295995740816 902.372982925449 2799.6098857178 132 97 78
60.8991345274736 902.590682495092 2805.91767027506 81 54 37
59.0735129496207 902.38951147241 2813.42824759168 59 36 20
48.7590922467178 904.278916152929 2814.88923504788 46 27 12
46.0932257911062 904.286117090762 2821.78648134673 30 20 10
32.3329777895216 907.018185873571 2820.87670575003 23 15 4
45.0780380087208 903.246938617962 2838.53518396721 19 17 5
45.8899625971236 902.408448385573 2847.77190024665 17 19 8
8.88383523834424 910.825021401962 2830.84620493134 15 23 12
686.860107059162 803.261686212293 2400.22560374105 166 152 143
682.550793477409 803.718537439519 2405.85420273695 155 128 117
682.813798869399 802.900463083171 2417.0498957531 165 136 122
681.798484433341 802.442594824456 2426.62792231619 166 133 118
677.523502759046 802.893748648316 2432.22360913618 176 140 128
671.276520885674 803.892376224065 2435.44520128679 185 151 141
667.663439821364 804.159469249757 2441.82772443968 187 153 141
666.707233822074 803.69221650003 2451.34810463296 202 169 154
663.117024973562 803.955482618273 2457.70848095269 211 179 164
654.204230997674 805.687295878699 2457.80092429218 215 186 168
645.267980335983 807.421830351776 2457.91625827339 218 189 171
638.318702202589 808.606014140825 2460.39090654704 220 193 176
632.701831344058 809.422275679848 2464.43098992546 221 194 177
629.102997648126 809.684211375265 2470.8001274821 221 195 180
621.455829250872 811.054824221535 2472.52298981153 216 193 179
615.826881039306 811.871134082147 2476.57505903814 217 194 180
606.794631233207 813.614940269069 2476.78435123361 200 182 170
600.466235199654 814.618216316902 2480.08643964865 199 185 174
596.864661879959 814.878151670276 2486.45825549988 175 166 157
594.642322330413 814.764071605462 2494.35024546341 255 255 250
591.747533945644 814.834051903022 2501.46519801806 239 238 236
587.485482709917 815.275437941589 2507.0494883958 236 237 239
582.535641047619 815.902923293631 2511.87201227757 234 235 237
578.279123332879 816.342622311814 2517.45071928606 226 227 231
573.331115615367 816.968815027099 2522.2716130847 250 251 253
569.080334122973 817.406729464434 2527.84488769987 242 243 245
564.134204196064 818.0316240155 2532.66410869278 249 253 254
559.188057318639 818.656048952835 2537.48341592651 247 251 252
553.538817737055 819.468312354489 2541.55623284838 247 248 250
550.000945413773 819.714543139846 2547.86715603965 242 243 245
544.349613213585 820.526139886012 2551.94181165212 239 240 242
539.40349647755 821.14849711462 2556.76139456145 237 239 238
532.324697458097 822.338571587071 2559.3637883492 227 227 227
525.947257006056 823.339833796257 2562.71487624128 224 224 224
520.991567317278 823.961864658177 2567.54401347105 223 223 221
513.169086761962 825.343891992063 2569.43961415074 217 217 215
508.205766426668 825.965882348173 2574.27633471204 211 211 211
503.242538091067 826.587389355648 2579.11303535501 198 200 197
499.001894015591 827.017362333111 2584.67741710962 196 198 195
492.59176254225 828.019751392729 2588.06046327913 212 214 211
481.089164940851 830.362095092173 2586.38365581767 210 212 209
472.465033336943 831.941922082918 2587.62882597657 215 217 214
442.710868578502 838.372834257664 2577.9654111038 247 249 246
108.853373315155 896.766180951228 2659.96817628533 103 82 65
108.350569587592 896.208969935451 2669.05195495469 117 91 74
108.683096493699 895.446719043728 2678.7534520782 128 101 82
104.974760369001 895.691559595138 2685.23385382016 128 101 82
104.536967524252 895.125917049296 2694.25432189831 132 103 85
102.487683868272 894.962318228816 2701.98144580977 131 100 80
107.009946543628 893.174326057443 2714.7589619225 135 103 82
105.829278232556 892.801891038171 2723.07165101465 133 98 76
103.844875215389 892.630171951085 2730.73554766451 131 95 73
98.5752648081326 893.270312854725 2735.87373615208 135 99 75
97.4421104939038 892.891770003532 2744.14014587788 142 104 81
93.8409870555383 893.12275391724 2750.51579400043 150 108 83
88.5859605706827 893.760997316907 2755.63978088772 160 116 89
84.99729166904 893.990457069285 2762.00362458356 173 128 99
81.4167440823583 894.218834032042 2768.35956372943 174 129 100
81.1915373055694 893.626640547696 2777.17251707462 176 129 99
80.9900935515069 893.031615225325 2785.96262977337 173 128 97
78.2898118454161 893.049877198536 2792.8924161085 169 124 95
72.2307048352331 893.889220901448 2797.36823498922 163 121 96
67.0125364150134 894.523289507028 2802.45623830621 155 118 91
62.6411734135308 894.951402377117 2808.15070080979 117 83 58
57.42546991124 895.58527817828 2813.23628492324 90 55 33
50.5093485187409 896.632395338195 2817.11551361068 67 39 18
45.2902829302211 897.267048796707 2822.20432138804 37 21 8
43.4885419419224 897.073717510337 2829.69002621661 42 28 15
39.1338397413046 897.50037867884 2835.3681588595 25 17 6
35.6415001713879 897.719286746657 2841.6379056393 22 18 7
67.4212079090219 889.420420562315 2872.23824747101 12 15 4
691.473696220208 795.170481500876 2406.75915893353 129 111 101
683.273320681655 796.702902126676 2407.5905396953 149 125 113
680.274591997815 796.802778828115 2414.80462567001 156 128 116
679.9055539539 796.182515040195 2425.18180152799 165 133 118
676.937381922973 796.277655057611 2432.36624437447 167 135 124
669.37134628606 797.631422283817 2434.0113682908 181 149 138
664.431196542279 798.265469700627 2438.8232980839 184 152 141
664.789543321713 797.454364009606 2449.92328572723 192 160 145
663.850252175052 797.000592575046 2459.4252145313 200 168 153
652.940688596154 799.259506495538 2457.17184640373 206 177 161
644.668493531484 800.797207108876 2458.07376463678 210 181 165
637.717008114238 801.973708369552 2460.55174025026 214 185 169
634.114053787648 802.24217835624 2466.92400388866 219 190 174
630.518537169785 802.509134051206 2473.28876774201 222 193 177
622.875162245383 803.868641243271 2475.00984234965 221 193 179
615.216125134733 805.229533214508 2476.74626507001 217 191 178
607.541428998448 806.59204544178 2478.49799796117 206 186 175
601.896205443522 807.406823007522 2482.56611747486 199 182 172
597.614620781528 807.854976269177 2488.16880464102 181 168 160
594.707996407557 807.934927154345 2495.29437470142 241 236 233
591.812764340947 808.013101083105 2502.40855682358 245 243 244
