ply
format ascii 1.0
comment KinectMotionCapture
element vertex 778
property float x
property float y
property float z
property uchar red
property uchar green
property uchar blue
end_header
-170.531382671431 452.619104462009 2731.12846833005 145 145 145
-177.111212645012 452.068315284557 2727.5908559351 158 158 158
-183.687518092035 451.517632401617 2724.05579908308 166 166 166
-187.544272609674 451.300639628709 2717.55345195023 166 166 166
-192.092057241286 450.99911286857 2711.78506526536 166 166 166
-194.625595170186 450.945819063376 2703.77240750865 171 171 171
-197.182228544838 450.890485396439 2695.74329151516 176 178 177
-191.719704288774 451.825583155697 2678.71083329743 179 181 178
210.318848367148 480.63387570643 2765.27198095139 200 204 203
197.105956740014 479.349551569965 2766.80338157272 150 155 151
176.258703426529 477.191956010058 2775.14729691339 131 136 132
154.728872618534 474.953413371976 2784.23102387767 133 138 134
139.388949525009 473.419883642825 2787.92434160804 126 131 127
125.622102687221 472.064569253047 2790.28884532475 149 151 148
111.139460794988 470.625657022571 2793.36936159734 136 138 135
95.1916092574678 469.016894452287 2797.85692906188 147 149 146
83.8245326832126 467.93201883169 2798.25704291731 141 143 140
76.246732717252 467.281543061311 2795.23051247411 127 129 126
66.4273588811142 466.37284217814 2794.2834081754 96 96 94
53.6389027984248 465.121438330742 2796.12265792855 102 102 100
40.1437964580751 463.787137242889 2798.68425856759 104 106 105
28.9208541050225 462.71331079158 2799.18891436217 116 118 117
19.9503850442726 461.898348874971 2797.62234295179 139 141 140
10.2577175740786 460.999270374498 2796.76713954106 142 144 143
2.05919610614913 460.272186433257 2794.52528342794 146 148 147
-3.92440520256576 459.801009842277 2790.18525654055 171 173 172
-12.105480282055 459.075110636184 2787.95634816467 170 172 171
-17.3547552230189 458.688774640155 2782.91404323771 165 167 166
-25.5202901660909 457.963895383159 2780.69640540461 157 159 158
-31.4971769645871 457.492859471637 2776.36124672154 148 150 149
-39.6450035720353 456.769145940148 2774.15645194347 148 150 149
-47.0594047845336 456.130294208064 2771.2484316218 155 159 158
-53.7474697586975 455.575690947577 2767.63263252303 163 167 166
-56.1317784965973 455.523120110265 2759.72815785356 181 183 182
-59.9682383363302 455.301647691542 2753.24050007555 183 185 182
-58.8329712835254 455.661966879794 2741.71405475459 157 159 156
-66.2638480720856 455.02117842658 2738.79437560337 124 126 123
-70.8553303939625 454.712636166541 2732.99398151836 117 119 116
-76.1623853385862 454.320409533577 2727.90976079642 107 108 103
-77.9575556350385 454.340573923065 2719.19769694506 105 106 101
-84.6889497648673 453.781464386421 2715.55017031445 102 103 98
-100.504767559561 452.15324703332 2721.36868442082 102 103 98
-123.92476410702 449.626899408915 2735.25620973644 119 119 117
-142.37307492795 447.682305607094 2744.10521195264 115 115 113
-151.048808101245 446.887934674521 2742.75240517444 145 145 143
-157.637224467941 446.339362414459 2739.20857954901 142 142 140
-162.846196667621 445.953587982305 2734.19549378373 145 145 143
-170.117937372497 445.323674972842 2731.39123086198 145 145 145
-176.698041348728 444.775208542866 2727.85343160184 157 157 157
-182.593296738097 444.307723815334 2723.5774672568 164 164 164
-187.131046877723 444.001323940133 2717.81603562901 165 165 165
-191.001592115352 443.774446560228 2711.30364124144 166 166 166
-194.211555761898 443.626614857384 2704.03548029951 171 171 171
-193.404801330807 443.957990850807 2692.27074256528 175 177 176
-187.950848913334 444.845375812986 2675.2318287641 177 179 176
206.905286756755 472.395751282748 2768.93146166673 197 201 200
192.932400892428 471.051197717089 2771.1466578017 177 182 178
175.165289315661 469.285514343884 2776.78468326245 201 206 202
154.401863175927 467.186014721215 2785.18966097772 168 173 169
137.536234126679 465.515756137228 2790.24663707743 159 164 160
125.295921256893 464.356409351886 2791.24867720154 119 121 118
112.331319999964 463.115563913737 2792.95999456216 127 129 126
100.161454763556 461.961730004954 2794.01313160294 132 134 131
87.2715000813566 460.726643411142 2795.77888550533 132 134 131
78.1804383744382 459.913024494932 2794.12490071472 129 131 128
68.3560447262117 459.017124911734 2793.17392781118 117 117 115
57.0571896480567 457.956087472505 2793.62361763015 125 127 124
43.5516411184156 456.647855039608 2796.1777805462 120 125 121
31.5754136073858 455.508901404584 2797.37136507806 126 131 127
21.1155498141355 454.538196395092 2797.19467850678 141 146 142
12.1588072431473 453.734712029173 2795.63811585782 141 146 142
3.21853456846188 452.932487228761 2794.09349896812 137 142 138
-3.5016976155513 452.378344513644 2790.45408902817 144 149 145
-11.6832948210779 451.660109961678 2788.22484097497 118 123 119
-16.2024264500227 451.352510408269 2782.47719470332 93 98 94
-24.3706757911017 450.63514807883 2780.2576272199 65 70 66
-31.8010139664686 450.000247794802 2777.3380738686 19 24 20
-41.3941224664629 449.121541907159 2776.55514607136 9 14 10
-48.0812166391118 448.569396686652 2772.93976870075 179 184 180
-54.7648161347956 448.017459894185 2769.32692575179 182 187 183
-55.7104398172166 448.112919957944 2759.9960611294 191 196 192
-58.8319098383896 447.963504756738 2752.79204308431 189 194 190
-59.1223318655478 448.134736831536 2742.70149529549 162 164 159
-67.9717652212133 447.338332625794 2741.22275924921 141 143 138
-73.9725027716904 446.863960557713 2736.87029374875 131 133 128
-78.562566763017 446.549469201024 2731.07089770847 112 114 109
-79.6444607209754 446.633352158399 2721.64118921487 108 109 104
-84.9668262391154 446.236405120997 2716.54584562166 103 104 98
-102.180948054715 444.48719128346 2723.82015968934 104 105 100
-126.295405670144 441.949890017819 2738.43953098013 123 123 121
-141.958554702085 440.371429807045 2744.36867548344 119 119 117
-149.249797026548 439.745557445112 2741.55000141111 147 147 145
-155.843030993871 439.198920336888 2738.00298768312 152 152 150
-161.744503758226 438.731051420274 2733.72251428427 151 151 149
-169.018697754985 438.10603740463 2730.91620325622 149 149 149
-174.917623898192 437.638031265793 2726.63757526233 158 158 158
-181.499049147564 437.091678677496 2723.09912336714 162 162 162
-186.718073707419 436.701330609281 2718.07843278806 162 162 162
-191.265499381834 436.388108204947 2712.31024707818 166 166 166
-193.122912191424 436.384321339214 2703.5529409829 171 171 171
-193.662240240509 436.533004075326 2693.281547213 173 175 174
-184.180655399912 437.83713753742 2671.75365229334 176 178 175
203.489945473331 464.184371980117 2772.5894932514 196 200 199
188.756760025021 462.785090551673 2775.48829141412 211 216 212
173.30309788415 461.307268704817 2779.0997339302 194 199 195
153.308738414471 459.341546254349 2786.82786546584 173 178 174
139.497991986007 458.03653455754 2789.16080022545 149 154 150
128.774309967727 457.061444086681 2788.79254950244 152 154 151
116.558143171213 455.925381944583 2789.81221157167 134 136 133
104.376209116995 454.79197812633 2790.85640867427 121 123 120
89.9649363082609 453.417784861237 2793.9889897329 104 106 103
79.3623152504237 452.452083471578 2793.70854624123 114 116 113
66.5347358557007 451.245962433712 2795.51966403691 109 109 107
58.2325933084711 450.526475858374 2793.2030237512 109 111 108
45.468822416066 449.325240237686 2795.06042243756 106 111 105
37.2041486419605 448.608579947481 2792.7709583808 97 102 96
25.2456111999444 447.49237758898 2793.97718758389 63 68 62
17.0161433592262 446.778360268654 2791.71325844673 36 41 35
8.06205463221321 445.985441509674 2790.15867314279 0 4 0
0.593672822216007 445.352936184434 2787.21184775681 2 7 1
-9.79670450286396 444.403319065981 2787.08564022355 8 13 7
-11.3989961784644 444.406294484307 2778.51331113515 10 15 9
-23.9491332721062 443.221275259203 2780.52565966064 11 16 10
-34.2830197670305 442.275850770774 2780.4401302952 11 16 10
-46.7625806108634 441.096205482056 2782.5036682704 11 16 10
-49.1038709772031 441.018886082339 2774.63054765721 11 16 10
-54.3449156534246 440.626201508832 2769.59388239098 12 17 11
-54.5725282621408 440.780237403928 2759.54877938797 13 18 12
-61.2695514061623 440.229229500003 2755.92621005485 17 22 15
-67.9633858396216 439.678370787942 2752.30624751878 19 24 17
-78.2054782174391 438.739426745672 2752.28729449256 17 20 13
-81.3405465324728 438.577095591557 2745.0733533322 9 12 5
-83.0822389082584 438.567822097484 2736.39990765812 10 13 4
-84.1477589668305 438.63334593621 2726.98197596106 11 14 5
-88.0513229122426 438.388379768419 2720.4455539843 9 12 3
-103.858411738875 436.836848756051 2726.27078433733 9 12 5
-123.090200584147 434.906943264339 2735.7866431648 87 87 85
-137.374618800829 433.518511079615 2740.24614833068 128 128 126
-145.372369806797 432.820352896094 2738.15027600178 139 139 137
-154.048346882376 432.046932283849 2736.79739853111 140 140 138
-162.019309169442 431.350585822423 2734.72095509296 158 158 156
-169.291878328384 430.730806955386 2731.91614293861 160 160 160
-175.188688684395 430.262583884109 2727.6390476252 160 160 160
-179.722934587468 429.944892526956 2721.88009909969 159 159 159
-186.305376346264 429.40064281689 2718.34062648959 158 158 158
-190.17523733345 429.156644522034 2711.82864140897 163 163 163
-192.034216661069 429.135863481456 2703.07040810952 166 166 166
-189.883282412692 429.560824632032 2689.8102013029 176 178 177
-182.421234980106 430.577333207165 2670.52224810498 177 179 176
186.888492804169 454.789967964594 2777.79885212745 164 169 165
170.671862491225 453.265416844146 2782.09200266925 165 170 166
149.917961809606 451.269642419347 2790.50441098097 85 90 86
136.116663071043 449.992206127851 2792.84433424748 58 63 59
129.969921331546 449.50736526397 2788.38597416799 62 64 61
116.991344784708 448.313641160628 2790.08769369858 69 71 68
104.051291261002 447.12291836415 2791.81735459298 83 85 82
85.1132397587375 445.307959375403 2799.07665885736 79 81 78
77.5344766966928 444.672222049667 2796.04950489838 53 55 52
66.9626186265977 443.72482540259 2795.79174934719 6 6 4
60.15602330314 443.168734662412 2792.08972305724 10 12 9
42.9118106908728 441.524971185173 2798.10772116191 7 12 6
41.3476747949773 441.514473674419 2789.56298376946 4 9 3
16.77325966345 439.103554686321 2802.6145255628 8 13 7
13.004801375669 438.862394197625 2796.17606383707 11 16 10
8.48513268268869 438.543030989884 2790.42767417399 19 24 18
-19.6309473890297 435.908383338427 2797.20524987491 20 25 19
-22.7996335041942 435.883173340921 2780.08645653483 21 26 20
-53.4641126223363 432.821416596635 2799.83609744818 23 28 22
-62.2667390418132 432.050416599875 2798.39142142618 29 34 28
-48.6843830180528 433.630267813817 2774.89721862295 31 36 30
-56.8028566725884 432.9318738239 2772.71383067534 30 35 29
-62.7577067251088 432.460696396523 2768.39464618292 22 27 20
-72.2882429057559 431.61297802199 2767.65694087618 18 23 16
-79.6597215046053 430.992056925997 2764.78042137238 19 24 17
-90.5759984006751 429.997052333762 2765.50778474955 21 24 17
-92.2540702798278 429.976010373779 2756.88039932161 11 14 5
-95.3719859268638 429.803508348823 2749.67884097888 11 14 5
-100.620289082798 429.406198472409 2744.63718493475 13 16 7
-97.4534398301308 429.898992785035 2730.87874355459 17 20 11
-104.837521520811 429.276323413891 2727.99278446819 19 22 15
-119.186941364708 427.915394855078 2732.40530787858 95 95 93
-132.094071236935 426.705855683857 2735.39377715111 140 140 138
-143.572247448277 425.646625510323 2736.94851903708 147 147 145
-152.944115278714 424.810023893458 2736.32618658915 144 144 142
-160.917846711406 424.121309412053 2734.24777439573 150 150 148
-167.506657693322 423.579411427012 2730.70369651182 155 155 155
-173.407996344768 423.110433178505 2726.4233147153 156 156 156
-177.264663169537 422.859184431684 2719.92085763962 154 154 154
-181.135548744713 422.60663444797 2713.40808649731 155 155 155
-186.375400445704 422.208231855157 2708.37255155841 163 163 163
-188.244480358019 422.16980431222 2699.60661226952 165 165 165
-188.795008875399 422.272916606056 2689.32716269487 176 178 177
-182.00294834132 423.162434891287 2670.78791509433 177 179 176
214.282413445493 449.732433924532 2754.40244561639 189 194 190
171.110529516131 445.551717920227 2782.37093035146 28 33 29
156.479295841085 444.219538802805 2785.34426989384 67 72 68
138.077993549148 442.509265322506 2791.7578742621 52 57 53
96.9135005843955 438.776178876723 2798.95198964554 37 39 36
73.4663574297088 436.554771404589 2810.35130712984 38 40 37
70.4376851322319 436.379720614057 2803.21413580872 38 40 37
72.6424225403734 436.730422262061 2791.22788702804 14 14 12
29.8738217146721 432.82158952325 2800.9633700877 24 29 22
-44.2407377905485 425.61775647193 2850.95038864002 24 29 22
-50.992813124787 425.834041026118 2788.00562193003 21 26 19
-48.2652496884335 426.241068186056 2775.16362956548 23 28 21
-66.4574232816721 424.529967379853 2782.9641627061 22 27 20
-77.4026078742902 423.551724026717 2783.6706551761 24 29 22
-79.0215508202028 423.518803645312 2775.0860734072 25 30 23
-81.3810594904694 423.411167033017 2767.19959239403 28 34 24
-93.7132036372041 422.290950115503 2769.37000241838 31 34 25
-96.7964523730698 422.109890236128 2762.19353151216 19 22 13
-88.5977515376768 423.07667009071 2743.43934220112 18 21 12
-107.947463727786 421.241265705483 2752.87048902306 17 20 11
-111.071235316826 421.056639239955 2745.66462417031 14 17 8
-111.414937759134 421.155630866628 2735.53479188236 14 17 8
-121.559441204087 420.255654822587 2735.58707501383 106 106 104
-132.373662958345 419.286587068333 2736.38855171647 134 134 132
-143.851075624624 418.248981690172 2737.94425112342 146 146 144
-153.221493470694 417.425810050623 2737.32274334856 151 151 149
-161.193562184808 416.745041771802 2735.24557674441 157 157 155
-166.407660171335 416.346186404928 2730.22870892935 155 155 155
-171.626977373323 415.946733569527 2725.2077600903 156 156 156
-173.441870318772 415.896246712508 2716.4813354843 152 152 152
-175.963778913689 415.773710966162 2708.4767573559 152 152 152
-179.863864253055 415.510072878886 2701.94276251795 161 161 161
-183.778144270064 415.245135504879 2695.39847107409 161 161 161
-183.667701830878 415.394137329382 2684.363369262 173 175 174
-178.90117141905 416.022967662141 2668.05985557764 175 177 174
188.445861536085 439.465231839291 2767.73428053059 0 3 0
22.5606257059203 424.095309424991 2857.37392651587 35 37 32
17.4237040326131 423.702287993477 2852.41303500732 20 22 17
-22.1293343668663 421.138732516094 2770.61680519715 24 27 20
-63.0057400386743 417.374387470147 2790.37055812241 26 29 22
-70.5304502939859 416.856432382109 2777.50230279919 30 33 26
-79.5383533834086 416.194289229934 2766.02848673207 32 35 28
-101.11760975322 414.194898944096 2777.54796314102 29 32 25
-72.9954959008159 417.052779726522 2738.66258400095 27 30 23
-107.252962400447 413.812215856473 2763.21720024219 19 22 15
-92.0386326750675 415.410708757854 2737.20074006251 16 19 12
-117.675354938305 413.010584095282 2753.18765178532 14 17 10
-116.596280064329 413.226177163979 2741.6197384884 14 17 10
-124.631237376617 412.548782893156 2739.49699968733 113 115 114
-133.34937873489 411.803984124681 2738.11370140359 129 131 130
-143.437215625853 410.924296390918 2738.20716609367 141 143 142
-150.735470705707 410.318034391171 2735.38350765566 152 154 153
-157.337115054745 409.779936009303 2731.83014583578 157 159 156
-163.248771158619 409.309509557979 2727.54227736237 151 153 150
-167.108386692232 409.040900752228 2721.03788924963 152 154 151
-170.29976399432 408.838240910415 2713.78262975309 149 151 148
-172.829986892502 408.700912558865 2705.77224395837 151 153 150
-177.416230759658 408.361160321935 2699.9754892563 161 163 160
-180.661311683299 408.153756975481 2692.68156930864 160 162 159
-183.25164771229 408.01118539109 2684.62757966451 167 169 166
-179.824857743752 408.463302801345 2669.82203771394 173 175 172
17.690305288323 416.289669364532 2862.44963556005 33 35 30
19.3445195790392 416.524970423286 2851.29875292527 26 28 23
-49.243385280922 410.70679245693 2847.2483357401 18 21 14
-33.0091937410639 412.30468698212 2821.97089764675 22 25 18
-3.71363270553382 415.124471467347 2783.9362769241 22 25 18
-10.6083004131809 414.650243890869 2770.28993774872 19 22 15
-29.6986275231155 412.950167678002 2778.67447270849 16 19 12
-56.6774014287534 410.510663842768 2794.92333972085 15 18 11
-59.7025050853972 410.311925368519 2787.78892987787 20 23 16
-65.625620229262 409.841884971096 2783.49275645726 19 22 15
-67.2440179596283 409.775178822878 2774.90839879517 20 23 16
-76.0440518986254 409.03545562985 2773.46576054078 22 25 18
-91.2464388604874 407.694843121185 2778.49508941814 26 29 22
-97.8604363671767 407.159298752784 2774.93278546724 27 30 23
-117.229527605267 405.426024775771 2784.35040131438 22 25 18
-84.2278863863384 408.610869066896 2740.3584009498 19 22 15
-109.229701842239 406.34798128872 2755.57093419248 16 19 12
-115.480347347001 405.93258342616 2741.15642733397 12 14 9
-127.0070519661 404.934388731839 2742.67659357527 138 140 139
-133.6302978205 404.397303538582 2739.10757749516 116 118 117
-140.943615438968 403.79501443957 2736.273314502 139 141 140
-144.793247942967 403.518974301632 2729.77583118229 143 145 144
-150.723932398308 403.046767366369 2725.47415963231 128 130 127
-157.342214452106 402.509561537935 2721.90874130615 132 134 131
-163.272545383531 402.037084522976 2717.6073246652 150 152 149
-167.839101203251 401.693326254781 2711.82482195754 150 152 149
-172.415608740043 401.348592913451 2706.03539457588 150 152 149
-177.001624570443 401.002989320198 2700.23877554424 158 160 157
-179.570557796559 400.848171548776 2692.20023921933 158 160 157
-180.141847446766 400.882603848155 2681.90509710169 165 167 164
-178.064591276848 401.1682136077 2668.59106811839 171 173 170
198.665729780647 424.685981488144 2770.12728583634 4 11 4
177.802411245859 422.887548775113 2778.46137438587 3 10 3
28.1022950504424 409.710335528074 2882.31543324157 31 36 30
42.7618502559004 411.078299670375 2859.60104186393 25 30 24
48.9706461044466 411.692503322779 2844.34298308709 27 29 24
52.8424238135683 412.098526659025 2831.09511987683 28 30 25
45.3610915598968 411.490228901293 2828.13902905396 17 19 14
13.8623493289805 408.734126667945 2847.28514855614 14 16 11
10.2098822061896 408.46735288148 2840.93064156488 20 23 16
32.6669585480754 410.53702421802 2810.2861075994 20 23 16
-44.6109625587248 403.740022872811 2862.92243949387 17 20 13
-68.9048706851945 401.623398169963 2876.17852298304 15 18 11
-59.8980835480809 402.489434733152 2858.0096223929 14 17 10
-25.9769360132756 405.58948662306 2815.91879891891 13 16 9
-19.4228175213289 406.238063505079 2799.67620937381 16 19 12
-10.0204656455856 407.142846764565 2780.55892725791 18 21 14
-35.6936899540159 404.901292667327 2795.28484995412 22 25 18
-37.9984160104103 404.755959732043 2787.43789108757 23 26 19
-49.0187283285435 403.82820758828 2788.09017761397 23 26 19
-66.5089421054785 402.318932443413 2795.16556206356 19 22 15
-73.8498686327915 401.720803880684 2792.31101138009 18 21 14
-74.7232367746951 401.703809759007 2783.03195673841 17 20 13
-74.1974459384604 401.812884927358 2772.29774760692 18 21 14
-86.5527286599501 400.763636173915 2774.45174345237 19 22 15
-105.27000430893 399.141437340766 2783.10740031879 20 23 16
-115.401451218546 398.291150487265 2783.16940009692 17 20 13
-105.011641152847 399.288366898398 2762.29834243006 16 19 12
-79.2243184521113 401.673567738252 2725.42343350476 14 17 10
-100.693314518192 399.8023584218 2737.02348922284 12 15 8
-119.965670182078 398.128036516596 2746.51123487901 11 13 8
-125.894720990571 397.656021668762 2742.21074856746 105 107 106
-130.433445874478 397.309330663203 2736.44870072124 114 116 115
-135.675400642206 396.899152462429 2731.41158157861 120 122 121
-140.231377822102 396.550829430808 2725.63672443128 128 130 129
-144.79714766503 396.201623468547 2719.85476390133 126 128 125
-152.120330273398 395.603240020783 2717.01336934935 128 130 127
-158.066192403539 395.129146342628 2712.70068562229 140 142 139
-165.37797456549 394.53143254695 2709.86755888914 151 153 150
-170.640908921364 394.118812545452 2704.81492435011 149 151 148
-175.909319936147 393.705624808297 2699.75861126548 158 160 157
-178.479597847467 393.536603139568 2691.71873372701 160 162 159
-179.052150319434 393.548569435889 2681.42285684522 164 166 163
-176.975175072521 393.800809030283 2668.10816071135 170 172 169
206.915654574436 417.529263031951 2773.60150893318 167 173 169
192.170213722807 416.306353230517 2776.49231624956 22 29 22
154.416200090914 413.113067407956 2799.74778143346 3 10 3
121.439306508674 410.32776946209 2819.05724622291 19 24 18
85.5583990274833 407.292709285035 2841.20099973819 20 25 19
124.517243075677 410.668515915835 2796.5877346286 17 22 16
86.4824099874086 407.448038951116 2820.8745266963 26 31 25
78.1751117465901 406.774391356012 2818.55438112175 19 21 16
67.6138797374293 405.907404428305 2818.30473591998 27 29 24
51.0529221259 404.525730996227 2823.58403658759 26 28 23
31.5486552359188 402.891176290378 2831.66882964624 22 24 19
23.3535550523958 402.226274462246 2829.43006313688 17 20 13
6.95848556476708 400.857646905866 2834.82998020269 19 22 15
14.4433398557071 401.538050887984 2818.02693100549 22 25 18
11.4576775665789 401.320103673669 2810.92101575548 30 33 26
-21.8845737732312 398.495692518409 2832.43579452866 33 36 29
-41.7856377760792 396.824554077207 2841.4680866945 36 39 32
-41.0086979799433 396.929088922775 2830.91562332918 37 40 33
-18.2719738187713 398.920622332917 2799.23808514566 36 39 32
-39.5770055791629 397.1282405752 2809.72236473602 34 37 30
-47.6695410771353 396.470945640603 2807.55798808648 31 34 27
-60.8371155477521 395.377135825097 2810.35824170347 29 32 25
-61.6443649704497 395.34596640706 2801.12675165469 32 35 28
-63.9284097217785 395.187880756762 2793.29472051252 32 35 28
-80.6382547463635 393.788683926948 2799.70133186376 33 36 29
-82.9242697153887 393.630278949129 2791.86757637425 31 34 27
-80.2233014035871 393.901210551296 2779.0053208085 28 31 24
-74.008832553579 394.474910114943 2762.5161327211 23 26 19
-90.6324955757407 393.082231973886 2768.98525226355 21 24 17
-107.190866214311 391.694623782332 2775.50143485154 20 23 16
-89.7527881654605 393.235640682933 2747.39132179678 19 22 15
-93.6022932534386 392.942927406721 2740.89384639093 17 20 13
-110.813379647639 391.498458762253 2748.17190449484 12 15 8
-121.652326287436 390.602799647258 2748.95582942952 10 13 6
-127.574828619267 390.13086722045 2744.66009066593 4 6 3
-127.235618360669 390.198988081136 2733.79041785025 122 124 121
-131.098960476065 389.904631093005 2727.2829033622 124 126 123
-137.742286564734 389.370340219155 2723.69934484551 126 128 125
-144.382186893682 388.836192446464 2720.11827045999 129 131 128
-151.705772105332 388.242884479542 2717.27660976062 130 132 129
-156.281986538373 387.886678776036 2711.48704226932 143 145 142
-164.281187682927 387.234689635937 2709.39035255931 150 152 149
-170.226772773926 386.759961219075 2705.07786644876 147 149 146
-174.816948347083 386.402261467053 2699.27846513841 157 159 156
-175.36080948551 386.394302087783 2689.00299181211 162 164 161
-175.267190214348 386.441576016112 2677.95488477762 163 165 162
-171.184977288067 386.833994750893 2662.3894283788 167 169 166
191.838420195019 408.481377248408 2777.44719362363 25 32 25
170.222397917031 406.72410389211 2786.4711707527 12 19 12
131.064276963495 403.527016897056 2811.17882257872 30 35 29
111.965298923592 401.975679736261 2818.32280305815 35 40 34
111.992250473675 401.993933436601 2808.46125680591 32 37 31
121.101531065005 402.757761990468 2790.36613820434 31 36 30
100.571841012106 401.088668188719 2798.94273628746 36 38 33
79.3690918467416 399.364057663615 2808.26617488222 45 47 42
48.4602185068979 396.8422373641 2826.60605298695 30 32 27
16.1930967100772 394.208448632059 2846.43110839199 28 30 25
14.0350535686764 394.046886293296 2838.69010641873 23 26 19
2.14662499864415 393.086166574321 2839.94824106656 24 27 20
11.1385313357935 393.840404356859 2821.7679867841 26 29 22
29.6913475127476 395.380222356806 2794.46596511543 29 32 25
22.1943607663535 394.780279742402 2791.49827386012 31 34 27
-19.2387765923443 391.391945732408 2820.73152113899 32 35 28
-19.2621119467662 391.405670086077 2810.83349789447 26 29 22
-39.1264894355734 389.788920682601 2819.89266038847 28 31 24
-36.2378224134821 390.041885220191 2807.16638061677 30 33 26
-55.2762319763653 388.49262912052 2815.58961012499 33 36 29
-55.3368938706629 388.503142908759 2805.66451181298 34 37 30
-53.984595044295 388.629806412237 2794.29421394426 34 37 30
-58.4574346293576 388.277594412247 2788.57989979231 27 30 23
-70.8632884647671 387.273032550096 2790.69775638297 27 30 23
-84.6665400495534 386.153365175614 2794.27209974944 24 27 20
-70.5030961311506 387.333551909142 2769.96178447646 21 24 17
-71.4514367251768 387.271015924814 2760.62815002573 18 21 14
-78.1235594946332 386.737636191045 2757.02401527272 22 25 18
-91.1755359859807 385.679321552215 2759.90824812193 22 25 18
-95.6996992196819 385.322433583501 2754.15641020006 22 25 18
-96.0047372524584 385.312615375227 2744.05434990147 20 23 16
-113.209394957567 383.912120793446 2751.33699655957 15 18 11
-123.340278373354 383.093506471397 2751.39956525402 13 16 9
-122.972238312649 383.138862997215 2740.55067647129 7 9 6
-121.252661109112 383.29546214242 2728.21144706 75 77 74
-125.827244990701 382.933932331053 2722.42332909961 127 129 126
-134.561068606029 382.229885430875 2721.0288688293 127 129 126
-143.278226441901 381.527054221109 2719.6464960959 123 125 122
-150.604403227758 380.938614532067 2716.80298136786 128 130 127
-154.497671556724 380.63275212698 2710.27371445173 141 143 140
-161.136188721518 380.100695419889 2706.69365334308 150 152 151
-167.090707836238 379.624862380648 2702.37468517294 147 149 148
-173.046086968339 379.148840182779 2698.05509259972 156 158 157
-173.593425622735 379.11823538552 2687.77727812139 159 161 160
-173.502896620772 379.140151629245 2676.72680244313 161 163 162
-168.079391793438 379.601508751275 2659.66365861908 166 168 165
-162.731952358718 380.056621580451 2642.54534174002 171 173 170
97.1027229749484 393.232933059525 2832.20682028051 36 41 35
110.895104601549 394.309051004267 2810.09735463982 33 38 32
106.331180013973 393.944461136318 2804.31665385233 33 38 32
101.757152258022 393.579010881597 2798.52891918147 53 55 50
71.4814632307688 391.19670754971 2816.09318168194 57 59 54
23.2622587510267 387.40652010872 2850.28591060371 38 40 35
6.08958976945084 386.05262683671 2856.35724046281 45 47 42
17.4460479134453 386.937211289195 2836.18635611413 38 41 34
28.7002881535354 387.813604567219 2815.94133033555 38 41 34
17.5125362181077 386.929171527156 2816.47245572983 36 39 32
34.5678627086969 388.260426834039 2790.55418315376 31 34 27
15.2131108248654 386.735157826538 2798.74791638478 29 32 25
4.05517169861813 385.852945789101 2799.30066497049 25 28 21
-29.9103054620764 383.174667227912 2811.71854887777 26 29 22
-36.5553375517664 382.646372248388 2808.13407849195 25 28 21
-47.5724499158707 381.775113202639 2808.78897088199 25 28 21
-52.0162500451598 381.41935859825 2803.09539563025 29 32 25
-50.6712667564428 381.51749922799 2791.71965009819 32 35 28
-47.2034594205251 381.781973099427 2778.17822316729 32 35 28
-61.805068275055 380.629395890565 2782.40898472256 30 33 26
-72.0454270875988 379.818768064336 2782.39223281876 29 32 25
-70.0877177537349 379.964517813058 2770.22557551639 28 31 24
-67.4659580762058 380.162197129642 2757.30582336101 29 32 25
-74.1491165761277 379.630198221185 2753.6934010886 34 37 30
-88.6325930947032 378.48662348274 2758.00984489456 31 34 27
-95.9919891212877 377.9014790918 2755.1419710443 29 32 25
-102.63872818173 377.372134735427 2751.55625792365 24 27 20
-104.362329389589 377.22860381555 2742.89524688295 15 18 11
-119.424796626602 376.039455483562 2748.02677375081 12 15 8
-112.082453655271 376.606217935422 2729.88480281073 8 10 7
-114.571479914109 376.40227900906 2721.90364946634 3 5 2
-119.85958772847 375.978877566133 2716.83300601692 118 120 117
-129.995379417359 375.175503562851 2716.89209379466 130 132 129
-140.795087091856 374.320049471116 2717.70466753906 134 136 133
-149.502855661642 373.628419128321 2716.32915801961 126 128 125
-154.768262175268 373.206408665312 2711.27497827315 139 141 138
-160.039055211008 372.783857282263 2706.21689098199 149 151 150
-165.315022617729 372.360771807405 2701.15475549658 147 149 148
-169.918029044741 371.99027054951 2695.3459879843 154 156 155
-170.472875611914 371.93669551435 2685.06232003397 156 158 157
-171.738096156993 371.827324473509 2675.49873531538 161 163 162
-169.003948654665 372.030952268784 2661.42515451667 166 168 165
-166.328149403904 372.229778525195 2647.30925150444 172 174 171
164.927646541289 390.908692046727 2812.19572474584 113 119 115
60.0603294776145 382.938252644999 2865.8230661107 33 38 32
69.5083678849762 383.589334735474 2838.09177273169 35 40 34
73.3804897160857 383.850611749273 2824.84342581414 42 44 39
46.2063244355475 381.787973319018 2839.71752171735 40 42 37
4.83575769586864 378.663588411906 2867.76213362129 36 38 33
-2.51593724554544 378.085299077883 2864.90017165126 46 48 43
50.0770685042968 381.990927205022 2806.70582216003 43 45 40
19.4076282154754 379.667906861921 2825.22027735417 40 43 36
11.9713419969836 379.082757223089 2822.29695861332 37 40 33
14.1969705470681 379.219906365989 2810.32447810471 30 33 26
1.56464114121446 378.24621142467 2812.27831406817 28 31 24
-35.3901601346069 375.455105596081 2837.35021909518 28 31 24
-28.0003483566476 375.977994990131 2820.47747370956 31 34 27
-23.6262224503303 376.275158615464 2806.35818540299 31 34 27
-31.0206018420325 375.693037966093 2803.46526115765 31 34 27
-50.8069983264752 374.185601340632 2812.58121295966 32 35 28
-55.9668243247868 373.770448846075 2807.60360551891 32 35 28
-48.8071424209144 374.274683108289 2790.56423406146 32 35 28
-47.5101555764177 374.340967917288 2779.15353352668 25 28 21
-64.2731165853887 373.05957410025 2785.52194218574 25 28 21
-76.6608400368138 372.104776408004 2787.653193944 25 28 21
-72.537613399777 372.381412759041 2773.35191942798 25 28 21
-79.9007676342298 371.801243771019 2770.48134637403 24 27 20
-81.5619884352998 371.646067963431 2761.86549723783 25 28 21
-90.3466305199863 370.959795731182 2760.43458208378 26 29 22
-96.9923493954947 370.432891011466 2756.84932639718 25 28 21
-102.224525468457 370.011212704047 2751.81923778876 22 25 18
-99.7295284527455 370.164902025227 2738.80707537956 15 18 11
-93.7849100815222 370.575050764927 2722.12143850403 13 16 9
-99.0929540134249 370.147054551363 2717.03631966412 6 8 3
-108.584329225742 369.407605490901 2716.32755138448 10 12 7
-115.972327692586 368.82466499974 2713.43924865508 131 133 130
-126.119989046685 368.036390149111 2713.48951386237 117 119 116
-135.552625654406 367.301336530225 2712.82364319154 120 122 119
-144.964095701225 366.567878151198 2712.17312469264 120 122 121
-150.927899615343 366.090725373415 2707.84741908852 140 142 141
-156.20952427738 365.66413466321 2702.78116478329 146 148 147
-159.453977244175 365.38877879062 2695.48735586201 148 150 149
-164.753039839992 364.96059907226 2690.40874685482 154 155 157
-166.675116411501 364.783043885979 2681.60368444772 156 157 159
-171.321508423919 364.402953556198 2675.76312275113 158 160 159
-170.601488083991 364.421018984387 2663.93392264344 167 169 168
-167.247391189065 364.6341299685 2649.07476779482 164 166 165
135.190813773796 381.114991200498 2838.7592152947 86 92 88
108.305757250327 379.145325838386 2852.6080321265 43 50 43
78.4618181495817 376.965489039601 2869.2512682664 35 42 35
63.3246047472928 375.835919671748 2873.09387519389 31 36 30
95.7344644093494 378.046797641142 2824.96224757641 35 40 34
85.894707675509 377.294475375103 2824.00115936868 31 36 30
63.9454536068986 375.679616504865 2834.01903317084 40 42 37
39.0634681992039 373.856647886479 2846.85058879164 34 36 31
40.6719696371547 373.920485061293 2835.66569943595 34 36 31
27.2042006257416 372.910970396138 2838.24876259541 36 38 33
34.0121759840275 373.344236465064 2822.18910871858 35 38 31
25.0538486068845 372.655570812603 2820.63197878924 34 37 30
-1.7671148225038 370.697148579036 2835.76235165061 32 35 28
-11.3825314272646 369.962455203052 2834.96398168391 32 35 28
-20.2362735170984 369.28202314997 2833.4827095661 32 35 28
-40.887404378644 367.763901046793 2843.20707394598 32 35 28
-33.4773985037538 368.23846851285 2826.34901740913 35 38 31
-20.2758998102277 369.12325104609 2803.81023896861 28 31 24
-21.0934795734605 369.012535169146 2794.57115179404 28 31 24
-42.370641224017 367.450726768478 2805.0765084443 29 32 25
-51.9187505231875 366.721052892219 2804.32695640459 27 30 23
-50.5684864209699 366.763693647748 2792.95475792912 25 28 21
-59.3846959121835 366.085809267255 2791.5007068975 24 27 20
-76.8333832739783 364.796850422027 2798.60731067714 24 27 20
-85.5900019479949 364.123599394903 2797.19648176948 23 26 19
-89.315738990416 363.806313573707 2790.78860399641 22 25 18
-90.9132890861726 363.639336027788 2782.21885133516 20 23 16
-94.6741196783278 363.319125089944 2775.78551868266 24 27 20
-96.3200743239476 363.148121683987 2767.18065613844 24 27 20
-90.9185426352821 363.474534474918 2751.33623110381 23 26 19
-98.9892741824063 362.849084024054 2749.18752742511 21 24 17
-89.4704419046981 363.464936492625 2728.91847879482 15 18 11
-82.8531238860599 363.875120216127 2711.4851653208 12 15 8
-94.4824918684684 362.997879324567 2712.93152135395 13 15 10
-108.863223620934 361.926976724559 2717.32252065523 10 12 7
-112.777947814406 361.593798334285 2710.77756156418 136 138 133
-122.243560587423 360.869515636668 2710.08784032423 118 120 115
-131.687866866693 360.146829156654 2709.41327822443 116 118 115
-141.798844571208 359.377361092175 2709.49052592927 119 121 120
-147.771580445893 358.899066519268 2705.15833957291 139 141 140
-152.378858964111 358.516658746102 2699.3464148217 146 148 147
-155.633688838062 358.229070673135 2692.04472702343 147 148 150
-161.622465153167 357.749185394566 2687.70090455226 152 153 155
-165.582497903493 357.41162247051 2681.1233725899 156 157 159
-172.254025801791 356.883552961253 2677.519401492 168 170 169
-171.528131601093 356.874208811931 2665.69432063642 165 167 166
-168.167506545226 357.048992766078 2650.83970405702 172 174 173
151.088613764536 374.631839187874 2825.54853189466 31 37 33
116.44077202544 372.20843009431 2846.11889147921 41 48 41
94.2629785057911 370.632433446309 2855.97128900085 44 51 44
120.503278814867 372.338630348061 2823.12671828667 43 48 42
122.08125361992 372.372153907288 2811.91954597889 42 47 41
127.427733527878 372.660233958664 2797.27005519988 24 29 23
88.5979718858025 369.958415556063 2822.21825033137 32 37 31
77.255209578674 369.117733492986 2822.63722700644 43 45 40
46.2832201790544 366.950622151692 2840.93314760328 35 37 32
35.8108659784051 366.170107892452 2840.74836982276 38 40 35
35.8879646753629 366.102173570121 2830.92273974816 39 41 36
29.1828658570887 365.576077221845 2827.2947368454 36 39 32
11.2714475716738 364.294148621577 2834.06593271291 37 40 33
-8.80585579735027 362.867047256777 2842.97140681996 36 39 32
-16.9141393245498 362.247332439992 2840.79580443865 33 36 29
-19.0845673900291 362.027557503633 2833.04582398836 28 31 24
-36.0482990124795 360.811875010267 2839.26902258586 22 25 18
-28.6487274001657 361.235688695072 2822.40314495148 22 25 18
-36.0116678049689 360.666044473133 2819.53278021722 29 32 25
-15.5542975734093 361.965584064655 2789.90508348282 31 34 27
-14.2289988831703 361.978354257535 2778.51463574714 32 35 28
-42.0493547485488 360.034566709522 2795.39096956656 34 37 30
-56.6829051964943 358.976848615527 2799.59876198219 29 32 25
-61.1413948086741 358.601789577645 2793.89473470708 27 30 23
-72.8186511874747 357.742935808623 2795.30617407707 24 27 20
-87.3366077032025 356.694301219556 2799.59810348783 21 24 17
-91.0552656178552 356.36884388571 2793.19531613523 21 24 17
-96.9310885342298 355.898908165659 2788.93342638981 24 27 20
-87.8540461226005 356.428179938656 2769.57841846122 28 31 24
-85.2598590323961 356.523151406968 2756.63815811336 26 29 22
-84.842461987507 356.472066687233 2745.82426629086 25 28 21
-76.7057894969141 356.935274352295 2727.02256061651 24 27 20
-82.0204205999944 356.500486339762 2721.93263219384 19 22 15
-123.795100802373 353.636499434439 2754.62605358549 16 19 12
-118.523052613765 353.907820969383 2738.68718967326 17 20 13
-111.929468339375 354.266034504137 2721.23670233931 11 13 8
-112.360492030508 354.15596576463 2711.04251008258 65 67 62
-119.750271546174 353.582895545674 2708.15296622775 108 110 105
-128.512039120246 352.918764006723 2706.73845096456 110 112 109
-137.257165400258 352.255853642573 2705.33600551608 110 112 111
-142.557676387493 351.821529930998 2700.2563154185 129 131 130
-147.180204005138 351.431987108965 2694.43330012926 141 142 144
-153.174718030665 350.951353228741 2690.08531447753 142 143 145
-161.206919772889 350.335752768957 2687.96459176882 147 148 150
-167.196680735676 349.855309772424 2683.62005268057 155 156 158
-171.838302320983 349.463861663177 2677.78318611603 160 161 163
-171.783213986217 349.382365444621 2666.70649493727 168 170 169
-167.077994087493 349.607095448715 2650.3564891057 159 161 160
149.194147766551 366.89430514989 2827.84111081509 15 21 17
139.239545542092 366.159153096425 2826.7968556308 42 49 42
113.916945345908 364.43705665985 2839.30951112573 43 50 43
79.496235274342 362.13259660537 2860.04512580364 45 50 44
109.50126295623 363.963616453365 2823.75484093509 45 50 44
94.2904668343552 362.892770790108 2827.54410914893 29 34 28
102.711721991787 363.336594124073 2810.18364196681 43 48 42
75.4005538091338 361.491675743035 2824.95952433746 46 48 43
47.4550955757 359.608107506544 2840.51043717395 42 44 39
23.4064404581065 357.975633344522 2852.71172549195 38 40 35
30.2888667996655 358.320498205505 2836.70559495222 38 40 35
34.8464051335946 358.515721124247 2822.71874987886 36 39 32
27.3818984716137 357.943136230421 2819.77474270216 33 36 29
-6.84414980091885 355.56933736005 2832.00527529926 25 28 21
-11.2650130308092 355.191650816311 2826.32851088282 25 28 21
-13.5080101439233 354.854917527309 2808.64415469942 32 35 28
-15.7754618123582 354.613000934842 2800.82343313989 42 45 38
-46.6169134490895 352.557951648474 2820.44988206947 43 46 39
-43.0057440547866 352.689235373386 2807.01170671985 33 36 29
-49.6402401638765 352.17055844027 2803.43462833149 29 32 25
-47.5659501042625 352.203049089894 2791.35220368253 28 31 24
-54.2202531458553 351.68267795863 2787.76075824465 21 24 17
-54.3817960398398 351.572561887114 2777.76221260606 20 23 16
-74.7074805114074 350.188731773153 2787.7231802348 20 23 16
-90.6461759155077 349.083053697735 2793.45497002721 23 26 19
-95.093059018919 348.702681329438 2787.7590351679 28 31 24
-95.2765202338399 348.590573058156 2777.74459037982 29 32 25
-84.135748317606 349.190351539882 2756.18087125407 25 28 21
-66.0235224302577 350.226498806111 2727.32157398401 25 28 21
-86.1659589794428 348.856968655189 2737.41545437452 25 28 21
-100.593889220684 347.847537863647 2741.77284432788 20 23 16
-113.567481093139 346.930131260885 2744.71461358713 17 20 13
-108.323937387842 347.154746492125 2728.75484958999 10 13 6
-107.332801974556 347.111858317307 2717.12187784284 15 17 12
-109.165161448691 346.891505899335 2708.38163649788 11 13 8
-117.25639027905 346.279505547604 2706.21843650556 122 124 119
-125.335361534028 345.668416048433 2704.06412690487 103 105 102
-134.089979434247 345.015318880458 2702.65485048411 107 109 108
-140.084889492563 344.534413941902 2698.3065763668 125 127 126
-144.713758874638 344.138450196498 2692.47893127394 138 139 141
-152.077536165798 343.572121170965 2689.60797665502 141 142 144
-158.754482642742 343.048536983585 2686.00039470988 145 146 148
-166.104600774057 342.483135270886 2683.13934660445 154 155 157
-169.398763929693 342.169332413088 2675.80930696485 158 159 161
-170.021569585232 342.020624165526 2665.47618662959 163 165 164
-166.658821333057 342.117850528287 2650.62242187899 163 165 164
126.996573984119 358.054249429307 2857.40472824015 104 110 106
138.784150281297 358.65529485328 2837.54493446014 26 33 26
118.826362855887 357.326257307542 2845.30250830869 41 48 41
90.4809024411453 355.48974370762 2860.56368936849 37 42 36
73.7728518070768 354.361200068415 2865.73764131725 36 41 35
67.838009490182 353.886356163112 2861.43294228793 35 40 34
87.8445074339136 354.981321810589 2833.94743566104 38 43 37
81.8329668178381 354.50030929555 2829.58710515259 66 71 65
78.0961679803918 354.156646608413 2823.17107484421 26 28 23
22.1522771882188 350.66227097095 2864.11676187328 26 28 23
10.2420184247642 349.828239433492 2865.35971304864 24 26 21
20.9268231329527 350.355759579244 2845.93516081863 33 35 30
46.5103246278651 351.777793798638 2812.61302328728 27 29 24
24.0679908044052 350.190056342004 2813.62774506917 35 38 31
6.94545588451145 349.042987528889 2819.73646578616 38 41 34
-2.7017575395849 348.345213495349 2818.91493815328 42 45 38
-9.37295101506774 347.826023521095 2815.31154893923 49 52 45
0.901788755115707 348.320495597163 2795.58956448945 45 48 41
-23.4396247460198 346.744455771472 2808.81424296471 28 31 24
-31.5630704457077 346.138695046658 2806.62771988122 21 24 17
-38.9441759605298 345.577422041777 2803.74422927291 20 23 16
-39.0395812052957 345.450267394715 2793.79354192393 21 24 17
-52.9579154760151 344.499739283192 2797.2853161191 18 21 14
-55.25438911577 344.241009006533 2789.44376522559 20 23 16
-56.1313033364221 344.066053326258 2780.1610453723 23 26 19
-67.1065446595784 343.291359671978 2780.84707457326 29 32 25
-86.6533409360108 342.009337478226 2790.13785944792 30 33 26
-96.8278104634128 341.283738200401 2790.16930277942 30 33 26
-95.5786480732388 341.234031958061 2778.72334575953 32 35 28
-100.056008432012 340.845111658992 2773.00527399044 27 30 23
-77.6401056104699 342.042459707144 2739.85610623652 27 30 23
-89.9846528088093 341.187631098497 2742.01916374519 28 31 24
-125.508217020699 338.969227836801 2768.13150391537 23 26 19
-123.675274309173 338.951029773555 2755.87357019783 20 23 16
-100.2183281404 340.201598727416 2721.00927329927 14 17 10
-97.1591241788128 340.251588945732 2707.1705546603 7 10 3
-108.053083579623 339.482730345554 2707.9152419401 10 12 7
-115.454568311991 338.918838450179 2705.0172592139 21 23 18
-122.157766016057 338.395865477762 2701.39035581289 108 110 107
-128.857469043159 337.873100933383 2697.76598683352 110 112 111
-136.239778651873 337.310523461611 2694.88191122149 123 125 124
-142.930373509258 336.788339953041 2691.26414789179 136 137 139
-150.29909782694 336.226713681812 2688.38992536517 141 142 144
-154.263437108695 335.862959790211 2681.80884436684 143 144 148
-160.27318410945 335.380128500091 2677.44980487597 150 151 155
-163.584436794688 335.053574938968 2670.10731208682 149 150 152
-165.568951369688 334.803309175346 2661.25661874509 164 166 165
-162.887942763833 334.822011638103 2647.14357974302 166 168 167
150.819691274571 351.77780804636 2827.70789732769 33 38 31
107.667718931189 349.170231711745 2855.69907913596 42 47 40
84.7391404863402 347.722720670077 2866.2429040769 48 51 44
68.8140587097816 346.677013700358 2870.74982981472 34 37 30
75.9056978385111 346.944349754559 2854.89496939053 30 33 26
73.0005665015856 346.640861226267 2847.84699946277 26 29 22
66.2720338184375 346.119510082634 2844.20173840963 43 46 39
20.8494385781175 343.40073620346 2875.48677497875 18 21 14
-2.40500101439434 341.944724749625 2887.02966426949 20 23 16
-18.7699146799336 340.881378659955 2892.45269376808 33 36 29
-10.2527426153474 341.22743030598 2875.16155804307 32 35 28
11.8091856795131 342.05662540018 2825.6972677456 32 35 28
-8.21816239972284 340.646425487538 2824.75815912987 51 54 47
-17.0886518651978 340.006330425284 2823.26495079686 42 45 38
-28.1530603400624 339.24352089978 2823.88610654507 30 33 26
-28.1691339982497 339.100359193357 2813.99284727732 24 27 20
-22.3623781338316 339.282053088514 2798.44115038885 20 23 16
-7.13489087615082 339.988376459673 2773.66474599976 18 21 14
-27.7069035696553 338.693795238801 2783.44759710676 19 22 15
-33.676568726781 338.215069842363 2779.11763459688 20 23 16
-53.3951007801838 336.971085273135 2788.28441168688 27 30 23
-65.8173929502657 336.134610246484 2790.39120317088 32 35 28
-81.7968289145767 335.101610928308 2796.09382739398 36 39 32
-89.8290829539239 334.510571298295 2793.97348565643 34 37 30
-108.570394552598 333.327010627882 2802.61364566172 31 34 27
-93.031313631198 334.040196057794 2776.82812029769 32 35 28
-76.2048183851136 334.821054400822 2749.50584409363 26 29 22
-96.3437142395827 333.56078669497 2759.60313912215 25 28 21
-98.7469930042937 333.278831098734 2751.68375079638 25 28 21
-125.099996709763 331.679931949052 2768.39050980989 23 26 19
-128.17611427528 331.361673068193 2761.21851350126 22 25 18
-74.6270477785962 334.146019470379 2695.06570797733 16 22 12
-103.014811426823 332.437045605621 2714.0022728989 12 15 8
-95.1278530060704 332.713634230422 2695.01830442691 15 17 12
-111.574242373567 331.660301183125 2701.61765227463 10 12 7
-118.288689609756 331.138731945985 2697.98260095791 38 38 36
-124.311433426827 330.654802960938 2693.61413423748 115 115 115
-133.76550608471 329.984440437444 2692.93305178958 109 109 109
-141.146701677424 329.426968803468 2690.04951513657 132 133 135
-147.156843885705 328.943851585916 2685.69018770305 133 134 138
-150.450262710677 328.607488525176 2678.36057337275 137 138 142
-155.793927279836 328.159923182349 2673.24953325122 146 147 151
-159.792856148943 327.784599743539 2666.64331892081 162 166 167
-160.442053389013 327.589020301677 2656.29082935086 161 165 164
-159.786283959015 327.46247596484 2644.41431991041 159 163 162
193.837056533786 346.646502425391 2800.81526811489 25 30 23
168.279301856828 345.109374357852 2813.1580975325 43 48 41
132.02065806652 343.001093029635 2835.03271625358 46 49 42
91.3128361373437 340.65901858774 2861.09165531267 45 48 41
82.2775733504204 340.016381211418 2859.47898640518 44 47 40
69.4312027432269 339.170613632377 2861.27830731123 41 44 37
61.9665036910089 338.612914657111 2858.33453054387 42 45 38
56.7930982353828 338.177444080107 2853.34668167261 41 44 37
2.28403378907771 335.118027540675 2892.86463483569 43 46 39
-31.1949771228637 333.027451488955 2904.40310870827 47 50 43
-5.33377232645527 334.240202907776 2871.281224168 46 49 42
14.3408128380242 335.120800936062 2843.55372659279 49 52 45
6.93900174629292 334.568017355496 2840.65556354752 54 57 50
6.2565312140257 334.369550050343 2831.51397545957 51 54 47
-7.84136528750023 333.46422667876 2834.8758101325 28 31 24
-19.6680354568024 332.679519282006 2836.17960630013 27 30 23
-24.0691710625924 332.285258417633 2830.51676443018 14 17 10
-31.4279787088296 331.735786832271 2827.6497922762 17 20 13
-37.3096090860312 331.263745156186 2823.38368191141 16 19 12
-21.2164126561056 331.938884504508 2797.99965399401 17 20 13
-11.8292449250486 332.260700948437 2778.86841172574 19 22 15
-22.9232772300709 331.51404948491 2779.46817437103 26 29 22
-52.1357367549538 329.826910942665 2797.80701025194 27 30 23
-63.8389224195153 329.051838346665 2799.20007729748 28 31 24
-84.1663058208257 327.831157071759 2809.16093419385 29 32 25
-98.6518366050386 326.914895068812 2813.47674572561 26 29 22
-98.7435654554454 326.742849522477 2803.52849609211 23 26 19
-95.2970358483707 326.751987165088 2789.97035115315 20 23 16
-100.461347272969 326.316572876532 2784.98938950118 20 23 16
-68.6852777233775 327.777328927825 2742.56999201305 21 24 17
-97.3486213620704 326.133946768528 2761.30711535328 23 26 19
-116.692777208557 324.971327001351 2770.74569787402 23 26 19
-103.575960487557 325.468634627925 2746.90853239842 21 24 17
-104.612657124499 325.240952033457 2737.51001026644 19 22 15
-93.7903382892815 325.615635208213 2715.714003077 14 17 10
