ply
format ascii 1.0
comment KinectMotionCapture
element vertex 754
property float x
property float y
property float z
property uchar red
property uchar green
property uchar blue
end_header
102.026575730521 790.8979765015 2841.49588243074 231 231 233
91.4215150739559 789.210397483938 2841.21030844641 224 225 227
81.6049174619593 787.729640077728 2840.26202463573 221 222 224
70.2885348954552 785.841179663567 2840.69481734385 209 210 212
64.3102181357662 785.386323034835 2836.35870400265 205 206 208
54.550690680355 783.909960330889 2835.45210830348 203 204 206
44.8125419369791 782.435199695032 2834.56072412667 206 207 209
34.3439554113654 780.758138909743 2834.37413642929 211 212 214
25.400010136015 779.490555794304 2832.82450006138 212 213 215
15.7254892439402 778.020541875672 2831.97955959195 212 213 215
3.09184278330132 775.738268537756 2833.92581258673 214 215 217
-8.75993326882551 773.662222990333 2835.20457360477 216 217 219
-20.5774115504715 771.588627353836 2836.50821021786 216 217 219
-29.4065255222162 770.329490927682 2835.04215477373 221 222 224
-41.1638502352352 768.260409938204 2836.38942086004 225 226 228
-51.4186296413515 766.599056831028 2836.35790606894 225 226 228
-63.1115042802406 764.534629450078 2837.75191696086 222 223 225
-69.6621577271224 763.888697412702 2834.23526781246 220 221 223
-79.8464684204854 762.232385516805 2834.25456835282 218 218 220
-88.5548072842521 760.981688985478 2832.87610811165 215 215 217
-95.7998392344641 760.135789719406 2830.08981844616 212 212 214
-103.037004105446 759.290269285698 2827.30952819017 207 207 209
-112.422138452305 757.84085071496 2826.67418004565 206 206 208
-120.353077154328 756.79545226804 2824.62498254133 212 212 214
-126.128635788073 756.354093861788 2820.43592126386 216 216 218
-129.76854480127 756.515445957066 2814.09268645624 206 206 208
-136.262234398631 755.872246696602 2810.61734546008 203 203 205
-142.044479623878 755.42980890753 2806.42343146245 213 213 215
-151.354971495008 753.984824126753 2805.84221569956 213 213 215
-158.534395585955 753.141979922361 2803.10379652289 210 210 212
-167.808936233479 751.699280281576 2802.54865414392 234 234 236
-174.266801853494 751.057609055048 2799.09929045325 237 237 239
-181.417511922091 750.216214362998 2796.38139954922 212 212 214
-186.476765459549 749.973960397757 2791.4775749968 203 203 205
-190.848767751859 749.930507990816 2785.83762940153 224 225 227
-192.47016388293 750.682970658403 2777.25554186335 237 238 240
-195.494208137919 751.034921585898 2770.1243948766 211 212 214
-199.908238901832 750.987238349006 2764.45425499236 212 213 215
-205.69866572148 750.541031081154 2760.25439088919 219 220 222
-209.445937078694 750.690160744131 2753.83326491814 225 226 228
-212.528147774651 751.036304639013 2746.66021690026 218 219 221
-216.305525220865 751.182397934877 2740.21725100299 217 219 218
-216.723442919989 752.31750360244 2730.03886661342 216 218 215
-214.487737703598 754.240996211024 2716.84799692491 208 210 205
-208.284019343839 757.346435168614 2699.12850823063 203 206 199
250.681470910126 817.783353773385 2751.7748780893 204 205 207
176.221600260374 799.440902411013 2806.39559491978 217 218 220
132.24036935879 789.035605197968 2834.98116913762 229 230 232
114.634115725499 785.534938695301 2840.72701592288 222 223 225
101.696304143445 783.253833918568 2842.45277904893 222 222 224
89.5625140225094 781.178062942941 2843.52710344077 215 216 218
79.7515366893267 779.711153814974 2842.58325851144 210 211 213
70.7226696512264 778.447893055027 2840.97208243897 199 200 202
65.5027833924615 778.194717081466 2835.95175647669 198 199 201
55.7404351392004 776.731617605292 2835.04288862479 199 200 202
45.2451862703045 775.068766678212 2834.8370448015 201 202 204
34.0237792578142 773.206580669649 2835.33882040064 203 204 206
23.582039874916 771.547706144799 2835.17178688695 206 207 209
15.4082561668716 770.493507918472 2832.94650128258 206 207 209
5.01111934760523 768.837888235807 2832.81181760555 211 212 214
-5.36030115852415 767.184232373672 2832.69578617987 213 214 216
-18.6696779931577 764.730756051612 2835.38635725807 215 216 218
-30.458351639143 762.681031557218 2836.71099587832 220 221 223
-42.2128193019669 760.63375989633 2838.06073804686 223 224 226
-50.9956184169014 759.388760555562 2836.62803436094 223 224 226
-60.4936367378208 757.945133077806 2835.91088354759 220 221 223
-68.5107703187011 756.902161535318 2833.79921382884 218 219 221
-80.1539673485066 754.862918263679 2835.22965911927 215 215 217
-88.1352783222118 753.822370801357 2833.1439702514 212 212 214
-94.6574982113089 753.180763130601 2829.64766062258 210 210 212
-100.455044215511 752.738220940284 2825.44265423494 205 205 207
-109.128897167229 751.500434370728 2824.08896448187 203 203 205
-118.502697737791 750.06517757571 2823.46219864287 209 209 211
-125.711648165843 749.226622357651 2820.70210244186 212 212 214
-130.063642609656 749.181336026668 2815.07694615078 205 205 207
-137.265320727628 748.342891996306 2812.32212236573 203 203 205
-142.335504545348 748.09846806444 2807.41036322858 209 209 211
-150.939166831998 746.864724766626 2806.10757666653 209 209 211
-158.119078948702 746.027188098166 2803.3688305933 207 207 209
-166.693411672134 744.795223383912 2802.08731466642 221 221 223
-173.852899497464 743.958714000772 2799.36337980128 238 238 240
-180.30726502531 743.319675843067 2795.91627226211 197 197 199
-186.06343340668 742.877498510896 2791.74126324438 218 218 220
-189.742961299649 743.025096251688 2785.36923819679 229 230 232
-192.746227284942 743.367867434766 2778.25340180098 230 231 233
-197.143840008149 743.316186684341 2772.59484897961 202 203 205
-202.922766649104 742.871030546848 2768.40332692558 213 214 216
-207.33524124798 742.817528867067 2762.73428566703 223 224 226
-211.075719321991 742.958844727617 2756.3180447135 222 223 225
-212.792433899663 743.685891010335 2747.66643558316 217 218 220
-217.244347769713 743.628377409867 2741.96848915707 216 218 217
-219.006599077565 744.351137271448 2733.28384776765 214 216 213
-217.433017554564 746.047354357623 2720.84687591725 209 211 206
-209.204676288931 749.689583917148 2700.89268863766 204 207 200
259.68122733042 812.110990435675 2744.68397559184 194 195 197
182.087491400637 793.204757600226 2801.97047193035 215 216 218
132.680786566553 781.530867628432 2835.26242399518 224 225 227
116.611203144056 778.470505669636 2839.65439278133 217 218 220
104.435186502256 776.413150239349 2840.69819954541 218 218 220
93.0587738484459 774.558032888458 2841.08764405132 209 210 212
80.1862604015247 772.306384362141 2842.86089239078 204 205 207
70.3958206555284 770.854581366197 2841.93201211222 195 196 198
64.4197766387147 770.399729623538 2837.59754635559 195 196 198
57.6866526872979 769.745875620696 2833.94828584099 196 197 199
47.9404109822803 768.297553184882 2833.05116881828 199 200 202
35.9590974216952 766.255144820527 2834.23649018795 198 199 201
25.5119842707554 764.612055406361 2834.06564106983 204 205 207
16.5857784126322 763.367297667393 2832.52897999908 204 205 207
7.67647328476428 762.12387920415 2831.00457741207 204 205 207
-2.7026319746688 760.485821237119 2830.88305415113 207 208 210
-16.7612023423858 757.861164977264 2834.26468841768 213 214 216
-28.5558328705351 755.832595528459 2835.58541039842 215 216 218
-41.7892125189967 753.411861823784 2838.33123930655 217 218 220
-50.5727004628111 752.177530695021 2836.89809031047 218 219 221
-63.7328659008332 749.762130719749 2839.6970207786 214 215 217
-71.7396539229922 748.727943210315 2837.59289526902 209 210 212
-81.917466598719 747.104519360618 2837.61736742249 210 210 212
-87.7157911839583 746.662063456092 2833.41179706189 207 207 209
-94.9616962925393 745.826668109744 2830.62492762968 206 206 208
-100.035955570031 745.580300937176 2825.71020426187 203 203 205
-107.272637272031 744.745244941294 2822.93031726983 200 200 202
-116.651593698468 743.323062208308 2822.29958558656 190 190 192
-125.294743910833 742.098038839259 2820.9682175526 201 201 203
-130.358989199209 741.851616626168 2816.06075326042 210 210 212
-137.559099702767 741.018567404171 2813.3073876753 202 202 204
-142.626938952547 740.771455346949 2808.39702007258 202 202 204
-150.523424764491 739.743574818799 2806.37288693526 207 207 209
-156.296569115098 739.300978144842 2802.18556955109 204 204 206
-164.876147021738 738.07943201471 2800.90030405115 208 208 210
-171.341327429106 737.442336048844 2797.44566088962 216 216 218
-178.499702476327 736.610954807147 2794.72226419911 228 228 230
-183.565692432934 736.362419710571 2789.81352445752 241 241 243
-188.636889673912 736.113164046811 2784.90100619455 224 225 227
-190.951428783123 736.638606013017 2777.05003676668 193 194 196
-196.041710088625 736.387266632862 2772.12367350363 210 211 213
-201.137129761255 736.135272012405 2767.19358200966 226 227 229
-206.921467137265 735.689139850693 2762.99813265457 221 222 224
-212.706489419219 735.2427132287 2758.80218530504 216 217 219
-215.77457692965 735.567825945302 2751.63897448166 216 217 219
-220.215577379727 735.505471405681 2745.94920938332 213 215 214
-221.966129699837 736.212629978931 2737.27296981619 209 211 208
-221.05280901781 737.687218885516 2725.59127483028 209 211 206
-212.808217334111 741.273231616103 2705.64858307623 204 207 200
291.445273044386 811.021416484023 2728.18077439674 206 207 209
265.579219054608 805.58750939505 2740.2806675861 187 188 190
197.245179587135 789.299750268844 2789.47136112892 198 199 201
133.121054105813 774.025341264481 2835.54356635945 221 222 224
113.970640517493 770.211565844207 2842.63880041633 214 215 217
104.1047633158 768.767382292166 2841.65497803319 215 215 217
91.9639591683934 766.734427470379 2842.72472915684 205 206 208
80.6209323867972 764.900804177345 2843.13848466565 200 201 203
70.8296968082664 763.462468684231 2842.20909568666 192 193 195
64.8537124906414 763.007412674519 2837.87467217259 192 193 195
56.6073693458784 761.963875003043 2835.59654620483 194 195 197
45.3557503842577 760.137248914507 2836.07689511233 196 197 199
35.6386725682505 758.704582077828 2835.20099891384 196 197 199
26.6927953396996 757.469193728561 2833.65012510466 203 204 206
19.2592283321265 756.625924651268 2830.72747015199 204 205 207
7.36027418551455 754.611327270146 2831.97234200959 203 204 206
-5.24784315014459 752.40409914632 2833.93748173068 206 207 209
-19.2993928947538 749.809793927106 2837.32435913076 213 214 216
-31.0865538574863 747.80348672941 2838.65060872157 214 215 217
-42.8391857774102 745.799727435623 2840.00160758101 215 216 218
-52.3536731788601 744.381929701057 2839.27294328948 217 218 220
-62.579395229676 742.771263310209 2839.26274953356 212 213 215
-72.7793075295129 741.162528079114 2839.27098112162 205 206 208
-80.7697957678373 740.137457601834 2837.17871785275 209 209 211
-87.2963475200152 739.50079668788 2833.67958749726 205 205 207
-93.819164245023 738.864278634866 2830.18287098928 205 205 207
-101.059832776052 738.034396092369 2827.40012006435 203 203 205
-108.292335240968 737.204985502475 2824.62299680853 199 199 201
-116.950897595207 735.989706440049 2823.28050554085 180 180 182
-123.448430394481 735.354320996236 2819.80241810412 197 197 199
-129.229613117103 734.911909537911 2815.60927447069 210 210 212
-134.30108324361 734.661814867498 2810.69625966042 199 199 201
-140.794346226105 734.02617788831 2807.22126623092 198 198 200
-148.69590130036 733.005981980338 2805.19349720128 206 206 208
-155.177343423228 732.370754569896 2801.72678056272 200 200 202
-162.356887783196 731.543583373861 2798.98835358735 205 205 207
-169.528233751671 730.716737389608 2796.25557697118 211 211 213
-177.388824830929 729.698695017678 2794.2575145238 230 230 232
-183.152026725624 729.255589429596 2790.07740206036 226 226 228
-187.530392170086 729.194773780482 2784.43275573205 204 205 207
-191.227949050032 729.323983959034 2778.04786242744 188 189 191
-197.004439390339 728.878935573341 2773.85810704552 215 216 218
-202.781616287115 728.433622465563 2769.66785262331 218 219 221
-207.191598768 728.369110351407 2764.00026770723 216 217 219
-212.292983005214 728.113047905788 2759.06583176877 216 217 219
-214.001752670822 728.807609869462 2750.41981753526 216 217 219
-218.44699872903 728.739314983136 2744.72665013893 212 214 213
-220.20126193086 729.429683640589 2736.04763543021 208 210 207
-220.636958146199 730.497013901672 2725.85631419605 208 210 205
-216.41353320933 732.888329653891 2710.40305572776 204 206 201
-212.925661126928 735.084548215219 2695.65092219828 199 200 195
312.159511083768 808.099799021814 2711.06886087144 194 195 199
135.105505990868 766.908292616926 2834.47572089131 216 217 219
115.178013506569 762.94573291562 2842.24221135732 207 208 210
106.076961939782 761.70912503929 2840.57884218163 203 203 205
94.6961454372963 759.891528506375 2840.96528429399 195 196 200
84.108687176967 758.270197518699 2840.69280622168 194 195 199
74.3081278534903 756.844658185935 2839.75642859905 190 191 195
66.8053974933773 756.001491640106 2836.78363617545 189 190 194
58.5540908326596 754.965567898095 2834.50224509213 189 190 194
47.2970845371852 753.15749355029 2834.97848809754 191 192 196
37.5748312962734 751.737909548709 2834.09890639023 196 197 201
29.3740441473531 750.705809603395 2831.85415734743 196 197 201
18.9417104924088 749.096179153434 2831.69419167761 200 201 205
6.29780742380825 746.910696309914 2833.63349970133 202 203 207
-7.05088620518857 744.535615068683 2836.29596628277 205 206 210
-19.6150305728187 742.356055875098 2838.2931230954 212 213 217
-29.9229597692041 740.755697032174 2838.22338783504 211 212 216
-41.6790976531842 738.773280977298 2839.57195325402 211 212 216
-51.1965486385393 737.368705031334 2838.84091309122 218 219 221
-63.6231797602713 735.199240427493 2840.93780732158 201 202 204
-73.0896120706466 733.798300099127 2840.2440645772 199 200 202
-81.806602663631 732.590116973161 2838.85925337465 199 200 202
-88.3288938983582 731.956329962404 2835.36293163905 199 201 200
-95.5714292047372 731.131762749375 2832.57885437202 198 200 199
-103.52744533901 730.116893130051 2830.51163233642 196 198 197
-108.59352634324 729.865114133204 2825.60251568445 197 199 198
-116.533579899936 728.851059710162 2823.54686939111 198 198 200
-121.601395556387 728.598821954533 2818.63678740605 157 157 159
-128.812740409609 727.775616511659 2815.87532766179 212 212 214
-132.463165984469 727.902510752112 2809.52429463836 211 211 213
-139.669340662786 727.079295585981 2806.76628833795 186 186 188
-146.16154951965 726.446014267703 2803.29207099851 195 195 197
-153.35383187802 725.623446583898 2800.54413881693 195 195 197
-159.836641769032 724.990299376614 2797.07673566771 203 203 205
-168.414215592929 723.790154525836 2795.79303137183 190 190 192
-175.580229895487 722.968758946459 2793.06414740144 224 224 226
-182.043326124355 722.336372352249 2789.61103895927 222 222 224
-187.116712885458 722.081163676397 2784.69660883624 190 190 190
-191.504709845491 722.013603743966 2779.04524073264 190 190 190
-197.279195544364 721.568598268954 2774.85693877544 218 218 218
-202.368178883131 721.311300041338 2769.93148625343 217 217 217
-206.09404865368 721.429035525989 2763.52571573159 218 218 218
-211.197591580186 721.169950012864 2758.58940512374 212 212 212
-213.587676733535 721.660276643082 2750.68378736716 215 215 215
-218.710276350755 721.399049887331 2745.73365131171 212 212 212
-220.461858395721 722.073007454237 2737.05679158243 210 210 210
-220.894222625518 723.118551817125 2726.8674809488 206 206 206
-216.666711656191 725.469015581344 2711.4172720863 205 205 205
-213.174535834816 727.627246777701 2696.66777153853 204 204 202
335.997305598349 805.805710968747 2691.28401766136 183 184 188
134.773787198835 759.203960388076 2835.43126352732 213 214 216
112.535544213762 754.715046813086 2845.22537991994 204 205 207
104.210456372088 753.681390619083 2842.89051476956 198 198 200
94.3665837647845 752.265964017149 2841.92278964611 192 193 195
86.0708248012423 751.234534429822 2839.60919690359 191 192 194
77.0263343879147 750.013143036815 2837.98690718961 188 189 191
69.5167591420498 749.174798922271 2835.00917718881 187 188 190
58.987638499683 747.574145530906 2834.77909403684 187 188 190
48.4841860249268 745.975452059747 2834.56762821475 189 190 192
38.7589272088404 744.569066931476 2833.68593455674 195 196 198
31.3056522389754 743.734955176183 2830.74903926526 195 196 198
19.3718913408674 741.761061429381 2831.96888513782 198 199 201
4.48871584465493 739.030072190405 2835.9875380575 201 202 204
-8.11131054696901 736.872250476477 2837.9587933298 205 206 208
-18.4478357124684 735.285994231944 2837.86810519657 211 212 216
-28.7589704776885 733.701566276111 2837.79612684403 208 209 213
-41.9929447131828 731.362125607641 2840.54193648858 210 211 213
-52.9789625732906 729.592971588764 2841.21482193311 210 211 213
-61.7370530447885 728.392581622283 2839.80055050242 196 197 199
-69.7476268104849 727.382164182926 2837.69380102664 195 196 198
-78.4741650091887 726.183931609245 2836.30211896246 195 196 198
-87.9100044370764 724.798513310785 2835.63033779661 195 197 196
-95.8768257533826 723.790983125802 2833.55532002963 196 198 197
-103.109601655948 722.972254885706 2830.77834713825 197 199 198
-107.456152313155 722.905473223595 2825.15673380915 195 197 196
-114.681776269456 722.086846420385 2822.38494603005 205 205 207
-118.323696778968 722.206453866655 2816.04004160095 175 175 177
-126.257185166196 721.200459016271 2813.98919536239 202 202 204
-130.624613791501 721.131239208216 2808.35243479897 215 215 217
-137.835816792506 720.312884505984 2805.59110245637 172 172 174
-145.038853727398 719.495001756356 2802.83539778287 189 189 191
-152.938101022642 718.490735299524 2800.80938239729 194 194 196
-159.421245440753 717.860129975868 2797.34174961739 200 200 202
-167.300021949618 716.856924442878 2795.33057931551 177 177 179
-173.073888078389 716.412954932905 2791.14273174526 218 218 220
-179.543781440708 715.782695808389 2787.68441221503 207 207 209
-185.316988667172 715.338182238699 2783.49703954136 187 187 187
-192.472651930331 714.52198650746 2780.77568559859 192 192 192
-198.24298556028 714.077108292983 2776.59039420936 214 214 214
-202.641232877797 714.002534482408 2770.93155987619 216 216 216
-206.364664884749 714.112073447061 2764.52751502421 213 213 213
-211.466258521252 713.850198887691 2759.59289784824 211 211 211
-214.533229531737 714.142124748177 2752.43032830153 213 213 213
-218.974139982917 714.062899871679 2746.74054299373 211 211 211
-220.72269373861 714.720543368602 2738.06550142497 209 209 209
-220.47868373439 715.92873976609 2727.13229614354 205 205 205
-216.249063552394 718.238151167574 2711.683408356 204 204 204
-210.748541272993 720.910037541148 2694.68699841601 203 203 201
368.052415203176 804.234761712281 2674.98937663154 203 207 210
343.485594404893 799.364432633409 2685.56359858673 160 161 163
135.986373322062 751.882539954751 2835.03817201884 205 206 208
112.972451785306 747.261344861126 2845.50434907278 197 199 198
104.646923253938 746.235628765672 2843.16920467519 190 190 190
96.3339109088848 745.210956492802 2840.84313881534 187 188 190
88.03327691566 744.187197388754 2838.52605091227 186 187 189
76.6994377442005 742.411104890945 2838.94675812056 185 186 188
68.4325603670048 741.389960961629 2836.65415435524 185 186 188
59.4210928963466 740.181789578642 2835.05587063909 185 186 188
49.6716345703749 738.787065610053 2834.156693306 186 187 189
39.9432750907494 737.393941754067 2833.27311355881 187 188 190
30.9866186858221 736.189822343875 2831.71458407798 192 193 195
19.8019805694893 734.424980382056 2832.24350730142 194 195 197
4.9168549643217 731.726513029418 2836.26091127527 203 204 206
-7.68465608871649 729.592827030326 2838.23121253698 209 210 212
-17.2806185045813 728.209522297433 2837.44336550558 206 207 209
-25.3765597374878 727.201001353927 2835.27474093711 200 201 203
-39.3581617478249 724.701380965906 2838.71280453986 209 210 212
-50.3520162093705 722.95056075624 2839.38010192912 194 195 197
-60.5830235198464 721.388067794076 2839.36632078359 184 185 187
-67.1351960719728 720.757307108924 2835.84864724927 185 186 188
-75.1405916704098 719.755105726746 2833.74569315339 184 186 185
-83.1334640326034 718.753729276544 2831.65152712016 182 184 183
-92.562349276565 717.382088086071 2830.98515145143 184 186 185
-99.0823528821099 716.753265904006 2827.49051321488 188 190 189
-104.159566165842 716.494770404764 2822.57358699254 188 190 189
-110.67680567011 715.865813682838 2819.08095183052 181 181 183
-115.760041411114 715.606471834501 2814.15965551345 198 198 200
-124.413783106125 714.423277393195 2812.82082135946 133 133 135
-130.20727224264 713.979092308502 2808.61874756019 201 201 203
-138.127575450533 712.981693325404 2806.57750307929 176 176 178
-144.622526472439 712.353287598998 2803.10102810469 160 160 162
-152.522431112244 711.356943689254 2801.07457632528 183 183 185
-157.601713563791 711.096518121795 2796.15614034285 192 192 194
-166.185429802029 709.9172938247 2794.86808924645 167 167 169
-171.26408072508 709.656381723755 2789.95010860813 217 217 219
-178.434293291119 708.844932332806 2787.21852608337 209 209 211
-183.516603791772 708.583205584456 2782.29759393577 187 187 187
-191.368405009418 707.588906530101 2780.30602371125 196 196 196
-197.829958731841 706.960876348618 2776.85376105399 213 213 213
-200.854806218893 707.245919234534 2769.72198736178 215 215 215
-205.266929663076 707.164306665243 2764.05305827556 207 207 207
-210.370656265585 706.899381250332 2759.11658493681 212 212 212
-216.159685775154 706.451524737632 2754.91772541978 208 208 208
-219.915974270687 706.549201412745 2748.4898021132 207 207 207
-223.010720404579 706.827118005262 2741.3073213041 206 206 206
-220.736719643452 708.555990823673 2728.14322708563 204 204 204
-215.831519587535 711.006113312992 2711.94946318946 203 203 203
-208.990744442272 713.994046826136 2693.45615873702 203 203 201
370.87868183679 796.560292806925 2673.29392056716 207 211 214
347.859958212667 792.125667680488 2682.52252486994 149 150 152
139.51687718538 745.114311428203 2832.62278620842 198 199 201
114.950115091988 740.179473064501 2844.43176059699 193 195 194
104.315237634394 738.603021674302 2844.12513466061 186 186 186
96.0039063038507 737.586401637868 2841.80032819021 185 186 188
89.9965608124957 737.128267328997 2837.44315469983 184 185 187
80.1804785153526 735.741917025134 2836.49572264248 184 185 187
71.9043481666275 734.728029173169 2834.19644795408 184 185 187
60.6116092574167 732.97394655559 2834.64735558101 185 186 188
50.1042430581018 731.40733669046 2834.43292064922 186 187 189
39.6222207640631 729.842521475509 2834.23716162252 183 184 186
30.6671334184219 728.649342807168 2832.67982500327 190 191 193
20.2319250811787 727.088021325726 2832.51802010935 193 194 196
4.59867461333241 724.237459142744 2837.22735864336 203 204 206
-7.25814964844274 722.312585051562 2838.50352029675 208 209 211
-14.6294025665692 721.494935496418 2835.62587344827 203 204 206
-21.9928945996577 720.677835402168 2832.75414989114 196 197 199
-36.7225659155923 718.023376469047 2836.88417443111 209 210 212
-48.4595496406677 716.107225024887 2838.247255229 187 188 190
-57.9628494502566 714.743943325788 2837.52668271901 177 178 180
-64.5218561755334 714.115197980447 2834.00406515481 179 180 182
-73.2630170032991 712.937318456114 2832.60188592697 180 182 181
-81.9874581292532 711.76055443883 2831.21183281805 180 182 181
-88.5223461139797 711.133274671554 2827.70641239001 181 183 182
-95.0537997089429 710.506074383175 2824.20377650401 184 186 185
-100.141837876702 710.243853758006 2819.27868974671 184 186 185
-108.823514949829 709.069578691346 2817.91994429636 172 172 174
-115.341915022674 708.442798215398 2814.42647883653 169 169 171
-123.9964210659 707.270325612004 2813.08714489842 155 155 157
-129.790089580335 706.825887020439 2808.88493978021 151 151 153
-137.002236307476 706.018000649247 2806.12297633455 185 185 187
-142.793182264066 705.573304664708 2801.92274355288 155 155 157
-150.698151214613 704.584556160551 2799.89265901875 176 176 178
-157.186210948542 703.958769866949 2796.42119295383 187 187 189
-165.070757258237 702.971078386309 2794.40591858193 162 162 164
-171.547227404867 702.345603668469 2790.94285563436 192 192 194
-178.020206763592 701.720063638866 2787.48261737965 199 199 201
-183.796114406014 701.274972842477 2783.29328419305 187 187 187
-190.263892914977 700.649306086992 2779.83652102641 185 185 185
-197.416992848383 699.843564078356 2777.11707824625 207 207 207
-201.128360272412 699.937541730343 2770.7219949238 212 212 212
-205.538057868288 699.850469532906 2765.05450225568 207 207 207
-210.639857603033 699.58272338339 2760.11970593393 204 204 204
-217.107019033478 698.955523407045 2756.66338233461 205 205 205
-221.536621783786 698.865912640975 2750.98144713689 205 205 205
-223.948645044684 699.312342650111 2743.05970363293 204 204 204
-221.668471090075 701.008756493583 2729.89962560603 203 203 203
-217.428091293258 703.236712566527 2714.45812510559 202 202 202
-210.578008557257 706.173273619566 2695.97130771267 202 202 200
-210.481752662044 707.319315481661 2684.93067749943 192 195 188
388.554285283333 792.372563734154 2658.91355834376 209 213 214
366.263562116199 788.175439517124 2667.43577759682 133 134 136
149.230514914437 739.793551010941 2824.81584133855 185 187 186
119.239764353964 733.636641658629 2841.33280053866 183 185 184
107.824671170716 731.892023489973 2841.69476440344 177 177 177
94.9072322304221 729.783227332523 2843.4361688694 181 182 184
88.9042795356225 729.32523978581 2839.08218055438 181 182 184
79.8535372759135 728.135454224189 2837.45551883329 181 182 184
73.8578146626749 727.677903035177 2833.10677396892 182 183 185
62.5598328561896 725.942383859303 2833.55368045819 183 184 186
52.8021968311858 724.57388212273 2832.64870775733 184 185 187
41.5595136999514 722.84243490793 2833.13601653872 179 180 182
31.097924087804 721.295395439809 2832.95486515982 189 190 192
19.1644841952012 719.386389967803 2834.17556688504 190 191 193
7.26552354935794 717.479958237577 2835.42098191155 199 200 202
-3.85487968073206 715.7576300305 2835.99668571542 202 203 205
-12.7195154516335 714.581706780156 2834.50530125214 197 198 200
-20.8273263497494 713.588284989304 2832.32785411322 189 190 192
-33.3485881488444 711.509193845977 2834.35660630543 209 210 212
-45.0956754256027 709.61388103446 2835.71246837487 178 179 181
-56.0751404753344 707.901805387383 2836.39039320468 168 170 169
-63.3695550327644 707.094771766798 2833.56850189549 169 171 170
-72.1138282337079 705.927314734916 2832.16441371091 163 165 164
-80.1147254316867 704.941220268646 2830.06480218624 172 174 173
-86.6542520165474 704.316044091359 2826.55602979307 174 176 175
-92.4681205999576 703.870895098065 2822.33917761545 171 173 170
-98.2827736814125 703.425503320234 2818.1217555087 170 172 169
-106.251726603045 702.441130411281 2816.0453097917 178 178 178
-114.208316992996 701.457520030004 2813.9778298001 165 165 165
-122.152474283499 700.474707765087 2811.91936687024 184 184 184
-127.95068264703 700.029722163669 2807.71386794782 129 129 129
-135.167605204979 699.226755738095 2804.94817284396 188 188 188
-140.963066937903 698.781514693866 2800.74466371882 164 164 164
-148.873170766957 697.800326006613 2798.71089509364 163 163 163
-154.663621379014 697.354983096631 2794.51101812099 177 177 177
-163.255622507512 696.196505788776 2793.21706621842 151 151 151
-170.4349078261 695.395164906145 2790.47895786331 153 153 153
-176.910322196576 694.772016111018 2787.01667205166 182 182 182
-181.995141975954 694.504181803781 2782.0941844154 183 183 183
-189.159182913729 693.703090113055 2779.36712829947 179 179 179
-197.693416573467 692.5476795314 2778.1150688014 207 207 207
-201.402114961573 692.633558656374 2771.7215848224 202 202 202
-204.440208107027 692.894975206004 2764.58008939768 197 197 197
-208.179155370188 692.977776524694 2758.16466177391 199 199 199
-214.653346856935 692.352635763255 2754.70325236708 202 202 202
-219.767756889416 692.080313281985 2749.75929139136 202 202 202
-222.859379440018 692.336277733863 2742.57866926551 201 201 201
-220.579975361441 693.999601237366 2729.41816000697 201 201 201
-217.011183776866 696.01047804641 2714.72374795901 201 201 201
-213.504780093924 698.016051406014 2699.98378824969 201 201 199
-210.728047724538 699.840804866443 2685.94928945101 190 192 187
400.765282108704 786.79255808481 2649.21028488626 207 211 212
383.894920421835 783.917800101262 2653.02269253985 124 125 127
153.537458469389 733.13953341594 2821.72885510232 178 180 179
126.6137915159 727.789310285891 2835.53255921785 176 178 177
112.103941750635 725.339170261099 2838.58793537748 175 175 175
98.4079425318876 723.073334296872 2840.9991860739 175 177 176
90.8678348961263 722.253576413095 2837.999416635 179 181 180
83.3358622037865 721.434507422366 2835.00554787957 181 183 182
76.5717034795177 720.796092273279 2831.33386779666 180 182 181
63.750820674588 718.719075509511 2833.14542883465 181 183 182
55.5007753927739 717.723162821808 2830.8651548157 181 183 182
43.4975520303444 715.830569091834 2832.03505766607 180 182 181
33.7814598967023 714.478606385022 2831.1602847921 188 190 189
18.8451407820334 711.873852156473 2835.14105217383 193 195 194
9.18661181390146 710.526114987793 2834.30832394719 199 201 200
-1.9394083718467 708.822210790266 2834.88004922127 205 207 206
-10.0668721230084 707.835302544479 2832.68868277918 197 198 200
-18.9218914818028 706.670752499581 2831.20403258877 178 179 181
-31.448979292295 704.615594732863 2833.22868260826 209 210 212
-42.4661892184357 702.919609222624 2833.87932687136 171 173 172
-53.4534410735559 701.225841546885 2834.55169961326 165 167 166
-62.2172697848453 700.067752932287 2833.13318819775 166 168 167
-71.6933792155803 698.733120953711 2832.43276616717 158 160 159
-79.694813394305 697.754958785341 2830.33280555235 163 165 162
-86.2346952779827 697.132263065125 2826.82378815949 165 167 164
-91.3263823969508 696.863991914425 2821.8963200295 167 169 166
-97.1434054777718 696.418169164954 2817.67717767668 163 165 162
-105.114973442562 695.441609593107 2815.59858135816 168 168 168
-113.074341230754 694.465779882834 2813.52912738193 164 164 164
-119.594373031077 693.843657082356 2810.03479711709 160 160 160
-123.97660709282 693.750594962877 2804.38718301083 165 165 165
-131.205200405565 692.951921018215 2801.61334374703 130 130 130
-138.425600278387 692.153661499925 2798.84515170482 217 217 217
-146.342955738582 691.179831277097 2796.80616348955 149 149 149
-154.247879749853 690.206828908827 2794.77619129015 155 155 155
-160.739666744341 689.585460426952 2791.30204563158 132 132 132
-167.926079219747 688.788799620871 2788.5587943539 140 140 140
-173.712620421389 688.342727899966 2784.36174770472 178 178 178
-179.499942820028 687.896353918131 2780.16413321815 181 181 181
-187.362629595817 686.925219897782 2778.16478915569 178 178 178
-195.902124258911 685.780077259103 2776.90896785316 208 208 208
-200.9893102075 685.508257533506 2771.98474474341 185 185 185
-204.711801791379 685.584296658778 2765.58121194089 191 191 191
-209.813807624368 685.310678919118 2760.64623647336 195 195 195
-214.92078451783 685.036349390667 2755.70735929564 197 197 197
-220.033058832459 684.761272479416 2750.76493259565 197 197 197
-222.446084202219 685.179919689839 2742.84202743921 196 196 196
-222.18666867779 686.290139987612 2731.91978815692 199 199 199
-219.280945166227 688.089885214791 2717.97867111837 198 198 198
-217.772148316311 689.53861236287 2705.49318741353 194 194 192
-211.642125735269 692.193507898124 2687.71828746228 195 197 192
393.736773318601 777.751686005565 2645.30441169826 166 168 167
156.299897364174 726.10097476084 2819.99034995869 163 165 164
130.136147665925 721.001453042377 2833.11116753285 181 183 180
114.078452943172 718.224433343356 2837.51318987558 181 181 179
99.6100511533662 715.807373614876 2840.59878011538 164 166 165
91.3033180029545 714.815083352204 2838.27743019899 168 170 169
82.246961279171 713.646290986033 2836.64680476776 172 174 173
73.207415596682 712.478711142151 2835.02837216079 175 177 176
61.9113497618171 710.781085759017 2835.47715399533 177 179 178
55.1784581314561 710.147443986307 2831.82816427415 178 180 179
44.6826288196021 708.630111842592 2831.6226367567 171 173 172
34.9634846157825 707.291314370569 2830.74571805642 183 185 184
20.0230106010872 704.718724184246 2834.72363637967 191 193 192
9.61488400204313 703.207959244021 2834.58171969458 195 197 196
-2.25679410247892 701.346723378937 2835.8471413435 197 199 198
-10.3826249846568 700.36786346926 2833.65699936938 193 194 196
-19.9762026351933 699.038312259275 2832.87115337745 177 178 180
-31.7625227508209 697.183284775825 2834.19877877784 208 209 211
-42.7787105015605 695.506350734517 2834.85026053716 170 172 171
-52.2980484787317 694.182047454798 2834.11855352762 161 163 162
-59.6020904277015 693.384659203882 2831.28973197254 162 164 163
-67.6274270221364 692.412805319768 2829.17247593917 156 158 157
-74.9135810203134 691.616488215936 2826.35692164397 165 167 164
-82.9164072455952 690.645979972245 2824.25599067352 162 164 161
-90.184250641234 689.850777410156 2821.45342129321 167 169 166
-97.4443215981726 689.055916141584 2818.65678252533 165 167 164
-103.978172211255 688.435650695543 2815.15214963906 150 150 150
-111.224567503116 687.641419357836 2812.36542784337 159 159 159
-115.607947185949 687.542857614997 2806.71695539525 143 143 143
-121.424138868991 687.095996957437 2802.49841048321 157 157 157
-127.950382769272 686.475481454645 2798.9992905988 146 146 146
-137.301604977196 685.161899852079 2798.38950860557 193 193 193
-144.516926878669 684.368961057323 2795.62531912069 207 207 207
-151.724127558509 683.57643083845 2792.86672447519 157 157 157
-158.923483581359 682.784247763582 2790.11411282433 135 135 135
-166.813094107 681.819834447697 2788.09528520271 137 137 137
-171.905820205031 681.545793107285 2783.16674019045 171 171 171
-177.003967389091 681.271054109655 2778.23455626049 180 180 180
-184.18229001431 680.479380098262 2775.49719474696 178 178 178
-193.420906831537 679.172341445723 2774.96878146887 198 198 198
-200.576587170125 678.381814658186 2772.24783964304 179 179 179
-204.298857335141 678.449507586728 2765.84442507665 188 188 188
-208.035167838081 678.515734500333 2759.430824944 193 193 193
-212.466064290656 678.409350405513 2753.74786695368 196 196 196
-217.585061664273 678.130801404562 2748.80054897793 196 196 196
-220.680527773861 678.364180400608 2741.61732065138 195 195 195
-221.772324299544 679.107908247964 2732.18377581955 199 199 199
-221.552044600791 680.189915090459 2721.23272875829 197 197 197
-220.702683556898 681.438838003088 2709.50352502298 194 194 192
-213.22423834012 684.38578783824 2690.23723699433 195 197 192
385.646970978851 767.46913782407 2652.97443903283 197 199 198
368.049131452564 764.492887833969 2657.49400502765 141 143 142
154.423842812526 717.991723000207 2822.29468738296 160 162 161
132.117776307188 713.840293848331 2832.04105200643 183 185 182
117.591337330272 711.44855372758 2835.08469809952 183 183 181
106.178750634832 709.760815979477 2835.44906155837 159 161 160
96.3252251991049 708.425201797484 2834.47474315924 164 166 165
87.2551272572451 707.266109869952 2832.83420556041 169 171 170
75.1614902631297 705.409785099051 2833.9390438261 174 176 175
63.1022810692015 703.556089646 2835.06855837987 177 179 178
53.3443023181892 702.227837834614 2834.16383558044 177 179 178
43.6076092892064 700.901120814276 2833.27425655216 173 175 174
33.8919204660408 699.575966367693 2832.4002063127 174 176 175
20.4520791508713 697.383605967318 2834.99752350833 183 185 184
10.0429168327225 695.888887952397 2834.85493728919 193 195 194
0.403998834685559 694.569374874201 2834.03627395686 195 197 196
-7.72896331481854 693.597883179762 2831.84099969634 183 185 184
-19.5508288289812 691.761921616324 2833.14265957438 174 176 175
-33.5527934684374 689.409692933629 2836.56700291778 205 207 206
-43.0917167897495 688.097473997915 2835.82086480687 170 172 171
-51.1423569717269 687.131904503236 2833.68529749455 150 152 151
-57.717756500427 686.511838247044 2830.15084039861 154 156 155
-65.7478506139395 685.547624135594 2828.02987975806 156 158 155
-72.3118455699148 684.928153185997 2824.50369309562 153 155 152
-79.5968643677432 684.136995911968 2821.68869338991 166 168 165
-89.0421397319372 682.831059499615 2821.0107689809 150 152 149
-97.0252570590708 681.869675617188 2818.92417162802 166 168 165
-104.277691519087 681.080470984038 2816.13280289468 149 149 149
-108.658032876543 680.976490075373 2810.48680002134 149 149 149
-111.620284208212 681.213760543429 2803.40016164132 155 155 155
-116.024208173103 681.107619846924 2797.73675781581 138 138 138
-123.985188056547 680.146894211831 2795.66621170245 141 141 141
-134.055622275658 678.675255652026 2795.76929361311 113 113 113
-141.280101250833 677.886881873352 2792.99819461577 141 141 141
-147.793939312604 677.269054567036 2789.50837608172 149 149 149
-155.00466380232 676.481197616926 2786.74725062226 137 137 137
-163.604375312612 675.354028751377 2785.44786788282 158 158 158
-170.794887662088 674.567192258357 2782.70169428101 173 173 173
-176.589262695245 674.119798855859 2778.4989620256 177 177 177
-182.384439697119 673.672041765875 2774.29564656381 184 184 184
-189.55971261735 672.88554367935 2771.56052206358 178 178 178
-198.1016774306 671.761380113446 2770.30301635963 175 175 175
-204.571188710582 671.144713787909 2766.84504265925 189 189 189
-208.988179153021 671.034029906189 2761.1724381302 191 191 191
-212.052879886666 671.259346099033 2754.01117696453 193 193 193
-217.172002731644 670.977829614651 2749.06375300102 194 194 194
-218.914286615626 671.536447844995 2740.39275501356 193 193 193
-221.358085710758 671.924532805701 2732.44768100006 196 196 196
-221.808581104586 672.814021220286 2722.24443624455 197 197 197
-220.28603140569 674.203262760373 2709.76891544413 195 195 193
-213.472197597924 676.928112483775 2691.25474806992 195 197 192
359.977835638169 754.309001844453 2665.17765340382 176 178 177
152.546639465134 709.897941438164 2824.59827038029 154 156 153
134.099672943591 706.667427063571 2830.97136593116 187 189 186
122.643036406155 704.99513883377 2831.30358049731 182 182 180
109.682937716012 702.980438052661 2833.01424213482 154 156 155
96.7613217082568 700.968685924927 2834.75311010257 159 161 160
86.1657521214392 699.476073061146 2834.47540393926 164 166 165
74.8355289504814 697.813458157587 2834.89930724987 171 173 172
64.2931766754575 696.324857770482 2834.66019977557 175 177 176
54.5323837286884 695.009750234082 2833.75320900689 177 179 178
44.7924986966837 693.696197470788 2832.86167718408 172 174 173
32.819699295195 691.870621613265 2834.05397447177 168 170 169
21.6302080704689 690.218581511803 2834.58024541405 178 180 179
9.72382115602599 688.398027343492 2835.82071196674 189 191 190
3.06555319215152 687.774822090411 2832.22587139699 191 193 192
-6.55984205866589 686.4696779909 2831.41737825143 178 180 179
-16.1639050924503 685.166102320957 2830.62406275264 173 175 174
-30.1764736724712 682.842856636506 2834.04086587783 203 205 204
-39.7251396415934 681.54323105227 2833.28772890141 171 173 172
-48.5188695558168 680.415011638878 2831.84769275916 147 149 146
-55.1011016071445 679.796930984301 2828.30829267922 152 154 151
-63.1386047553137 678.839953456583 2826.18229220307 151 153 150
-70.4364401346789 678.05316471179 2823.35802361135 133 135 132
-79.1764432229518 676.928491228973 2821.95695315266 161 163 160
-87.8998856634516 675.80484111071 2820.56818752152 135 137 134
-95.8858044615907 674.851235949124 2818.47959872328 154 156 151
-100.267149856769 674.741726656647 2812.8325455222 145 145 143
-103.942043392556 674.799725646375 2806.46342618369 151 151 149
-106.917034511051 675.024732212363 2799.36749034124 135 135 133
-112.757738183988 674.575557219273 2795.13116444204 155 155 153
-120.728161970543 673.622042322035 2793.05380876558 145 145 143
-130.808518059408 672.165790554045 2793.14977603825 130 130 128
-137.337127941325 671.549564166494 2789.64896272848 118 118 116
-141.753132759138 671.435843094594 2783.97676283876 195 195 193
-149.682931219904 670.484484169322 2781.92886824838 121 121 119
-159.696151268659 669.032416549185 2782.07352506281 166 166 164
-170.380109379783 667.415046808818 2782.96614888295 159 159 157
-176.174689514147 666.967427687482 2778.76326680198 171 171 171
-179.894101032151 667.019340855841 2772.36184460222 185 185 185
-187.0765011092 666.237522845867 2769.62157717943 183 183 183
-196.313528000628 664.957169120902 2769.0944516369 180 180 180
-203.473332286048 664.176464696263 2766.3705700262 190 190 190
-208.575547674302 663.893987895641 2761.43539777471 190 190 190
-210.958956915729 664.273960469802 2753.53376608708 192 192 192
-216.080397504038 663.989328775417 2748.58464616282 194 194 194
-217.824169322915 664.531187813909 2739.91248465099 192 192 192
-221.618223752978 664.574753937065 2733.45690993189 195 195 195
-222.737768018768 665.277310812423 2724.00304163201 196 196 196
-219.869436898416 666.966547715369 2710.03425830463 195 195 193
-214.388421071653 669.309886306563 2693.02233803857 195 197 192
196.331057002713 710.973392424588 2797.05780107341 191 193 192
153.762624649016 702.50037366865 2824.20696274512 156 158 155
137.624976254465 699.822892230605 2828.55152914578 191 193 190
125.389249421548 697.998848814666 2829.55352696641 196 196 194
113.954877139752 696.347153667749 2829.90198567464 145 147 146
101.785840561212 694.528263572528 2830.95206030947 150 152 151
91.938638685173 693.219967128883 2829.98275884046 154 156 155
80.5919160190896 691.574924499721 2830.39479032197 161 163 162
70.7915634890224 690.270263657664 2829.45917488169 168 170 169
57.9883732392337 688.291853503586 2831.2840610924 174 176 175
48.238938141524 686.990909693068 2830.38567008998 173 175 174
34.0012882129543 684.680725309991 2833.63907862318 162 164 163
24.3072884222943 683.383913914685 2832.78089478939 175 177 176
12.3929711069453 681.584254940836 2834.0157182635 187 189 188
5.72792041649262 680.963009451497 2830.41597067709 185 187 186
-3.90490979791869 679.670705395436 2829.60215280511 171 173 172
-15.7382598225704 677.876978365046 2830.89570124264 168 170 169
-28.2757803178968 675.918298109458 2832.91327706386 195 197 196
-37.8298529842511 674.631657367336 2832.15658090504 173 175 174
-45.1607217997139 673.847957823986 2829.30838131793 169 171 170
-53.2154559071545 672.897769299083 2827.16992413932 150 152 149
-60.5283886262979 672.115144803142 2824.33502673355 151 153 150
-67.8332515703812 671.332984459154 2821.50568715395 135 137 134
-77.30592460174 670.051892478496 2820.80802743326 140 142 139
-85.3113820433662 669.104829627753 2818.70530779347 159 161 156
-91.862892939325 668.490810582099 2815.1879042305 140 142 137
-96.2550944971976 668.374746156929 2809.53294796236 180 180 178
-100.657124107279 668.257656933041 2803.87115641565 146 146 144
-104.354559155003 668.305286443339 2797.48564373062 137 137 135
-108.778003173313 668.186183208018 2791.80802374399 127 127 125
-116.050367245163 667.404993166671 2789.00254268222 140 140 138
-124.022348286571 666.459059066583 2786.92409651672 138 138 136
-129.160314581313 666.173645813544 2781.96269831941 130 130 128
-134.303701962085 665.887534903289 2776.99766120441 117 117 115
-142.957117749694 664.77776214108 2775.65943520292 137 137 135
-153.690214204126 663.175779001399 2776.51681000251 146 146 144
-166.482727765229 661.083146598033 2779.58389404369 161 161 159
-173.677177633689 660.306167084176 2776.83462150086 156 156 156
-178.787315172249 660.021345802295 2771.89369443828 179 179 179
-184.592537398802 659.572028139395 2767.68308907413 168 168 168
-194.524996128708 658.140931218129 2767.88639771285 186 186 186
-203.746185538772 656.874974273215 2767.37082602108 183 183 183
-210.212964774009 656.263199649733 2763.9151520927 188 188 188
-211.90820201104 656.792799956711 2755.27811224214 193 193 193
-214.309530140392 657.157101873097 2747.36341139528 195 195 195
-216.057031962184 657.682079831039 2738.68846041874 192 192 192
-221.204324518484 657.391828953841 2733.7205713889 193 193 193
-222.995294463347 657.9127179428 2725.01408873086 195 195 195
-222.133245647973 659.07986377856 2713.29366841486 196 196 196
-217.308808960773 661.215404423179 2697.03976401007 195 197 194
161.167901434118 696.436025701438 2818.42857018823 188 190 187
139.608133578637 692.621211569061 2827.48261102202 189 191 188
126.597673862556 690.651241680221 2829.15699144785 190 192 191
113.625839614917 688.684261883927 2830.85968192249 145 147 146
102.222548822164 687.0537546265 2831.23077958627 149 151 150
91.6119101555593 685.592152787498 2830.94230660238 153 155 154
81.0267935694631 684.132528905924 2830.67234513807 160 162 161
72.742149502075 683.173572839744 2828.36717691365 167 169 168
62.957772287858 681.883439431498 2827.44321590507 174 176 175
53.1942581439249 680.59479741964 2826.53468101262 176 178 177
39.6933930041241 678.478954100928 2829.08814830956 156 158 157
28.4842329456749 676.86315795313 2829.60005000027 167 169 168
15.8102181104036 674.918721639512 2831.51875030991 182 184 183
6.15554961525477 673.63814018302 2830.68886630242 183 185 184
-4.22102256841894 672.194066487954 2830.57016189074 168 170 169
-15.3128041141026 670.586913023411 2831.16719754723 166 168 167
-26.3746259382418 668.981947655173 2831.78596272837 192 194 193
-35.1977065088414 667.872898515041 2830.32504124718 173 175 174
-42.5355049474465 667.093805434949 2827.47184156102 171 173 172
-50.5974168172161 666.150951486763 2825.32821822039 149 151 148
-57.1875294007138 665.537091183754 2821.78283227439 149 151 148
-63.7742814632607 664.923334247353 2818.24017744234 144 146 143
-74.7094494736442 663.327195398948 2818.95080138407 127 129 126
-82.722112051409 662.387524651152 2816.84289602979 175 177 172
-90.0014215234444 661.612004825243 2814.03211434294 136 138 133
-92.9604171802936 661.816321478021 2806.9476691535 171 171 169
-98.0876041521721 661.529790410917 2801.99437393246 179 179 177
-101.791312475514 661.568457966078 2795.60426822199 139 139 137
-106.221226462055 661.44306531301 2789.92192616017 135 135 133
-112.790794433467 660.829027652807 2786.39172702058 135 135 133
-119.356651450471 660.215130903382 2782.86392426776 145 145 143
-123.802373955224 660.087890017792 2777.17011291206 133 133 131
-128.961245230247 659.797567420569 2772.19382985864 122 122 120
-138.33214845895 658.535354327999 2771.57004086506 103 103 101
-150.477296105595 656.627777414859 2773.87202050942 153 153 151
-162.583801778566 654.722893212296 2776.20232066129 151 151 149
-170.484434139092 653.788892764027 2774.17565712351 153 153 153
-176.295657085762 653.339208463506 2769.9606998522 177 177 177
-184.178030053073 652.406030047755 2767.94727710199 164 164 164
-192.048013114893 651.473556633449 2765.94283962967 187 187 187
-202.648219526221 649.899086851075 2766.89639414108 181 181 181
-210.484481878791 648.968568520685 2764.9164114334 190 190 190
-212.176803385584 649.481796253706 2756.28140232761 194 194 194
-213.217334057081 650.152727173015 2746.88465247676 196 196 196
-214.289558654507 650.820911299418 2737.46491310957 193 193 193
-220.115978957879 650.367516475188 2733.23892015552 193 193 193
-223.25343264165 650.552267941365 2726.02500783235 195 195 195
-222.387703299985 651.692219427434 2714.30682338664 195 195 195
-218.894926234425 653.465460800735 2699.55610312129 195 197 192
157.742335810301 688.01587976443 2822.07813248619 212 216 217
139.276903653422 684.914170728376 2828.43849432836 183 187 188
124.728283239479 682.639762831346 2831.46665493523 189 193 194
114.063396493546 681.190106226382 2831.13891686589 145 147 146
105.719316961515 680.234609743126 2828.7906801282 146 148 145
95.0989282355454 678.788348870682 2828.49521682322 148 150 147
83.7434752255133 677.180357077498 2828.90110716188 156 158 155
75.4517945313284 676.2288067654 2826.59087544813 162 164 161
65.6600354506134 674.951428086339 2825.66162777221 168 170 167
