ply
format ascii 1.0
comment KinectMotionCapture
element vertex 780
property float x
property float y
property float z
property uchar red
property uchar green
property uchar blue
end_header
54.1169457137585 1020.82014083862 2601.99999809265 60 39 20
61.139889061451 1020.42579650879 2601.0000705719 70 49 28
68.2884454727173 1021.99292182922 2605.00001907349 79 58 37
75.3429308533669 1021.99053764343 2605.00001907349 76 55 34
82.397349178791 1021.98767662048 2605.00001907349 91 70 51
89.5890817046165 1023.55408668518 2608.99996757507 96 77 62
96.7283174395561 1024.33562278748 2611.00006103516 98 80 66
103.957831859589 1025.90143680573 2615.00000953674 125 111 100
111.591100692749 1030.99799156189 2628.00002098084 132 118 107
501.974403858185 948.356449604034 2417.99998283386 178 184 180
507.260501384735 946.006119251251 2411.99994087219 225 230 226
512.301385402679 943.264126777649 2404.99997138977 241 246 240
517.951965332031 941.699385643005 2401.00002288818 211 211 203
523.362815380096 939.742982387543 2395.99990844727 188 185 176
528.968155384064 938.179433345795 2391.99995994568 74 66 53
535.223841667175 937.793135643005 2391.00003242493 90 81 66
541.474521160126 937.407612800598 2390.00010490417 102 85 67
547.261834144592 936.23822927475 2387.00008392334 101 82 65
553.265273571014 935.461759567261 2384.99999046326 96 70 55
558.789074420929 933.90154838562 2381.00004196167 77 49 35
565.241396427155 933.911025524139 2381.00004196167 73 44 30
571.934401988983 934.313416481018 2381.99996948242 80 48 37
578.390657901764 934.324443340302 2381.99996948242 82 49 40
583.865463733673 932.767331600189 2378.00002098084 79 49 41
589.319288730621 931.210935115814 2374.00007247925 79 50 42
595.504999160767 930.832207202911 2372.99990653992 78 51 44
601.432383060455 930.062174797058 2371.00005149841 71 48 42
609.913408756256 933.2155585289 2378.99994850159 59 46 38
-44.5366911590099 1013.81194591522 2601.99999809265 13 14 8
-31.0514997690916 1034.07549858093 2654.00004386902 14 17 10
-23.7829145044088 1030.56979179382 2644.99998092651 14 14 6
-16.525361686945 1024.72603321075 2630.00011444092 20 17 8
-9.37764253467321 1021.99900150299 2622.99990653992 27 19 8
-2.27043288759887 1020.44081687927 2618.99995803833 38 29 14
4.79854084551334 1015.37561416626 2605.99994659424 56 43 27
11.8016451597214 1010.69974899292 2594.00010108948 79 62 42
18.732488155365 1005.63406944275 2581.00008964539 85 67 45
25.7423892617226 1006.41250610352 2582.99994468689 89 67 43
32.7884554862976 1007.96985626221 2586.99989318848 86 64 40
39.8869253695011 1010.3063583374 2592.99993515015 77 55 34
46.8912236392498 1009.9151134491 2592.00000762939 105 83 62
53.9524778723717 1010.69259643555 2594.00010108948 124 102 81
61.0715299844742 1012.24887371063 2598.00004959106 112 90 69
68.2646408677101 1014.58442211151 2604.00009155273 94 72 51
75.3455683588982 1014.97137546539 2605.00001907349 72 50 29
82.2737067937851 1013.41009140015 2601.0000705719 86 63 45
89.2831385135651 1013.01729679108 2599.99990463257 213 194 179
96.3241383433342 1013.01407814026 2599.99990463257 232 215 199
103.722870349884 1016.517162323 2608.99996757507 55 39 24
111.042879521847 1018.85104179382 2615.00000953674 66 52 39
493.124216794968 949.983179569244 2438.99989128113 159 162 155
497.678965330124 946.089088916779 2428.99990081787 197 202 198
501.764595508575 941.416442394257 2417.00005531311 216 222 220
507.678389549255 940.249979496002 2414.00003433228 212 217 213
512.511134147644 937.136352062225 2405.99989891052 205 210 204
518.37956905365 935.971021652222 2403.00011634827 185 185 177
523.139953613281 932.85858631134 2394.99998092651 176 174 162
528.963029384613 931.694328784943 2391.99995994568 79 71 58
535.441935062408 931.699275970459 2391.99995994568 77 68 51
542.600870132446 932.8733086586 2394.99998092651 102 85 67
548.630237579346 932.100415229797 2392.99988746643 102 83 66
553.953409194946 930.159866809845 2388.00001144409 85 59 44
560.1886510849 929.777920246124 2387.00008392334 84 56 44
566.656529903412 929.786324501038 2387.00008392334 80 50 39
573.365032672882 930.184900760651 2388.00001144409 76 43 34
578.622579574585 928.246974945068 2382.99989700317 80 47 38
583.608329296112 925.92066526413 2377.00009346008 82 53 45
589.306831359863 924.763441085815 2374.00007247925 80 51 43
596.495509147644 925.94438791275 2377.00009346008 75 50 43
-16.5448319166899 1018.8022851944 2632.99989700317 23 19 8
-9.37084574252367 1014.15979862213 2621.00005149841 23 13 1
-2.26705032400787 1011.83831691742 2615.00000953674 34 22 8
4.79872105643153 1008.35585594177 2605.99994659424 77 61 45
11.8111874908209 1004.48608398438 2595.99995613098 101 83 61
18.7912527471781 1001.77693367004 2588.99998664856 101 81 57
25.8131194859743 1002.1630525589 2589.99991416931 99 75 49
32.8277088701725 1002.16197967529 2589.99991416931 98 72 47
39.8576483130455 1002.5475025177 2591.00008010864 100 75 53
46.8025170266628 1000.99813938141 2586.99989318848 102 77 57
53.8712851703167 1002.15697288513 2589.99991416931 108 83 63
61.0032677650452 1004.08947467804 2595.00002861023 100 75 55
68.2147294282913 1006.79552555084 2601.99999809265 91 66 46
75.2037242054939 1006.01899623871 2599.99990463257 78 56 35
82.0869207382202 1004.08136844635 2595.00002861023 84 61 43
88.9429971575737 1002.14350223541 2589.99991416931 157 136 119
96.0682928562164 1003.30090522766 2592.99993515015 193 174 159
103.448323905468 1006.77955150604 2601.99999809265 151 135 120
112.193435430527 1022.25255966187 2641.99995994568 70 54 41
488.515913486481 947.248101234436 2448.99988174438 183 186 179
491.708755493164 940.672099590302 2431.99992179871 227 232 228
496.858716011047 937.964498996735 2424.99995231628 202 207 203
501.971006393433 935.257434844971 2417.99998283386 186 192 190
508.307576179504 934.87161397934 2417.00005531311 164 169 165
513.360977172852 932.165682315826 2410.00008583069 168 173 167
518.592417240143 929.846942424774 2404.00004386902 163 163 155
522.918045520782 925.98158121109 2394.00005340576 156 153 144
528.959035873413 925.211250782013 2391.99995994568 131 125 113
535.437285900116 925.215065479279 2391.99995994568 66 56 44
543.048679828644 927.153587341309 2397.0000743866 83 67 52
549.082815647125 926.385104656219 2394.99998092651 82 64 50
554.87459897995 925.230503082275 2391.99995994568 82 60 47
560.885310173035 924.463391304016 2390.00010490417 73 49 39
568.072617053986 925.630927085876 2392.99988746643 72 45 36
574.076354503632 924.865365028381 2391.00003242493 69 42 33
578.370153903961 921.392798423767 2381.99996948242 72 47 40
583.106815814972 918.694496154785 2375 74 54 47
-44.7283908724785 1004.02140617371 2612.99991607666 21 12 3
-36.6138257086277 976.357638835907 2540.99988937378 20 16 4
-29.287064447999 961.757719516754 2503.00002098084 18 12 0
-16.2061545997858 990.962028503418 2578.9999961853 23 15 2
-9.33903455734253 1003.64255905151 2611.99998855591 41 28 12
-2.26020417176187 1001.72162055969 2607.00011253357 63 47 31
4.79522719979286 1000.56886672974 2604.00009155273 107 86 65
11.8253026157618 998.647212982178 2598.99997711182 120 95 73
18.8355445861816 997.109711170197 2595.00002861023 119 93 70
25.8440319448709 996.340274810791 2592.99993515015 118 88 64
32.8289903700352 995.186269283295 2589.99991416931 117 87 61
39.7976748645306 994.032144546509 2586.99989318848 108 80 59
46.7681586742401 993.261933326721 2585.00003814697 105 76 58
53.7901781499386 993.644177913666 2585.99996566772 116 88 67
60.9586201608181 996.331572532654 2592.99993515015 111 83 62
68.0338442325592 997.097551822662 2595.00002861023 99 71 50
75.0619918107986 997.094690799713 2595.00002861023 83 56 37
81.9635465741158 995.554745197296 2591.00008010864 96 69 52
88.8777077198029 994.398593902588 2588.00005912781 98 75 59
96.034899353981 995.93198299408 2592.00000762939 84 63 46
103.452235460281 999.770402908325 2601.99999809265 136 118 104
112.494915723801 1017.82500743866 2648.9999294281 179 161 149
476.229131221771 942.544937133789 2453.9999961853 167 172 165
481.49436712265 939.854025840759 2447.00002670288 204 205 199
486.32287979126 936.395287513733 2437.99996376038 234 236 231
491.102963685989 932.93708562851 2428.99990081787 199 204 200
496.44923210144 930.631637573242 2423.00009727478 179 184 180
502.178370952606 929.094791412354 2418.99991035461 174 180 178
508.096516132355 927.9425740242 2415.99988937378 159 164 160
513.785660266876 926.406681537628 2411.99994087219 155 160 154
519.021987915039 924.103260040283 2405.99989891052 155 155 147
523.570954799652 920.648217201233 2397.0000743866 160 157 148
528.956055641174 918.730020523071 2391.99995994568 155 149 137
535.209774971008 918.348670005798 2391.00003242493 77 69 56
542.817831039429 920.272529125214 2395.99990844727 83 67 54
549.994885921478 921.428978443146 2398.9999294281 85 67 55
557.188630104065 922.585964202881 2401.99995040894 79 59 48
564.164519309998 923.359632492065 2404.00004386902 81 58 50
570.676863193512 923.365712165833 2404.00004386902 75 52 44
577.189803123474 923.372566699982 2404.00004386902 71 51 42
-52.5213293731213 1010.71858406067 2648.9999294281 24 14 2
-45.1410561800003 1006.14202022552 2637.00008392334 25 13 1
-37.8833822906017 1003.09133529663 2628.99994850159 25 17 4
-30.5637009441853 996.606469154358 2611.99998855591 23 17 1
-16.4896063506603 1001.18708610535 2624.00007247925 27 18 1
-9.3251159414649 995.08273601532 2608.00004005432 53 40 21
-2.25596153177321 992.793679237366 2601.99999809265 81 66 45
4.7935820184648 993.175208568573 2602.9999256134 111 90 69
11.8212383240461 991.267204284668 2598.00004959106 121 96 74
18.8435725867748 990.503370761871 2595.99995613098 122 96 73
25.8251577615738 988.594710826874 2591.00008010864 120 88 65
32.8176580369473 987.830340862274 2588.99998664856 118 86 61
39.753146469593 985.921204090118 2584.00011062622 114 83 62
46.751968562603 985.91935634613 2584.00011062622 112 81 61
53.833968937397 987.443506717682 2588.00005912781 107 76 56
61.0786415636539 991.256475448608 2598.00004959106 107 76 56
68.1414678692818 991.63544178009 2598.99997711182 95 67 46
75.0939399003983 990.48775434494 2595.99995613098 83 56 35
81.966832280159 988.576889038086 2591.00008010864 100 73 54
88.9842882752419 988.573431968689 2591.00008010864 52 29 13
96.1128175258636 989.714324474335 2594.00010108948 34 13 0
103.575602173805 993.907153606415 2605.00001907349 77 60 44
111.649975180626 1003.0597448349 2628.99994850159 132 114 100
469.781458377838 936.292171478271 2454.99992370605 184 189 183
475.067704916 933.618783950806 2447.99995422363 190 195 189
480.316281318665 930.945932865143 2440.99998474121 221 222 216
485.926151275635 929.036319255829 2436.00010871887 192 194 189
491.509020328522 927.127003669739 2430.99999427795 157 162 158
496.655344963074 924.455523490906 2424.00002479553 168 173 169
502.386748790741 922.92857170105 2420.00007629395 166 171 167
507.676124572754 920.639395713806 2414.00003433228 147 152 148
513.99838924408 920.257568359375 2413.00010681152 146 151 145
519.452631473541 918.350756168365 2407.99999237061 144 145 139
524.880111217499 916.444540023804 2403.00011634827 132 132 124
529.838621616364 913.776218891144 2395.99990844727 137 134 125
535.654842853546 912.633776664734 2392.99988746643 132 125 115
542.361497879028 913.017630577087 2394.00005340576 87 73 64
549.761772155762 914.546191692352 2398.00000190735 79 62 52
558.111965656281 917.600870132446 2405.99989891052 83 64 57
565.801918506622 919.512212276459 2411.00001335144 80 61 54
572.569966316223 919.898629188538 2411.99994087219 75 56 49
-59.6310533583164 1002.4471282959 2645.99990844727 29 17 5
-52.4045862257481 1001.31285190582 2642.99988746643 89 72 56
-45.1943278312683 1000.17857551575 2640.00010490417 91 72 57
-37.9858613014221 998.664855957031 2635.99991798401 60 44 28
-30.7873357087374 996.772110462189 2631.00004196167 60 47 28
-23.7057916820049 998.667538166046 2635.99991798401 54 41 22
-16.5091622620821 995.258748531342 2627.00009346008 45 30 11
-9.33624058961868 989.197552204132 2611.00006103516 53 36 16
-2.25779204629362 986.54580116272 2604.00009155273 90 72 50
4.79010352864861 985.409140586853 2601.0000705719 110 88 65
11.8080908432603 983.135581016541 2595.00002861023 118 92 69
18.8225992023945 982.377290725708 2592.99993515015 117 89 67
25.816285982728 981.23961687088 2589.99991416931 115 83 60
32.8570827841759 981.996178627014 2592.00000762939 118 84 59
39.7856011986732 979.721486568451 2585.99996566772 117 85 64
46.7901416122913 979.719579219818 2585.99996566772 113 82 61
53.8362450897694 980.475187301636 2588.00005912781 114 82 61
61.0106885433197 983.124673366547 2595.00002861023 113 81 60
68.0918917059898 983.879566192627 2596.99988365173 103 72 51
75.0970914959908 983.497738838196 2595.99995613098 77 49 27
81.9702595472336 981.600105762482 2591.00008010864 71 43 22
89.0223309397697 981.975197792053 2592.00000762939 63 37 20
96.1908996105194 983.486831188202 2595.99995613098 82 59 43
103.73892635107 988.407552242279 2608.99996757507 52 33 18
111.697025597095 996.358811855316 2630.00011444092 134 115 101
459.65838432312 936.101615428925 2471.99988365173 170 175 169
464.08474445343 931.552290916443 2460.00003814697 177 182 176
469.211578369141 928.517878055573 2451.99990272522 204 209 203
474.683493375778 926.241397857666 2446.00009918213 213 218 212
480.319768190384 924.343943595886 2440.99998474121 204 205 199
486.328095197678 923.204243183136 2437.99996376038 174 176 171
492.522597312927 922.443747520447 2436.00010871887 161 166 162
497.477024793625 919.411480426788 2427.99997329712 161 166 162
502.803564071655 917.137086391449 2421.99993133545 156 161 157
508.09782743454 914.863169193268 2415.99988937378 148 153 149
514.425039291382 914.483249187469 2414.99996185303 154 156 151
520.099878311157 912.96774148941 2411.00001335144 129 130 124
526.190221309662 912.210047245026 2408.99991989136 119 118 113
531.827747821808 910.695612430573 2404.99997138977 121 118 111
537.444055080414 909.181833267212 2401.00002288818 116 112 103
543.718576431274 908.804535865784 2400.00009536743 112 99 93
550.905227661133 909.942626953125 2403.00011634827 86 73 67
559.500277042389 913.353323936462 2411.99994087219 75 62 56
567.205846309662 915.250062942505 2417.00005531311 85 74 68
573.514640331268 914.875328540802 2415.99988937378 103 94 89
-66.7756572365761 994.94457244873 2644.99998092651 13 3 0
-59.6111305058002 994.94743347168 2644.99998092651 83 69 56
-52.3672327399254 993.44527721405 2641.00003242493 81 60 43
-45.1791919767857 992.695093154907 2638.99993896484 84 58 43
-37.9875376820564 991.568505764008 2635.99991798401 94 76 56
-30.8003947138786 990.065395832062 2631.99996948242 95 78 58
-23.6438829451799 988.938093185425 2628.99994850159 106 90 67
-16.5036059916019 987.810492515564 2625.99992752075 81 64 44
-9.32950153946877 981.416285037994 2608.99996757507 45 27 5
-2.25962605327368 980.287969112396 2605.99994659424 87 69 45
4.79215709492564 978.783369064331 2601.99999809265 110 85 63
11.8177141994238 976.902186870575 2596.99988365173 117 91 68
18.830694258213 975.77303647995 2594.00010108948 119 91 69
25.8373636752367 975.019633769989 2592.00000762939 120 88 65
32.8838862478733 975.770592689514 2594.00010108948 119 84 62
39.8488938808441 974.26426410675 2589.99991416931 116 84 63
46.8645729124546 974.262297153473 2589.99991416931 113 82 61
53.9010167121887 974.636375904083 2591.00008010864 114 82 61
60.9898455440998 975.76230764389 2594.00010108948 113 81 60
68.0162012577057 975.759387016296 2594.00010108948 105 73 52
74.9267786741257 974.251508712769 2589.99991416931 80 49 28
81.7523375153542 971.991181373596 2584.00011062622 72 44 23
88.7857601046562 972.363591194153 2585.00003814697 73 46 27
96.0468128323555 974.992513656616 2592.00000762939 107 81 64
103.70360314846 981.006681919098 2608.00004005432 89 67 53
111.404463648796 986.644208431244 2622.99990653992 107 85 72
120.090126991272 999.804496765137 2657.99999237061 161 143 131
459.204792976379 942.210495471954 2506.00004196167 168 173 167
458.362638950348 926.788866519928 2464.99991416931 192 197 191
463.712841272354 924.150884151459 2457.99994468689 189 194 188
469.408094882965 922.265410423279 2453.00006866455 204 209 203
475.270360708237 920.756101608276 2448.99988174438 200 205 199
481.111168861389 919.247269630432 2444.9999332428 168 171 164
486.930429935455 917.738914489746 2440.99998474121 159 161 156
492.930382490158 916.606843471527 2437.99996376038 156 158 153
497.684925794601 913.219511508942 2428.99990081787 159 161 156
503.013670444489 910.960555076599 2423.00009727478 157 162 158
508.520543575287 909.077882766724 2417.99998283386 141 143 138
515.065610408783 909.075677394867 2417.99998283386 134 136 131
520.963788032532 907.946050167084 2414.99996185303 123 126 119
526.845991611481 906.816840171814 2411.99994087219 121 122 116
532.933413982391 906.064331531525 2410.00008583069 117 117 109
539.010286331177 905.312180519104 2407.99999237061 119 116 109
544.85011100769 904.184699058533 2404.99997138977 128 117 113
551.820397377014 904.937744140625 2407.00006484985 118 107 103
559.265792369843 906.443119049072 2411.00001335144 94 85 80
-74.3068754673004 992.676496505737 2657.99999237061 24 14 4
-66.9301599264145 990.065455436707 2651.00002288818 24 10 0
-59.6138350665569 987.82753944397 2644.99998092651 93 74 59
-52.3894391953945 986.709713935852 2641.99995994568 110 81 63
-45.2154949307442 986.338496208191 2641.00003242493 102 69 50
-38.0469225347042 985.966980457306 2640.00010490417 97 69 48
-30.8252088725567 983.727633953094 2634.0000629425 95 70 48
-23.6539617180824 982.235074043274 2630.00011444092 144 122 99
-16.4855066686869 979.621648788452 2622.99990653992 98 77 56
-9.33350436389446 974.767029285431 2609.99989509583 57 39 15
-2.25712824612856 972.153007984161 2602.9999256134 79 61 37
4.78685088455677 970.659077167511 2598.99997711182 110 86 62
11.8137039244175 969.538271427155 2595.99995613098 117 91 68
18.8388135284185 969.164192676544 2595.00002861023 119 91 69
25.8684530854225 969.163119792938 2595.00002861023 121 89 66
32.8980684280396 969.161748886108 2595.00002861023 119 84 62
39.8661009967327 967.666149139404 2591.00008010864 115 84 63
46.8848012387753 967.664122581482 2591.00008010864 112 84 62
53.9242662489414 968.035280704498 2592.00000762939 113 82 61
60.9690919518471 968.406081199646 2592.99993515015 111 81 57
67.861944437027 966.535747051239 2588.00005912781 87 56 35
74.6987089514732 964.291632175446 2582.00001716614 77 46 25
81.5661773085594 962.794244289398 2578.00006866455 84 56 35
88.7897238135338 965.404629707336 2585.00003814697 94 67 48
96.0881412029266 968.388080596924 2592.99993515015 98 72 55
103.708200156689 973.985552787781 2608.00004005432 136 115 98
111.239492893219 978.088736534119 2618.99995803833 121 99 85
119.191750884056 985.17918586731 2638.00001144409 123 105 91
448.27800989151 926.861941814423 2483.00004005432 187 189 186
453.347951173782 923.494815826416 2473.99997711182 211 213 210
459.113091230392 921.621441841125 2469.00010108948 181 183 180
464.285135269165 918.628334999084 2460.99996566772 188 190 187
469.41402554512 915.635645389557 2453.00006866455 190 192 189
475.081861019135 913.763046264648 2447.99995422363 185 187 182
481.313139200211 913.010895252228 2446.00009918213 158 160 155
486.93522810936 911.139130592346 2440.99998474121 156 158 153
492.732554674149 909.641146659851 2437.00003623962 151 153 148
497.483909130096 906.277120113373 2427.99997329712 150 152 147
503.639996051788 905.526638031006 2426.00011825562 147 149 144
509.364724159241 904.029905796051 2421.99993133545 138 140 135
515.494108200073 903.280198574066 2420.00007629395 127 129 124
521.181464195251 901.784420013428 2415.99988937378 117 119 114
527.284264564514 901.035726070404 2414.00003433228 119 121 116
534.039974212646 901.407420635223 2414.99996185303 113 115 110
540.801346302032 901.779532432556 2415.99988937378 110 111 105
547.115325927734 901.405692100525 2414.99996185303 111 106 103
552.965819835663 900.286018848419 2411.99994087219 110 105 102
-66.7817965149879 980.705440044403 2644.99998092651 28 12 0
-59.5490075647831 979.596078395844 2641.99995994568 93 72 55
-52.4117313325405 979.969501495361 2642.99988746643 117 86 66
-45.2518612146378 979.971766471863 2642.99988746643 116 81 59
-38.0487143993378 978.861510753632 2640.00010490417 80 49 28
-30.803257599473 975.897014141083 2631.99996948242 88 60 38
-23.6280970275402 974.044382572174 2627.00009346008 139 113 90
-16.5114291012287 974.045276641846 2627.00009346008 131 109 85
-9.36613325029612 971.079647541046 2618.99995803833 60 40 15
-2.25896947085857 965.888977050781 2605.00001907349 81 61 36
4.78523643687367 963.293492794037 2598.00004959106 110 88 64
11.8142636492848 962.551414966583 2595.99995613098 117 95 72
18.8542231917381 962.921559810638 2596.99988365173 117 92 70
25.8896090090275 962.920367717743 2596.99988365173 112 84 63
32.886940985918 961.80671453476 2594.00010108948 116 85 65
39.8679822683334 960.692703723907 2591.00008010864 116 90 67
46.8870066106319 960.690498352051 2591.00008010864 114 90 64
53.9475977420807 961.42965555191 2592.99993515015 112 86 61
60.9249211847782 960.685431957245 2591.00008010864 108 82 57
67.7864477038383 958.45764875412 2585.00003814697 88 60 36
74.6443197131157 956.600368022919 2579.99992370605 79 51 27
81.6648900508881 956.96759223938 2581.00008964539 72 44 22
88.7938290834427 958.446562290192 2585.00003814697 72 45 26
96.0184633731842 960.66689491272 2591.00008010864 109 82 63
103.394821286201 963.999092578888 2599.99990463257 147 121 106
110.777348279953 966.960251331329 2608.00004005432 149 123 110
118.609771132469 973.257958889008 2625 86 64 51
127.587825059891 987.71208524704 2664.00003433228 167 154 146
442.553967237473 936.478734016418 2526.99995040894 170 172 169
443.345487117767 923.869907855988 2493.00003051758 182 184 181
447.563886642456 918.6732172966 2479.00009155273 227 229 226
452.989131212235 916.070818901062 2471.99988365173 224 226 223
459.120452404022 914.951264858246 2469.00010108948 173 175 172
464.48078751564 912.3495221138 2461.99989318848 184 186 183
469.80345249176 909.748315811157 2454.99992370605 176 178 175
475.670427083969 908.259093761444 2450.99997520447 171 173 170
481.909394264221 907.511353492737 2448.99988174438 158 160 155
487.738698720932 906.022965908051 2444.9999332428 155 157 152
492.737770080566 903.052687644959 2437.00003623962 149 151 146
498.103380203247 900.823891162872 2430.99999427795 145 147 142
504.059433937073 899.707198143005 2427.99997329712 136 138 133
510.420143604279 899.332284927368 2427.00004577637 143 145 140
516.562581062317 898.587048053741 2424.99995231628 136 138 133
522.478699684143 897.471785545349 2421.99993133545 121 123 118
528.378844261169 896.35705947876 2418.99991035461 114 116 111
535.368621349335 897.095501422882 2421.0000038147 108 110 105
542.369544506073 897.834658622742 2423.00009727478 110 112 107
548.701941967011 897.462546825409 2421.99993133545 116 115 111
-66.5325224399567 969.906151294708 2634.99999046326 39 21 7
-59.5744252204895 972.85395860672 2642.99988746643 109 86 70
-52.4737648665905 973.960995674133 2645.99990844727 122 90 69
-45.3054271638393 973.963379859924 2645.99990844727 120 82 61
-38.0793921649456 972.493171691895 2641.99995994568 74 39 17
-30.8164600282907 969.182014465332 2632.99989700317 116 85 64
-23.6652288585901 968.447268009186 2631.00004196167 129 103 80
-16.5122356265783 966.975867748261 2627.00009346008 118 94 70
-9.38089657574892 965.504109859467 2622.99990653992 81 61 36
-2.25994689390063 959.246695041656 2605.99994659424 69 49 24
4.78915357962251 957.038164138794 2599.99990463257 107 87 62
11.828494258225 956.669688224792 2598.99997711182 119 97 74
18.8769269734621 957.037091255188 2599.99990463257 120 98 75
25.9207841008902 957.035899162292 2599.99990463257 113 86 65
32.9012237489223 955.194056034088 2595.00002861023 114 86 65
39.8699194192886 953.719913959503 2591.00008010864 113 89 65
46.853095293045 952.981531620026 2588.99998664856 111 90 63
53.8669936358929 952.97908782959 2588.99998664856 113 89 63
60.7867725193501 951.503992080688 2585.00003814697 112 86 61
67.7372664213181 950.76459646225 2582.99994468689 99 71 47
74.7636556625366 951.129198074341 2584.00011062622 93 65 41
81.8270072340965 951.861560344696 2585.99996566772 71 43 21
88.9011323451996 952.593564987183 2588.00005912781 91 64 45
95.9118530154228 952.58903503418 2588.00005912781 98 71 52
103.161111474037 954.79279756546 2594.00010108948 132 106 89
110.527701675892 957.732200622559 2601.99999809265 139 113 98
118.253849446774 963.247895240784 2617.00010299683 116 92 80
127.306401729584 978.332936763763 2657.99999237061 162 149 140
434.346199035645 926.722943782806 2519.00005340576 188 190 187
437.834739685059 919.723153114319 2500 232 234 231
442.643165588379 915.666878223419 2489.00008201599 239 241 238
447.753131389618 912.346720695496 2480.00001907349 184 186 183
453.364104032516 910.130500793457 2473.99997711182 161 163 160
459.500461816788 909.018158912659 2470.99995613098 175 177 174
465.054631233215 906.802535057068 2464.99991416931 163 165 162
470.576465129852 904.58732843399 2459.00011062622 169 171 168
475.871622562408 902.004420757294 2451.99990272522 148 150 147
482.113003730774 901.261389255524 2450.00004768372 158 160 155
487.745106220245 899.415016174316 2444.9999332428 148 150 145
493.350327014923 897.569179534912 2440.00005722046 141 143 138
499.133467674255 896.091520786285 2436.00010871887 133 135 130
505.102694034576 894.982159137726 2433.00008773804 120 122 117
511.897027492523 895.344614982605 2434.00001525879 113 115 110
517.844974994659 894.236028194427 2430.99999427795 118 120 115
523.992538452148 893.495917320251 2428.99990081787 135 137 132
529.91110086441 892.38840341568 2426.00011825562 131 136 132
536.698222160339 892.752766609192 2427.00004577637 110 115 111
544.162511825562 894.221127033234 2430.99999427795 104 109 105
551.875352859497 896.057963371277 2436.00010871887 105 107 104
-66.5358379483223 962.815523147583 2634.99999046326 25 9 0
-59.487234801054 964.280247688293 2638.99993896484 114 87 70
-52.4168945848942 965.744733810425 2642.99988746643 127 96 78
-45.2734529972076 966.112554073334 2644.00005340576 119 84 64
-38.066890090704 965.018570423126 2641.00003242493 98 63 43
-30.8414176106453 962.827801704407 2634.99999046326 111 79 58
-23.6934032291174 962.463796138763 2634.0000629425 113 83 59
-16.5256354957819 960.637807846069 2628.99994850159 116 88 64
-9.39567480236292 959.907650947571 2627.00009346008 103 79 53
-2.2687332239002 955.888628959656 2615.9999370575 94 72 48
4.80597326532006 953.330636024475 2608.99996757507 116 96 72
11.8700517341495 952.964901924133 2608.00004005432 120 100 76
18.9287029206753 952.598810195923 2607.00011253357 119 97 74
25.981904938817 952.232122421265 2605.99994659424 114 87 66
32.9409092664719 949.307501316071 2598.00004959106 113 85 63
39.9180874228477 947.84414768219 2594.00010108948 112 88 62
46.8554385006428 946.014821529388 2588.99998664856 111 87 61
53.8280680775642 945.281386375427 2586.99989318848 111 87 61
60.7192516326904 943.451642990112 2582.00001716614 111 87 61
67.7144080400467 943.44836473465 2582.00001716614 107 81 56
74.7962966561317 944.540977478027 2585.00003814697 104 78 53
81.8943381309509 945.633292198181 2588.00005912781 95 69 46
88.871143758297 945.263504981995 2586.99989318848 111 84 63
95.9165543317795 945.624351501465 2588.00005912781 108 81 62
103.007063269615 946.35009765625 2589.99991416931 95 69 52
110.405646264553 949.633359909058 2598.99997711182 120 94 79
118.124015629292 955.108463764191 2614.00008201599 119 96 82
127.168849110603 970.082998275757 2654.99997138977 153 140 131
423.062741756439 925.058245658875 2532.99999237061 176 178 175
427.879899740219 920.66490650177 2520.99990844727 201 203 200
432.114869356155 915.176391601563 2506.00004196167 220 222 219
436.793893575668 910.783529281616 2493.99995803833 248 250 247
442.29719042778 908.217072486877 2486.99998855591 220 222 219
447.943091392517 906.015932559967 2480.99994659424 152 154 151
453.373283147812 903.450131416321 2473.99997711182 178 180 177
458.765536546707 900.884449481964 2467.00000762939 153 155 152
464.497208595276 899.049460887909 2461.99989318848 161 163 160
470.77602148056 898.310303688049 2460.00003814697 150 152 149
476.655900478363 896.84122800827 2456.00008964539 149 151 148
482.710927724838 895.737528800964 2453.00006866455 149 154 148
488.550275564194 894.269049167633 2448.99988174438 140 142 137
494.772523641586 893.531382083893 2447.00002670288 133 135 130
500.779092311859 892.428815364838 2444.00000572205 125 127 122
506.76953792572 891.326725482941 2440.99998474121 116 118 113
513.374865055084 891.320526599884 2440.99998474121 116 118 113
519.767284393311 890.949606895447 2440.00005722046 108 110 105
525.938808917999 890.213906764984 2437.99996376038 117 122 116
531.881153583527 889.113545417786 2434.99994277954 130 135 131
538.249850273132 888.743996620178 2434.00001525879 122 128 126
544.165670871735 887.64476776123 2430.99999427795 112 118 116
-59.5353692770004 957.904934883118 2641.00003242493 74 56 44
-52.4394251406193 958.995938301086 2644.00005340576 121 99 86
-45.2757813036442 958.998501300812 2644.00005340576 112 86 73
-38.0976796150208 958.63801240921 2642.99988746643 109 78 58
-30.901538208127 957.551777362823 2640.00010490417 138 106 85
-23.7486008554697 957.553088665009 2640.00010490417 104 70 45
-16.5642090141773 955.740630626678 2634.99999046326 103 69 44
-9.41404514014721 954.653203487396 2631.99996948242 118 88 62
-2.2731872741133 950.663626194 2621.00005149841 103 75 51
4.81727533042431 948.487341403961 2615.00000953674 118 96 73
11.893424205482 947.761416435242 2612.99991607666 119 97 76
18.9587250351906 947.035312652588 2611.00006103516 118 96 73
25.9932186454535 945.58322429657 2607.00011253357 112 86 63
32.9552888870239 942.679941654205 2598.99997711182 112 84 60
39.904747158289 940.501809120178 2592.99993515015 114 84 58
46.894047409296 939.774215221405 2591.00008010864 112 85 58
53.8308285176754 938.320636749268 2586.99989318848 112 85 58
60.8399510383606 938.317596912384 2586.99989318848 111 84 57
67.8227767348289 937.951624393463 2585.99996566772 105 79 52
74.8579725623131 938.31068277359 2586.99989318848 103 79 51
81.803560256958 937.581181526184 2585.00003814697 100 76 50
88.7725949287415 937.214195728302 2584.00011062622 105 83 60
95.8472713828087 937.934756278992 2585.99996566772 108 86 63
103.091783821583 940.105855464935 2592.00000762939 154 132 111
110.368698835373 942.2767162323 2598.00004959106 167 144 126
118.039526045322 947.348535060883 2611.99998855591 122 108 95
127.127274870872 962.575316429138 2654.00004386902 146 136 126
411.952048540115 924.047648906708 2549.00002479553 185 187 186
415.234327316284 916.060566902161 2526.99995040894 200 202 199
420.56867480278 912.786245346069 2517.99988746643 234 234 232
425.854325294495 909.512281417847 2509.0000629425 237 237 235
430.746227502823 905.513525009155 2497.99990653992 232 232 230
436.279088258743 902.964949607849 2490.9999370575 184 185 180
442.307591438293 901.504099369049 2486.99998855591 164 165 160
448.314368724823 900.043606758118 2483.00004005432 168 169 164
453.383207321167 896.770894527435 2473.99997711182 153 154 148
458.775132894516 894.223392009735 2467.00000762939 155 156 150
464.695245027542 892.763733863831 2463.00005912781 149 150 144
470.97647190094 892.029285430908 2460.99996566772 151 152 146
477.052748203278 890.932559967041 2457.99994468689 154 157 150
482.916086912155 889.473795890808 2453.9999961853 133 135 132
488.957285881042 888.377785682678 2450.99997520447 125 127 124
495.386779308319 888.00722360611 2450.00004768372 122 124 121
502.015829086304 887.999296188354 2450.00004768372 116 118 115
508.437275886536 887.629389762878 2448.99988174438 113 118 114
514.853477478027 887.259840965271 2447.99995422363 114 119 115
521.264433860779 886.890709400177 2447.00002670288 107 112 108
527.67014503479 886.522114276886 2446.00009918213 103 108 104
533.633768558502 885.429084300995 2443.00007820129 98 104 100
-59.6963167190552 953.319489955902 2648.00000190735 25 18 8
-52.4620190262794 952.242434024811 2644.99998092651 20 6 0
-45.3295484185219 952.965021133423 2647.0000743866 106 89 79
-38.1429381668568 952.607214450836 2645.99990844727 136 109 92
-30.9734083712101 952.609121799469 2645.99990844727 143 111 90
-23.8218307495117 953.33069562912 2648.00000190735 104 70 45
-16.634238883853 952.611684799194 2645.99990844727 103 67 41
-9.46104526519775 952.252447605133 2644.99998092651 115 81 56
-2.28458340279758 948.29249382019 2634.0000629425 119 89 65
4.82858484610915 943.612217903137 2621.00005149841 118 93 73
11.903160251677 941.451609134674 2615.00000953674 114 91 73
18.9742501825094 940.730631351471 2612.99991607666 112 90 69
26.0444525629282 940.369486808777 2611.99998855591 112 86 63
33.0457985401154 938.207805156708 2605.99994659424 112 84 60
39.9992018938065 935.685634613037 2598.99997711182 112 82 58
47.0232181251049 935.323357582092 2598.00004959106 112 82 58
53.9793372154236 933.880686759949 2594.00010108948 112 82 58
61.0077865421772 933.87758731842 2594.00010108948 110 82 58
67.9837018251419 933.154046535492 2592.00000762939 108 84 58
74.9487057328224 932.430267333984 2589.99991416931 108 84 58
81.8711221218109 931.34605884552 2586.99989318848 107 86 59
88.7428522109985 929.901480674744 2582.99994468689 97 77 53
95.8893150091171 931.336641311646 2586.99989318848 95 75 51
103.017568588257 932.41149187088 2589.99991416931 108 87 66
110.374383628368 935.285925865173 2598.00004959106 130 109 90
118.135958909988 941.039979457855 2614.00008201599 147 133 120
404.590308666229 916.105628013611 2546.0000038147 175 177 176
410.186558961868 913.214445114136 2538.00010681152 223 225 224
414.753377437592 908.164441585541 2523.9999294281 233 235 234
419.912487268448 904.554188251495 2513.99993896484 233 233 231
425.187081098557 901.303827762604 2505.00011444092 220 220 218
430.412858724594 898.053705692291 2496.00005149841 204 204 202
435.764938592911 895.163536071777 2487.99991607666 161 162 157
441.785126924515 893.712878227234 2483.99996757507 145 146 141
448.144674301147 892.982006072998 2482.00011253357 155 156 150
453.210473060608 889.732956886292 2473.00004959106 142 143 137
458.785474300385 887.563467025757 2467.00000762939 153 154 148
464.516580104828 885.75404882431 2461.99989318848 139 140 132
471.17754817009 885.743796825409 2461.99989318848 150 151 143
477.838575839996 885.733902454376 2461.99989318848 146 147 141
483.909219503403 884.64492559433 2459.00011062622 126 128 125
490.362554788589 884.275674819946 2457.99994468689 123 125 122
496.406197547913 883.187472820282 2454.99992370605 122 124 121
503.048360347748 883.178770542145 2454.99992370605 117 119 116
509.48303937912 882.810831069946 2453.9999961853 113 118 114
516.122698783875 882.802903652191 2453.9999961853 105 110 106
522.975504398346 883.155047893524 2454.99992370605 107 112 108
529.18666601181 882.428526878357 2453.00006866455 101 106 102
-52.9607534408569 954.059958457947 2670.00007629395 32 19 10
-45.5888956785202 951.204001903534 2661.99994087219 15 1 0
-38.2891707122326 949.06222820282 2655.99989891052 103 77 60
-31.0921538621187 949.064135551453 2655.99989891052 117 86 66
-23.9220913499594 950.137734413147 2658.99991989136 102 67 45
-16.7105905711651 949.781537055969 2657.99999237061 107 73 48
-9.48659982532263 947.638273239136 2651.99995040894 114 82 59
-2.29077972471714 943.708002567291 2641.00003242493 119 88 67
4.84358659014106 939.419806003571 2628.99994850159 121 94 73
11.9311213493347 936.560869216919 2621.00005149841 109 88 69
19.0043319016695 935.130596160889 2617.00010299683 107 86 65
26.0857529938221 934.772074222565 2615.9999370575 110 86 62
33.1490486860275 934.055864810944 2614.00008201599 109 83 58
40.1552841067314 932.267129421234 2608.99996757507 109 81 57
47.1886806190014 931.550145149231 2607.00011253357 109 81 57
54.1487373411655 929.760634899139 2601.99999809265 108 80 56
61.1522011458874 929.042935371399 2599.99990463257 107 81 56
68.1185051798821 927.967309951782 2596.99988365173 107 83 57
75.0684961676598 926.891565322876 2594.00010108948 107 83 57
82.0337682962418 926.172614097595 2592.00000762939 105 84 57
88.919386267662 924.738705158234 2588.00005912781 94 74 50
95.9314927458763 924.733698368073 2588.00005912781 88 68 44
103.102594614029 926.157653331757 2592.00000762939 85 64 43
110.422700643539 928.653061389923 2598.99997711182 96 75 56
118.413358926773 936.15049123764 2619.99988555908 153 141 129
394.048184156418 916.766405105591 2566.99991226196 184 186 183
396.776765584946 907.110571861267 2539.99996185303 185 187 186
402.85524725914 905.311644077301 2535.00008583069 223 225 224
409.068077802658 903.869926929474 2530.99989891052 210 212 211
414.437472820282 900.6427526474 2522.0000743866 216 218 215
419.590950012207 897.058844566345 2512.00008392334 191 191 189
425.19947886467 894.546389579773 2505.00011444092 178 178 176
430.769890546799 892.033994197845 2497.99990653992 169 169 167
436.127215623856 889.164865016937 2490.00000953674 147 148 143
441.796839237213 887.010157108307 2483.99996757507 158 159 154
447.975665330887 885.926902294159 2480.99994659424 135 136 130
453.588306903839 883.772730827332 2474.99990463257 144 145 139
459.35446023941 881.975889205933 2470.00002861023 140 141 135
465.470790863037 880.893409252167 2467.00000762939 135 136 128
471.953630447388 880.525290966034 2466.00008010864 131 132 124
478.819221258163 880.871593952179 2467.00000762939 121 122 116
484.706282615662 879.43297624588 2463.00005912781 119 121 118
491.369724273682 879.422903060913 2463.00005912781 118 120 117
497.224271297455 877.984881401062 2459.00011062622 115 117 114
503.672003746033 877.618312835693 2457.99994468689 116 118 115
510.321974754334 877.609252929688 2457.99994468689 111 116 112
517.603099346161 878.671705722809 2460.99996566772 111 116 112
524.68740940094 879.377424716949 2463.00005912781 105 110 106
-46.1737364530563 956.100761890411 2696.00009918213 14 7 0
-38.4498871862888 945.818662643433 2667.00005531311 21 2 0
-31.210957095027 945.465922355652 2665.99988937378 79 53 36
-24.0223929286003 946.886122226715 2670.00007629395 118 87 66
-16.7869683355093 946.887254714966 2670.00007629395 116 86 62
-9.52290371060371 944.050908088684 2661.99994087219 115 83 58
-2.29784706607461 939.440906047821 2648.9999294281 117 89 67
4.8622814938426 935.894310474396 2638.99993896484 119 94 72
11.9818635284901 933.411478996277 2631.99996948242 105 84 65
19.0780162811279 931.637465953827 2627.00009346008 103 82 61
26.1769592761993 930.92679977417 2625 108 84 60
33.3030745387077 931.279718875885 2625.99992752075 107 81 56
40.388397872448 930.56845664978 2624.00007247925 106 80 57
47.390416264534 928.438186645508 2618.00003051758 106 80 57
54.35985699296 926.307499408722 2611.99998855591 104 78 55
61.3202303647995 924.531102180481 2607.00011253357 103 77 54
68.4108212590218 924.882054328918 2608.00004005432 102 78 52
75.3909721970558 923.814117908478 2605.00001907349 103 79 53
82.5446769595146 924.873650074005 2608.00004005432 97 75 51
89.439645409584 923.095643520355 2602.9999256134 88 68 44
96.5669080615044 923.799812793732 2605.00001907349 82 62 38
103.585556149483 923.439800739288 2604.00009155273 86 65 44
111.108511686325 927.334666252136 2615.00000953674 86 68 48
119.097732007504 934.420764446259 2634.99999046326 91 74 58
390.531212091446 901.693999767303 2543.99991035461 190 192 189
396.477997303009 899.553656578064 2538.00010681152 204 206 203
402.391999959946 897.413194179535 2532.00006484985 221 221 219
408.273369073868 895.272850990295 2526.00002288818 201 201 199
413.793355226517 892.423808574677 2517.99988746643 215 215 213
419.102936983109 889.220654964447 2509.0000629425 172 173 168
425.382137298584 888.144075870514 2506.00004196167 163 164 159
431.127578020096 886.004507541656 2500 155 156 151
436.665266752243 883.510708808899 2493.00003051758 148 149 144
442.342847585678 881.37149810791 2486.99998855591 153 154 149
448.16842675209 879.58699464798 2482.00011253357 138 139 133
454.150080680847 878.156960010529 2477.9999256134 159 160 154
459.738075733185 876.018524169922 2471.99988365173 133 134 128
466.23694896698 875.652253627777 2470.99995613098 142 143 137
472.539007663727 874.931812286377 2469.00010108948 117 118 112
479.606479406357 875.629007816315 2470.99995613098 114 115 109
485.504120588303 874.200582504272 2467.00000762939 111 113 110
492.377489805222 874.543964862823 2467.99993515015 113 115 112
498.245269060135 873.115956783295 2463.99998664856 112 114 111
505.321025848389 873.814463615417 2466.00008010864 113 115 112
511.992275714874 873.804688453674 2466.00008010864 108 113 109
518.663585186005 873.795092105865 2466.00008010864 100 105 101
-52.7683161199093 936.175882816315 2660.00008583069 16 14 2
-38.55299949646 941.108405590057 2674.00002479553 36 18 4
-31.3181020319462 941.462278366089 2674.99995231628 87 64 48
-24.0597538650036 941.112041473389 2674.00002479553 121 93 72
-16.787925735116 939.705371856689 2670.00007629395 123 93 69
-9.51629225164652 936.186611652374 2660.00008583069 116 86 62
-2.30058049783111 933.371365070343 2651.99995040894 110 84 61
4.87545737996697 931.259632110596 2645.99990844727 113 88 66
12.0189674198627 929.147481918335 2640.00010490417 102 81 62
19.1154163330793 926.330864429474 2631.99996948242 99 78 59
26.2183398008347 925.273776054382 2628.99994850159 100 78 55
33.3303362131119 924.92002248764 2628.00002098084 102 76 53
40.4522642493248 924.917995929718 2628.00002098084 99 74 52
47.519825398922 923.859655857086 2625 99 74 52
54.5710623264313 922.800838947296 2621.99997901917 99 74 52
61.5354105830193 920.685887336731 2615.9999370575 98 73 51
68.5983076691628 920.330107212067 2615.00000953674 97 73 49
75.6267607212067 919.622182846069 2612.99991607666 95 71 47
82.8341841697693 921.025454998016 2617.00010299683 85 63 40
89.9601057171822 921.372473239899 2618.00003051758 80 59 38
97.2025394439697 922.774970531464 2621.99997901917 78 57 36
104.546085000038 924.880862236023 2628.00002098084 75 58 38
112.304426729679 930.153667926788 2642.99988746643 81 64 46
384.264558553696 896.257996559143 2548.00009727478 208 210 205
390.08492231369 893.781244754791 2540.99988937378 193 195 190
396.648347377777 893.063426017761 2539.00003433228 192 193 188
402.088165283203 889.88333940506 2529.99997138977 172 172 170
407.802402973175 887.406945228577 2523.00000190735 206 206 204
413.478553295136 884.930789470673 2516.00003242493 202 202 200
419.116616249084 882.454574108124 2509.0000629425 168 169 164
425.565421581268 881.737291812897 2506.99996948242 154 155 150
431.485921144485 879.96506690979 2502.00009346008 141 142 137
437.55429983139 878.544509410858 2497.99990653992 142 143 138
443.067342042923 876.069247722626 2490.9999370575 134 135 130
448.722928762436 873.945772647858 2484.99989509583 145 146 140
454.71253991127 872.525990009308 2480.99994659424 161 162 156
460.680365562439 871.106386184692 2476.99999809265 128 129 123
467.56985783577 871.445417404175 2477.9999256134 140 141 135
473.890632390976 870.729744434357 2476.0000705719 108 109 103
480.782777070999 871.069252490997 2476.99999809265 112 113 107
487.089842557907 870.353937149048 2474.99990463257 110 112 109
494.383692741394 871.397376060486 2477.9999256134 112 114 111
500.48041343689 870.331048965454 2474.99990463257 111 113 110
507.585525512695 871.023416519165 2476.99999809265 103 105 102
515.324294567108 872.77090549469 2482.00011253357 102 107 103
-52.4341091513634 923.083662986755 2642.99988746643 15 15 5
-31.3082188367844 933.917999267578 2674.00002479553 81 60 43
-24.0251608192921 932.522654533386 2670.00007629395 135 108 87
-16.7574640363455 930.777490139008 2664.99996185303 129 101 79
-9.50969103723764 928.333461284637 2657.99999237061 110 82 58
-2.302449895069 926.936745643616 2654.00004386902 112 86 63
4.87942714244127 924.841225147247 2648.00000190735 111 86 64
12.0333265513182 923.09433221817 2642.99988746643 101 80 61
19.167372956872 921.696424484253 2638.99993896484 99 78 59
26.3096280395985 921.345770359039 2638.00001144409 98 76 53
33.4210619330406 920.296251773834 2634.99999046326 100 73 52
40.5469797551632 919.944822788239 2634.0000629425 97 72 52
47.6312041282654 918.894469738007 2631.00004196167 97 72 52
54.7199249267578 918.192982673645 2628.99994850159 98 73 51
61.7742016911507 917.141735553741 2625.99992752075 98 73 51
68.864606320858 916.788756847382 2625 96 71 49
76.0073885321617 917.133748531342 2625.99992752075 92 70 46
83.2504555583 918.526172637939 2630.00011444092 87 65 42
90.5494466423988 920.267283916473 2634.99999046326 88 67 46
97.8754088282585 922.008097171783 2640.00010490417 90 72 52
105.347715318203 924.796283245087 2648.00000190735 77 62 43
113.713100552559 934.568762779236 2676.00011825562 86 71 52
377.758979797363 906.874358654022 2598.00004959106 184 186 181
377.976626157761 890.802264213562 2552.00004577637 197 199 194
383.676111698151 887.994706630707 2543.99991035461 192 194 189
390.253186225891 887.281656265259 2542.00005531311 194 196 191
396.350562572479 885.521411895752 2536.99994087219 166 167 162
402.102768421173 883.063197135925 2529.99997138977 165 165 163
407.816886901855 880.605161190033 2523.00000190735 187 187 185
413.657277822495 878.496170043945 2516.99995994568 146 147 142
419.464975595474 876.387417316437 2510.99991798401 140 141 136
425.749331712723 875.325858592987 2507.99989700317 135 136 131
431.844800710678 873.915493488312 2503.99994850159 143 144 139
437.918484210968 872.505247592926 2500 131 132 127
443.792521953583 870.74613571167 2494.99988555908 136 137 132
449.639320373535 868.987262248993 2490.00000953674 148 149 143
455.825537443161 867.926597595215 2486.99998855591 125 126 120
462.181329727173 867.215037345886 2484.99989509583 125 126 120
468.903601169586 867.201745510101 2484.99989509583 110 111 105
475.434422492981 866.839706897736 2483.99996757507 109 110 104
482.15389251709 866.826891899109 2483.99996757507 111 112 107
488.676488399506 866.465330123901 2483.00004005432 104 106 103
496.390640735626 868.197679519653 2487.99991607666 104 106 103
503.525197505951 868.883490562439 2490.00000953674 102 104 101
-45.4280748963356 919.096946716309 2651.99995040894 13 14 6
-38.5142751038074 925.68427324295 2671.0000038147 33 21 9
-31.3100814819336 926.726102828979 2674.00002479553 69 52 36
-24.0175910294056 924.994766712189 2668.99991035461 133 108 88
-16.7521741241217 923.263251781464 2664.00003433228 137 111 88
-9.51383449137211 921.531081199646 2658.99991989136 128 100 76
-2.30258726514876 919.798731803894 2654.00004386902 112 84 60
4.88340342417359 918.412327766418 2650.00009536743 110 84 61
12.0522556826472 917.372047901154 2647.0000743866 103 81 60
19.197566434741 915.984749794006 2642.99988746643 100 79 58
26.321167126298 914.59721326828 2638.99993896484 102 77 55
33.4103666245937 912.862539291382 2634.0000629425 102 76 53
40.549386292696 912.86039352417 2634.0000629425 99 74 52
47.6883426308632 912.85765171051 2634.0000629425 97 75 54
54.8064224421978 912.508070468903 2632.99989700317 96 74 51
61.8954859673977 911.811530590057 2631.00004196167 97 72 50
68.973608314991 911.114394664764 2628.99994850159 95 70 48
76.1565864086151 911.803245544434 2631.00004196167 89 67 44
83.4769383072853 913.877964019775 2637.00008392334 91 70 49
90.8984020352364 916.645228862762 2644.99998092651 92 75 57
98.3260422945023 919.065475463867 2651.99995040894 86 70 54
106.149554252625 924.604296684265 2667.99998283386 114 101 84
360.77219247818 892.631530761719 2576.99990272522 191 193 188
367.033153772354 890.884041786194 2572.00002670288 183 185 180
371.812671422958 885.672807693481 2556.99992179871 229 231 226
377.695649862289 883.232712745667 2549.99995231628 239 241 236
383.691340684891 881.138980388641 2543.99991035461 180 181 176
390.268415212631 880.43075799942 2542.00005531311 192 193 188
