ply
format ascii 1.0
comment KinectMotionCapture
element vertex 785
property float x
property float y
property float z
property uchar red
property uchar green
property uchar blue
end_header
-81.7712545394897 367.445170879364 2650.00009536743 16 19 12
-74.4361653923988 366.895407438278 2645.99990844727 48 51 44
-67.2242343425751 366.899818181992 2645.99990844727 164 166 161
-59.9213391542435 366.349160671234 2641.99995994568 147 149 144
-52.7597591280937 366.630017757416 2644.00005340576 131 133 128
-45.5181673169136 366.355776786804 2641.99995994568 128 130 125
-38.3018106222153 366.219758987427 2641.00003242493 147 148 143
-31.0554355382919 365.667253732681 2637.00008392334 133 134 129
-23.8579027354717 365.530282258987 2635.99991798401 136 137 132
-16.6404359042645 364.8382127285 2631.00004196167 147 148 143
-9.45736560970545 364.423036575317 2628.00002098084 145 146 141
-2.29410594329238 364.562034606934 2628.99994850159 141 142 137
4.87646693363786 364.839315414429 2631.00004196167 135 136 131
12.0533453300595 364.977478981018 2631.99996948242 141 142 137
19.2137192934752 364.699155092239 2630.00011444092 145 146 141
26.3731423765421 364.559054374695 2628.99994850159 141 142 137
33.5397757589817 364.557147026062 2628.99994850159 140 141 136
40.7062917947769 364.554822444916 2628.99994850159 142 143 138
47.8544384241104 364.413410425186 2628.00002098084 137 138 133
54.9760200083256 364.132821559906 2625.99992752075 137 138 133
62.0865114033222 363.851875066757 2624.00007247925 142 143 138
69.3177953362465 364.263743162155 2627.00009346008 144 145 140
76.5942931175232 364.813834428787 2631.00004196167 141 142 137
83.8923081755638 365.363478660584 2634.99999046326 140 141 136
91.0390093922615 365.219324827194 2634.0000629425 140 141 136
98.217211663723 365.213483572006 2634.0000629425 147 148 143
105.475082993507 365.484416484833 2635.99991798401 149 150 145
112.914428114891 366.309553384781 2641.99995994568 145 146 141
120.476990938187 367.411524057388 2650.00009536743 141 143 138
127.889961004257 367.958426475525 2654.00004386902 138 140 135
135.069698095322 367.811650037766 2653.00011634827 147 149 144
142.350777983665 367.941737174988 2654.00004386902 160 162 157
149.636790156364 368.071407079697 2654.99997138977 168 170 165
157.223150134087 368.893772363663 2661.00001335144 164 166 161
164.779812097549 369.577050209045 2665.99988937378 166 168 163
172.427654266357 370.398491621017 2671.99993133545 155 157 152
180.242106318474 371.496707201004 2680.0000667572 138 140 135
188.029497861862 372.455805540085 2687.00003623962 102 104 99
195.781677961349 373.275876045227 2693.00007820129 98 100 95
206.356421113014 379.223823547363 2736.00006103516 37 42 38
-232.881367206573 370.792597532272 2729.00009155273 193 195 192
-223.63655269146 367.816805839539 2707.00001716614 182 184 181
-215.309649705887 366.199254989624 2694.9999332428 175 177 174
-207.278832793236 364.988833665848 2686.00010871887 163 165 162
-199.966341257095 365.00096321106 2686.00010871887 158 159 154
-192.724823951721 365.148544311523 2687.00003623962 155 157 152
-185.615226626396 365.567535161972 2690.00005722046 151 153 148
-178.75374853611 366.529762744904 2697.00002670288 149 151 146
-172.17130959034 368.171215057373 2709.00011062622 144 146 141
-165.644526481628 370.084077119827 2723.00004959106 88 90 85
-136.621847748756 371.887624263763 2736.00006103516 8 13 7
-128.695070743561 370.53644657135 2726.0000705719 10 15 8
-119.665704667568 365.650624036789 2690.00005722046 19 22 15
-113.003626465797 367.832601070404 2706.00008964539 20 23 14
-105.824537575245 368.518948554993 2710.99996566772 22 25 16
-97.6011678576469 365.398675203323 2687.99996376038 23 26 17
-89.0997648239136 360.646545886993 2653.00011634827 21 24 17
-81.4368650317192 358.748644590378 2638.99993896484 23 26 19
-74.4970515370369 359.976887702942 2648.00000190735 17 20 13
-67.1776011586189 359.437495470047 2644.00005340576 150 153 146
-59.9023848772049 359.033554792404 2641.00003242493 126 129 122
-52.763044834137 359.444916248322 2644.00005340576 131 133 128
-45.50376906991 359.040051698685 2641.00003242493 122 124 119
-38.2751859724522 358.770728111267 2638.99993896484 139 140 135
-31.0573689639568 358.500987291336 2637.00008392334 127 128 123
-23.877490311861 358.638644218445 2638.00001144409 137 138 133
-16.6667718440294 358.232021331787 2634.99999046326 142 143 138
-9.46515239775181 357.553094625473 2630.00011444092 147 148 143
-2.2925038356334 357.145637273788 2627.00009346008 137 138 133
4.87121008336544 357.281506061554 2628.00002098084 136 137 132
12.0403580367565 357.416927814484 2628.99994850159 142 143 138
19.2003026604652 357.280015945435 2628.00002098084 142 143 138
26.3747870922089 357.414543628693 2628.99994850159 138 139 134
33.5291065275669 357.27670788765 2628.00002098084 138 139 134
40.7088212668896 357.410341501236 2628.99994850159 138 140 135
47.8756204247475 357.407629489899 2628.99994850159 138 140 135
55.0213158130646 357.268482446671 2628.00002098084 138 140 135
62.1850118041039 357.264906167984 2628.00002098084 139 141 136
69.4012567400932 357.532769441605 2630.00011444092 140 142 137
76.7446085810661 358.343929052353 2635.99991798401 135 137 132
83.9611813426018 358.474940061569 2637.00008392334 137 139 134
91.0791978240013 358.197659254074 2634.99999046326 140 142 137
98.2232764363289 358.055949211121 2634.0000629425 144 146 141
105.481579899788 358.321517705917 2635.99991798401 147 149 144
112.921379506588 359.130471944809 2641.99995994568 144 146 141
120.348006486893 359.803050756454 2647.0000743866 140 142 137
127.705037593842 360.203236341476 2650.00009536743 141 143 138
135.027065873146 360.467106103897 2651.99995040894 160 162 157
142.305850982666 360.594630241394 2653.00011634827 171 173 168
149.589538574219 360.72164773941 2654.00004386902 158 160 155
157.055452466011 361.256092786789 2657.99999237061 157 159 154
164.666205644608 362.061828374863 2664.00003433228 162 164 159
172.567188739777 363.410770893097 2674.00002479553 142 144 139
180.320262908936 364.351481199265 2680.99999427795 88 90 85
188.320755958557 365.699410438538 2690.99998474121 47 49 44
195.357203483582 365.144371986389 2687.00003623962 24 26 21
205.463662743568 370.160400867462 2723.99997711182 30 35 31
-233.236327767372 363.910913467407 2733.00004005432 196 198 195
-223.401799798012 360.062599182129 2703.9999961853 184 186 183
-215.242400765419 358.743786811829 2694.00000572205 175 177 174
-207.368209958076 357.823938131332 2687.00003623962 164 166 163
-200.052574276924 357.835859060287 2687.00003623962 165 166 161
-192.807987332344 357.980579137802 2687.99996376038 164 166 161
-185.833290219307 358.657628297806 2693.00007820129 160 162 157
-178.896948695183 359.467476606369 2698.99988174438 142 144 139
-172.181606292725 360.809803009033 2709.00011062622 126 128 123
-165.715262293816 362.817645072937 2723.99997711182 98 100 95
-134.882241487503 359.789907932281 2700.99997520447 116 121 115
-128.844499588013 363.527625799179 2729.00009155273 24 29 22
-121.852867305279 364.867269992828 2739.00008201599 16 19 12
-112.843424081802 359.9454164505 2701.99990272522 17 20 11
-105.479642748833 359.952002763748 2701.99990272522 19 22 13
-88.265523314476 350.105464458466 2628.00002098084 21 24 15
-80.8863416314125 349.178016185761 2621.00005149841 16 19 12
-74.8110860586166 354.245245456696 2658.99991989136 9 12 5
-67.1308785676956 351.984709501266 2641.99995994568 28 31 24
-59.8833672702312 351.722151041031 2640.00010490417 4 7 0
-52.7463145554066 352.125227451324 2642.99988746643 121 124 117
-45.4720929265022 351.595312356949 2638.99993896484 109 112 105
-38.2485277950764 351.331412792206 2637.00008392334 119 120 115
-31.0474913567305 351.200252771378 2635.99991798401 120 121 116
-23.8608494400978 351.201891899109 2635.99991798401 130 131 126
-16.6551433503628 350.803434848785 2632.99989700317 134 135 130
-9.45493578910828 350.004881620407 2627.00009346008 142 143 138
-2.29264469817281 350.005239248276 2627.00009346008 136 137 132
4.86780144274235 349.871903657913 2625.99992752075 134 135 130
12.0227765291929 349.738150835037 2625 135 136 131
19.1795583814383 349.737197160721 2625 135 136 131
26.3563375920057 350.002318620682 2627.00009346008 137 138 133
33.5439182817936 350.26690363884 2628.99994850159 140 141 136
40.7268032431602 350.397884845734 2630.00011444092 137 139 134
47.878559678793 350.261986255646 2628.99994850159 134 136 131
55.0037510693073 349.992394447327 2627.00009346008 136 138 133
62.1651522815228 349.988847970963 2627.00009346008 140 142 137
69.3527236580849 350.118100643158 2628.00002098084 138 140 135
76.6619443893433 350.779801607132 2632.99989700317 131 133 128
83.93444865942 351.174592971802 2635.99991798401 133 135 130
91.084748506546 351.036071777344 2634.99999046326 140 142 137
98.2665419578552 351.030379533768 2634.99999046326 144 146 141
105.447977781296 351.024210453033 2634.99999046326 137 139 134
112.842746078968 351.683735847473 2640.00010490417 137 139 134
120.12792378664 351.943135261536 2641.99995994568 129 131 126
127.471789717674 352.335333824158 2644.99998092651 167 169 164
134.83153283596 352.727115154266 2648.00000190735 163 165 160
142.207115888596 353.118419647217 2651.00002288818 147 149 144
149.542167782784 353.376150131226 2653.00011634827 139 141 136
156.887590885162 353.633373975754 2654.99997138977 130 132 127
164.428800344467 354.289829730988 2660.00008583069 77 79 74
172.319307923317 355.611711740494 2670.00007629395 36 38 33
180.330976843834 357.066333293915 2680.99999427795 24 26 21
188.191965222359 358.120948076248 2688.99989128113 29 31 26
194.496259093285 356.245189905167 2674.99995231628 29 31 26
-233.93252491951 357.528060674667 2740.9999370575 201 203 200
-223.249450325966 352.453917264938 2701.99990272522 189 191 188
-215.174943208694 351.292550563812 2693.00007820129 176 178 175
-207.38023519516 350.521981716156 2687.00003623962 168 170 167
-200.287625193596 350.925117731094 2690.00005722046 160 161 156
-192.96270608902 350.936472415924 2690.00005722046 158 160 155
-185.913175344467 351.469308137894 2694.00000572205 157 159 154
-178.642302751541 351.61030292511 2694.9999332428 153 155 150
-172.064587473869 353.186219930649 2707.00001716614 130 132 127
-165.664210915565 355.28364777565 2723.00004959106 86 88 83
-135.239854454994 353.361755609512 2707.99994468689 58 63 57
-126.774653792381 350.368171930313 2684.99994277954 14 19 12
-119.635581970215 350.897461175919 2688.99989128113 18 21 12
-110.553070902824 345.423489809036 2647.0000743866 16 19 10
-107.086583971977 357.957661151886 2743.00003051758 16 19 10
-99.428653717041 357.311278581619 2737.99991607666 19 22 13
-86.6921618580818 336.828052997589 2581.00008964539 19 22 13
-74.3935331702232 345.059484243393 2644.00005340576 34 37 30
-67.3382133245468 345.846742391586 2650.00009536743 12 15 8
-59.9777102470398 345.067471265793 2644.00005340576 20 23 16
-52.7494922280312 344.940334558487 2642.99988746643 113 116 109
-45.3886799514294 343.768686056137 2634.0000629425 106 109 102
-38.1492935121059 343.24911236763 2630.00011444092 115 116 111
-30.966917052865 343.120694160461 2628.99994850159 115 116 111
-23.7898733466864 342.991799116135 2628.00002098084 136 137 132
-16.6118685156107 342.731982469559 2625.99992752075 136 137 132
-9.44830849766731 342.602252960205 2625 138 139 134
-2.29103746823967 342.602610588074 2625 133 134 129
4.86809527501464 342.733025550842 2625.99992752075 132 133 128
12.0189217850566 342.47151017189 2624.00007247925 132 133 128
19.1661044955254 342.340022325516 2622.99990653992 133 134 129
26.3378620147705 342.599749565125 2625 136 137 132
33.533189445734 342.989504337311 2628.00002098084 138 139 134
40.7447442412376 343.378812074661 2631.00004196167 137 139 134
47.8996597230434 343.245625495911 2630.00011444092 132 134 129
55.02799898386 342.981547117233 2628.00002098084 134 136 131
62.1688961982727 342.847526073456 2627.00009346008 139 141 136
69.3568885326386 342.974096536636 2628.00002098084 136 138 133
76.5500739216805 343.100219964981 2628.99994850159 129 131 126
83.7802663445473 343.35646033287 2631.00004196167 138 140 135
90.9519270062447 343.351274728775 2631.00004196167 143 145 140
98.2351303100586 343.737185001373 2634.0000629425 138 140 135
105.534322559834 344.122618436813 2637.00008392334 136 138 133
112.892217934132 344.638109207153 2641.00003242493 128 130 125
120.135091245174 344.761699438095 2641.99995994568 133 135 130
127.431184053421 345.015436410904 2644.00005340576 170 172 167
134.890452027321 345.660120248795 2648.9999294281 154 156 151
142.108261585236 345.65195441246 2648.9999294281 137 139 134
149.325519800186 345.643371343613 2648.9999294281 124 126 121
156.424090266228 345.373451709747 2647.0000743866 105 107 102
164.005756378174 346.147000789642 2653.00011634827 25 27 22
172.071263194084 347.833275794983 2665.99988937378 24 26 21
179.736152291298 348.605871200562 2671.99993133545 32 34 29
187.223106622696 348.986566066742 2674.99995231628 22 24 19
194.653034210205 349.236458539963 2677.00004577637 23 25 20
-232.324063777924 347.652077674866 2721.99988365173 201 203 200
-223.01422059536 344.727277755737 2698.99988174438 187 189 186
-215.107291936874 343.845576047897 2691.99991226196 173 175 172
-207.469269633293 343.346565961838 2687.99996376038 166 168 165
-200.224608182907 343.485862016678 2688.99989128113 164 165 160
-192.973792552948 343.624830245972 2690.00005722046 161 163 158
-185.716822743416 343.76335144043 2690.99998474121 158 160 155
-178.520053625107 344.029247760773 2693.00007820129 152 154 149
-171.756714582443 345.189034938812 2701.99990272522 144 146 141
-165.308758616447 347.115069627762 2717.00000762939 152 154 149
-124.704457819462 337.446808815002 2641.00003242493 26 31 24
-118.930719792843 341.542661190033 2673.00009727478 24 27 18
-112.272053956985 343.46604347229 2687.99996376038 18 21 10
-104.594178497791 342.32234954834 2678.99990081787 17 20 9
-67.7996128797531 340.941935777664 2667.99998283386 30 33 26
-60.5710968375206 341.201275587082 2670.00007629395 16 19 12
-52.8723783791065 338.521003723145 2648.9999294281 15 18 11
-45.3913658857346 336.60700917244 2634.0000629425 7 10 3
-38.1225496530533 335.842698812485 2628.00002098084 107 109 104
-30.9216380119324 335.461348295212 2625 129 131 126
-23.7369686365128 335.079580545425 2621.99997901917 124 126 121
-16.5812261402607 334.952980279922 2621.00005149841 112 114 109
-9.44167003035545 335.209310054779 2622.99990653992 131 133 128
-2.29030102491379 335.337489843369 2624.00007247925 128 130 125
4.86653111875057 335.4651927948 2625 129 131 126
12.0196370407939 335.336893796921 2624.00007247925 128 130 125
19.1672425717115 335.208147764206 2622.99990653992 129 131 126
26.319358497858 335.206836462021 2622.99990653992 133 135 130
33.5096567869186 335.588485002518 2625.99992752075 132 134 129
40.7316796481609 336.097478866577 2630.00011444092 134 137 130
47.9024983942509 336.094856262207 2630.00011444092 132 135 128
55.0312623381615 335.836231708527 2628.00002098084 134 137 130
62.1252432465553 335.449427366257 2625 134 137 130
69.2818164825439 335.445553064346 2625 130 133 126
76.4090120792389 335.313498973846 2624.00007247925 137 140 133
83.6259946227074 335.564374923706 2625.99992752075 135 138 131
90.8535867929459 335.814863443375 2628.00002098084 140 143 136
98.2036143541336 336.448222398758 2632.99989700317 126 129 122
105.620570480824 337.208956480026 2638.99993896484 113 116 109
112.941600382328 337.585896253586 2641.99995994568 147 150 143
120.233088731766 337.834686040878 2644.00005340576 156 159 152
127.390429377556 337.699711322784 2642.99988746643 152 155 148
134.694650769234 337.947636842728 2644.99998092651 117 120 113
141.901955008507 337.939649820328 2644.99998092651 31 34 27
149.277865886688 338.314533233643 2648.00000190735 22 25 18
156.374081969261 338.050216436386 2645.99990844727 26 29 22
163.397014141083 337.65771985054 2642.99988746643 10 13 6
171.242117881775 338.925659656525 2653.00011634827 9 12 5
179.47743833065 340.831845998764 2667.99998283386 44 47 40
188.633769750595 344.270497560501 2694.9999332428 43 46 39
-232.422381639481 340.378284454346 2723.00004959106 201 203 200
-223.274573683739 337.765783071518 2701.99990272522 188 190 187
-215.518891811371 337.152928113937 2697.00002670288 175 177 174
-207.789674401283 336.539626121521 2691.99991226196 170 172 169
-200.459286570549 336.551040410995 2691.99991226196 159 160 155
-192.98467040062 336.311966180801 2690.00005722046 161 163 158
-185.72735786438 336.447656154633 2690.99998474121 162 164 159
-178.530186414719 336.707919836044 2693.00007820129 160 162 157
-171.63935303688 337.593019008636 2700.00004768372 150 152 147
-164.648905396461 338.352799415588 2706.00008964539 129 131 126
-133.657246828079 334.635317325592 2676.00011825562 26 31 25
-125.608846545219 332.641839981079 2660.00008583069 5 10 3
-118.759587407112 333.774328231812 2668.99991035461 20 23 14
-111.02544516325 332.405298948288 2657.99999237061 18 21 10
-103.546030819416 331.661075353622 2651.99995040894 18 21 10
-95.9537103772163 330.416202545166 2641.99995994568 17 20 11
-90.29670804739 336.174458265305 2687.99996376038 14 17 8
-68.6676204204559 337.939143180847 2701.99990272522 23 26 17
-60.7561282813549 334.941208362579 2677.99997329712 14 17 10
-53.095031529665 332.693248987198 2660.00008583069 16 19 12
-45.3940220177174 329.444169998169 2634.0000629425 17 20 13
-38.1102673709393 328.571051359177 2627.00009346008 62 64 59
-30.9470053762197 328.573077917099 2627.00009346008 105 107 102
-23.7745698541403 328.449547290802 2625.99992752075 122 124 119
-16.5885202586651 327.950417995453 2621.99997901917 114 116 111
-9.43502318114042 327.826112508774 2621.00005149841 127 129 124
-2.28781625628471 327.826470136642 2621.00005149841 129 131 126
4.86496184021235 328.201621770859 2624.00007247925 130 132 127
12.0157590135932 328.076034784317 2622.99990653992 126 128 123
19.1537495702505 327.825009822845 2621.00005149841 126 128 123
26.2707248330116 327.448457479477 2618.00003051758 132 134 129
33.4350429475307 327.696830034256 2619.99988555908 132 134 129
40.6566187739372 328.320115804672 2625 133 136 129
47.8688664734364 328.692764043808 2628.00002098084 133 136 129
55.0344735383987 328.689783811569 2628.00002098084 134 137 130
62.1998682618141 328.686356544495 2628.00002098084 131 134 127
69.259449839592 328.182309865952 2624.00007247925 127 130 123
76.3552114367485 327.927976846695 2621.99997901917 137 140 133
83.503469824791 327.923357486725 2621.99997901917 144 147 140
90.7551348209381 328.293561935425 2625 133 136 129
98.1720164418221 329.163581132889 2631.99996948242 115 118 111
105.586655437946 329.908072948456 2638.00001144409 113 116 109
113.033622503281 330.652177333832 2644.00005340576 165 168 161
120.330974459648 330.895572900772 2645.99990844727 166 169 162
127.445980906487 330.638408660889 2644.00005340576 94 97 90
134.753301739693 330.881059169769 2645.99990844727 40 43 36
141.802787780762 330.49800992012 2642.99988746643 22 25 18
149.060904979706 330.614805221558 2644.00005340576 23 26 19
155.969306826591 329.980939626694 2638.99993896484 12 15 8
163.59181702137 330.847173929214 2645.99990844727 7 10 3
171.380952000618 331.963032484055 2654.99997138977 11 14 7
179.824024438858 334.203720092773 2673.00009727478 38 41 34
191.234365105629 341.569900512695 2732.00011253357 19 22 15
-223.452106118202 330.664604902267 2703.9999961853 194 199 195
-215.690582990646 330.065101385117 2698.99988174438 179 183 182
-208.109930157661 329.709827899933 2696.00009918213 165 167 166
-200.470387935638 329.231828451157 2691.99991226196 160 161 156
-193.067163228989 329.120337963104 2690.99998474121 158 158 156
-185.875743627548 329.375416040421 2693.00007820129 155 155 153
-178.739041090012 329.752385616302 2696.00009918213 157 157 157
-171.521782875061 330.006688833237 2697.99995422363 143 144 146
-164.17133808136 330.016046762466 2697.99995422363 77 77 77
-157.750248908997 331.982135772705 2713.99998664856 133 133 133
-133.065417408943 325.890153646469 2664.00003433228 12 9 2
-126.843795180321 328.588753938675 2686.00010871887 26 26 18
-119.077824056149 327.372312545776 2676.00011825562 19 20 12
-109.527923166752 320.772498846054 2621.99997901917 19 22 13
-102.497667074203 321.145504713058 2625 22 25 18
-95.9228426218033 323.108553886414 2641.00003242493 21 24 17
-89.2268344759941 324.948966503143 2655.99989891052 20 23 16
-82.7265158295631 327.890127897263 2680.0000667572 15 18 11
-74.9693512916565 325.937062501907 2664.00003433228 13 16 9
-65.4946640133858 315.296590328217 2576.99990272522 12 14 9
-52.7587197721004 323.378533124924 2642.99988746643 15 17 12
-45.293215662241 321.546047925949 2628.00002098084 15 17 12
-38.1414704024792 321.670770645142 2628.99994850159 14 17 10
-30.9723429381847 321.672707796097 2628.99994850159 12 15 8
-23.7849913537502 321.429580450058 2627.00009346008 18 21 14
-16.6021287441254 321.063667535782 2624.00007247925 13 16 9
-9.42476559430361 320.330262184143 2618.00003051758 30 33 26
-2.2835829295218 320.085883140564 2615.9999370575 111 114 107
4.85782464966178 320.575207471848 2619.99988555908 131 134 127
12.0118670165539 320.819437503815 2621.99997901917 136 139 132
19.1548503935337 320.696204900742 2621.00005149841 131 134 127
26.2822657823563 320.450186729431 2618.99995803833 141 144 137
33.4369651973248 320.570856332779 2619.99988555908 139 142 135
40.6434610486031 321.058183908463 2624.00007247925 139 142 135
47.8351786732674 321.300357580185 2625.99992752075 145 148 141
54.9538545310497 321.052730083466 2624.00007247925 143 146 139
62.1324181556702 321.171760559082 2625 135 138 131
69.2634209990501 321.045696735382 2624.00007247925 136 139 132
76.4469429850578 321.163922548294 2625 150 153 146
83.6037695407867 321.159362792969 2625 153 156 149
90.8640325069427 321.521461009979 2628.00002098084 124 127 120
98.1775969266891 322.0055103302 2631.99996948242 120 123 116
105.552636086941 322.611480951309 2637.00008392334 137 140 133
112.954534590244 323.217034339905 2641.99995994568 130 133 126
120.3832924366 323.822170495987 2647.0000743866 0 3 0
127.404972910881 323.325842618942 2642.99988746643 19 22 15
134.30255651474 322.584509849548 2637.00008392334 18 21 14
140.952289104462 321.353524923325 2627.00009346008 12 15 8
147.885277867317 320.856153964996 2622.99990653992 11 14 7
156.569108366966 324.028044939041 2648.9999294281 9 12 5
163.971945643425 324.386090040207 2651.99995040894 16 19 12
172.100633382797 326.089233160019 2665.99988937378 8 11 4
179.228529334068 325.834900140762 2664.00003433228 24 27 20
190.613374114037 320.555299520493 2621.00005149841 30 33 26
-224.125280976295 324.268817901611 2711.99989318848 184 188 187
-216.101869940758 323.324054479599 2703.9999961853 150 154 155
-208.429992198944 322.857141494751 2700.00004768372 158 160 159
-200.77919960022 322.389841079712 2696.00009918213 162 163 158
-193.149402737617 321.922093629837 2691.99991226196 163 163 161
-185.816869139671 321.932375431061 2691.99991226196 162 164 161
-178.616225719452 322.181463241577 2694.00000572205 166 167 169
-171.467646956444 322.549760341644 2697.00002670288 154 155 159
-164.058685302734 322.439342737198 2696.00009918213 79 80 82
-156.712666153908 322.44810461998 2696.00009918213 103 103 103
-138.805612921715 315.168350934982 2634.99999046326 7 6 2
-133.272618055344 319.122940301895 2667.99998283386 37 34 27
-125.197932124138 317.096680402756 2651.00002288818 20 20 10
-117.526911199093 315.907180309296 2641.00003242493 18 21 12
-109.910018742085 314.717322587967 2631.00004196167 18 21 12
-102.425299584866 313.766211271286 2622.99990653992 21 24 17
-95.7102924585342 315.207183361053 2634.99999046326 20 23 16
-89.1982465982437 317.604780197144 2654.99997138977 19 22 15
-82.2372436523438 318.686217069626 2664.00003433228 21 24 17
-74.6358409523964 317.255020141602 2651.99995040894 18 21 14
-65.727099776268 309.36336517334 2585.99996566772 14 16 11
-58.2898482680321 307.333141565323 2569.00000572205 14 16 11
-44.0892614424229 306.022882461548 2558.00008773804 10 12 7
-37.6213006675243 310.212343931198 2592.99993515015 13 16 9
-30.9505295008421 314.281851053238 2627.00009346008 14 17 10
-23.8497145473957 315.120846033096 2634.0000629425 19 22 15
-16.6220478713512 314.284533262253 2627.00009346008 17 20 13
-9.40729584544897 312.610298395157 2612.99991607666 10 13 6
-2.2793470416218 312.371373176575 2611.00006103516 10 13 6
4.85068187117577 312.969475984573 2615.9999370575 7 10 3
11.9988014921546 313.327938318253 2618.99995803833 4 7 0
19.1413126885891 313.327044248581 2618.99995803833 18 21 14
26.2636803090572 313.086539506912 2617.00010299683 25 28 21
33.4388539195061 313.443779945374 2619.99988555908 11 14 7
40.6302586197853 313.800573348999 2622.99990653992 4 7 0
47.819659113884 314.037382602692 2625 7 10 3
54.9150593578815 313.675612211227 2621.99997901917 6 9 2
62.1359199285507 314.03124332428 2625 1 4 0
69.3201050162315 314.147233963013 2625.99992752075 2 5 0
76.5677317976952 314.502060413361 2628.99994850159 3 6 0
83.6084559559822 314.019083976746 2625 11 14 7
90.6616598367691 313.655376434326 2621.99997901917 6 9 2
97.8846698999405 313.889414072037 2624.00007247925 8 11 4
105.158254504204 314.242660999298 2627.00009346008 18 21 14
112.960837781429 316.030889749527 2641.99995994568 15 18 11
120.435476303101 316.742151975632 2648.00000190735 8 11 4
127.797722816467 317.094147205353 2651.00002288818 24 27 20
133.851617574692 314.335882663727 2628.00002098084 19 22 15
139.886945486069 311.816602945328 2607.00011253357 12 15 8
147.949859499931 313.841998577118 2624.00007247925 15 18 11
157.405272126198 318.498134613037 2663.00010681152 14 17 10
164.846643805504 318.848133087158 2665.99988937378 17 20 13
172.174632549286 318.958550691605 2667.00005531311 13 16 9
178.834646940231 317.872643470764 2657.99999237061 26 29 22
184.18487906456 314.633935689926 2631.00004196167 26 29 22
194.551140069962 319.885432720184 2674.99995231628 30 33 26
203.496396541595 322.505503892899 2697.00002670288 30 35 29
-224.715709686279 317.711591720581 2719.00010108948 198 203 199
-216.033414006233 315.853536128998 2703.00006866455 189 191 190
-208.209499716759 315.1635825634 2697.00002670288 182 184 181
-200.566485524178 314.706951379776 2693.00007820129 171 176 170
-193.01626086235 314.36675786972 2690.00005722046 169 174 170
-185.481697320938 314.026236534119 2687.00003623962 169 174 170
-178.360626101494 314.386516809464 2690.00005722046 169 173 172
-171.158999204636 314.62961435318 2691.99991226196 157 163 161
-164.067551493645 315.106093883514 2696.00009918213 101 105 104
-156.604886054993 314.880907535553 2694.00000572205 158 163 159
-140.235543251038 311.156570911407 2661.99994087219 0 2 0
-132.130905985832 309.17677283287 2644.99998092651 31 34 25
-126.24379992485 312.456756830215 2673.00009727478 15 18 9
-119.714014232159 314.450651407242 2690.00005722046 19 22 13
-112.673334777355 315.275222063065 2697.00002670288 18 21 12
-103.446245193481 309.66991186142 2648.9999294281 19 22 13
-95.1343476772308 306.168228387833 2618.99995803833 20 23 16
-88.6655747890472 308.511316776276 2638.99993896484 18 21 14
-82.056537270546 310.737192630768 2657.99999237061 16 19 12
-74.1333514451981 307.935684919357 2634.0000629425 16 19 12
-66.4678514003754 305.718243122101 2615.00000953674 16 19 12
-59.3368522822857 305.721700191498 2615.00000953674 16 18 13
-52.5250509381294 307.595372200012 2631.00004196167 16 18 13
-30.7872872799635 305.497735738754 2612.99991607666 11 14 7
-23.7785950303078 307.019114494324 2625.99992752075 24 27 20
-16.5976565331221 306.669473648071 2622.99990653992 12 15 8
-9.38981678336859 304.916471242905 2608.00004005432 8 11 4
-2.27510812692344 304.682970046997 2605.99994659424 8 11 4
4.84724249690771 305.618226528168 2614.00008201599 9 12 5
12.0132118463516 306.553065776825 2621.99997901917 4 7 0
19.1643014550209 306.552231311798 2621.99997901917 4 7 0
26.3554621487856 307.018637657166 2625.99992752075 11 14 7
33.5045233368874 306.90011382103 2625 12 15 8
40.7409444451332 307.48263001442 2630.00011444092 14 17 10
47.8951744735241 307.363301515579 2628.99994850159 12 15 8
54.8971518874168 306.425184011459 2621.00005149841 11 14 7
61.9736462831497 306.071221828461 2618.00003051758 11 14 7
69.1919326782227 306.418359279633 2621.00005149841 12 15 8
76.601080596447 307.466596364975 2630.00011444092 23 26 19
83.6130753159523 306.877642869949 2625 17 20 13
90.666651725769 306.522190570831 2621.99997901917 20 23 16
97.7781191468239 306.400150060654 2621.00005149841 24 27 20
105.324134230614 307.563632726669 2631.00004196167 22 25 18
112.368412315845 307.207047939301 2628.00002098084 11 14 7
120.123662054539 308.720409870148 2641.00003242493 11 14 7
126.985132694244 307.895451784134 2634.0000629425 19 22 15
133.655160665512 306.71951174736 2624.00007247925 14 17 10
140.001863241196 304.958820343018 2608.99996757507 12 15 8
149.254769086838 309.392690658569 2647.0000743866 16 19 12
158.241361379623 312.890917062759 2677.00004577637 17 20 13
165.659412741661 313.115954399109 2678.99990081787 53 56 49
171.796545386314 311.003178358078 2661.00001335144 31 34 27
177.633136510849 308.539539575577 2640.00010490417 31 34 27
185.8049929142 310.16606092453 2654.00004386902 29 32 25
192.08861887455 308.636754751205 2641.00003242493 33 36 29
202.979058027267 314.352512359619 2690.00005722046 26 31 25
-224.727407097816 310.316264629364 2719.00010108948 200 202 199
-216.124594211578 308.615624904633 2703.9999961853 196 198 197
-208.220392465591 307.827651500702 2697.00002670288 177 182 178
-200.50248503685 307.267516851425 2691.99991226196 167 174 166
-192.882910370827 306.821197271347 2687.99996376038 164 171 164
-185.28439104557 306.374460458755 2684.00001525879 164 171 164
-178.17111313343 306.726396083832 2687.00003623962 167 173 169
-170.977294445038 306.963831186295 2688.99989128113 160 166 162
-164.076253771782 307.771772146225 2696.00009918213 115 121 117
-157.485231757164 309.264302253723 2709.00011062622 112 119 112
-141.718149185181 307.1109354496 2690.00005722046 3 10 2
-133.237048983574 304.492324590683 2667.00005531311 25 33 22
-127.242431044579 307.581901550293 2694.00000572205 13 21 10
-119.853965938091 307.474255561829 2693.00007820129 19 22 13
-113.097198307514 309.078931808472 2707.00001716614 18 21 12
-102.866031229496 300.749629735947 2634.0000629425 20 23 14
-95.3574404120445 299.727290868759 2625 20 23 14
-88.5359570384026 300.874024629593 2634.99999046326 20 23 16
-81.7213729023933 302.248805761337 2647.0000743866 15 18 11
-74.0810632705688 300.540149211884 2631.99996948242 16 19 12
-66.7510628700256 299.858808517456 2625.99992752075 16 19 12
-59.6804544329643 300.318986177444 2630.00011444092 15 18 11
-52.5678209960461 300.664514303207 2632.99989700317 16 18 13
-45.3524477779865 300.438821315765 2631.00004196167 16 18 13
-37.4803245067596 294.959783554077 2582.99994468689 2 5 0
-30.9421382844448 299.871921539307 2625.99992752075 7 10 3
-23.7074457108974 298.959881067276 2618.00003051758 21 24 17
-16.6555140167475 300.559669733047 2631.99996948242 11 14 7
-9.41193103790283 298.504859209061 2614.00008201599 9 12 5
-2.27697845548391 297.820031642914 2608.00004005432 8 11 4
4.84565179795027 298.390924930573 2612.99991607666 8 11 4
11.9955381378531 298.961460590363 2618.00003051758 15 18 11
19.0630108118057 297.818660736084 2608.00004005432 14 17 10
26.1561553925276 297.589033842087 2605.99994659424 12 15 8
33.3021134138107 297.930032014847 2608.99996757507 16 19 12
40.5727475881577 299.069970846176 2618.99995803833 24 27 20
47.7337948977947 299.181759357452 2619.99988555908 15 18 11
54.900124669075 299.293249845505 2621.00005149841 13 16 9
61.740268021822 297.805637121201 2608.00004005432 13 16 9
68.5884654521942 296.660244464874 2598.00004959106 12 15 8
76.1391893029213 298.483371734619 2614.00008201599 14 17 10
83.3946093916893 298.935830593109 2618.00003051758 16 19 12
90.4986336827278 298.817008733749 2617.00010299683 15 18 11
98.0818495154381 300.18213391304 2628.99994850159 11 14 7
105.249725282192 300.176709890366 2628.99994850159 8 11 4
112.075120210648 299.257516860962 2621.00005149841 6 9 2
119.265854358673 299.365550279617 2621.99997901917 15 18 11
126.895517110825 300.500780344009 2631.99996948242 24 27 20
133.713230490685 299.694657325745 2625 21 24 17
141.29726588726 300.600707530975 2632.99989700317 13 16 9
150.052174925804 303.789645433426 2661.00001335144 16 19 12
158.367976546288 305.83643913269 2678.99990081787 19 22 15
165.60634970665 305.713772773743 2677.99997329712 41 44 37
171.224549412727 302.736878395081 2651.99995040894 30 33 26
178.248107433319 302.385300397873 2648.9999294281 34 37 30
185.324683785439 302.147537469864 2647.0000743866 27 30 23
192.680582404137 302.365928888321 2648.9999294281 27 30 23
197.481036186218 298.70331287384 2617.00010299683 30 35 29
-223.581656813622 301.360160112381 2704.99992370605 204 206 201
-215.735971927643 300.702750682831 2698.99988174438 192 192 190
-208.076611161232 300.267845392227 2694.9999332428 188 190 185
-200.363844633102 299.721121788025 2690.00005722046 174 180 170
-192.892834544182 299.508303403854 2687.99996376038 172 175 166
-185.293942689896 299.072265625 2684.00001525879 171 174 165
-177.981406450272 299.081563949585 2684.00001525879 169 172 163
-170.73181271553 299.201905727386 2684.99994277954 165 166 158
-163.71962428093 299.767732620239 2690.00005722046 142 145 136
-156.970202922821 300.890386104584 2700.00004768372 114 117 108
-150.830656290054 303.350031375885 2721.99988365173 77 83 71
-142.094373703003 300.571501255035 2697.00002670288 8 14 2
-133.094161748886 296.900868415833 2664.00003433228 14 25 11
-125.737622380257 296.684682369232 2661.99994087219 16 24 11
-118.747569620609 297.359764575958 2667.99998283386 18 21 12
-112.058602273464 298.926144838333 2681.99992179871 18 21 12
-103.691600263119 295.922428369522 2654.99997138977 19 22 13
-95.8347544074059 294.032841920853 2638.00001144409 21 24 15
-88.9774709939957 295.152306556702 2648.00000190735 21 24 17
-81.7565768957138 295.156747102737 2648.00000190735 20 23 16
-74.1412937641144 293.600380420685 2634.0000629425 20 23 16
-66.8562948703766 293.158203363419 2630.00011444092 16 19 12
-59.7516968846321 293.495893478394 2632.99989700317 14 17 10
-52.5107271969318 293.164491653442 2630.00011444092 13 15 10
-45.0962744653225 291.606426239014 2615.9999370575 14 16 11
-37.9031449556351 291.162729263306 2611.99998855591 20 23 16
-30.6963343173265 290.384292602539 2605.00001907349 22 25 18
-23.8264352083206 293.283969163895 2631.00004196167 17 20 13
-16.6437458246946 293.173581361771 2630.00011444092 12 15 8
-9.38722677528858 290.610373020172 2607.00011253357 13 16 9
-2.27448018267751 290.387719869614 2605.00001907349 10 13 6
4.82180062681437 289.830267429352 2599.99990463257 16 19 12
11.9457729160786 290.610194206238 2607.00011253357 25 28 21
18.9836192876101 289.494603872299 2596.99988365173 20 23 16
26.1575486510992 290.496677160263 2605.99994659424 17 20 13
33.2272946834564 290.160715579987 2602.9999256134 22 25 18
40.4664613306522 291.162014007568 2611.99998855591 18 21 14
47.5177019834518 290.71381688118 2608.00004005432 15 18 11
54.4422008097172 289.707899093628 2598.99997711182 13 16 9
61.3647513091564 288.92457485199 2592.00000762939 12 15 8
68.988136947155 291.261970996857 2612.99991607666 10 13 6
76.4053761959076 292.372792959213 2622.99990653992 9 12 5
83.2716003060341 291.365414857864 2614.00008201599 10 13 6
90.4342457652092 291.472345590591 2615.00000953674 9 12 5
97.9004949331284 292.47060418129 2624.00007247925 12 15 8
104.934990406036 292.130887508392 2621.00005149841 16 19 12
111.824460327625 291.456520557404 2615.00000953674 9 12 5
119.226649403572 292.119204998016 2621.00005149841 14 17 10
126.371800899506 292.112857103348 2621.00005149841 21 24 17
133.873075246811 292.886227369308 2628.00002098084 20 23 16
141.680330038071 294.216424226761 2640.00010490417 11 14 7
150.229185819626 296.883553266525 2664.00003433228 11 14 7
157.725945115089 297.321379184723 2667.99998283386 12 15 8
163.512319326401 294.638574123383 2644.00005340576 29 32 25
170.975178480148 295.075714588165 2648.00000190735 27 30 23
178.459197282791 295.512467622757 2651.99995040894 29 32 25
187.364712357521 298.177391290665 2676.00011825562 23 26 19
193.199694156647 295.939207077026 2655.99989891052 27 30 23
199.830591678619 295.037835836411 2648.00000190735 26 31 25
-223.840788006783 294.326841831207 2707.99994468689 204 205 200
-215.746760368347 293.359488248825 2698.99988174438 194 194 192
-208.164304494858 293.043911457062 2696.00009918213 182 183 178
-200.522914528847 292.619287967682 2691.99991226196 175 175 165
-193.117871880531 292.520433664322 2690.99998474121 173 173 163
-185.510441660881 292.095094919205 2687.00003623962 177 174 165
-177.990451455116 291.778057813644 2684.00001525879 178 176 164
-170.740514993668 291.895538568497 2684.99994277954 175 171 160
-163.484498858452 292.012691497803 2686.00010871887 170 168 156
-156.687512993813 292.99920797348 2694.9999332428 145 143 131
-149.397596716881 293.115705251694 2696.00009918213 138 140 127
-141.153275966644 291.274726390839 2678.99990081787 19 23 9
-133.100986480713 289.650827646255 2664.00003433228 24 30 18
-125.6023645401 289.113730192184 2658.99991989136 18 24 12
-117.95250326395 288.141399621964 2650.00009536743 16 19 10
-111.019805073738 288.908362388611 2657.00006484985 16 19 10
-103.150174021721 287.174075841904 2641.00003242493 19 22 13
-96.0940271615982 287.614107131958 2644.99998092651 21 24 15
-88.948480784893 287.836343050003 2647.0000743866 21 24 15
-81.5755575895309 287.297010421753 2641.99995994568 17 20 13
-74.088841676712 286.213576793671 2631.99996948242 17 20 13
-66.8597742915154 285.999745130539 2630.00011444092 15 18 11
-59.4597794115543 284.91547703743 2619.99988555908 15 18 11
-52.2938184440136 284.809619188309 2618.99995803833 21 24 17
-45.0469106435776 284.159630537033 2612.99991607666 25 28 21
-37.8760956227779 283.835530281067 2609.99989509583 18 21 14
-30.8275613933802 284.489810466766 2615.9999370575 8 11 4
-23.718997836113 284.817457199097 2618.99995803833 15 18 11
-16.6003108024597 285.253494977951 2622.99990653992 12 15 8
-9.39491856843233 283.731669187546 2608.99996757507 7 10 3
-2.27285269647837 283.079475164413 2602.9999256134 8 11 4
4.80721611529589 281.883150339127 2592.00000762939 15 18 11
11.8822427466512 281.991451978683 2592.99993515015 13 16 9
18.9846083521843 282.42564201355 2596.99988365173 10 13 6
26.1087268590927 282.859534025192 2601.0000705719 18 21 14
33.2545600831509 283.292979001999 2605.00001907349 20 23 16
40.4375828802586 283.83481502533 2609.99989509583 16 19 12
47.5019589066505 283.506333827972 2607.00011253357 19 22 15
54.5288324356079 283.068686723709 2602.9999256134 22 25 18
61.5810304880142 282.848209142685 2601.0000705719 22 25 18
69.1237449645996 284.693539142609 2618.00003051758 21 24 17
76.525866985321 285.668462514877 2627.00009346008 17 20 13
83.8174968957901 286.099314689636 2631.00004196167 19 22 15
90.8885449171066 285.768628120422 2628.00002098084 28 31 24
97.9055464267731 285.328805446625 2624.00007247925 21 24 17
104.740217328072 284.453690052032 2615.9999370575 7 10 3
112.215109169483 285.318076610565 2624.00007247925 12 15 8
119.232788681984 284.985959529877 2621.00005149841 27 30 23
127.05335021019 286.501914262772 2634.99999046326 18 21 14
134.134665131569 286.277800798416 2632.99989700317 21 24 17
142.009615898132 287.684231996536 2645.99990844727 25 28 21
149.334535002708 287.894308567047 2648.00000190735 18 21 14
155.72389960289 286.364525556564 2634.0000629425 7 10 3
162.531107664108 285.70419549942 2628.00002098084 19 22 15
170.854702591896 287.652641534805 2645.99990844727 24 27 20
179.410383105278 289.818048477173 2665.99988937378 20 23 16
186.884045600891 290.134996175766 2668.99991035461 18 21 14
194.300621747971 290.342926979065 2671.0000038147 15 18 11
200.142502784729 288.267761468887 2651.99995040894 23 28 22
-224.595695734024 287.911981344223 2717.00000762939 202 203 198
-215.997159481049 286.333084106445 2701.99990272522 198 197 193
-208.483383059502 286.13144159317 2700.00004768372 192 191 186
-200.905248522758 285.823494195938 2697.00002670288 184 180 169
-193.414479494095 285.621166229248 2694.9999332428 193 186 176
-185.726761817932 285.100519657135 2690.00005722046 198 190 179
-178.065627813339 284.579515457153 2684.99994277954 151 141 129
-170.749023556709 284.588098526001 2684.99994277954 148 139 124
-163.310050964355 284.384340047836 2683.00008773804 124 115 100
-156.055778264999 284.498244524002 2684.00001525879 121 114 98
-148.740082979202 284.505784511566 2684.00001525879 143 140 125
-141.002267599106 283.66494178772 2676.00011825562 15 13 0
-133.457452058792 283.141762018204 2671.0000038147 15 17 4
-126.553475856781 283.996254205704 2678.99990081787 29 33 19
-118.626147508621 282.518267631531 2664.99996185303 19 21 10
-110.482193529606 280.297756195068 2644.00005340576 17 19 8
-103.233508765697 280.197083950043 2642.99988746643 16 17 9
-95.6629067659378 279.141902923584 2632.99989700317 18 19 11
-88.8857915997505 280.418783426285 2644.99998092651 21 22 14
-81.3944339752197 279.468864202499 2635.99991798401 16 17 9
-74.1207599639893 279.154688119888 2632.99989700317 16 17 9
-67.0665577054024 279.688358306885 2638.00001144409 12 13 7
-59.5535971224308 278.207242488861 2624.00007247925 16 17 11
-52.2565469145775 277.467876672745 2617.00010299683 21 22 16
-44.9630096554756 276.516109704971 2608.00004005432 17 18 12
-38.0086451768875 277.684479951859 2618.99995803833 9 12 5
-30.8527052402496 277.580201625824 2618.00003051758 8 11 4
-23.7292684614658 277.793645858765 2619.99988555908 7 10 3
-16.5188815444708 276.734352111816 2609.99989509583 8 11 4
-9.49983205646276 279.703795909882 2638.00001144409 9 12 5
-2.29916488751769 279.173970222473 2632.99989700317 8 11 4
4.79262368753552 273.978501558304 2584.00011062622 11 14 7
11.8736838921905 274.720281362534 2591.00008010864 13 16 9
18.9928933978081 275.461703538895 2598.00004959106 13 16 9
26.1000208556652 275.672614574432 2599.99990463257 16 19 12
33.256258815527 276.201248168945 2605.00001907349 17 20 13
40.4551438987255 276.835560798645 2611.00006103516 17 20 13
47.5408211350441 276.621282100677 2608.99996757507 21 24 17
54.5944571495056 276.300638914108 2605.99994659424 23 26 19
61.6078414022923 275.873601436615 2601.99999809265 23 26 19
68.7047839164734 275.870323181152 2601.99999809265 22 25 18
76.5297561883926 278.517216444016 2627.00009346008 32 35 28
97.9105159640312 278.186023235321 2624.00007247925 20 23 16
105.105884373188 278.286933898926 2625 15 18 11
112.135238945484 277.96345949173 2621.99997901917 12 15 8
119.28429454565 277.957707643509 2621.99997901917 12 15 8
127.397283911705 280.071705579758 2641.99995994568 23 26 19
134.803712368011 280.489206314087 2645.99990844727 22 25 18
141.641020774841 279.740303754807 2638.99993896484 25 28 21
147.932067513466 278.037130832672 2622.99990653992 22 25 18
156.086415052414 279.831558465958 2640.00010490417 14 17 10
163.405105471611 280.035674571991 2641.99995994568 16 19 12
171.44438624382 281.405329704285 2654.99997138977 18 21 14
180.159583687782 283.728450536728 2677.00004577637 20 23 16
186.893284320831 282.871544361115 2668.99991035461 21 24 17
192.709743976593 280.742615461349 2648.9999294281 23 26 19
201.359927654266 282.746613025665 2667.99998283386 24 29 23
-225.846439599991 282.0665538311 2732.00011253357 194 193 188
-217.046797275543 280.32186627388 2714.99991416931 80 77 72
-209.420025348663 280.022203922272 2711.99989318848 45 40 34
-201.510891318321 279.309213161469 2704.99992370605 90 76 63
-193.782702088356 278.802365064621 2700.00004768372 111 95 80
-185.873866081238 277.985364198685 2691.99991226196 126 109 93
-178.206905722618 277.4778008461 2687.00003623962 139 116 100
-170.820951461792 277.382910251617 2686.00010871887 142 119 101
-163.257136940956 276.977837085724 2681.99992179871 133 110 92
-155.830830335617 276.779025793076 2680.0000667572 131 110 91
-148.082330822945 275.960177183151 2671.99993133545 99 86 69
-141.114592552185 276.58686041832 2677.99997329712 29 20 5
-134.213536977768 277.419835329056 2686.00010871887 26 22 10
-126.748695969582 277.11632847786 2683.00008773804 24 22 10
-119.077153503895 276.296049356461 2674.99995231628 22 24 13
-110.780172049999 273.822695016861 2651.00002288818 23 25 14
-102.496467530727 271.039068698883 2624.00007247925 23 25 14
-95.5949947237968 271.76696062088 2631.00004196167 22 24 13
-88.4197130799294 271.771490573883 2631.00004196167 20 21 13
-81.5837606787682 272.911906242371 2641.99995994568 21 22 14
-74.2933601140976 272.605836391449 2638.99993896484 22 23 15
-66.9682025909424 272.09284901619 2634.0000629425 22 23 15
-59.5111735165119 270.856350660324 2621.99997901917 24 25 17
-52.159309387207 269.826054573059 2611.99998855591 22 23 17
-44.9480153620243 269.311964511871 2607.00011253357 18 19 13
-37.937980145216 270.037114620209 2614.00008201599 15 18 11
-30.7953208684921 269.935518503189 2612.99991607666 14 17 10
-23.5583670437336 268.697202205658 2601.0000705719 11 14 7
-16.6652835905552 272.003948688507 2632.99989700317 9 12 5
-9.4823008403182 272.0046043396 2632.99989700317 9 12 5
-2.28268839418888 270.042091608047 2614.00008201599 14 17 10
4.81141172349453 267.975896596909 2594.00010108948 13 16 9
12.0850931853056 272.417694330215 2637.00008392334 8 11 4
18.971910700202 268.078058958054 2595.00002861023 7 10 3
26.1113662272692 268.696755170822 2601.0000705719 15 18 11
33.2451574504375 269.005209207535 2604.00009155273 19 22 15
40.3951853513718 269.313305616379 2607.00011253357 19 22 15
47.5614219903946 269.621044397354 2609.99989509583 18 21 14
54.6809881925583 269.618511199951 2609.99989509583 19 22 15
61.7056302726269 269.202440977097 2605.99994659424 18 21 14
68.866640329361 269.40581202507 2608.00004005432 14 17 10
98.2138812541962 271.868526935577 2631.99996948242 14 17 10
105.391390621662 271.863549947739 2631.99996948242 12 15 8
112.397395074368 271.445035934448 2628.00002098084 14 17 10
119.290180504322 270.819664001465 2621.99997901917 17 20 13
127.114206552505 272.259652614594 2635.99991798401 23 26 19
134.708434343338 273.079574108124 2644.00005340576 21 24 17
141.540631651878 272.349894046783 2637.00008392334 25 28 21
148.503303527832 271.929711103439 2632.99989700317 24 27 20
157.335713505745 274.814069271088 2661.00001335144 20 23 16
164.835661649704 275.21938085556 2664.99996185303 19 22 15
172.356814146042 275.624334812164 2668.99991035461 20 23 16
183.53345990181 281.605273485184 2726.99999809265 22 25 18
187.812685966492 276.949495077133 2681.99992179871 23 26 19
193.519338965416 274.668663740158 2660.00008583069 25 28 21
201.822489500046 276.104837656021 2674.00002479553 28 33 27
-218.575984239578 274.842023849487 2733.99996757507 141 138 133
-210.742697119713 274.349331855774 2729.00009155273 116 109 101
-202.265396714211 272.951453924179 2714.99991416931 115 97 83
-193.648293614388 271.25158905983 2697.99995422363 130 111 96
-185.399323701859 269.953459501266 2684.99994277954 140 114 97
-177.817434072495 269.559800624847 2680.99999427795 140 113 92
-170.511066913605 269.567996263504 2680.99999427795 138 110 89
-163.143187761307 269.475281238556 2680.0000667572 134 107 86
-155.780136585236 269.382268190384 2678.99990081787 134 109 87
-148.255690932274 268.987238407135 2674.99995231628 125 110 91
-141.015976667404 269.094675779343 2676.00011825562 81 70 52
-133.770257234573 269.201755523682 2677.00004577637 19 13 0
-127.0382553339 270.414680242538 2688.99989128113 28 26 13
-119.617097079754 270.219475030899 2687.00003623962 21 21 9
-111.328803002834 267.911940813065 2664.00003433228 22 24 13
-103.517062962055 266.509115695953 2650.00009536743 22 24 13
-95.8902984857559 265.407621860504 2638.99993896484 21 23 12
-88.8272896409035 265.814304351807 2642.99988746643 20 21 13
-81.7112401127815 266.120135784149 2645.99990844727 21 22 14
