ply
format ascii 1.0
comment KinectMotionCapture
element vertex 761
property float x
property float y
property float z
property uchar red
property uchar green
property uchar blue
end_header
232.402390939893 789.534746202773 2760.01489789626 240 241 245
233.782623905001 788.775554974108 2770.0924645161 247 247 249
231.955952982481 788.701063339622 2777.58536068923 247 247 249
228.522280862323 788.969126547805 2783.78958471588 248 248 250
226.72358891981 788.89081287419 2791.25526224397 250 250 252
221.679240857638 789.501848254044 2796.17406367659 251 251 253
216.635426413925 790.112580487506 2801.09238002308 252 252 254
209.95332059803 791.069825225229 2804.75217304632 252 252 254
204.906447611752 791.680648192447 2809.67351316039 253 253 255
200.68336650847 792.117357301916 2815.21979686861 253 253 255
194.814109551855 792.901585917684 2819.51489998346 253 253 255
190.595749468213 793.337522961134 2825.05660976041 252 252 254
183.065666212258 794.470915022407 2828.11551310183 254 254 255
176.355273846362 795.430782227989 2831.80300748776 253 253 255
168.804805768994 796.566508244596 2834.88180830061 253 253 255
163.747460920328 797.177707855236 2839.8134914611 253 253 255
157.853909421223 797.964278520281 2844.13271110391 253 253 255
149.440962323163 799.278333828057 2846.62470002501 254 254 255
139.331710273022 800.946097235984 2847.91471045936 254 254 255
130.042106595786 802.440341148183 2849.83335336619 254 254 255
124.955852236289 803.05494938671 2854.79324030458 254 254 255
114.791945164507 804.729236077679 2856.13689768698 254 254 255
103.75671580088 806.583215807874 2856.90198527326 254 254 255
90.994187556769 808.794692977716 2856.49531173914 253 254 255
82.4582644367333 810.123720647632 2859.10720475939 253 254 255
68.7824906127905 812.520044977723 2858.16316793902 253 254 255
55.9243870370674 814.743217123785 2857.84967360968 254 254 254
39.6000340876794 817.682781013323 2855.20435864927 254 254 254
27.5250752154359 819.737330375341 2855.55502174393 254 254 254
13.6959883029744 822.152569474498 2854.76043149223 254 254 254
1.55618885811926 824.215221014231 2855.17462257768 255 255 253
-8.88296751098805 825.923748539957 2856.78620795883 255 255 253
-14.1392506627001 826.560086453522 2861.9117243649 240 239 237
-9.83002152813972 825.222835360807 2873.41725728056 171 170 168
242.095920897436 781.83993096551 2741.6069909333 234 236 235
241.81085698183 781.447449792193 2750.45020375183 221 222 224
241.549498533727 781.051744292726 2759.27035324469 244 245 249
241.311845014617 780.652873503824 2768.06743122103 249 250 254
240.290115224334 780.420279285076 2776.20128576126 247 247 249
236.859645585257 780.693422870496 2782.40157879932 248 248 250
229.379663717144 781.814071253667 2785.41261423203 249 249 251
228.396308592659 781.576036572371 2793.50950410183 250 250 252
223.355724914157 782.18642048537 2798.42466373232 250 250 252
219.132851565267 782.62624178981 2803.96994331431 251 251 253
210.818076626183 783.918603862472 2806.36765208097 251 251 253
207.415318518656 784.187264536882 2812.54075188885 251 251 253
203.197869041051 784.62579934999 2818.08117347132 251 251 253
198.984610492597 785.063759898971 2823.61718043318 250 250 252
191.467610722878 786.187482818515 2826.66452077428 249 249 251
184.768364338432 787.140578732822 2830.34194782977 250 249 254
178.06199495672 788.094441638552 2834.02667260783 249 248 253
173.013833813362 788.704483497215 2838.94940732843 248 247 252
167.131447118522 789.486875126437 2843.25815781522 248 247 252
162.082245920409 790.096871194048 2848.18193209346 248 247 252
153.678817908378 791.398889243615 2850.66590968093 248 247 252
145.26048625986 792.702655157807 2853.16476630811 250 249 254
135.984692896578 794.181759098974 2855.07227089214 252 251 255
130.067448355794 794.96814536967 2859.41470748699 254 253 255
119.91504390476 796.624778583152 2860.74921393122 254 253 255
107.195038566295 798.80670480831 2860.3050199819 253 252 255
94.4405553437369 800.992872618845 2859.8940983347 253 254 255
86.764510747297 802.135348351732 2863.09660088223 253 254 255
74.8069232564124 804.1535645266 2863.33642033131 253 254 255
59.3944947987164 806.876191851956 2861.2345233171 253 254 255
41.3621744974053 810.130422488662 2857.40458110031 254 254 254
27.5716411004026 812.51391151973 2856.57639928404 254 254 254
16.3283409615191 814.37460319569 2857.54711220334 255 255 255
5.05825447697772 816.238730684964 2858.54391654815 255 255 255
-8.83563704488832 818.635131712312 2857.81646249037 249 249 249
-22.7679210184966 821.036313749407 2857.12642607355 255 254 255
-31.5212197583774 822.381835837261 2859.95173842995 247 246 244
-8.91625099461857 817.357681600442 2883.59171467369 244 243 241
239.26063126627 775.833302732763 2731.14014577675 200 202 199
243.743096162639 774.466929424967 2743.89520443042 220 221 223
244.263348726372 773.924082234015 2753.37785942965 223 224 228
244.81117581864 773.377522960294 2762.83368115864 230 231 235
242.969743226028 773.326461821459 2770.33811071336 230 231 235
241.144025326879 773.273196758421 2777.82692324221 248 248 250
237.715061549188 773.55147073838 2784.02462482558 251 251 253
231.860020923611 774.329589397489 2788.30685180447 253 253 255
230.882241933553 774.104119741806 2796.39634738505 250 250 252
224.21647352494 775.048808438636 2800.0417728987 249 249 251
219.995383999272 775.490940523354 2805.58493958555 249 249 251
211.682493327576 776.772273758926 2807.98240730414 249 249 251
207.460387698269 777.214062189041 2813.52663378892 249 249 251
204.06591419035 777.486736739201 2819.69125145982 249 249 251
199.854440542133 777.926889995032 2825.22516190825 248 248 250
193.993418460506 778.704288491056 2829.51343500121 247 247 249
187.299918917434 779.651234792659 2833.18606426833 246 245 250
182.26096327647 780.260057182649 2838.0998380259 245 244 249
178.055379034205 780.699101134412 2843.62840200381 244 243 248
172.184265348959 781.477372093545 2847.92622941668 244 243 248
165.47342066408 782.426020237354 2851.61616897648 244 243 248
156.239249274015 783.886445212923 2853.48476522678 244 243 248
146.145621375716 785.519747124863 2854.76435404144 246 245 250
138.556891688791 786.64330056537 2857.88328614161 247 246 251
129.267833345183 788.110350069419 2859.80540684573 250 249 254
121.652618999155 789.237137422288 2862.94982279108 251 250 255
112.329801738185 790.708193861062 2864.90521221799 252 251 255
102.137666440156 792.353383476517 2866.2808633394 252 253 255
91.0705983897606 794.173401054821 2867.08258680351 252 253 255
77.4146626055408 796.513268008562 2866.12719489201 252 253 255
62.8642402444943 799.030264126853 2864.61661460135 252 253 255
43.9820579966885 802.415827475657 2860.19427762549 253 253 253
29.3378860907083 804.944275362837 2858.77543729438 253 253 253
18.0986698524803 806.785582173755 2859.74495991454 250 250 250
9.42391704007051 808.110057191204 2862.49538575165 248 248 248
-5.32586448750116 810.651772918337 2861.17911851304 255 255 255
-21.852890951592 813.546419277109 2858.74170014023 247 245 246
-35.8212804555147 815.925145267464 2858.09083604266 255 255 253
-43.7278637823124 817.088546372368 2861.51917419657 255 255 253
232.485447373056 770.579972662866 2717.38945229467 202 204 201
240.904223906633 768.438698497902 2733.43510974208 207 209 208
246.189942023526 766.94097136585 2746.82884942908 230 231 233
248.319324658821 766.089607772947 2757.59336954684 228 229 233
247.268969108587 765.887512070959 2765.75114222242 237 238 242
244.627276519085 766.010074912436 2772.60733307589 225 226 230
242.805203736626 765.96690574446 2780.0910337811 231 230 235
240.999264301743 765.921630704938 2787.55936292256 243 242 247
235.963249601795 766.531615532071 2792.47004447452 250 249 254
234.181359299615 766.482967942198 2799.91465309117 247 246 251
225.892627576051 767.750936013853 2802.29010598253 246 245 250
220.858020788762 768.360212631787 2807.19949412943 244 243 248
212.546804788144 769.630497522297 2809.59659397347 244 243 248
209.147817974832 769.909107209525 2815.76481621268 244 243 248
204.933789246077 770.352354108701 2821.30080665472 243 242 247
199.899146942234 770.960868609317 2826.21034271068 242 241 246
194.038044416091 771.735446742979 2830.49911253456 241 240 245
187.344488661351 772.676916030093 2834.17260712104 240 239 245
182.305470860179 773.285569349885 2839.08646759312 239 238 244
177.266858048987 773.894053676603 2843.99995088127 238 237 243
171.394024019329 774.66975693973 2848.30020396791 237 236 242
166.354434929114 775.278187435451 2853.21466467176 237 236 242
157.960918345213 776.557183457135 2855.69254055224 237 236 242
149.552373024315 777.837956152261 2858.18507759916 237 236 242
141.971203121548 778.952431901711 2861.29750655868 238 237 243
132.689964239626 780.404932808278 2863.21401269812 242 241 247
124.236268932006 781.691043563676 2865.75059538632 245 244 250
114.919146648948 783.147950205466 2867.70208310779 249 248 254
104.733152446839 784.776077204184 2869.07449571947 249 250 254
91.1156846052612 787.084263846475 2868.08558690845 249 250 254
78.3139430200688 789.227563136199 2867.72792946261 249 250 254
63.7659143966527 791.714642097024 2866.21973173991 249 250 252
47.4598255497733 794.546821057448 2863.57215170135 249 250 252
31.1038226408695 797.385174540839 2860.97322447244 249 250 252
19.8686494016664 799.206924736536 2861.941622794 254 254 255
11.1977832293682 800.519954617427 2864.68954288422 251 251 251
-2.68205204723992 802.860568186659 2863.95637612905 255 255 255
-20.0703996511242 805.890409592809 2860.93737129404 250 250 250
-34.90405313143 808.412906416973 2859.7075685318 255 255 255
-46.2942449918895 810.254317110677 2860.82699682285 255 255 255
-52.4710486565403 811.067881863472 2865.42316249691 255 255 251
240.493181836202 761.871764236357 2724.89482970226 211 213 212
243.345485323655 760.894102671582 2736.37705482991 218 220 219
247.836761153219 759.590717720041 2749.11405444511 227 228 230
249.167784089469 758.923470871131 2759.22689801189 229 230 234
248.922952179123 758.573623594912 2768.02385858308 231 232 236
245.479071549264 758.864687314005 2774.23448250331 230 231 235
244.466393364979 758.670742916461 2782.35397408028 237 236 241
243.473593565809 758.474115626138 2790.45412265735 232 231 236
240.066049767806 758.759949853116 2796.62943648304 234 233 238
237.480222258215 758.882723179267 2803.43012137678 254 253 255
228.383859562946 760.301054202962 2805.16843086566 247 246 251
224.172183253919 760.747129890056 2810.70166722651 244 243 248
215.868822191394 762.00567917648 2813.09303936006 241 240 245
210.835028615112 762.614263587981 2818.00172228421 242 241 246
206.624760218743 763.059631065875 2823.53366524 241 240 245
201.593924277217 763.667547776387 2828.43950987503 238 237 242
198.217469376648 763.948211370595 2834.58505402525 241 240 245
189.875684412304 765.210615168233 2837.01367412425 239 238 244
184.842386245388 765.818429499594 2841.92197891708 235 234 240
178.976806518824 766.590328770052 2846.21559060197 235 234 240
173.942467758645 767.198156347075 2851.1249267616 237 236 242
166.398657021644 768.300079526146 2854.20211278167 236 235 241
158.005175747432 769.56822083241 2856.6815579213 236 235 241
151.277578316835 770.507730918059 2860.38914596427 236 235 241
143.700267293364 771.613523527577 2863.4990263639 237 236 242
135.26750339971 772.886263219238 2866.01680008599 240 239 245
125.973461785746 774.326684307953 2867.94814276139 242 241 247
115.812106928018 775.935619674089 2869.29858681278 245 244 250
104.777867166883 777.713699707139 2870.07390965125 247 248 252
91.1606465003456 779.994788497734 2869.08876044241 245 249 252
79.2130490329632 781.947010537838 2869.32807571278 245 249 252
66.3790053055031 784.069909962866 2869.00550986282 247 248 252
49.2211837573429 787.033657473754 2865.76735789553 248 249 253
32.8693697830542 789.836455392447 2863.16952608956 248 249 253
19.9148326821557 791.974237039716 2862.96475019669 248 249 251
11.2441517066006 793.276275371889 2865.71411092991 249 249 251
-0.0384668073234451 795.084959867386 2866.73155421542 250 250 252
-17.4207315659762 798.076471291774 2863.71217417974 251 251 253
-32.2482893267755 800.568538333917 2862.48081578641 251 251 253
-45.3752724771723 802.727954646036 2862.4437459339 252 252 252
-55.916725846946 804.384276749694 2864.16462968753 255 255 253
248.500562963423 753.216259515503 2732.39276839297 221 222 224
248.978145493894 752.735106789532 2741.90867695103 226 227 229
251.882821631207 751.777378791991 2753.33594909062 230 231 235
250.818038599575 751.603978650243 2761.50414511922 230 231 235
248.969279997713 751.585815213141 2769.01064940148 230 231 233
246.330972011943 751.723755017035 2775.86120658509 228 229 231
245.319747172065 751.543026363856 2783.97696384634 242 241 246
246.757189866823 750.883107602457 2793.9833857736 244 243 248
240.922783588831 751.650441345216 2798.24637870424 240 239 244
236.712098853673 752.099268463256 2803.77856159928 240 239 244
226.798249067908 753.663969771726 2804.88976722982 243 242 247
223.399906680867 753.953407451682 2811.05574917162 246 245 250
215.094351766895 755.20133711295 2813.45053156606 242 241 246
212.521937574264 755.329495736548 2820.23710089316 238 237 242
206.669386406149 756.097747610098 2824.51831411058 237 236 241
202.463326387807 756.54500227696 2830.04579915907 233 232 237
197.434788526639 757.152393402622 2834.94943944754 233 232 237
190.749026088293 758.081898978739 2838.6173012289 232 231 237
185.717599214669 758.689418435019 2843.52379138224 233 232 238
179.020979325422 759.619951990291 2847.20194499598 232 231 237
173.986599663612 760.227607817134 2852.11134715613 231 230 236
167.27937389842 761.159242536283 2855.79986980992 231 230 236
158.049375836012 762.578557807061 2857.67073572257 234 233 239
152.162354025989 763.349975876211 2861.98571083465 234 233 239
144.587073644185 764.447315824201 2865.09482407677 235 234 240
138.689149712075 765.220003379324 2869.42009968578 238 237 243
127.710267924046 766.972411542268 2870.1442455298 240 239 245
114.160042056594 769.218459633192 2869.09774849521 241 242 247
103.972178648323 770.814343489566 2870.4764449366 242 243 248
91.2054001177203 772.904867655095 2870.09220664301 240 243 248
80.9661356240432 774.506995559708 2871.52102225445 240 243 248
67.2802848812379 776.769610601723 2870.60675413786 240 243 248
53.5561708536769 779.036813463454 2869.72980395091 243 244 248
39.7937494086822 781.308786615006 2868.89018854901 243 244 248
25.9930636019163 783.585465659702 2868.08787469505 246 247 249
13.0177478814777 785.701525694695 2867.90660488136 247 247 249
0.873455951860169 787.656371918354 2868.34085280723 248 248 250
-16.5065083727622 790.609853287532 2865.3248092321 249 249 251
-27.8539202373396 792.407777021103 2866.40818370855 249 249 251
-40.0993629277693 794.375361867472 2866.9413309143 249 249 251
-46.2623382607013 795.181404394335 2871.52487663225 255 255 253
-59.4308129406729 797.32192008509 2871.53213982755 252 251 249
257.626433345775 744.766185901393 2731.66444581858 187 189 188
258.89534437857 744.150098294384 2741.83174395205 222 223 225
257.004113500552 744.14867014606 2749.37795036402 226 227 229
257.52835958496 743.680150949176 2758.84565409313 228 229 233
253.269890928595 744.139070838767 2764.42379542108 229 230 234
250.622857761817 744.286379263981 2771.28129431828 228 229 231
247.988132475752 744.431946140878 2778.12716655005 226 227 229
247.788249638841 744.108098579562 2786.87564928035 238 237 242
245.992991825038 744.093274187361 2794.3285329798 247 246 251
240.968117696509 744.701736630798 2799.22837678731 236 235 240
235.943692152129 745.30990664777 2804.12781836462 232 231 236
228.473989669871 746.388144841054 2807.13525226476 239 238 243
224.261968890592 746.839394242001 2812.66806601702 247 246 251
217.596764895198 747.761780537994 2816.31622734512 242 241 246
214.208901346191 748.054732637685 2822.47128421614 236 235 240
207.5368771171 748.97756595072 2826.12615206819 235 234 239
202.507764735842 749.585088472594 2831.0303434433 232 231 236
197.47907914165 750.192380284698 2835.93414511136 230 229 234
191.622071493183 750.958009651778 2840.22017128496 227 226 232
185.761750199227 751.723761912391 2844.50946979391 230 229 235
179.065137335534 752.648869449943 2848.18841839421 230 229 235
174.030652996362 753.256361566552 2853.09794869683 228 227 233
168.160129739427 754.023164071395 2857.39722268019 229 228 234
159.770378010805 755.269147718942 2859.87590137621 232 231 237
152.206435999469 756.356966518038 2862.97550051249 233 232 238
143.788540068792 757.606262314142 2865.48163728308 234 233 239
137.888981903595 758.376253379905 2869.80927209165 236 235 241
127.754410335166 759.949497369944 2871.13839511064 238 237 243
116.749001173779 761.686261767675 2871.89119517021 239 240 245
104.016630212781 763.748225162568 2871.4766730788 239 240 245
92.1020346008623 765.653167544347 2871.69054277368 237 240 245
81.8648745244079 767.238754757622 2873.11971337467 237 240 245
69.8930954941108 769.150670142588 2873.3893364425 238 241 246
57.0328372413185 771.228284012046 2873.09949518906 240 241 245
45.8578336138893 772.985720861049 2874.01764968121 240 241 245
28.6240009479202 775.883511714382 2870.86472624274 240 241 245
13.927301915972 778.29983130179 2869.51428079595 241 242 246
0.054160027566752 780.558459957849 2868.78658474172 241 242 246
-13.8573323339335 782.821923300405 2868.09625670963 242 242 244
-25.1986614530999 784.600151213965 2869.17650196356 242 242 244
-36.5667763794169 786.381755904126 2870.28284683385 243 243 245
-44.4683381992701 787.511442456636 2873.71118155326 252 250 251
-54.1318125350152 788.970911005918 2876.00622333427 246 244 245
258.468272082078 737.569027439088 2733.30947154607 199 200 202
259.738563222231 736.97418456954 2743.47192140762 219 220 224
259.444774970071 736.679158299939 2752.30939382911 222 223 227
259.17473362555 736.381020417653 2761.12374511526 225 226 230
255.721392572283 736.689611138371 2767.3411728926 228 229 233
250.669066081604 737.302359951828 2772.26764377792 232 233 235
248.839839664073 737.302890943335 2779.75232712601 229 230 232
247.83392044584 737.148088372987 2787.85898396281 221 220 226
246.848047768895 736.990509704369 2795.94648243588 242 241 247
241.013351973393 737.752336875721 2800.21057673053 239 238 244
235.175467094405 738.514317168503 2804.47815304295 232 231 237
229.33424731135 739.2764230348 2808.74902240468 234 233 239
225.123945502547 739.730109329397 2814.27976902203 250 249 255
219.279859581137 740.492163736189 2818.55349210722 249 248 254
215.074472273198 740.944817698078 2824.07951113088 236 235 241
209.227498416348 741.706882362062 2828.35610046264 231 230 236
202.552081994507 742.62448230755 2832.01511030168 228 227 233
195.86958563106 743.542784847784 2835.68138462619 226 225 231
190.837458301408 744.150274670023 2840.58857472262 225 224 229
184.974910820586 744.913608048755 2844.88010353573 227 226 231
179.109152459192 745.677156265612 2849.17512688972 227 226 231
174.074626141373 746.28459470547 2854.08470681116 226 225 230
168.2040436985 747.048574167969 2858.38445681145 228 227 232
161.491455718443 747.969798740126 2862.07984283905 230 229 234
152.250352750902 749.363447269292 2863.96552961986 231 230 235
144.675052005625 750.44439645066 2867.07708563136 232 231 236
137.932938554508 751.369048333451 2870.80128433318 235 234 239
131.18347071273 752.294509416389 2874.53266645421 236 235 240
120.185929478723 754.011411912384 2875.28058912599 236 237 242
108.31170805583 755.889858802103 2875.45828267649 236 237 242
95.5547294804613 757.93057025245 2875.07133733803 235 238 245
84.4714779716327 759.657806139854 2875.902844309 235 238 243
70.7937725126353 761.865496832019 2874.9886056001 235 238 243
58.7936201255492 763.759288601297 2875.28908249314 235 238 243
46.7627738810932 765.656844919259 2875.61914459965 236 239 244
30.3928723809728 768.356781640368 2873.0544768143 238 239 244
14.8368938376819 770.903013507288 2871.12153617086 238 239 243
0.965701722930756 773.134401678779 2870.39559225229 238 239 243
-9.47330848344929 774.728852030048 2872.02423089026 238 239 243
-16.4575947983625 775.68350293085 2875.98447698403 238 239 243
-27.8061065242303 777.443707332812 2877.07451853974 242 240 243
-38.308126317717 779.046290988106 2878.76418668838 248 246 247
-51.4587642232938 781.135862857271 2878.76092933561 246 244 245
-57.6263268342765 781.937045513475 2883.35008641723 165 164 160
256.927991346024 730.823091993958 2733.00188292178 207 208 210
262.173577449349 729.504559084484 2746.40898946368 218 219 224
261.885298043107 729.224818889299 2755.23873224461 220 221 226
261.620743747421 728.942028798124 2764.04536641333 223 224 228
258.172966492815 729.255225307999 2770.25658852272 228 229 233
254.733606260805 729.567229742872 2776.45996643441 233 234 236
251.302540104911 729.877834764705 2782.65531503854 231 232 234
249.494691985342 729.886121202263 2790.11728532719 213 212 218
246.893391826488 730.043042080962 2796.92828779703 234 233 239
243.492798124629 730.349110977768 2803.09370939914 240 239 245
238.473815314496 730.95653588278 2807.98785638812 233 232 238
232.640188356245 731.714971986847 2812.25172835184 232 231 237
227.620359511089 732.322031797404 2817.1467694269 244 243 249
221.781931883966 733.080660320277 2821.41538008636 245 244 250
216.761150710902 733.687368436287 2826.31141881741 235 234 240
210.094817111517 734.598575122128 2829.96235420046 230 229 235
203.421467346257 735.51047636277 2833.62049192704 231 230 236
196.74065988691 736.42315389568 2837.28558267644 231 230 236
190.881556280389 737.18344545306 2841.57447909332 231 230 235
185.018928355051 737.94395846943 2845.86650463734 224 223 228
179.985762047659 738.55128442719 2850.77475067313 222 221 226
173.283933328189 739.465950328952 2854.46075980653 223 222 227
168.247900343935 740.073283863922 2859.37185137491 225 224 229
159.858154381942 741.297684194002 2861.85371434947 227 226 231
151.453675929094 742.523692875428 2864.35030703361 228 227 232
143.034104963518 743.751486270241 2866.86162302614 229 228 233
137.976816633206 744.361145566356 2871.79347772088 232 231 236
132.073823219597 745.12596766125 2876.12528775354 233 232 237
122.77445355654 746.512940090412 2878.06948310701 232 233 237
109.205876319431 748.680396433142 2877.05282507983 231 231 239
98.1552366447165 750.384768993855 2877.85532720714 229 232 239
86.2239863801144 752.248586809425 2878.09181341126 229 232 239
72.5503535630212 754.428815326664 2877.1775894062 229 232 237
57.122774065999 756.926853418756 2875.12393178861 230 233 238
44.228478670008 758.960108929095 2874.87444606763 230 233 238
27.8530711163278 761.625830230466 2872.32030289895 232 233 238
12.2915644406612 764.14026718292 2870.39755104715 232 233 237
-0.719394795428929 766.187876211057 2870.26179280033 232 233 237
-9.42717985623975 767.450942133231 2873.05409638587 232 233 237
-18.1502261244582 768.715945010999 2875.86093045279 232 233 237
-28.6308831423105 770.299488146139 2877.53253707198 234 232 235
-41.7545128370511 772.361301075849 2877.50656292573 232 230 233
-54.037371592413 774.268809109326 2878.08540632179 240 238 239
-65.4735519749132 776.021254482807 2879.26365093053 236 235 233
249.40549771375 725.488157079413 2718.58809305855 205 205 205
255.387941796499 724.065497507365 2732.69612576908 214 214 216
260.629193386216 722.782184702175 2746.10233103103 219 218 223
262.729960961532 722.079151030349 2756.87300538681 219 220 225
263.266704635784 721.665194636497 2766.320234466 222 223 227
259.822701931395 721.983327398468 2772.52731665732 227 228 232
254.77966543891 722.594905060041 2777.44473553284 234 233 238
250.542709375794 723.058497086652 2783.00048615588 232 231 236
248.732805007775 723.077762035509 2790.46321355246 212 211 217
247.748115700961 722.946701131761 2798.54527976543 232 231 237
244.349426333042 723.257883082316 2804.70839247068 243 242 248
238.518778846777 724.013538892621 2808.96937885888 237 236 242
233.500203180655 724.620558657702 2813.86318142734 233 232 238
228.482139335907 725.227336993087 2818.75651143281 235 234 240
224.28386417479 725.684506449988 2824.27513844335 239 238 244
218.447591781716 726.43992786795 2828.54174509025 234 233 239
211.785216313767 727.345256367311 2832.18995662566 230 229 235
204.290556965418 728.401238243811 2835.22512469466 236 235 241
197.611606027834 729.308256600617 2838.88920831427 238 237 243
192.58311553039 729.915111035891 2843.79288089247 236 235 240
185.893790648765 730.823129311137 2847.46745604635 224 223 228
180.029637234178 731.580945167169 2851.76139506287 221 220 225
174.162293120579 732.339091254772 2856.05879152459 222 221 226
166.618493635105 733.400206587485 2859.1419977536 223 222 227
158.225124595094 734.614141393309 2861.6293431401 226 225 230
148.976193532754 735.981664155936 2863.52632686966 227 226 231
143.920265751377 736.591151933239 2868.4568558696 229 228 233
138.020613985657 737.352781225475 2872.78581949134 231 230 235
134.65625804 737.657217180732 2878.9158356559 232 231 236
124.514775811265 739.182624118636 2880.25889135814 232 231 237
114.350504926382 740.710844959918 2881.62416063913 229 230 235
102.459586333653 742.548172643392 2881.82451212683 227 230 237
87.9761069961429 744.84957204246 2880.27932152514 227 230 237
72.5948635358638 747.309735630182 2878.18558721529 227 230 235
55.4518597157898 750.083281737132 2874.96049486741 228 231 236
43.4137951759324 751.938510848203 2875.30431863265 228 231 236
29.6218318833326 754.106295266587 2874.50943777139 230 231 236
14.9280677892674 756.433365799025 2873.16960670124 230 231 235
3.65405415324194 758.146333584345 2874.19231426176 230 231 235
-7.6463634709758 759.86244006753 2875.2411153167 230 231 235
-19.8428017177186 761.737339856677 2875.73929919644 230 231 235
-29.4559866515622 763.14948529338 2877.99139719332 235 234 239
-39.0879671570263 764.564046141452 2880.26214031591 230 228 231
-48.7391640422552 765.981160495092 2882.55125033869 236 234 237
-59.2863804729933 767.556950081266 2884.28975956796 243 241 242
254.205690157626 717.534606753096 2723.49909385695 207 207 205
258.611337826261 716.435080529713 2736.29099327079 217 217 219
263.859859392929 715.185819742516 2749.68494646477 218 217 222
264.372493048386 714.793831792925 2759.15287022256 220 219 224
264.11308853875 714.542412562172 2767.94975397814 226 225 231
260.670591695747 714.865675718681 2774.15424471478 226 223 230
256.433032274711 715.332279211559 2779.71048722974 240 237 244
251.394186414455 715.94303373322 2784.62386640523 235 232 239
249.585803756367 715.972675304212 2792.08321121914 209 208 213
247.793429883854 716.000180775759 2799.52697478689 224 223 228
246.017129111154 716.025483071205 2806.95510315738 246 245 250
239.377155900366 716.923800623414 2810.58210513519 231 230 235
233.54496220478 717.676702916649 2814.84503390073 217 216 221
229.344067648887 718.137033093553 2820.36579485597 225 224 229
224.32828062592 718.74328852407 2825.25694122886 238 237 242
219.313070815581 719.349117374803 2830.14757746939 218 217 222
211.006267586876 720.543012054444 2832.5515858055 232 231 236
203.509809346853 721.591069973858 2835.59004919992 202 201 206
196.828845331492 722.492975947895 2839.25688744345 180 179 184
190.96960155601 723.247683137285 2843.54674841733 189 188 194
183.445493204698 724.298709111041 2846.61189226187 209 208 214
176.742851364276 725.202699262282 2850.29994886567 219 218 224
170.867752459828 725.95899246082 2854.60531980554 224 223 229
165.825789948085 726.566896600466 2859.52221514724 224 223 229
159.107249923035 727.472537157532 2863.22581495413 224 223 229
149.860522530058 728.826324182274 2865.12297838549 224 223 229
143.964044794565 729.584794840632 2869.44891915101 225 224 230
138.064375821555 730.343654767276 2873.77830917088 228 227 233
135.546095177995 730.503554609384 2880.50643174528 229 228 234
125.406588199497 732.012614045981 2881.84994214839 227 226 232
114.39442944152 733.674572333235 2882.62050096762 224 225 230
99.9475674582384 735.942034988305 2881.04430246982 224 225 230
84.6046308099853 738.365185452353 2878.91766161086 224 225 230
70.0717184146491 740.643024378536 2877.42537883596 224 225 230
54.6387756434772 743.077226700384 2875.38648192784 225 226 231
44.3183667899487 744.608148191517 2876.90639936497 226 227 232
30.5285203501597 746.748716993267 2876.11343889383 224 225 230
15.8369823760598 749.045904537019 2874.77581394632 225 226 231
2.83420499239151 751.043891799634 2874.63926507437 225 226 231
-9.33533484917781 752.893759058092 2875.11443823724 226 227 232
-23.2743282348808 755.052776389262 2874.4668562036 226 227 232
-32.8949993440464 756.452243778399 2876.72826189313 226 225 230
-40.7880543273254 757.547894334987 2880.1531797034 228 227 232
-48.6924210276545 758.645206788552 2883.58908458827 233 232 237
-61.8705852003973 760.665409242455 2883.62375183699 244 244 246
262.965375206924 708.909318159077 2731.66242701931 210 210 208
265.804206180233 708.121039755557 2743.13037764613 216 216 218
267.090382131636 707.609817089201 2753.26469462577 217 216 221
265.217051496315 707.659617056479 2760.78555433901 219 218 223
262.560057767004 707.848738683576 2767.64710209106 225 224 230
260.716833584924 707.89427150344 2775.13869633371 224 221 228
258.08612084199 708.079490306351 2781.97472351349 239 237 242
253.050953254081 708.689722154511 2786.88452736108 237 235 240
251.246149244412 708.72976284408 2794.33878153902 208 207 212
247.838687291615 709.052900982421 2800.5088384314 218 217 222
244.439538519481 709.374873174595 2806.67081253882 241 240 245
236.982151993753 710.411472981769 2809.67183280535 243 242 247
232.774538127162 710.875434807307 2815.19839153736 214 213 218
229.388639372149 711.195087967198 2821.34755093387 229 228 233
226.010802761349 711.513442959486 2827.4885585286 222 221 226
217.71519045182 712.695358388097 2829.88356248659 227 226 231
210.227585538113 713.734529357871 2832.91421004239 234 233 238
202.72892885685 714.774798734417 2835.9556698227 167 166 171
196.872896485257 715.526624384607 2840.24276771528 180 179 184
190.184628698959 716.42379010768 2843.91755931835 215 214 220
183.489409061026 717.321583308898 2847.59949931385 215 214 220
175.954130852013 718.365702816165 2850.67675576495 215 214 220
170.911529505942 718.973805428682 2855.59425614438 216 215 221
165.032824222639 719.727676833989 2859.90322836975 217 216 222
159.98933217036 720.335655858871 2864.82163149981 221 220 226
150.744513816126 721.675698357682 2866.71893066241 221 220 226
145.692457249812 722.284462231509 2871.64572248118 224 223 229
138.10805800822 723.333948661863 2874.77096361488 225 224 230
135.589662148965 723.501823820315 2881.4980218519 226 225 231
122.905886251524 725.436833909845 2881.05400778709 224 223 229
112.738000506204 726.933018638332 2882.42760160141 221 222 227
97.4355739675521 729.31914698635 2880.26654329935 220 221 226
82.9408580400708 731.562758234339 2878.74105186111 220 221 226
69.2600973050168 733.663098046616 2877.84571349966 221 222 227
54.683452678487 735.916552920392 2876.4004614291 222 223 228
44.3631483204099 737.431362748585 2877.92265639745 223 224 229
30.573547978646 739.544951772067 2877.13343914678 222 223 228
17.6092988005738 741.513963692148 2876.96291374009 221 222 227
6.34175090575395 743.188245343543 2877.98525635971 221 222 227
-4.95249830041589 744.865952088326 2879.03360754891 222 223 228
-21.4896136343024 747.446622963076 2876.65261301237 223 224 229
-33.7200529941368 749.282526014146 2877.19032420089 226 225 230
-39.868499746186 750.069459116381 2881.76226718786 230 229 234
-48.645801256455 751.30879686819 2884.62710864858 227 226 231
-65.3322788145654 753.908238255744 2882.39165873507 234 234 236
-93.4961598984598 758.478385704052 2872.84099819643 218 218 220
263.374546870174 702.064700112447 2723.76595131884 207 207 205
266.973135673845 701.169493200924 2735.91182665133 213 213 213
269.027211460261 700.545100264959 2746.7175814193 214 214 216
268.729222997003 700.33109594685 2755.54724970345 216 215 220
266.061547759081 700.529891790273 2762.41763666451 218 217 223
265.00568798416 700.449068195509 2770.56328899407 222 221 227
262.366417139374 700.643680487676 2777.4064261419 217 215 220
261.346341770225 700.557945956098 2785.51693201986 234 232 237
255.513290458989 701.306815509649 2789.78164628957 239 237 242
252.099272761873 701.636323173417 2795.95727171989 208 207 212
247.074632477692 702.244756137059 2800.8568876736 202 201 206
243.673142841504 702.572225726982 2807.02003593865 211 210 215
237.027081393182 703.460578471851 2810.65455642051 221 220 225
232.81927268662 703.927277426081 2816.18090408507 205 204 209
229.43317719438 704.252203613382 2822.3294794934 210 209 214
225.236150355963 704.71713056003 2827.84538250545 210 209 214
215.296403657371 706.171463657218 2828.99861652668 216 215 220
209.448895718421 706.919914882993 2833.27774827009 183 182 187
201.123391488587 708.094217679611 2835.70356049051 211 210 215
196.916932842537 708.559567060732 2841.22876699134 218 217 222
189.399880002881 709.593664054334 2844.28940670438 202 201 206
185.194508236801 710.058581572833 2849.81359774644 207 206 211
177.66308783007 711.094136013597 2852.88828925593 213 212 217
170.955271574009 711.987797242512 2856.58334858315 219 218 223
164.240082658168 712.88222404377 2860.28527807727 218 217 222
160.03295073825 713.346891707016 2865.81125390661 219 218 223
151.6285481329 714.52966667685 2868.31416119675 219 218 223
147.420693124439 714.99417658368 2873.84121622202 220 219 224
139.840236719437 716.035087227606 2876.96380955819 221 220 225
135.633235582028 716.499384590679 2882.48971024877 221 220 225
123.79783666445 718.265378147239 2882.64547303112 218 217 222
111.081842582034 720.180095725574 2882.23645132456 214 215 220
94.9236047845781 722.679626710953 2879.49121823371 214 215 220
81.2773568198097 724.748902761755 2878.56619939156 214 215 220
71.0162127458718 726.240214975311 2880.03312026039 215 216 221
56.443664455585 728.463610058749 2878.58824329127 217 218 223
44.4078507401482 730.253938621725 2878.93908638525 217 218 223
27.1720005274418 732.925956306982 2875.82153557616 216 217 222
15.0639078914381 734.725088894318 2876.24318931778 215 216 221
3.79054038980398 736.381188244231 2877.27366038722 214 215 220
-4.90694183239926 737.599554273604 2880.06233972636 216 217 222
-19.7049521293562 739.850664799508 2878.83725353251 218 219 224
-31.9314079176904 741.664496105513 2879.37393332793 219 218 223
-39.8222729109312 742.743536214125 2882.79913146268 225 224 229
-50.3495299959456 744.267911412567 2884.52575763264 224 223 228
-70.5480365008024 747.425595486485 2880.02698340047 236 236 238
-98.7226765013367 751.927208169898 2870.49747387541 240 240 242
266.582804257454 694.457420378756 2727.37243204177 208 208 208
267.812866213606 693.996554891753 2737.5550282791 211 211 211
271.456273831521 693.12505129423 2749.65323236904 213 213 215
270.367806852425 693.062209067792 2757.828268654 215 214 219
269.299512889063 692.996692736622 2765.98400590961 215 214 220
265.851807338073 693.336946898472 2772.19115770711 219 218 224
264.01595328019 693.402943243177 2779.67274664944 212 210 215
261.392238319001 693.603450360875 2786.49922748026 229 227 232
256.364447457347 694.212752255479 2791.40184357636 238 236 241
252.144718829244 694.684655903377 2796.93959648976 205 204 209
247.119909014955 695.293051270156 2801.83938634617 197 196 201
243.718221564525 695.625911960917 2808.00193424134 217 216 221
237.885182920698 696.371064881472 2812.26718524886 198 197 202
233.679135701765 696.840195369389 2817.79142435055 211 210 215
228.660456973804 697.446874314094 2822.68537963404 205 204 209
222.004290468936 698.330309235122 2826.33066143864 197 196 201
212.056804927861 699.769401509088 2827.49383283187 198 197 202
206.201371052428 700.516139359076 2831.78108838357 157 156 161
199.517705938849 701.402228391007 2835.4529465947 202 201 206
195.30724824454 701.870676544069 2840.98166621242 201 200 205
187.786251309369 702.897192024351 2844.04734301498 206 205 210
185.238324237381 703.085419270468 2850.80071815312 208 207 212
178.53961260086 703.972625523041 2854.48769050123 210 209 214
173.502666574806 704.579956223784 2859.39968915251 210 209 214
165.120151777805 705.749547443215 2861.88247223596 210 209 214
159.238199583824 706.498272065606 2866.19576722589 218 217 222
151.672143619824 707.52946548238 2869.3054969132 217 216 221
148.30648836538 707.855294013688 2875.43364149718 218 217 222
139.883754736116 709.029411698629 2877.95603130798 218 217 222
132.292149193483 710.063472232797 2881.09070834586 217 216 221
120.448913001521 711.809002187394 2881.25694032697 214 213 218
109.425408386417 713.415839695621 2882.04691257711 210 211 216
94.9675801440368 715.595877769218 2880.49452505167 210 211 216
84.7370242881018 717.067353299892 2881.93400322091 211 212 217
73.627979466794 718.684502759677 2882.80739405839 211 212 217
58.2034884402294 721.02087176057 2880.77456416506 214 215 220
42.7332906374613 723.362812882464 2878.7866360611 214 215 220
25.4936197625169 725.99770314952 2875.67802880029 213 214 219
14.245336646256 727.631816120525 2876.68717812344 212 213 218
4.70152193986495 728.981010948365 2878.88003237347 212 213 218
-3.99411554264351 730.188307192825 2881.6681781262 213 214 219
-17.9206789553721 732.26497023612 2881.02042487343 214 215 220
-29.2716404605362 733.911968480712 2882.12963091681 221 220 225
-38.9027848631622 735.272113635548 2884.40758639262 220 219 224
-52.0535796780681 737.215934346567 2884.42602681066 223 222 227
-78.3946695943247 741.346844882222 2875.96438319804 227 227 229
-109.223351211132 746.217969008026 2864.76435896492 221 221 223
263.068879365997 688.231198117737 2716.19502831452 194 196 191
264.261115469836 687.796801708591 2726.41127406422 209 209 209
267.860696383345 686.96043855234 2738.54746713565 208 208 208
270.709701471648 686.251265088367 2749.99328519836 211 211 213
270.414883592738 686.069117015808 2758.8150967062 210 209 214
270.14391999137 685.88372585723 2767.61369989051 210 209 214
267.497697235274 686.095548913214 2774.46119664566 213 212 217
264.86367797945 686.305715586429 2781.29681995728 202 200 205
260.634718297506 686.781921341053 2786.84276575212 220 218 223
255.604737263902 687.391558310458 2791.74750719743 233 231 236
252.190217645417 687.73186157581 2797.92203545789 210 210 212
247.974508519101 688.205689261436 2803.45517473267 207 207 209
244.574660549865 688.543789119318 2809.6154594912 227 227 229
237.930104242511 689.421055922263 2813.24978600121 188 188 190
232.093606117425 690.163696524075 2817.51884364437 207 207 209
225.436575333373 691.042064182407 2821.1653947882 192 192 194
218.772592697687 691.921059318882 2824.81909432447 185 185 187
209.638202659647 693.208981812153 2826.61410200872 146 146 148
204.599738658495 693.817447379001 2831.52744029899 179 179 181
197.087294440099 694.835159737168 2834.58592522496 197 197 199
193.697772497481 695.170247739352 2840.73640123737 198 198 200
187.001554359943 696.052081365591 2844.42135373396 198 197 202
184.451556283165 696.248530486343 2851.175570221 202 201 206
177.750620895541 697.130722921603 2854.86515398484 203 202 207
173.54630688987 697.600447436109 2860.38792202526 203 202 207
166.000410287236 698.621433497623 2863.47914181137 206 205 210
159.281770812946 699.505386063701 2867.18604584842 215 214 219
151.71566107304 700.528507530556 2870.29702196667 215 214 219
145.823149571555 701.275555911287 2874.62105025283 214 213 218
137.394647121922 702.439609552453 2877.15065604881 214 213 218
131.48938454065 703.188101540828 2881.48679513912 212 211 216
121.340729425848 704.633612404806 2882.84912007009 208 207 212
110.31914224898 706.221410171739 2883.63966449918 206 207 212
95.0114763927723 708.511490143556 2881.49800482495 207 208 213
83.9271771935417 710.106826906493 2882.35004680098 207 208 213
73.6721525334492 711.565111722615 2883.81577243631 208 209 214
58.2478704977878 713.869257397625 2881.78749760541 211 212 217
41.0584542633283 716.460354026009 2878.63579726636 211 212 217
23.8154255129364 719.058032457414 2875.53636216056 209 210 215
13.4269448908633 720.532551829808 2877.13221207866 210 211 216
3.88108757882666 721.868513337191 2879.32871270328 210 211 216
-3.94874260593658 722.923406735803 2882.69687124413 211 212 217
-15.2670492213254 724.547477257027 2883.77703920674 211 212 217
-25.7406085814127 726.032650149456 2885.45613682576 214 213 218
-36.2370827751732 727.520783827507 2887.15721376855 212 211 216
-52.8822949888563 730.009999582756 2884.89707805833 217 216 221
-83.610183087016 734.79087307717 2873.6103033751 233 233 235
-115.328776896747 739.728441856802 2861.86724529634 224 224 226
-127.782727212942 741.52743346884 2862.6320238212 159 159 159
267.845521180501 680.366606309375 2721.11592936394 198 200 197
265.889452436858 680.47075546768 2728.71125429713 209 209 209
268.700603927223 679.793420742551 2740.18995579048 209 209 209
270.757104447814 679.241030949491 2750.9823228865 208 208 210
270.461948229105 679.075024019668 2759.80208471692 210 209 214
269.392985150207 679.036304919539 2767.95452579511 207 206 211
265.94477713934 679.387413719686 2774.1605722319 207 206 211
264.108323151684 679.47495034791 2781.63957326886 205 203 206
259.877149064943 679.954147829461 2787.18727582446 207 205 208
256.455840693221 680.301039939105 2793.36723374694 230 228 231
253.850369784238 680.514801836418 2800.17397675557 207 207 209
249.638524293732 680.990783008642 2805.70329894049 204 204 206
243.808362880291 681.730396989769 2809.96617362654 229 229 231
235.535347585805 682.867654807608 2812.34533878992 203 203 205
228.062505710701 683.873652214929 2815.36622946819 183 183 185
221.395891882979 684.747789798238 2819.02325976128 179 179 181
213.902858667688 685.755860894205 2822.06389424856 164 164 166
207.21973368457 686.631621258301 2825.73674267475 142 142 144
202.17529656176 687.240780863216 2830.65590978461 192 192 194
197.131499888801 687.849564885118 2835.57449642931 188 188 190
192.914935034323 688.324090137141 2841.10838235479 193 193 195
187.045525964296 689.066515993337 2845.4101527921 191 190 195
182.833980826554 689.540113586173 2850.93919117229 198 197 202
176.96183209262 690.282589976404 2855.24367466745 191 190 195
173.589910611366 690.620294604545 2861.37628642537 205 204 209
167.71681092346 691.362550102584 2865.68140903766 201 200 205
160.163676761382 692.376192937758 2868.78090115293 210 209 214
151.759228582518 693.526717704773 2871.28862026414 208 207 212
142.497661718303 694.814974111986 2873.21020490646 207 206 211
134.061477714869 695.969145870991 2875.74889913678 209 208 213
128.148459265732 696.715903043728 2880.09299632353 200 199 204
118.840170357104 698.009577756411 2882.06017582344 205 204 209
109.512880347022 699.305483991277 2884.04555603799 205 206 211
94.2034682311319 701.563528158789 2881.91036530334 200 201 206
83.1172179476116 703.140253900338 2882.76675759374 201 202 207
71.1488251825374 704.857852891299 2883.06173792832 205 206 211
54.8613632491977 707.268179401719 2880.45801069714 207 208 213
39.383678765522 709.546565480441 2878.48657254363 205 206 211
23.8602880441516 711.83046464345 2876.56004437036 205 206 211
14.3354294345892 713.150334038293 2878.73807138021 205 206 211
3.92626295806853 714.611303732868 2880.35646529403 206 207 212
-3.90349291263048 715.658050064958 2883.7257541728 206 207 212
-15.2215421712425 717.263218117797 2884.80846035289 206 207 212
-25.6948689459078 718.732204230682 2886.48971941009 204 203 208
-38.8107396954105 720.62314983297 2886.48129463289 206 205 210
-55.4613718513299 723.078021375127 2884.23161706514 204 203 208
-85.3174640873071 727.641533055865 2873.5281715021 223 223 225
-117.918099006401 732.639305988618 2861.23518581864 209 209 211
-128.615740066159 734.136170737471 2863.13473398471 194 194 194
268.682331070393 673.166720589957 2722.76635189766 198 200 197
267.517532393936 673.154543490063 2731.00969840291 209 209 209
269.540282745288 672.630808498355 2741.83168259077 209 209 211
271.598515815858 672.102364470788 2752.61912790736 208 207 212
271.304745653047 671.952294334135 2761.43482007072 205 204 209
268.641961570282 672.182598542255 2768.29603096185 203 202 207
266.791079139223 672.282922306754 2775.78746972324 206 205 210
264.154553168736 672.509503480812 2782.62315618353 205 203 206
259.923120466292 672.991446131001 2788.17070981362 192 190 191
255.69621853331 673.472522761576 2793.71389231998 219 217 220
253.89583575144 673.5656087484 2801.15591608159 211 211 213
250.493060229014 673.915045872604 2807.31743230071 207 207 209
243.04224631603 674.910836233153 2810.31795748401 219 219 221
231.514415582437 676.556678952521 2810.18605875423 235 235 237
224.031761706029 677.555893558112 2813.21769538997 167 167 169
216.538141096374 678.55619585055 2816.26006139431 160 160 162
211.490426383135 679.166181429602 2821.1823611213 160 160 162
206.443351581241 679.775850462356 2826.10407219227 159 159 161
203.042486139853 680.123349732437 2832.26364024468 189 189 191
197.175712876611 680.863143519074 2836.56318230562 188 188 190
192.958995699316 681.340400539826 2842.09681573569 186 186 188
187.918114143959 681.948522220703 2847.01260551922 192 191 196
183.708582607311 682.424565495235 2852.53962073506 184 183 188
177.005598650311 683.296224889969 2856.23279553737 201 200 205
169.460975226361 684.301010926276 2859.32514539487 190 189 194
164.414699377496 684.909222955297 2864.24627843819 215 214 219
157.692307658202 685.78290318715 2867.9587645985 194 193 198
150.962565076213 686.657287274649 2871.67810840259 198 197 202
141.698870033536 687.932380118046 2873.60341408457 198 197 202
134.105059350324 688.942528388456 2876.74415292378 201 200 205
127.345961904401 689.820259310025 2880.49215188108 198 197 202
120.579722115078 690.698831668641 2884.24711892694 196 195 200
108.70658887705 692.383487749206 2884.45237409074 195 196 201
94.2473591197452 694.475072359828 2882.91445167354 199 200 205
78.0383151486821 696.841134214255 2880.2393965434 199 200 205
66.058260180867 698.538574889768 2880.54859916593 201 202 207
53.1901806078778 700.374871852903 2880.30219113243 204 205 210
40.2880439589381 702.215272307218 2880.08933362659 203 204 209
25.6281459163725 704.331046973892 2878.74676466136 203 204 209
16.9708969938163 705.501116806753 2881.50262989594 203 204 209
5.70233941804554 707.081234590932 2882.53989252212 204 205 210
-3.8582378342471 708.392103026973 2884.75471901 205 206 211
-19.522443580144 710.66096749376 2882.97024435925 204 205 210
-30.0055273881812 712.115098184015 2884.66305007781 202 201 206
-43.1307856878647 713.982991048481 2884.6673544613 202 201 206
-56.2901871748216 715.85511619748 2884.70527584666 201 200 205
-83.516512528298 719.931126688873 2875.71355115224 217 217 219
-118.74954900647 725.258283717064 2861.73483051038 205 205 207
-134.734154574923 727.566786115593 2860.26232130881 193 193 193
268.343997912283 666.338705387992 2714.19245848205 192 194 191
266.367069034794 666.46731580133 2721.80454463172 199 201 198
269.145755967652 665.847912288092 2733.30692170277 209 209 211
271.963794142252 665.223371019088 2744.77098176711 209 209 211
274.027418150506 664.71848356585 2755.54959215149 208 207 212
272.147778214983 664.833767723318 2763.06703855839 205 204 209
270.284190120696 664.946851384666 2770.56887048202 200 199 204
268.436719797408 665.057490363094 2778.05505854385 203 202 207
265.803797785202 665.291695930174 2784.88603933833 194 192 195
260.772581061588 665.901783522071 2789.79194124028 188 186 187
255.741982452233 666.511616284366 2794.69726700934 195 193 194
251.519246380124 666.994585463871 2800.23603303636 212 212 214
248.11042747326 667.350091647091 2806.40265342129 188 188 190
241.464802131556 668.211866479785 2810.04033120465 150 150 152
230.746195404203 669.70962211051 2810.54365759889 159 159 161
221.631380392065 670.955672646733 2812.325753492 149 149 151
213.314774907646 672.076253421876 2814.750669218 145 145 147
208.259216317964 672.687168877362 2819.68062059492 147 147 149
