ply
format ascii 1.0
comment KinectMotionCapture
element vertex 755
property float x
property float y
property float z
property uchar red
property uchar green
property uchar blue
end_header
-33.6542044390038 652.684131898729 2840.0128700987 142 142 140
-38.7709556541855 652.393775868338 2835.06682612918 148 148 146
-45.3621179523598 651.784978853218 2831.52099934618 133 133 131
-53.414163195489 650.858666707128 2829.38461232126 175 175 173
-62.9140198731819 649.615898368188 2828.667146235 199 199 197
-67.2978350293238 649.483885040932 2823.01848314113 131 131 129
-70.2398062499683 649.667614652443 2815.94598057438 132 132 130
-75.3708541136038 649.375274379051 2810.98985708572 178 178 176
-81.9496154702275 648.766455975261 2807.45272542455 136 136 134
-89.2440970846942 647.999933587386 2804.63128517868 121 121 119
-91.5124520384345 648.337189978938 2796.81284243369 117 117 115
-97.3771324638222 647.885206316182 2792.55912104849 112 112 110
-108.230043384084 646.331976191726 2793.32988672847 124 124 122
-125.444976542995 643.366929500687 2800.59715972594 145 145 143
-137.634130173591 641.50556456851 2802.86776704322 152 152 150
-146.255201600721 640.430823079958 2801.55316559922 136 136 136
-153.452277123574 639.670309741628 2798.80236754493 154 154 154
-163.447167641628 638.284459441656 2798.96064723112 166 166 166
-170.619374867227 637.525412660029 2796.22758968761 164 164 164
-177.086805249664 636.922755961995 2792.77148991281 183 183 183
-182.855779811921 636.476046173164 2788.58717446347 188 188 190
-187.932774127286 636.184758699884 2783.66994640114 190 190 192
-192.324854930134 636.048311902706 2778.01526890718 194 194 196
-196.038246952395 636.066270407893 2771.61803838128 195 195 195
-200.451660042043 635.927637020589 2765.94759110484 195 195 195
-203.507189287639 636.098025328865 2758.79299480304 196 196 196
-203.854875973026 636.886252724796 2748.66405984432 199 201 200
-201.521037782585 638.290206695973 2735.54140280031 196 198 197
187.990806095484 677.298021842282 2816.77873888536 210 214 213
174.83793190715 675.389800940649 2818.35048726879 164 166 165
161.723818168535 673.484660323897 2819.95034953166 153 155 154
149.420477004887 671.741638079135 2820.90344819217 152 154 153
132.53260387398 669.04758026024 2825.93940781443 191 193 192
114.938107740302 666.199462166567 2831.69708314842 192 194 193
98.1738477305671 663.514900208254 2836.82240618165 204 206 205
86.8124679229374 661.944077240316 2837.22448280269 186 188 187
77.7641307679771 660.850375342386 2835.60005127607 176 178 177
64.9384266072994 658.967404241578 2837.40910008992 167 169 168
48.3684816613574 656.297717685175 2842.67536160662 196 198 197
34.122424867852 654.105891804054 2845.92327533316 189 191 190
22.9326309318676 652.548092561602 2846.44950970509 191 193 192
13.2726607215008 651.307359296868 2845.61627868707 197 199 198
0.642772836382477 649.439135879228 2847.56705912091 163 165 164
-8.96623795035745 648.202142561325 2846.77078862017 160 162 161
-17.0672476912435 647.280586341867 2844.59893027558 151 151 149
-24.414730335768 646.516610946313 2841.73908135294 164 164 162
-32.4931013283183 645.596609512399 2839.58334771843 149 149 147
-37.6120371666655 645.303010055063 2834.63599811738 150 150 148
-43.4709580042987 644.852687859452 2830.38646039591 150 150 148
-50.795634804419 644.08996255348 2827.54315024854 123 123 121
-60.3029488679461 642.860002569631 2826.82034302097 143 143 141
-65.4211842605539 642.56598190569 2821.87349905449 193 193 191
-69.0929294687255 642.582504890153 2815.50645192172 162 162 160
-73.5024400304041 642.442395336681 2809.83882619401 140 140 138
-80.8074015178582 641.680400905587 2807.00981179956 170 170 168
-86.6660189079784 641.22896816012 2802.76048842852 122 122 120
-90.3744453705364 641.24198185956 2796.36683249641 118 118 116
-93.3822151267023 641.408412779319 2789.24683802278 115 115 113
-102.109324115996 640.336790853444 2787.85538348821 112 112 110
-118.634410524034 637.567968743053 2794.38899288146 146 146 144
-133.677783343578 635.112454153896 2799.52794730528 151 151 149
-144.428654354163 633.58534344247 2800.37252171638 133 133 133
-154.445829273652 632.214117406637 2800.51472103918 150 150 150
-163.73572256287 630.998365532786 2799.94959873778 160 160 160
-170.906403717488 630.244590706412 2797.2179686562 159 159 159
-176.674680169614 629.797937472288 2793.03415956825 186 186 186
-182.443806735981 629.350916650353 2788.84973235244 185 185 187
-188.213788368159 628.903617455199 2784.66468387116 188 188 190
-191.91285728392 628.914461773344 2778.27780043608 194 194 196
-195.625973139699 628.923959029338 2771.88072725126 195 195 195
-199.353161658781 628.932137011216 2765.4734458101 195 195 195
-203.094438661314 628.938845077832 2759.05594388122 196 196 196
-203.441091590072 629.704961392234 2748.92764631776 197 199 198
-202.464719270105 630.771977781219 2737.28959437463 197 199 198
-197.469313100732 632.746140250639 2721.15881198386 192 194 193
176.0585104244 667.926120774432 2817.96246904371 170 172 171
166.03829749278 666.671248914787 2816.8677242973 152 154 153
154.494618481987 665.105193905902 2817.13767248616 147 149 148
136.821739753404 662.291710205116 2822.83870203436 189 191 190
116.142758818973 658.858938067244 2831.29814259297 192 194 193
99.374187950569 656.21196420395 2836.42053098385 204 206 205
87.2461542298768 654.503974895123 2837.50118567675 185 187 186
79.7195445789338 653.731960059939 2834.51114856604 176 178 177
67.6469412137215 652.028192380915 2835.63200728995 165 167 166
51.0682095256878 649.39570145115 2840.89208751297 193 195 194
36.0591360376787 647.077947360964 2844.8215674091 188 190 189
24.863778243132 645.538486813797 2845.34386131033 185 187 186
15.9489319102124 644.465486762599 2843.81630498838 197 199 198
4.80674823350213 642.929945577192 2844.37716579476 167 169 168
-5.55980378924237 641.55105758778 2844.26605539003 158 160 159
-14.4135718853962 640.482467860587 2842.78279832454 149 149 147
-23.250718221314 639.415015577992 2841.31159648915 157 157 155
-30.5928451271582 638.656492537476 2838.45565767304 159 159 157
-36.4531506313917 638.205849065075 2834.20511454987 146 146 144
-41.5795218084818 637.908540583989 2829.25235612615 141 141 139
-48.9088715462656 637.150624071497 2826.40538834701 145 145 143
-57.6911114908383 636.086813277429 2824.97400777132 126 126 124
-63.5440177190842 635.63617179075 2820.72882855129 204 204 202
-68.6718724697888 635.338145685505 2815.77499101849 176 176 174
-73.80504234958 635.039599379804 2810.81729780026 149 149 147
-80.3865763088523 634.435425485217 2807.27817974561 125 125 123
-84.806488266687 634.288409305414 2801.60297884042 128 128 126
-87.8018467237571 634.444703457281 2794.49193023765 119 119 117
-88.6707858117308 635.055452877661 2785.21926595648 119 119 117
-96.6992019704975 634.145184363216 2783.10008942324 102 102 100
-111.821003911548 631.719042942035 2788.18233768402 119 119 117
-128.303209468804 628.994081477849 2794.74725448394 149 149 147
-139.776936133142 627.333173341546 2796.30217432399 128 128 128
-150.512364698115 625.825834223144 2797.15804344049 141 141 141
-160.51609440187 624.471589254572 2797.31007549956 151 151 151
-169.095060104249 623.420691184097 2796.02611816562 155 155 155
-176.262689903357 622.672062544395 2793.29672614322 193 193 193
-180.641699776614 622.52570128982 2787.65117934937 181 181 183
-187.109162285349 621.927452673144 2784.19478413632 185 185 187
-191.5009944515 621.779555205794 2778.54022888451 195 195 197
-195.213859864083 621.780619000631 2772.14329453416 197 197 197
-197.568121481042 622.079819338596 2764.26238345426 197 197 197
-201.997730695021 621.928114711381 2758.58042353026 196 196 196
-203.027440370387 622.522583883289 2749.19113075661 195 197 196
-200.690307362514 623.860638496097 2736.07052840283 199 201 200
-194.342155907825 626.088710917724 2718.45159278397 195 197 196
183.429276136552 660.92877116253 2822.0352148239 208 212 211
174.949340750223 659.99422142272 2819.58830490049 181 183 182
166.481593986827 659.060609711861 2817.15052999828 150 152 151
158.026218973168 658.128030122611 2814.72172886939 142 144 143
138.801945260457 655.047272330579 2821.76713302464 187 189 188
116.579679590669 651.358816240239 2831.57688618905 190 192 191
97.5118155578443 648.290131938456 2838.73573621381 203 205 204
85.3892828353957 646.604055815021 2839.82019521532 183 185 184
77.1075618526535 645.684797341231 2837.51734707347 177 179 178
65.8015067078548 644.155826044384 2837.95974171025 163 165 164
52.2546997235085 642.171520921502 2840.48057105053 189 191 190
37.2417059088477 639.885969390133 2844.40707765349 185 187 186
23.7854821162733 637.908614181198 2846.99360788531 179 181 180
14.1238454065871 636.694421524918 2846.15930321978 194 196 195
5.23158268974555 635.633646422326 2844.64818016486 173 175 174
-3.64401177185725 634.574042402853 2843.14914621564 155 157 156
-13.2467849389872 633.364080655648 2842.35753441871 154 154 152
-21.3453358621902 632.458346635517 2840.18753866609 147 147 145
-28.6920875601715 631.704636288805 2837.32797713967 158 158 156
-36.0311697125979 630.951378387748 2834.47427219926 147 147 145
-42.6272616205918 630.349400662517 2830.92461190092 140 140 138
-49.2199285941259 629.747580907544 2827.37743521082 160 160 158
-55.0785558873854 629.296326591258 2823.12810556457 152 152 150
-60.2098855245756 628.995121406417 2818.17173290973 174 174 172
-65.346482145326 628.693399921446 2813.21153949094 192 192 190
-69.7643347457055 628.541084013474 2807.53780461376 159 159 157
-75.6355174331054 628.088185260181 2803.27936496494 146 146 144
-80.0685854330701 627.934318502549 2797.59488674155 127 127 125
-84.5112563671728 627.779543954149 2791.90314807111 117 117 115
-86.8182127321311 628.07164342691 2784.05649361064 120 120 118
-94.1387495144999 627.317976105565 2781.21623053096 104 104 102
-106.426500474094 625.522168326653 2783.41569460018 99 99 97
-121.509526484797 623.13411832016 2788.52624530091 146 146 144
-135.12344746144 621.04736153938 2792.23293996724 125 125 125
-147.281672380932 619.260911681743 2794.52634762687 137 137 137
-159.401117044428 617.477185250626 2796.84788171637 147 147 147
-167.283454412879 616.584755000741 2794.83469117004 154 154 154
-173.758376021168 615.988889304574 2791.37290076649 195 195 195
-178.839287545159 615.688542383161 2786.45308162516 179 179 181
-185.311483294558 615.092359817627 2782.99326564989 184 184 186
-190.398500362688 614.790920840896 2778.06901493784 195 195 197
-194.801947018457 614.636097730463 2772.40571053787 197 197 197
-196.469179979699 615.068493243796 2763.78847922303 197 197 197
-202.269356019668 614.617134881863 2759.58152161069 196 196 196
-202.613968808976 615.339086559439 2749.45447928525 192 194 193
-201.634905763067 616.351087770087 2737.81809924406 199 201 200
-194.602023611824 618.67655153453 2719.46070172014 198 200 199
173.062382423495 651.921097628215 2821.88492094078 208 210 209
168.473860615748 651.751441084369 2816.0876709562 145 147 146
162.330969491736 651.279129773493 2811.63216573471 141 143 142
143.093022453589 648.243446258755 2818.66788611465 185 187 186
120.088634115582 644.460392774291 2829.14521934029 190 192 191
101.009220112048 641.436865149493 2836.29592527227 200 202 201
88.8766817794928 639.771605721153 2837.37323643414 178 180 179
78.3012620097718 638.409134163754 2837.11079649463 176 178 177
69.2699487544339 637.348535357417 2835.49887362984 169 171 170
57.2268492268462 635.690024005678 2836.64134954751 188 190 189
39.1790378925529 632.837254520295 2843.30571456435 178 180 179
22.7061063165648 630.288701402388 2848.64291670805 160 162 161
13.7986646179504 629.237390775912 2847.12083802473 183 185 184
7.1528029108392 628.634637179832 2843.53509460694 181 183 182
-1.72804144829208 627.585192873776 2842.03260083294 159 161 160
-11.3358468064351 626.38825546302 2841.23711258716 165 165 163
-20.1809535330306 625.341367354397 2839.76024425628 155 155 153
-26.0514394804685 624.889421202039 2835.50231451425 148 148 146
-32.6602796565676 624.288930323534 2831.9437147325 157 157 155
-40.7356502521596 623.392512273446 2829.79057008128 147 147 145
-47.3329749470215 622.792704943708 2826.24002710292 133 133 131
-53.1961114145212 622.340786614945 2821.98742529667 161 161 159
-57.6031388706131 622.18382136148 2816.32151424775 130 130 128
-62.0200665972033 622.02582545881 2810.64871553804 138 138 136
-66.446555714498 621.867044618485 2804.96868711928 192 192 190
-70.8827138299628 621.707331121938 2799.28164471331 151 151 149
-76.0484877610654 621.399780808152 2794.30027051541 129 129 127
-79.7845123564098 621.385048141967 2787.88646756705 120 120 118
-83.534685134393 621.369049827571 2781.4624018884 119 119 117
-89.4382683908233 620.912630109618 2777.18045654126 102 102 100
-101.740773055897 619.139972720715 2779.3693425958 106 106 104
-114.713186034067 617.224096026427 2782.30690901282 134 134 132
-129.055486268489 615.01950438289 2786.72032026022 124 124 124
-139.824298987922 613.547278610683 2787.55216634671 136 136 136
-152.669376547437 611.640582372902 2790.582087427 142 142 142
-161.971877670372 610.463777736278 2790.00802271331 172 172 172
-171.253316538824 609.288361144553 2789.44952798513 178 178 178
-178.427212760685 608.549381303305 2786.71564217221 181 181 183
-184.899807002858 607.955586079928 2783.25554941339 185 185 187
-190.677816014096 607.506531316965 2779.06467282142 191 191 193
-195.078922006783 607.346132548179 2773.40303697626 194 194 194
-198.803137899974 607.329070608727 2766.99778260988 196 196 196
-203.910333331523 607.02217335535 2762.05887652431 194 194 194
-204.929468558585 607.57860595181 2752.67705673115 195 197 196
-204.620189914172 608.419885868398 2741.78930757559 198 200 199
-198.251396182735 610.550515555245 2724.18484241701 206 208 207
171.951076429671 644.012096681828 2823.50961859582 209 211 210
168.14227790885 643.985404518838 2817.0429996986 144 146 145
162.001669430852 643.512919664855 2812.58914833689 145 147 146
146.615246762784 641.263651328356 2816.2454266532 181 183 182
122.062226248477 637.243618223463 2828.0689962747 189 191 190
102.975786303182 634.265643644356 2835.21483968671 200 202 201
90.8373939816087 632.621428109467 2836.2883082355 178 180 179
81.0184320626952 631.422021897126 2835.33973558755 173 175 174
70.4608611738413 630.076918024882 2835.09032265344 165 167 166
55.3854365881623 627.851499765565 2838.97217092205 183 185 184
38.0968113327902 625.189319565687 2844.95252039542 178 180 179
23.1316232167522 622.972264123558 2848.91432379275 164 166 165
12.7221427348734 621.638380556233 2848.77232158812 169 171 170
6.08053352984594 621.03830146904 2845.18967444676 205 207 206
-0.55765404176733 620.438439828497 2841.60950882189 169 171 170
-8.68057640962205 619.546593432486 2839.42191603248 151 151 149
-16.7911669206511 618.655626566775 2837.24326732426 163 163 161
-23.4100266794168 618.056942359824 2833.67711880733 138 138 136
-30.7631573591867 617.312822307592 2830.81327607464 144 144 142
-38.8434877218513 616.423858772755 2828.65657374101 151 151 149
-46.1785921685067 615.680840583548 2825.80580419056 139 139 137
-51.3130178382051 615.373459589465 2820.84686139697 138 138 136
-54.995672339782 615.355194184377 2814.47172967454 156 156 154
-57.9659909219048 615.480329156027 2807.3786751841 124 124 122
-61.6790601919177 615.45936084024 2800.98148145617 190 190 188
-66.8504514854262 615.148457882416 2795.99601813058 191 191 189
-72.7469672526295 614.692789941354 2791.7191999651 128 128 126
-77.2090777692451 614.524910013643 2786.0133027451 118 118 116
-81.6810661341196 614.356031125085 2780.30053427918 121 121 119
-86.8758965639231 614.042561795476 2775.29777194727 106 106 104
-97.0534403953127 612.724062286006 2775.32398349364 99 99 97
-108.623208359596 611.1206542098 2776.8098666719 131 131 129
-123.691769654291 608.80397498947 2781.93126466105 124 124 124
-137.294932498561 606.77738547397 2785.6460628862 135 135 135
-150.850555902095 604.754288720453 2789.395341158 137 137 137
-161.558505138336 603.305155688972 2790.27142545164 172 172 172
-169.445220353839 602.427993792326 2788.25513864776 173 173 173
-176.624072232263 601.693780327644 2785.51768451628 178 178 180
-182.408025565477 601.2442141364 2781.32249616797 184 184 186
-187.501716052521 600.936230284886 2776.39337460104 191 191 193
-192.600528638712 600.627641896394 2771.46024237602 194 194 194
-196.331059350954 600.601495148694 2765.0503642462 196 196 196
-200.760393551464 600.432636453769 2759.36851679659 194 194 194
-202.469782252681 600.827712266908 2750.72053685456 194 196 195
-204.886569621297 601.079309725265 2742.79405840494 196 198 197
-202.580734869688 602.31521637681 2729.65054435472 204 206 205
-197.625621382815 604.109571715696 2713.48964217996 193 195 192
175.501905779549 636.988317621962 2821.10767275053 208 210 209
172.45975263882 637.098074182813 2813.96246596085 142 144 143
163.990023420997 636.18789031966 2811.52307812477 150 152 151
148.597378896318 633.970558835038 2815.1750078509 163 165 164
125.572806475542 630.305447460878 2825.63830660423 187 189 188
105.708784364611 627.227746887995 2833.45499560733 200 202 201
93.5626077292331 625.604408510344 2834.52292688784 181 183 182
84.4979580898113 624.562377883328 2832.88693181827 172 174 173
74.6903976617501 623.377128573963 2831.94669606187 164 166 165
60.359464884407 621.327438225056 2835.13409579789 178 180 179
43.0552520046104 618.704740535723 2841.10334545636 176 178 177
28.8279083132328 616.662934235607 2844.36587906576 173 175 174
17.6513216749363 615.20003259332 2844.9021683647 161 163 162
9.49896510741644 614.31395672965 2842.69326732469 219 221 220
2.85183651315757 613.71573064726 2839.10662844611 211 213 212
-8.25712739784312 612.257829249512 2839.69196423044 160 160 158
-16.3682964330514 611.374671828589 2837.51293569406 165 165 163
-22.9874775147318 610.778291599691 2833.9465659134 141 141 139
-28.1280538965076 610.467674472213 2828.98344242273 143 143 141
-35.4802084299675 609.728622107287 2826.12033298817 140 140 138
-41.3579530785682 609.27501253051 2821.85713283318 162 162 160
-45.7746241530943 609.105765351979 2816.18416870908 149 149 147
-50.2010173228871 608.935670831492 2810.50415253869 142 142 140
-54.6373140642245 608.764605138194 2804.81724661577 172 172 170
-59.8077251325129 608.4508541426 2799.83247945049 116 116 114
-64.9832873242795 608.136585874458 2794.84368102875 142 142 140
-71.6044615368363 607.538740174174 2791.2761534391 162 162 160
-76.0685869099775 607.36490187054 2785.56876542625 131 131 129
-80.5424485480093 607.190035845607 2779.8543141816 116 116 114
-85.7395856153171 606.873343076438 2774.8501578686 115 115 113
-93.7868505580393 605.992913103262 2772.71746858771 109 109 107
-106.075778305041 604.269718214536 2774.91644737723 117 117 115
-119.739469384687 602.268455607428 2778.5874956786 124 124 124
-134.060313930245 600.130394281546 2783.01679760192 134 134 134
-147.62666163816 598.136270775463 2786.75844835181 129 129 129
-159.044808177672 596.565328776751 2788.35411510672 171 171 171
-168.334801656751 595.415954523461 2787.7895508683 163 163 163
-175.516370424767 594.686688800436 2785.05015226686 182 182 184
-181.996219755103 594.097264570668 2781.58482227974 187 187 189
-187.089932820364 593.786202083584 2776.65566875149 191 191 193
-191.499648953193 593.613634984906 2770.987729597 192 192 192
-195.919075627625 593.440012376895 2765.31274571731 196 196 196
-199.663399535642 593.404025629492 2758.89281876397 200 200 200
-203.422053102577 593.366649403024 2752.46279137411 193 195 194
-204.473169127179 593.88140838471 2743.05728245621 191 193 192
-203.52181172127 594.807912123065 2731.40038494376 196 198 197
-196.532412293074 596.972797170242 2713.0109469801 201 203 200
182.163082109228 630.514545284878 2816.02253423064 207 209 208
176.003590401428 630.039843624814 2811.5549827841 147 149 148
166.751468580402 628.993927599787 2809.78335992595 146 148 147
149.80907425403 626.523156149253 2814.78063248254 155 157 156
126.778793510546 622.917326152486 2825.24009342278 189 191 190
109.208864073366 620.314953001192 2831.01682242592 202 204 203
95.5244259177741 618.428112474554 2833.43837367037 182 184 183
86.4547609541981 617.396280077545 2831.79879454134 172 174 173
75.122497938259 615.940333011992 2832.22226593813 162 164 163
62.304887781973 614.203434061986 2834.03792215275 171 173 172
46.504537508115 611.903734753295 2838.62891670035 181 183 182
34.5261613624723 610.314661446733 2839.81866369625 169 171 170
24.0841304710253 609.01036236314 2839.65292037929 169 171 170
13.6674385332856 607.707947144317 2839.50584982979 190 192 191
4.76928085822159 606.688903489801 2837.99066477186 231 233 232
-5.60093249088345 605.389924964018 2837.8773049507 145 145 143
-12.9770318245477 604.65445910614 2834.99685558582 166 166 164
-20.3451369024874 603.919511026123 2832.12190957316 148 148 146
-26.2299074968815 603.465272525566 2827.8536129745 138 138 136
-32.8513678106579 602.870838917266 2824.28589526688 140 140 138
-37.2690235644644 602.695806434381 2818.61218802405 149 149 147
-41.6965878413846 602.519891993275 2812.93158789109 166 166 164
-46.8627110500108 602.203729788257 2807.94962239651 123 123 121
-52.0343084417625 601.886955240289 2802.96397992514 145 145 143
-58.6602866999981 601.291488087758 2799.39268735104 143 143 141
-63.8382452182293 600.973869626619 2794.40242928874 122 122 120
-70.4617258261053 600.378276220638 2790.8329466752 171 171 169
-75.6459267575236 600.059853335339 2785.8381592798 146 146 144
-80.835510084748 599.740815184506 2780.83946695437 129 129 127
-84.6032742935787 599.697582439864 2774.40251092432 113 113 111
-90.5191906526264 599.23899859866 2770.11161408618 112 112 110
-99.2726711771348 598.228628472249 2768.70135251537 102 102 100
-113.665195408439 596.117709006506 2773.07882978364 122 122 122
-130.824506132662 593.460577318453 2780.38798432126 133 133 133
-148.616943661424 590.671262297304 2788.47312777527 130 130 130
-160.032138062375 589.122067228208 2790.0710447509 170 170 170
-168.620459220665 588.123404025545 2788.78057002722 165 165 165
-175.104374804226 587.536319342071 2785.31259865364 185 185 187
-180.890939829875 587.085884392646 2781.11551263332 188 188 190
-186.678337499095 586.635202758361 2776.91782176239 187 187 189
-191.087946784246 586.456789421648 2771.24993045172 188 188 188
-196.194421185914 586.141257854622 2766.31150332159 193 193 193
-199.936348873768 586.096951734111 2759.89327130012 200 200 200
-203.009695054034 586.18709457974 2752.72535266306 193 195 194
-204.740527700861 586.546797426181 2744.06164837617 191 193 192
-204.46383962927 587.310428782935 2733.14988031359 194 196 195
-198.819301179788 589.152978744306 2716.25396449334 202 204 201
190.381285812186 624.2772377965 2809.59724256492 211 213 212
183.42452825084 623.660211773668 2805.78634629191 175 177 176
172.60626906611 622.343207787522 2805.3478027032 137 139 138
154.104427496341 619.629124374798 2811.68373398517 145 147 146
131.828454053213 616.221713561028 2821.45597678823 190 192 191
112.709856209495 613.37961999713 2828.57919651752 202 204 203
98.2508563181508 611.379586959635 2831.67371471657 181 183 182
86.8876501491962 609.940042071109 2832.07483784164 172 174 173
78.5938457016031 609.058996644674 2829.76342369487 163 165 164
65.766038194166 607.345497712562 2831.57180615771 159 161 160
49.1993915825066 604.941400641292 2836.84180397043 182 184 183
35.7065295856245 603.096128223451 2839.40244341142 161 163 162
27.5146340821455 602.222741119859 2837.164944024 164 166 165
17.8369466065194 601.073802782659 2836.31933434169 144 146 145
7.43372395727659 599.788370581259 2836.18211398921 184 186 185
-3.68858236505853 598.366967159151 2836.75796244426 196 196 194
-11.0693031898135 597.636254518684 2833.87389246082 151 151 149
-17.7022727443616 597.043547133303 2830.29784020262 174 174 172
-24.3316292860782 596.451002596248 2826.72411344235 165 165 163
-31.6932148800906 595.721451788074 2823.85392088096 142 142 140
-36.1129996999807 595.540432163488 2818.17893438366 140 140 138
-41.2738690479595 595.221629131671 2813.2010586255 144 144 142
-46.4399168932259 594.902366353536 2808.21913205841 162 162 160
-50.8845490711718 594.71897535295 2802.52612116949 135 135 133
-55.3388339793051 594.534702399469 2796.82581386618 150 150 148
-58.3579200586519 594.621832685314 2789.69721427503 144 144 142
-64.997087014425 594.027418006637 2786.11636626362 133 133 131
-72.35106235734 593.297209580025 2783.25198168171 133 133 131
-78.981177269084 592.703080139253 2779.67769713498 142 142 140
-84.8941003528849 592.244589427187 2775.38897065766 121 121 119
-88.6734654855204 592.191664409414 2768.9435557771 122 122 120
-95.3042006524516 591.596947026717 2765.3688186161 109 109 107
-105.467097775967 590.327369372268 2765.40589567243 106 106 106
-123.358295216572 587.576822745777 2773.41934785124 121 121 121
-142.580936954453 584.562481970987 2782.93663921059 132 132 132
-157.517729913788 582.361148619562 2788.15414312768 157 157 157
-167.510110998564 581.103920942428 2788.31489345455 170 170 170
-174.692613589577 580.384945121263 2785.57487002527 183 183 185
-182.560987008066 579.532389971208 2783.57200421951 183 183 185
-188.342008011013 579.081836583207 2779.37893657964 183 183 185
-193.434271623032 578.764608059027 2774.45050808177 189 189 189
-197.844722564157 578.580102771837 2768.78227025681 196 196 196
-200.894571007342 578.661116103943 2761.63104491101 197 197 197
-203.963082206812 578.740388927773 2754.46657619591 194 196 195
-203.646870521899 579.482458326588 2743.58335042853 196 198 197
-204.728099782241 579.955626087865 2734.15609559269 192 194 193
-199.078923826474 581.751652844037 2717.26330595052 200 202 199
185.42031797841 616.26830416687 2804.72532765296 187 189 188
176.916216675475 615.378885203058 2802.26142241418 136 138 137
160.714060506375 613.118656305 2806.56133921877 144 146 145
135.342098316322 609.218659902596 2819.0268851812 189 191 190
113.911896807906 606.011193161452 2828.17822223635 200 202 201
100.213402685851 604.1771924818 2830.58985165498 179 181 180
89.6071099121061 602.892505196012 2830.30513073164 175 177 176
80.5460145307695 601.882377340153 2828.67216829046 168 170 169
66.9545311280935 600.056478155944 2831.16141309896 162 164 163
48.1164519516017 597.282007209643 2838.48832931858 176 178 177
35.3798181837228 595.59967240568 2840.36296342343 162 164 163
27.1895605007972 594.734244423608 2838.1266916416 158 160 159
19.7607723166384 594.00519396578 2835.20778502281 139 141 140
8.60525835102877 592.600039143641 2835.75964285092 143 145 144
-1.03111440720483 591.467412167202 2834.94406570921 237 237 235
-9.16149253995213 590.60620778643 2832.75122328457 165 165 163
-15.0586035241411 590.150372138524 2828.47397278412 162 162 160
-21.6947843358692 589.559664512099 2824.8953082692 168 168 166
-28.3274904170876 588.969089018058 2821.31916332986 167 167 165
-34.2231355786864 588.51298378333 2817.04297406999 129 129 127
-41.5828142039927 587.788377324482 2814.17448343204 132 132 130
-47.4759650162779 587.332205312698 2809.90010204097 177 177 175
-51.9158745302779 587.143361520202 2804.21019261545 158 158 156
-52.7411879908917 587.621608435731 2794.96848233126 139 139 137
-55.7663183278632 587.696957488229 2787.8354414545 154 154 152
-60.2509385305636 587.504192912245 2782.11310043703 131 131 129
-69.0552001073059 586.511794652367 2780.66641210581 131 131 129
-75.6943572843176 585.919382183688 2777.08558132481 139 139 137
-81.6162380519718 585.459777464533 2772.79035558863 127 127 125
-83.2690573847601 585.795420529415 2764.18308295044 127 127 125
-87.7870925135897 585.599112558348 2758.43650079191 107 107 105
-97.9731000800184 584.343793530391 2758.45689681772 98 98 98
-117.299422892802 581.373329270544 2767.8992497964 116 116 116
-139.354203449086 577.881544823558 2780.30148593294 131 131 131
-157.805175403087 575.055936950468 2789.14380205001 150 150 150
-167.098059572187 573.94644649095 2788.57734430799 171 171 171
-173.584704116603 573.363999493773 2785.10712366622 182 182 184
-178.679852797527 573.043948749253 2780.17688390224 182 182 184
-185.8557745549 572.330136194682 2777.44165721268 185 185 187
-192.333973140851 571.747566872827 2773.97755860685 193 193 193
-196.746396947233 571.557126125005 2768.30756606846 200 200 200
-199.798192774573 571.626700474583 2761.15516555865 198 198 198
-203.551445219749 571.564240831748 2754.72863202774 195 197 196
-205.276381755341 571.890905048631 2746.06903461054 198 200 199
-207.70729773503 572.08520910402 2738.13231830388 192 194 193
-205.426431608125 573.186212415141 2724.96972617572 204 206 203
186.64064321128 608.729893840895 2804.33674729364 207 208 210
178.907504360007 607.982699660671 2801.19711847956 138 139 141
165.01253896696 606.160473875301 2803.46638132311 139 140 142
137.318448957465 601.924392476512 2817.95256377743 191 192 194
112.813714323758 598.23423332214 2829.81280774084 198 199 201
102.176443817284 596.963177683006 2829.50599392194 177 178 180
90.8022576688299 595.560262409629 2829.89934296177 172 174 173
80.9781884253198 594.426828184093 2828.94769654337 169 171 170
65.8691913299663 592.360944020768 2832.80572097787 158 160 159
50.8118255972492 590.298984084834 2836.70148844302 165 167 166
37.3136236246863 588.50722773453 2839.25852789111 163 165 164
27.6154447489576 587.383304978879 2838.39819026442 159 161 160
20.186281335326 586.659272475662 2835.4790370507 142 144 141
10.5236487127156 585.537960515769 2834.64448088568 140 142 139
0.13743390569898 584.28582885011 2834.51946407775 178 178 176
-7.25304103925506 583.564522695993 2831.62866524715 228 228 226
-13.1547010905948 583.107870444302 2827.34811289459 156 156 154
-19.0572244603615 582.651088510374 2823.06693404721 149 149 147
-27.168949595493 581.798863207332 2820.88765905942 154 154 152
-34.5345998849851 581.079030432824 2818.01486361431 165 165 163
-40.4291079900614 580.622479618019 2813.73949637402 130 130 128
-45.595025880325 580.296954267093 2808.75763229292 133 133 131
-51.4936596459541 579.839800380604 2804.47927121857 168 168 166
-52.3179675332104 580.298622403128 2795.23819150506 134 134 132
-54.6197579596455 580.493379979335 2787.3950833648 132 132 130
-56.2238725507225 580.816748225642 2778.82305565891 147 147 145
-64.3213030113814 579.96445620244 2776.65414284775 131 131 129
-70.2578117664148 579.503517093633 2772.34830621239 133 133 131
-77.6232445484717 578.782287601619 2769.47536689139 130 130 128
-79.9982280088989 578.970458543833 2761.57916619617 119 119 117
-83.1057151935566 579.027007778715 2754.38632785816 109 109 107
-89.7688914759149 578.434292449552 2750.78808358106 105 105 103
-108.41718577857 575.642764582751 2759.48752913846 114 114 112
-132.611316129908 571.823627842135 2774.0426512133 134 134 132
-154.589223036573 568.400204585889 2786.50096096192 140 140 138
-165.987705496275 566.916837305382 2788.11162068817 167 167 165
-172.476842863859 566.336607986243 2784.63960417866 184 186 185
-176.879908999067 566.141817217947 2778.9763731821 172 174 173
-184.752655313038 565.30444120654 2776.97041425641 186 188 187
-191.923335093454 564.595952303408 2774.23901455315 186 188 187
-196.335608858201 564.399758432466 2768.56910164245 206 208 207
-198.701628188658 564.585877481773 2760.6793888431 193 195 194
-201.090464749699 564.769988363022 2752.77283069758 194 196 195
-204.183259452196 564.824531558701 2745.59063309245 192 194 193
-207.294532133652 564.877398600566 2738.39503191599 193 195 194
-206.365110225379 565.691121310353 2726.72166163503 200 202 201
-204.131947162196 566.754982836249 2713.52430040748 202 204 203
187.085379269474 601.0532348553 2804.62026216218 211 212 214
180.898912302053 600.574854302991 2800.13313713994 137 138 140
169.312140113346 599.174313160909 2800.37239004783 138 139 141
140.064388530585 594.750043736259 2816.20141011986 192 193 195
114.015365055145 590.861503220097 2829.41152903985 199 200 202
101.845477983846 589.343742669773 2830.46251241484 176 177 179
91.2349184361245 588.090712899121 2830.17515324457 173 175 174
82.1705813735236 587.10143151122 2828.53965195391 170 172 171
70.0900351656162 585.590440975044 2829.65572919588 156 158 157
58.0438653113222 584.082135332786 2830.79644571271 160 162 161
43.7703699417966 582.185232844242 2834.02625695207 161 163 162
30.2959655017578 580.422169588677 2836.60069307554 158 160 159
20.6116390349882 579.312591929326 2835.75017553944 141 143 140
11.6954504280282 578.334356317488 2834.22212617496 137 139 136
1.30585352746815 577.097942493475 2834.09503170623 122 122 120
-5.34417830952694 576.511071516193 2830.50634572088 212 212 210
-11.9910679309627 575.924316092254 2826.92023265697 187 187 185
-17.1573685254514 575.596101138242 2821.93807752205 152 152 150
-23.8017430258572 575.009340363802 2818.35378769595 140 140 138
-29.7085166864774 574.551586798855 2814.06952280052 179 179 177
-34.8843817354676 574.222298298287 2809.08042875068 174 174 172
-40.7953275516439 573.763908023135 2804.79313614559 123 123 121
-48.8894714098393 572.920365873144 2802.62665018253 134 134 132
-51.894986432991 572.974720822675 2795.5077225261 183 183 181
-56.36513901134 572.771458728117 2789.79611070329 181 181 179
-57.9618230612837 573.078581175239 2781.22938726706 173 173 171
-62.4601835186394 572.872844338076 2775.4970199387 129 129 127
-65.535654956943 572.921113831098 2768.32734855994 123 123 121
-70.7723568730874 572.585772091706 2763.29441638295 125 125 123
-74.5903662357485 572.504146107425 2756.82084209928 122 122 120
-80.551936668098 572.040340309847 2752.49682319886 113 113 111
-86.514410311785 571.576252238725 2748.17214811149 106 106 104
-103.763908970246 569.08594802995 2755.41706298196 103 103 101
-130.084806491142 564.957076750941 2772.13398716922 143 143 141
-154.176038697796 561.216654121895 2786.76410100759 152 152 150
-165.575927839591 559.754710529827 2788.37384951517 158 158 156
-171.368913971262 559.302769626254 2784.1721010701 162 164 163
-175.773994962996 559.102020482036 2778.50737928069 170 172 171
-183.649634087455 558.272326176231 2776.4993622043 187 189 188
-190.822982611936 557.568788915081 2773.76605295256 199 201 200
-196.612877807138 557.116052895067 2769.56654116587 197 199 198
-198.97596264779 557.288419259642 2761.67859150374 201 203 202
-202.045375473287 557.333833914217 2754.51329768238 195 197 196
-203.771039208556 557.626982683309 2745.85300334026 194 196 195
-206.881904647113 557.66859113532 2738.65764035589 191 193 192
-207.304371994923 558.206009566301 2728.47293042521 193 195 194
-205.739767501502 559.11288105242 2716.02545274341 199 201 200
193.737111182401 594.410667934902 2799.52742220519 213 214 216
182.890815007832 593.15538862435 2799.06916112888 156 157 159
169.755472354165 591.515105132118 2800.65497565173 137 138 140
142.811033125865 587.558635507611 2814.45068113823 192 193 195
115.984236525641 583.61127804126 2828.33171443131 200 201 203
102.278772520449 581.8575461053 2830.73869780992 178 179 181
91.6672801467682 580.620452107814 2830.45074313203 173 175 174
84.1233225590905 579.897943985206 2827.44867537004 169 171 170
74.3122799022342 578.791991338312 2826.50631692489 158 160 159
62.2537580633944 577.304173307491 2827.63847747533 163 165 164
47.9676370890356 575.435990065741 2830.85898713593 161 163 162
32.9770501411852 573.443903532712 2834.80351788991 156 158 157
21.7861110385873 572.092336784762 2835.32996671438 140 142 139
12.8671218016829 571.124478817862 2833.7999396783 137 139 136
4.70982468509584 570.284722378099 2831.58769174584 140 140 138
-1.9492444655973 569.699479158321 2827.99246266384 124 124 122
-10.0865479845842 568.861103447678 2825.79471551063 230 230 228
-15.9958153094326 568.402968636673 2821.5086409737 168 168 166
-21.9061352337673 567.94462906574 2817.22180234779 158 158 156
-26.349181912408 567.738335267523 2811.52982481397 158 158 156
-32.2658438420285 567.279242948174 2807.23838492027 179 179 177
-38.1834878033684 566.81998145758 2802.94623227392 148 148 146
-44.829602786794 566.234861640684 2799.36039456929 125 125 123
-50.0217102675449 565.900742795283 2794.35979604441 154 154 152
-55.2189688717741 565.566106677333 2789.35516626308 178 178 176
-58.979865308717 565.481042061926 2782.92297694077 188 188 186
-61.3175449575774 565.644513898652 2775.05369346882 146 146 144
-63.6780932835941 565.80603314339 2767.16752763747 123 123 121
-68.2048039631122 565.591856367473 2761.41486035511 122 122 120
-74.1655443678522 565.127908708035 2757.09144244085 118 118 116
-79.4171819738674 564.787971127261 2752.04736530767 119 119 117
-83.2588187387691 564.695499359527 2745.55660807985 113 113 111
-96.2867546194548 562.991079069318 2748.45529030531 109 109 107
-124.744394724592 558.568045295817 2767.3271585665 142 142 140
-151.659731047782 554.402777142341 2784.8483081289 151 151 149
-164.46533663754 552.715073234792 2787.90795252177 153 153 151
-169.564058458477 552.385771453803 2782.97507565402 164 166 165
-175.362524242446 551.932789199131 2778.76934961741 169 171 170
-183.238745192131 551.110963814508 2776.76095062113 179 181 180
-190.412592610947 550.412494233552 2774.02730537904 186 188 187
-196.202663883022 549.959445230271 2769.82766436515 188 190 189
-198.565143137637 550.117850729406 2761.94008299072 193 195 194
-203.000967290742 549.907680763697 2756.25302710923 190 192 191
-204.721630631269 550.184456966836 2747.59656920672 193 195 194
-207.827493782375 550.215138848562 2740.40448266502 191 193 192
-207.567870239571 550.852384213261 2729.47999846841 191 193 192
-206.674089011822 551.607687754226 2717.78049559292 196 198 197
197.286618944577 587.217258736084 2797.12365910268 209 210 212
187.204501206196 586.103664986587 2795.98504831924 176 177 179
172.513572836299 584.234053334233 2798.91209722461 136 137 139
147.097173520756 580.602391362315 2811.34708341025 190 191 193
121.789790979302 576.979192143619 2823.86084657045 196 197 199
106.537168768731 574.999483728056 2827.61548506799 176 177 179
95.9137182435685 573.777432329411 2827.31893786461 170 172 171
86.837192236592 572.808223195936 2825.67470221798 167 169 168
77.7771883977518 571.840203182804 2824.04244986676 159 161 160
64.952320425061 570.248013227277 2825.85357771496 158 160 159
51.4119508885909 568.533733959801 2828.38044143278 162 164 163
36.4108493275088 566.573285902927 2832.31721569734 158 160 159
25.2098268411336 565.239672204785 2832.83674027447 144 146 143
14.7864260967983 564.032771194262 2832.68499568918 137 139 136
7.36948936292992 563.324675500638 2829.77508105666 135 135 133
1.44665490280405 562.865262368925 2825.47916493888 141 141 139
-5.95905402029762 562.157897021743 2822.57739328535 134 134 132
-14.0955797361115 561.327291273991 2820.38024933466 215 215 213
-20.010352436544 560.868142899922 2816.09017869958 233 233 231
-25.1916565914352 560.53229003006 2811.09710847597 159 159 157
-31.1106080495165 560.072623898572 2806.80400594775 149 149 147
-36.3006777539916 559.735772560739 2801.80487080977 167 167 165
-39.312940440019 559.767057455997 2794.68093477414 178 178 176
-43.0692615890149 559.674059099627 2788.25202198974 141 141 139
-50.456281627814 558.96709214154 2785.36350584818 134 134 132
-57.8357026888243 558.260542040424 2782.48079495627 144 144 142
-61.6126053652288 558.165428272188 2776.03695146845 172 172 170
-64.687063133535 558.19107723401 2768.86790034325 172 172 170
-67.0655544202412 558.336923870811 2760.96864789193 123 123 121
-72.3163276611181 557.994139224685 2755.92547741156 119 119 117
-77.5725281422812 557.650675936309 2750.87836917142 110 110 108
-82.1260956369749 557.42798025606 2745.10589518363 106 106 104
-93.7464453508947 555.992656169416 2746.55596195066 110 110 108
-116.588124119212 552.623892637638 2759.62341853444 117 117 115
-143.532588540944 548.538173553964 2777.12385544831 143 143 141
-158.461369708078 546.513584142338 2782.34806252745 158 158 156
-164.971365049907 545.938834352494 2778.86095338218 158 160 159
-172.867245006895 545.123541527901 2776.83833624067 159 161 160
-181.443112599924 544.188916927939 2775.55721374037 158 160 159
-189.312049498293 543.375269097236 2773.55413652926 151 153 152
-195.104511541451 542.921727695759 2769.3527599003 172 174 173
-198.154535611137 542.946309125087 2762.20141587741 179 181 180
-204.641099497073 542.371993821013 2758.73129489533 186 188 187
-205.672898196278 542.751843334057 2749.33940065283 194 196 195
-208.094888884723 542.890770995109 2741.40887398791 194 196 195
-207.831699386815 543.503321968812 2730.48655526927 190 192 191
-208.958724300387 543.874919402163 2721.02558771334 192 194 193
197.732321553862 579.505757791927 2797.40769816335 204 205 207
188.423586716045 578.529118350282 2795.59509174368 195 196 198
177.587756746383 577.306590116363 2795.14458373332 135 136 138
152.924092009238 573.864994786457 2806.89087489778 188 189 191
129.899587955742 570.677899216169 2817.3566444563 195 196 198
111.562179232213 568.236514471458 2823.81315789019 173 174 176
100.161653532389 566.906473760648 2824.18778195114 174 176 175
87.26908924596 565.333264741059 2825.94993143898 172 174 173
80.4844898850927 564.743348605301 2822.26367915944 160 162 161
66.1387923461896 562.929963324968 2825.44127805945 157 159 158
54.8572252610473 561.608942636929 2825.90247792411 160 162 161
39.0932197425822 559.558003586364 2830.52107958028 156 158 157
28.6346447999493 558.364443647422 2830.34390404315 147 149 146
17.4534891960367 557.051049586754 2830.87793296381 142 144 141
8.53878668789054 556.1044193561 2829.35112099155 139 139 137
1.87045849268364 555.523056196134 2825.74919948385 129 129 127
-4.79435177805643 554.941918283468 2822.1498293356 146 146 144
-12.1948411464408 554.239844899366 2819.25186825351 145 145 143
-18.8507279895838 553.659131164776 2815.65896903691 215 215 213
-24.7687498279565 553.199271495684 2811.36653942955 170 170 168
-29.9554992976161 552.859672071232 2806.36979728104 147 147 145
-33.6874748180258 552.760222104345 2799.95850048368 147 147 145
-36.7058233051116 552.779602913145 2792.83009242445 170 170 168
-40.4684094771088 552.677493910654 2786.39659184395 165 165 163
-47.8626128336181 551.975003734483 2783.50318551489 143 143 141
-55.2488460071658 551.27302938601 2780.61526507729 132 132 130
-60.4701708471551 550.929882173275 2775.59344053471 159 159 157
-64.9799707889942 550.705444825273 2769.85268575814 169 169 167
-68.0703310941542 550.718304819835 2762.67204176597 135 135 133
-72.6041183766684 550.491685254463 2756.91388700086 126 126 124
-76.4375186455908 550.382823875521 2750.42901756814 113 113 111
-80.2853240927668 550.272626643422 2743.93399322495 107 107 105
-89.087976297042 549.332176161966 2742.48844021089 106 106 104
-106.317727212581 546.973593770092 2749.74833783862 108 108 106
-133.297869174956 542.966923050276 2767.22331173742 140 140 138
-153.853483991188 540.031673035425 2778.2447763339 157 157 155
-161.771189504162 539.222737256258 2776.20636958076 157 159 158
-170.371249195521 538.297026200899 2774.90775486096 155 157 156
-178.261966805397 537.489798792339 2772.88892086796 147 149 148
-187.521222439741 536.448840431607 2772.34718829704 175 177 176
-194.006405769586 535.87753454301 2768.87808335281 198 200 199
-198.430068569281 535.656938713852 2763.19979068689 183 185 184
-204.231033529755 535.201931811648 2758.99224268866 196 198 197
-207.306625833418 535.212732141101 2751.82229390332 199 201 200
-209.721434119917 535.338142116425 2743.89690544511 197 199 198
-210.127503779963 535.810155101417 2733.72375125675 190 192 191
-209.219943500514 536.511072894925 2722.03396163537 191 193 192
193.513410194636 571.553394489084 2791.83867125969 205 206 208
182.663503670335 570.345737239725 2791.37803417894 133 134 136
160.292087299472 567.33001176087 2801.08307233028 180 181 183
133.406551463605 563.598380311323 2814.92261699269 188 189 191
112.761656935185 560.838456183684 2823.41017562227 171 172 174
99.8314877367896 559.286565865065 2825.1448780133 176 178 177
85.4176037600314 557.497598732618 2828.2734652691 181 183 182
78.6394748965043 556.910477044283 2824.59191774559 169 171 170
68.081537418041 555.72533741128 2824.34304931326 158 160 159
59.0579848205737 554.781091074809 2822.73734166318 158 160 159
44.0331315018474 552.883581130447 2826.6575110427 159 161 160
31.310284911962 551.347470610387 2828.54258594492 142 144 141
20.1214486968531 550.052213892526 2829.07113889582 156 158 155
10.4538042858464 548.996711582644 2828.23298844026 139 139 137
3.78096445641374 548.41734281069 2824.6278064546 143 143 141
-2.88873315745897 547.838089592079 2821.02519739038 139 139 137
-8.81584294664028 547.377284594267 2816.72617494526 144 144 142
-16.9544256211043 546.561955986152 2814.52761724306 137 137 135
-23.6114938045422 545.983357070985 2810.93387235964 209 209 207
-29.5327598292861 545.52269689228 2806.63908691761 205 205 203
-31.8038157778384 545.64982457845 2798.81762182052 156 156 154
-34.8260386728183 545.657540192115 2791.6863460338 148 148 146
-37.141062803296 545.780966964042 2783.83328319447 155 155 153
-44.5443411120785 545.082869225259 2780.93302601038 171 171 169
-50.4970596500354 544.619033732156 2776.61542388669 172 172 170
-57.8892642505198 543.921484982729 2773.72349152783 151 151 149
-63.122586700588 543.574050048034 2768.6929479435 151 151 149
-66.2166366363175 543.575309201923 2761.50927602182 144 144 142
-70.0421089011221 543.458666201789 2755.03011435303 131 131 129
-74.5923096163228 543.224633454549 2749.26031806808 127 127 125
-78.4439565422024 543.105571295883 2742.76216957537 118 118 116
-83.7218702825942 542.753807043593 2737.69927888422 121 121 119
-96.042974532131 541.246030194489 2739.87572889819 113 113 111
-120.954283486471 537.664485768421 2755.14748745649 139 139 137
-147.145823075244 533.861690628311 2771.95983760931 130 130 128
-159.96420668615 532.25390442813 2775.0106237409 153 155 154
-169.95946674526 531.108672278808 2775.16985431726 159 161 160
-177.850814325888 530.309309891105 2773.1506034829 160 162 161
-187.111048471733 529.281625002725 2772.60822880087 199 201 200
-192.908238959962 528.827013490589 2768.40341900084 192 194 193
-198.020065882552 528.486274139902 2763.46068955466 206 208 207
-201.769401105059 528.372841770446 2757.03673751516 207 209 208
-204.851159680685 528.371880853938 2749.86225909465 201 203 202
-208.630922190729 528.255535456243 2743.41623490999 194 196 195
-211.07022453054 528.364801855883 2735.47300841941 191 193 192
-210.831945831285 528.92514997232 2724.53236691344 186 188 187
-206.597104226867 530.160641210544 2709.0818246291 194 196 195
195.507305846255 564.071100766539 2790.77611621819 206 207 209
185.424384628552 562.997161204982 2789.6368293547 136 137 139
163.043078685749 560.037630160203 2799.33498298017 181 182 184
134.611193594493 556.142998002421 2814.52308817132 190 191 193
111.664545052318 553.081418021659 2825.0456381357 174 175 177
97.2104492868442 551.319005449652 2828.14520951177 172 174 173
84.3261871301459 549.794791383274 2829.91333108271 187 189 188
78.311228541053 549.327437219195 2825.55059199492 177 179 178
70.0248735446785 548.509098977281 2823.24489573857 163 165 164
60.2415876173219 547.458188954127 2822.32323201776 163 165 164
44.4603090098954 545.476228805019 2826.92966143485 156 158 157
33.2362434872424 544.196956935675 2827.43246239828 143 145 142
22.7899255892932 543.036213894014 2827.26463295549 149 151 148
12.3689902868427 541.877347894218 2827.11521340545 150 150 148
4.94794163923817 541.183994044683 2824.20209815224 152 152 150
-1.7239113312828 540.606885868562 2820.59764301203 139 139 137
-7.65326085287521 540.14548122074 2816.29699389973 151 151 149
-14.32071322206 539.568471053612 2812.6960238228 152 152 150
-19.514974908462 539.222099084483 2807.69350712676 154 154 152
-26.1800549426725 538.645042127684 2804.09425656908 208 208 206
-29.9200074558037 538.527679972834 2797.6770863507 173 173 171
-35.8588102861366 538.064941935334 2793.36957757928 156 156 154
-38.8946521065172 538.060113323549 2786.22836560392 148 148 146
-44.1203679566555 537.710595778219 2781.20303118036 142 142 140
-47.9083947432355 537.588920864374 2774.75098905023 162 162 160
