ply
format ascii 1.0
comment KinectMotionCapture
element vertex 760
property float x
property float y
property float z
property uchar red
property uchar green
property uchar blue
end_header
201.104046860178 666.947674402077 2806.37877544049 169 169 171
198.476175748245 667.186845261438 2813.2040067483 168 168 170
195.860572989332 667.424233624659 2820.01731885235 168 168 170
192.434184819831 667.78562379775 2826.20017828167 170 170 172
189.841075251017 668.019999630478 2832.99159956613 169 169 171
183.95332895176 668.75677639421 2837.31241407655 175 175 177
178.890891199219 669.367615576256 2842.24920783706 221 221 223
169.676217467914 670.610746089355 2844.13089649263 173 173 175
165.437773461356 671.09545962828 2849.68500291521 146 146 148
159.535003810179 671.833422698315 2854.02056050061 173 173 175
155.301620960495 672.317321291518 2859.56976156821 173 173 175
149.396175421141 673.055326855643 2863.90797006952 174 174 176
142.646972956621 673.921431844122 2867.64786147185 176 176 178
133.364008638188 675.172005132201 2869.59592580908 165 165 167
122.374096305058 676.681083240728 2870.36698922322 178 178 180
112.203711262688 678.06483464909 2871.75968247206 198 198 200
102.858844363346 679.322667983737 2873.7684817975 182 182 184
93.4949338453941 680.582738200531 2875.79552326553 178 179 181
82.4086851799377 682.103135470898 2876.66057711461 191 192 194
72.1495722218135 683.497482754605 2878.13981242969 196 197 199
61.8680949436548 684.89440050299 2879.64121377361 200 201 203
53.2789002514513 686.034616310328 2882.33357472136 202 203 205
41.23660979069 687.696665570888 2882.71014678607 198 199 201
33.4714871197632 688.711204579963 2886.02001417028 195 196 198
22.2414513623614 690.249079840862 2887.02526748786 195 196 198
11.8501584953905 691.659441845239 2888.63339243768 198 199 201
-3.76792195398945 693.858228502545 2886.81313431327 198 199 201
-13.3467505212899 695.144436015233 2889.05006734246 197 198 200
-27.300615146904 697.090091885835 2888.44878740058 192 193 195
-37.8001975901188 698.513928605469 2890.16245394339 189 190 192
-49.1975340412658 700.072423026501 2891.33079182015 190 191 193
-57.1135500924753 701.105984543757 2894.7876870432 190 191 193
-73.8299767137853 703.464303950226 2892.61761471569 197 198 200
-108.213253077273 708.480404120724 2879.25795310363 186 188 187
-137.426755746621 712.715090238344 2869.38225403605 177 177 177
-148.165452511068 714.168835242234 2871.32894420326 181 181 181
-158.04011436033 715.492219303057 2873.85414937707 179 179 177
272.004005582507 651.765579189988 2709.87776197093 189 191 186
268.442292760216 652.154571567814 2716.19125902912 207 207 209
264.10085789828 652.660819220356 2721.84445416099 208 208 210
263.713332812682 652.571676375973 2730.74457916343 204 203 208
264.141423696433 652.35999969987 2740.26980521582 204 203 208
264.597215583166 652.144712934537 2749.76805733237 199 198 204
262.693655597295 652.284418278438 2757.30564726218 193 192 197
259.211020116992 652.661613667199 2763.54236294063 190 190 192
256.53624014838 652.917371490888 2770.41172389048 183 183 185
253.072022970387 653.291609340806 2776.63024920342 187 187 187
248.009343014151 653.905722341933 2781.56679960675 171 171 171
242.947326381867 654.519279969924 2786.5027734035 169 169 169
236.271285692901 655.374674495529 2790.17193492491 197 197 197
226.350855562206 656.715652069796 2791.32274120545 197 197 197
212.351696060573 658.66657625766 2789.34841393034 132 132 132
203.189590814025 659.891875600945 2791.18053674255 135 135 135
199.714271258516 660.265495103949 2797.41051611388 127 127 127
198.69822403149 660.271244130361 2805.50350075725 161 161 161
195.245420540181 660.641671312748 2811.71159316758 151 151 151
194.263517280522 660.642821105416 2819.77135211136 159 159 159
190.010475848725 661.132958942241 2825.33949012612 152 152 152
188.236114749292 661.252897552858 2832.75170516633 169 169 169
180.690876028398 662.234350533009 2835.84811463831 193 193 193
173.963227093477 663.093374663451 2839.56764961485 132 132 134
166.397924583858 664.076885252359 2842.68367861195 145 145 147
162.151800267236 664.565266544511 2848.24520744563 164 164 166
157.90999550824 665.052939419219 2853.80221375652 167 167 169
151.163475957452 665.913575895888 2857.54024922951 161 161 163
145.2482544469 666.650160279325 2861.88837546462 162 162 164
139.329760192491 667.387039306474 2866.23970803455 159 159 161
132.565664106499 668.249419834073 2869.99493949686 164 164 166
123.262199835589 669.48906056772 2871.9653142587 183 183 185
110.555614251301 671.233646367504 2871.57209517699 196 196 198
100.358762098526 672.604458979569 2872.99298300617 170 170 172
89.2894353602651 674.104088822967 2873.84430254802 174 175 177
81.6009550130534 675.101417839552 2877.08060660118 191 192 194
71.3400343554573 676.479776585217 2878.5640000875 194 195 197
63.6236654476239 677.480326553867 2881.82752183831 197 198 200
52.4656527722556 678.990605949361 2882.76533382759 198 199 201
41.2811110081841 680.504052851536 2883.72902143801 191 192 194
30.9314602808031 681.893243619402 2885.29892422715 189 190 192
20.5591489872443 683.285173174044 2886.890924502 191 192 194
10.1643867238193 684.679861023432 2888.50514908904 197 198 200
-2.85527902882299 686.462146488282 2888.41725124864 198 199 201
-10.6936678611702 687.477607256621 2891.79973677861 197 198 200
-23.7703910962512 689.267026754912 2891.76744345471 190 191 193
-36.881424597762 691.060653669802 2891.76859887824 184 185 187
-50.9017089461334 692.987616110469 2891.23603758371 181 182 184
-62.3293164342398 694.531174589876 2892.4366425733 177 178 180
-79.9358416220528 696.985682434069 2889.71932535359 184 185 187
-111.689321559981 701.525010017269 2878.06976959076 185 187 186
-143.558402409154 706.078557119196 2866.53290560302 172 172 172
-154.31025841474 707.517685658414 2868.49482339831 174 174 174
-165.971451378509 709.090278516763 2869.92309094974 173 173 171
272.83751296885 644.550908884294 2711.5333112529 191 193 188
268.49151903813 645.06084358979 2717.19082650464 207 207 209
265.725516608146 645.337903317307 2724.14728645307 208 208 210
266.921270690203 645.032015196711 2734.34138317146 204 203 208
268.148514406949 644.721816532264 2744.50450947161 204 203 208
266.232562196093 644.87427515215 2752.05285797739 199 198 203
261.945471514611 645.375205046741 2757.65287449701 194 193 198
256.865351986042 645.992342146634 2762.606295693 188 188 190
254.184439008891 646.257010831554 2769.48042978959 177 177 179
249.912683839117 646.755122908825 2775.06563439155 188 188 188
245.645460515819 647.252250893055 2780.64648425149 167 167 167
238.96672378207 648.102913978866 2784.31902228996 160 160 160
232.280615465557 648.954224563592 2787.99844687703 179 179 179
220.732027937004 650.517474052512 2787.89936719488 168 168 168
208.341754206341 652.202959879726 2787.2007807167 123 123 123
199.982921823372 653.297079828916 2789.6715392757 118 118 118
198.129628372525 653.438527006603 2797.15895635089 139 139 139
195.475566875511 653.69727497626 2804.00730160989 157 157 157
192.833730675854 653.954304846454 2810.84376090225 145 145 145
190.204098514978 654.209619297166 2817.66835494194 155 155 155
187.586755427192 654.46320760847 2824.48100087304 148 148 148
182.507413874808 655.076531596035 2829.43421310351 178 178 178
176.601754994544 655.810272368749 2833.77292594781 212 212 212
169.86454427453 656.665063744186 2837.50291935964 152 152 154
164.781211494727 657.27830120112 2842.46010772713 144 144 146
158.865842829805 658.012676358208 2846.8083687694 152 152 154
152.947390297265 658.747309310246 2851.15999187782 151 151 153
146.189227533271 659.604047435733 2854.91016540824 159 159 161
139.424069861981 660.461477436039 2858.66752056821 160 160 162
133.491952910933 661.197302285711 2863.03253648425 154 154 156
127.556395059854 661.933514984588 2867.40057409896 171 171 173
121.617775138243 662.669923761722 2871.77196125667 189 189 191
110.599550888114 664.144830988297 2872.57618926435 191 191 193
98.7067108999424 665.746125844399 2872.81299643294 169 169 171
88.4836868058896 667.103949411498 2874.26213100387 175 176 178
81.6450705592042 667.969709569128 2878.09086257951 193 194 196
73.9455686258244 668.960172396067 2881.3391260505 195 196 198
64.52374044202 670.200346387998 2883.42695911224 202 203 205
51.6524618363694 671.94039673343 2883.19795297352 198 199 201
39.6063566619098 673.560010631497 2883.58424719137 191 192 194
30.9760729943491 674.683751759828 2886.32018289142 187 188 190
20.6039087133965 676.059564291565 2887.91441926952 190 191 193
10.209293462577 677.438135118049 2889.53087995982 196 197 199
-3.67762597356158 679.321879796094 2888.87193506039 198 199 201
-11.5176447059806 680.329513240924 2892.25753382221 197 198 200
-21.9825792633839 681.716785064761 2893.94219877785 190 191 193
-35.0894803985451 683.485713810355 2893.94290107915 182 183 185
-50.8557796061822 685.638438025763 2892.27663438156 176 177 179
-63.1600449298504 687.289876448806 2892.91491963498 171 172 174
-80.7680967660196 689.70689567116 2890.20465920159 179 180 182
-115.165401765084 694.547622019331 2876.88484840639 182 184 183
-145.276134216841 698.766660219429 2866.4851773719 154 154 154
-156.916192824102 700.317600794203 2867.89565839296 157 157 155
-166.809822801073 701.616322435471 2870.44300645083 156 156 154
269.417258998798 638.065503688177 2700.3011980406 190 190 188
269.751075150829 637.904513327795 2709.9125488799 200 200 198
267.754744225224 638.079029702699 2717.53711666909 208 206 209
267.350360913297 638.024621866655 2726.44884832043 207 205 208
268.549407836143 637.739796321906 2736.63622431773 202 200 203
268.988545682825 637.56451298046 2746.14543949565 202 200 203
266.280361670893 637.841523905431 2753.04482995523 197 195 198
261.993033093777 638.345255325391 2758.64466864451 194 192 195
256.115078407397 639.07708266467 2762.95649146136 190 188 191
250.233665331963 639.808887276138 2767.27141402683 182 180 183
245.952168308652 640.310868028121 2772.86605848693 177 175 178
243.281691667571 640.581664157099 2779.72858567198 181 179 182
235.791670660766 641.543228856106 2782.77344045885 167 165 168
225.86851206778 642.852766198926 2783.93160299526 156 154 157
214.304179074159 644.396549038975 2783.85069811289 147 145 148
204.331856392932 645.711517701558 2785.05687856901 115 113 116
197.58946963199 646.563423469608 2788.79243835751 121 119 122
194.100002599564 646.949571851201 2795.03427677778 147 145 148
191.436003347216 647.21765136205 2801.89111117703 134 132 135
189.603318522159 647.366865970549 2809.35725340126 157 155 158
186.965536238872 647.631358609655 2816.18824625876 143 141 144
182.694737408145 648.129101211978 2821.77289365214 192 190 193
175.954066708509 648.979388429309 2825.50665074549 152 150 153
171.686292816238 649.4763499462 2831.08807193236 129 127 130
166.594412472916 650.090841865811 2836.05356274774 146 144 147
162.333930514178 650.586576236574 2841.62826215048 151 149 152
157.245220391383 651.200373655382 2846.59070753693 153 151 154
151.322649658615 651.932826243886 2850.94640449383 161 161 163
144.560727624062 652.784718052867 2854.70136516095 160 160 162
136.115008818796 653.876110648412 2857.25880632339 148 148 150
131.015250159492 654.49065225371 2862.23211307948 150 150 152
126.75824387739 654.98507696572 2867.80321680894 181 181 183
119.973370954101 655.839226479718 2871.58029651804 189 190 192
110.643495064036 657.055189095094 2873.58039802368 181 182 184
97.0549753836893 658.876181984555 2872.63475028453 162 163 165
88.5278028655927 659.976840644799 2875.27170666759 180 181 185
81.689193644463 660.83717478471 2879.10123322981 186 187 191
73.9897213539624 661.819732051945 2882.35063570325 191 192 196
62.8565399733079 663.289494832198 2883.26977818784 199 200 204
49.9815275219708 665.005897638177 2883.04797490909 199 200 204
37.0722478598657 666.726443464076 2882.85958714065 178 179 183
26.7133648642011 668.084588088886 2884.44358415705 184 183 188
14.6047881137856 669.690318024763 2884.89396561687 186 185 190
5.92732499467274 670.809097639714 2887.67748451926 196 195 200
-5.36694634416612 672.29834280524 2888.75371222564 199 198 203
-12.341818197962 673.175324295684 2892.71608912529 198 197 202
-25.4216737486237 674.916771196501 2892.69433440802 182 182 184
-37.6630708577372 676.538891436062 2893.27418596774 188 188 190
-52.5597555850728 678.536197190228 2892.18459717636 162 162 164
-66.6215568397814 680.414731864518 2891.70042038627 174 174 174
-89.5102445802545 683.54086968973 2885.62697045788 175 175 175
-126.568529417073 688.66876410128 2870.65604286858 172 172 172
-151.407332766091 692.067032932974 2863.64470924614 152 152 150
-159.522145981414 693.100948053229 2867.29896072954 144 144 142
-165.874765640236 693.886009945833 2872.07426483714 162 163 158
270.249390087483 630.827124511946 2701.9616181672 193 193 191
268.232741015602 631.01528845141 2709.60434507192 203 203 201
267.018238244477 631.090741285047 2717.88443465402 207 205 208
266.611497027925 631.052729189975 2726.79608445615 206 204 207
268.597973846465 630.6788792798 2737.63159800673 202 200 203
267.453121713041 630.744725980281 2745.84394325825 201 199 202
263.947117853334 631.141732408947 2752.10093601985 194 192 195
260.449261710658 631.537370913371 2758.34970231461 191 189 192
254.567206554658 632.267120553633 2762.66590404142 188 186 189
250.28081630425 632.772738622703 2768.26453211249 180 178 181
244.396046512474 633.502122860021 2772.58348351914 177 175 178
242.524960584832 633.668987810926 2780.08481205102 178 176 179
236.643428558867 634.397256250499 2784.40071322279 170 168 171
225.914869008472 635.803567597485 2784.92743834264 153 151 154
211.113623389487 637.778846964122 2782.32908543657 144 142 145
200.322359652759 639.1921196689 2782.91704785475 117 115 118
195.196236845068 639.81269746003 2787.91564245429 130 128 131
190.885740726971 640.318877766036 2793.53812490995 147 145 148
186.579941380477 640.82433499379 2799.15638811463 145 143 146
185.554024845733 640.87148597409 2807.25305393575 137 135 138
183.727346751868 641.030570765356 2814.71143473642 177 175 178
180.271358963965 641.417203024421 2820.92029409708 192 190 193
173.524763069857 642.262930012279 2824.66060899606 129 127 130
170.077792149693 642.648071738935 2830.8607347738 133 131 134
165.810483510355 643.147569231666 2836.44131914151 147 145 148
161.547704563464 643.646318778211 2842.01751600378 150 148 151
154.792206413705 644.492329435364 2845.76696689001 157 155 158
148.029377582813 645.339159341611 2849.52323832432 164 164 166
142.095902800324 646.070201986086 2853.89030939489 157 157 159
135.320768484335 646.918229381297 2857.65862336946 143 143 145
130.219010980276 647.533081941563 2862.63386904894 158 158 160
124.275761021873 648.264944120498 2867.01052588686 185 185 187
117.48511225266 649.11445560844 2870.79402659458 189 190 192
108.995406551962 650.200071436393 2873.39600119815 173 174 176
98.7948271403694 651.523235366248 2874.82763270485 169 170 172
90.2715361188937 652.612731344575 2877.46238454391 181 182 186
80.881583026291 653.82235100287 2879.52308108606 183 184 188
70.6190184504329 655.152798428145 2881.01518827975 186 187 191
59.478185697365 656.604714729819 2881.94456639199 195 196 200
48.3108658342406 658.059852214926 2882.89977050656 195 196 200
36.2573289985146 659.637532655128 2883.29964222067 173 174 178
26.758070764537 660.860224337363 2885.4669483446 184 183 188
13.7863012421691 662.564234908908 2885.34305783455 185 184 189
5.10706537667538 663.672505680289 2888.12989030279 191 190 195
-6.18899104431225 665.143282765789 2889.21062019629 196 195 200
-14.0348127147623 666.135562311444 2892.60391281896 201 200 205
-27.1185686517592 667.853277768159 2892.58920089806 188 188 190
-42.8557943926688 669.938060790263 2890.90410549692 179 179 181
-56.8888641330489 671.786142584599 2890.39589881073 159 159 161
-70.9600276280757 673.638849795513 2889.92483615149 162 162 162
-94.7367412149189 676.834142911919 2883.30607857642 168 168 168
-134.448292438959 682.232311400699 2866.67887154639 158 158 158
-155.773101136942 685.085252823985 2861.92666355476 145 145 143
-162.127947279551 685.867646958924 2866.70457288708 161 161 159
-127.703869325019 681.013796627987 2897.00400064124 154 155 150
270.299598204184 623.700250214714 2702.96510967379 199 199 197
270.634515294521 623.576861112513 2712.56980981554 205 205 203
268.639599398985 623.772886590628 2720.19013126489 204 202 205
267.448363426407 623.85856936083 2728.44526674993 201 199 202
267.8568634527 623.725137365622 2737.97838228372 201 199 202
265.126121579834 624.021562307635 2744.89730364943 201 199 202
262.407649137002 624.316086680079 2751.8043221931 188 186 189
258.905807625391 624.717698666535 2758.05650098208 187 185 188
253.817181973442 625.336202942569 2763.01816681629 184 182 185
248.729134072629 625.954221602108 2767.97933070899 178 176 179
242.840096732078 626.681503272476 2772.30249277115 166 164 167
240.161518842586 626.969524081911 2779.17085665737 171 169 172
234.273951816487 627.695958700779 2783.49302171138 170 168 171
221.924891045272 629.304896699566 2782.76482389085 143 141 144
207.114179313655 631.249159402943 2780.18079306583 140 138 141
193.879526966429 632.977259261365 2778.89714154119 114 112 115
188.737694070259 633.59981755877 2783.91104377287 121 119 122
185.226591101363 633.999471751272 2790.17270868694 140 138 141
183.357762302537 634.174956448023 2797.67052186187 145 143 146
180.686155354036 634.45997558183 2804.53240714698 138 136 139
178.026880534286 634.743204179552 2811.3823110864 195 193 196
172.911546595341 635.361242485819 2816.37056751454 149 147 150
168.621527590341 635.866610391145 2821.97283596666 137 135 138
167.642705971202 635.920725444116 2830.02204439549 144 142 145
164.198110601641 636.310815920429 2836.21907979333 148 146 149
159.931309732392 636.812844029037 2841.79878591392 152 150 153
153.17167455959 637.654082067206 2845.55271247419 163 161 164
146.405086458138 638.496065656946 2849.31377104519 164 164 166
140.467514733999 639.224925257906 2853.68489525028 155 155 157
134.526836806649 639.954163407226 2858.05938585378 144 144 146
131.103508091808 640.340688351402 2864.2358301332 166 166 168
124.319878447548 641.184243648036 2868.01324106854 187 187 189
114.153031369339 642.487410404613 2869.41433144302 188 189 191
103.963481207798 643.793321307927 2870.83756073117 167 168 170
95.4473444268014 644.871359960626 2873.46690169139 171 172 174
88.6161415596161 645.720250922917 2877.2911027733 181 182 186
78.3703891052898 647.03265732999 2878.76918173639 181 182 186
68.1021041747569 648.347727407236 2880.26924209216 185 186 190
58.66674259474 649.549403797046 2882.37586610319 195 196 200
47.4976381879753 650.986014165413 2883.33558059574 195 196 200
34.5830992755638 652.658973465409 2883.15978645035 173 174 178
23.3568569570353 654.102505169215 2884.17487892159 183 182 187
9.51420554485072 655.900399548702 2883.4850016986 184 183 188
0.825374315109428 656.999088672964 2886.28277866864 187 186 191
-6.14378971687968 657.864605237446 2890.2415199699 193 192 197
-12.2513310223411 658.613359015349 2894.77848613119 201 200 205
-27.0730313204681 660.542419870759 2893.62452325936 189 189 191
-47.1751199840371 663.186052223681 2889.10631914734 172 172 174
-61.2175535802586 665.008483664782 2888.61120201943 155 155 157
-77.0520594723245 667.073038572268 2887.02569695296 154 154 154
-105.236011700181 670.808005158207 2877.61840672369 163 163 163
-142.327651016597 675.746863587514 2862.70854006132 149 149 149
-161.021118289458 678.195474208073 2859.65453468938 143 143 141
-164.733680675806 678.617590157788 2866.11259410319 167 167 165
272.695945647312 616.258497134497 2705.93645488869 200 200 198
273.82036947166 616.048580345335 2716.18719908656 205 203 206
272.618525932749 616.149517010869 2724.45061352272 202 200 203
271.436814507942 616.247607821492 2732.69479493006 199 197 200
268.695305015142 616.553835773185 2739.622621979 201 199 202
265.966253828618 616.858126306548 2746.53870193722 201 199 202
259.281123209551 617.690430574592 2750.22030262357 186 184 187
254.975521899354 618.204721198606 2755.83672576117 186 184 187
249.876925974744 618.82448238593 2760.80810645258 181 179 182
246.377996324734 619.230444792082 2767.05675072982 177 175 178
241.284507843705 619.848972416724 2772.02324197428 162 160 163
238.601773993345 620.145654849117 2778.89445260699 166 164 167
231.099410252556 621.08484724022 2781.95453268651 168 166 169
219.549732563816 622.563037244799 2781.86876946219 138 136 139
202.30558293594 624.799453934258 2777.40693241427 138 136 139
189.870568758924 626.394165974335 2776.76619018681 106 104 107
185.531874588001 626.909562100291 2782.4153116316 116 114 117
183.642685664253 627.09864068485 2789.93133354088 131 129 132
181.769929323684 627.28539876798 2797.43171846322 177 175 178
177.456431413198 627.797087785517 2803.05636755794 178 176 179
175.60989204169 627.980258996904 2810.53091093854 121 119 122
171.311489039549 628.489619241701 2816.14125259971 131 129 132
167.017405595036 628.998271069054 2821.74707173811 142 140 143
164.381168842596 629.286261299775 2828.57339476884 154 152 155
162.585719755452 629.462343111935 2835.99825255192 159 157 160
158.314896963845 629.967649782608 2841.58146793082 166 164 167
149.886535820605 631.025423784539 2844.12664149172 170 168 171
143.111963432162 631.863060795219 2847.89593315823 152 152 154
138.002953522264 632.479181449436 2852.87819316018 148 148 150
134.571133455572 632.872437870776 2859.06207456813 160 160 162
130.307418567825 633.376022913656 2864.63848614926 176 176 178
122.679756798542 634.326352574863 2867.82134293967 188 188 190
113.353222217502 635.501913100792 2869.82409788723 178 179 181
100.623928275132 637.128770399781 2869.47082876178 158 159 161
93.7959190660362 637.972069493994 2873.29268496966 170 171 173
85.2608355978184 639.041718420331 2875.94174242628 174 175 179
76.7110828759701 640.113026694785 2878.60545925967 174 175 179
66.438990324194 641.412537262386 2880.11160032835 179 180 184
58.7112108883985 642.374367938558 2883.39217559663 192 193 197
46.6847197369926 643.905932372231 2883.77234431401 192 193 197
34.627830435852 645.441152069207 2884.18215859713 169 170 174
20.8176079148892 647.208304362112 2883.46462267274 181 180 185
10.4227748010084 648.522580701915 2885.09046455934 184 183 188
0.00528058244242402 649.839654865209 2886.7383957408 179 178 183
-6.0986244445087 650.585224628499 2891.27255946173 184 183 188
-15.6826253822624 651.791604790432 2893.52608933682 195 194 199
-29.6408022147903 653.576819386942 2892.95280463039 193 193 195
-49.7482989235154 656.175491638191 2888.44661587055 172 172 174
-64.6713833400052 658.087567353185 2887.39550148133 152 152 154
-84.0205999106329 660.584778501584 2883.56857240132 151 151 151
-119.250201747122 665.181835317657 2869.69401176001 155 155 155
-149.325879915833 669.09599515956 2859.30493003444 139 139 139
-164.503889111336 671.039323661139 2858.50234057106 149 149 147
-169.993220068966 671.701620761681 2863.85544013699 172 172 170
273.214052105158 609.118111266959 2697.9751818396 201 201 199
271.96428866913 609.239110539733 2706.28355403938 203 203 203
273.086136889972 609.05111407472 2716.53327819329 202 200 203
271.882169275595 609.165809337071 2724.79710619517 200 198 201
271.485953754472 609.175060623864 2733.69131831894 197 195 198
269.534002974156 609.386734575482 2741.26632409419 201 199 202
265.223034527659 609.905122004243 2746.88747137152 201 199 202
259.329417166432 610.629076078533 2751.21601112116 185 183 186
253.432254766321 611.35319525508 2755.54770890278 186 184 187
247.532074428354 612.077328039779 2759.88273937202 178 176 179
242.428017203459 612.697541835475 2764.85947632002 176 174 177
236.523230216353 613.421547735576 2769.19910001344 159 157 160
233.025129922816 613.832313038674 2775.44587301938 162 160 163
223.09334604183 615.079179396761 2776.62220118044 164 162 165
211.524242703232 616.538353660327 2776.55853843181 138 136 139
195.878991563472 618.52670257237 2773.37945449373 138 136 139
187.483972791941 619.572312446984 2775.89331643935 99 97 100
182.326302255829 620.196867330554 2780.92265058705 122 120 123
178.799283281641 620.609437221316 2787.19821139509 146 144 147
175.280496520282 621.020687504623 2793.46545468952 184 182 185
171.770318108714 621.430721593097 2799.7246673604 144 142 145
171.551651017471 621.413285354842 2808.44651567319 128 126 129
168.065840617262 621.819906693242 2814.68169710955 141 139 142
164.58870341959 622.225185723435 2820.90880216213 153 151 154
161.119900661159 622.629296127481 2827.12780371578 159 157 160
158.487802859395 622.924738407188 2833.94857745573 166 164 167
155.037795375662 623.32618452408 2840.14930880423 169 167 170
148.266329995478 624.15841749675 2843.91631388006 166 164 167
142.322297007455 624.883007285701 2848.29482313404 150 150 152
138.047456601552 625.391120224725 2853.88161329809 150 150 152
132.100832221154 626.115800824554 2858.26268242119 168 168 170
127.831181600602 626.622964664541 2863.84445932809 179 179 181
119.355711243634 627.67506067258 2866.43725223965 189 189 191
110.021433230316 628.838211457575 2868.44953068422 170 171 173
98.1303773825584 630.332370912019 2868.70040074058 152 153 155
91.2965492718767 631.171096376853 2872.52871118418 171 172 174
83.6056586206122 632.120728625806 2875.77445826632 173 174 178
75.9038006975934 633.071507598321 2879.03092652619 174 175 179
66.4834348985575 634.244757559749 2881.12686091873 179 180 184
57.0445733020124 635.42014926595 2883.24118320467 191 192 196
44.1566232356698 637.041769032574 2883.04623606069 189 190 194
31.2344915313751 638.66746206248 2882.88462976197 165 166 170
18.2782596954691 640.297322980242 2882.75660722802 180 179 184
7.87779126122157 641.596211252091 2884.39031942077 184 183 188
-2.5454238505267 642.897967104068 2886.04619557345 177 176 181
-8.65504446044874 643.641603810217 2890.58632065776 179 178 183
-19.1137592419297 644.947599084325 2892.27682192253 190 189 194
-31.337451533453 646.481746676608 2892.85209465551 193 193 195
-49.7023441988365 648.809563206616 2889.48966315495 177 177 179
-66.3749176427499 650.918282250473 2887.3129347986 150 150 152
-97.1271317315177 654.846230937336 2876.17637809771 150 150 150
-136.778888702052 659.923265191146 2859.5372579897 150 150 150
-158.966156449975 662.742835300904 2854.229507532 133 133 133
-169.75152490057 664.08911289001 2856.23876485245 151 151 149
-173.483189924744 664.524310388345 2862.71386002085 169 169 167
273.264856332168 601.979427024081 2698.97982690465 202 202 200
273.578525034362 601.915798442861 2708.59679443103 204 204 204
272.352237993191 602.047047160171 2716.88033936025 201 199 202
270.359961514497 602.275244759155 2724.49294696224 195 193 196
270.74721476817 602.201396174787 2734.03835445323 196 194 197
269.582861501211 602.3240115922 2742.26167422706 192 190 193
265.271633361996 602.845262263025 2747.88265619717 198 196 199
257.790378924629 603.767876847969 2750.92422461886 184 182 185
251.88932565121 604.489937833472 2755.26042813692 180 178 181
245.985045382132 605.211933882441 2759.59984570697 177 175 178
240.077326905563 605.934022597045 2763.94232592995 171 169 172
234.166483121237 606.656256393136 2768.28822602875 155 153 156
229.858993542277 607.175030818937 2773.90586154119 157 155 158
216.698168591095 608.814792295626 2772.56229253715 156 154 157
202.69197491707 610.561201792146 2770.62551532327 138 136 139
187.834505625228 612.414958035551 2768.10095442002 136 134 137
183.475560581348 612.9386730129 2773.76929360042 100 98 101
177.494798454089 613.667552318405 2778.18330360195 150 148 151
174.77081858122 613.983881829795 2785.09256831504 173 171 174
170.425339129692 614.505204667262 2790.74755167841 126 124 127
170.178610360075 614.507640414383 2799.4943285819 137 135 138
170.776554165333 614.40292621392 2808.83507916516 154 152 155
168.93432314441 614.607005904188 2816.30259186788 153 151 154
165.45866785701 615.017713192471 2822.52708522549 160 158 161
161.165149994586 615.531587875688 2828.13190863868 167 165 168
155.218799323297 616.25447794325 2832.51263276249 166 164 167
150.099876992884 616.872496872666 2837.5044553803 159 157 160
144.981614755377 617.490314649231 2842.4956522464 156 154 157
140.698455743588 618.002234777639 2848.09047805013 154 154 156
135.583427502339 618.619350013456 2853.07856734536 155 155 157
131.307224650246 619.13017037001 2858.66631028348 174 174 176
126.195472922409 619.746577705117 2863.65125057987 189 189 191
116.873860007755 620.894994842789 2865.65279217889 179 179 181
108.377782882108 621.938838397377 2868.26726762538 153 154 156
98.1748546062513 623.198258293336 2869.7106529294 155 156 158
91.3410319056021 624.031734850592 2873.539733787 169 170 172
81.9504631674235 625.188078370738 2875.60857802226 174 175 179
73.3930386348232 626.239125021303 2878.28290773631 172 173 177
63.1133738962228 627.507452172939 2879.8011769937 179 180 184
52.8110911085995 628.778512751387 2881.34150230883 189 190 194
39.9137919427548 630.377238801441 2881.15956048217 186 187 191
27.8415232619711 631.871481045821 2881.59036532423 162 163 167
16.600400480518 633.260678338874 2882.6286027593 179 178 183
7.92291504354337 634.326035010554 2885.42003971134 185 184 189
-1.63490648614895 635.502401963732 2887.65200898637 174 173 178
-9.47703437457381 636.462195776691 2891.04643500599 173 172 177
-19.9373483362315 637.752340094158 2892.74120488677 185 184 189
-33.0337442681543 639.375234991779 2892.75305910491 194 194 196
-50.5292826692716 641.553163003684 2889.96640874375 178 178 180
-72.4530837237403 644.289631323217 2884.40931437299 156 156 158
-108.479389734291 648.805223420981 2869.92102388605 147 147 147
-145.519107596105 653.447999387919 2855.00335931035 143 143 143
-163.321566024786 655.663381200701 2852.51594941826 138 138 138
-170.58602637422 656.549390449252 2856.76455767627 153 153 151
277.698733302551 594.304479104984 2694.29436616124 114 115 110
274.875838811075 594.647077081135 2701.29797208521 201 201 199
273.628976381863 594.794849333996 2709.59916866558 207 207 207
271.618440849412 595.036480847126 2717.22826009323 200 198 201
267.26629854044 595.566604435217 2722.88855902544 195 193 196
266.857648192548 595.60985618407 2731.79009386257 196 194 197
265.683076772659 595.747217692366 2740.02104310552 190 188 191
262.153648503791 596.174833519625 2746.29677259595 195 193 196
257.838869900469 596.698890535925 2751.92086545278 187 185 188
251.937563959886 597.418388745773 2756.25769865019 181 179 182
246.033116057954 598.137811299161 2760.59766304367 175 173 176
239.325735362778 598.956068496374 2764.30309669345 169 167 170
232.611258072403 599.774807550387 2768.01550614895 154 152 155
225.086427909946 600.693126722673 2771.10098076994 155 153 156
208.692949092106 602.704879015265 2767.24452964989 153 151 154
192.245754157986 604.722931327218 2763.44048828727 133 131 134
180.599622884745 606.148474098406 2763.4582861363 132 130 133
177.844995094382 606.477217746611 2770.39614988053 109 107 110
175.102678712701 606.804114501999 2777.32206118389 148 146 149
171.55776668555 607.229849329295 2783.61344428616 133 131 134
168.838136436685 607.553532324216 2790.51730291666 140 138 141
168.587284762036 607.572645287482 2799.26570904054 146 144 147
167.539452695733 607.689842499773 2807.37378450597 156 154 157
165.689026060974 607.905759710544 2814.84734815203 154 152 155
163.030243244857 608.221182231476 2821.69200527677 160 158 161
158.730725873897 608.738643751743 2827.30225615769 165 163 166
151.950021678707 609.561780848036 2831.07977987995 164 162 165
147.653635539088 610.078447882965 2836.68670098445 159 157 160
143.361923835479 610.594512593051 2842.28940717022 158 158 160
139.908824411938 611.006975924761 2848.49124267913 155 155 157
133.95559240857 611.727418201379 2852.87949969185 156 156 158
128.837269626377 612.344889797604 2857.87080784502 180 180 182
122.039334956802 613.16907866127 2861.6652862323 193 193 195
113.550240387494 614.201663440222 2864.27449193926 171 171 173
105.046395058213 615.235812942716 2866.89811410346 146 147 149
94.8357901000811 616.480161085651 2868.35135006497 153 154 156
88.8419404949752 617.204898292784 2872.77930616779 173 174 176
79.4456691479213 618.348574793779 2874.85568535787 172 173 177
71.7341340823476 619.284770078379 2878.12391862606 172 173 177
60.5970465689998 620.642689674279 2879.06347033196 179 180 184
48.5780280159531 622.109271922638 2879.44582298732 189 190 194
35.6710025366311 623.685118916929 2879.27658320618 186 187 191
23.5894030406523 625.159118736902 2879.71998334914 163 164 168
14.9226887917253 626.212516178326 2882.50215407924 180 179 184
4.51494280127251 627.480229822254 2884.14803843127 186 185 190
-5.9157169458377 628.750786178378 2885.81591848878 174 173 178
-13.7673793970485 629.70364427642 2889.22083756582 171 170 175
-22.499145188835 630.764993585232 2892.06676799908 182 181 186
-33.8592230319108 632.149976254398 2893.2234146464 190 190 192
-52.229249078561 634.398065418187 2889.87786433923 175 175 177
-76.7812400403476 637.407248564724 2882.63922847075 155 155 157
-116.323820990524 642.261887738344 2865.92456485633 146 146 146
-149.864957323222 646.377364817516 2853.27900460387 143 143 143
-166.796112185591 648.447978534908 2851.3646833692 142 142 142
-174.950701821424 649.438199854316 2855.06489135085 151 151 149
263.744818763162 588.840233806455 2683.45202787349 119 120 115
272.58671272465 587.792060962032 2700.33321072207 200 200 198
273.679501736742 587.672770487622 2710.60163638443 203 203 203
273.236279739313 587.737245626593 2719.53436457282 195 193 196
268.101968046421 588.363986044722 2724.54018002284 195 193 196
265.331541032074 588.706810045579 2731.49165156007 195 193 196
262.573426503425 589.04766908019 2738.43118703814 185 183 186
259.827516013556 589.38681269532 2745.35885726353 183 181 184
257.093896481554 589.724023542543 2752.27460804833 193 191 194
251.190467657531 590.441135778388 2756.6139019463 185 183 186
246.081195619153 591.062714610102 2761.59561552946 170 168 171
238.574309348727 591.971606957263 2764.66466488103 163 161 164
231.056415174169 592.88144475945 2767.7445055063 152 150 153
221.117607097804 594.081562855088 2768.93438032799 151 149 152
203.103915774145 596.250322499499 2763.8294620819 145 143 146
186.643203277167 598.232515772567 2760.04414380931 141 139 142
174.983385631378 599.638378244469 2760.07844116825 96 94 97
174.648153461038 599.684993794342 2768.90657350142 116 114 117
175.962834920911 599.533294551267 2778.95978452681 124 122 125
174.864279814772 599.670861820561 2787.1152180351 159 157 160
172.152163486853 600.001853202062 2794.01053505468 155 153 156
169.452358029108 600.33105672746 2800.89389144255 155 153 156
165.944156847122 600.757116950836 2807.14877203949 158 156 159
163.266849184459 601.083084527813 2814.00992821403 162 160 163
159.777528849987 601.506410707397 2820.24646394075 166 164 167
157.123052063704 601.829310145249 2827.08574002916 165 163 166
150.338378463135 602.647640453778 2830.86791587078 160 158 161
146.038115144722 603.167731672113 2836.47851882031 159 157 160
139.245111412975 603.986758313078 2840.26886368771 161 161 163
137.450885944076 604.205615174394 2847.68618426619 157 157 159
133.16429673731 604.723451834246 2853.28354184348 160 160 162
129.720141764697 605.140035801352 2859.47588635228 185 185 187
122.084011717305 606.059648826097 2862.67169217349 194 194 196
111.910793952295 607.283715949089 2864.09079962543 160 160 162
102.559193911057 608.409069586585 2866.12586550169 139 140 142
94.8805085003643 609.333575640439 2869.36320624018 163 164 166
87.1908983350718 610.259223057891 2872.61122672844 169 170 172
76.9410296801332 611.492127679921 2874.10514346869 170 171 175
68.3721084084263 612.523217993114 2876.79383915257 173 174 178
59.7882646926076 613.556071579842 2879.49709243298 180 181 185
46.9116870055517 615.104197771399 2879.30171466656 187 188 192
33.1435107545155 616.759315887961 2878.55898477691 184 185 189
21.0561957753868 618.212748489042 2879.0111003051 163 164 168
14.1066638066323 619.049326154833 2882.95428599195 176 175 180
3.69685584921164 620.301273259569 2884.60421035327 183 182 187
-6.73561375140208 621.556077224507 2886.2762158186 174 173 178
-15.4562701303527 622.605352657716 2889.11289895423 169 168 173
-24.1917644576137 623.656439681249 2891.96404863962 178 177 182
-36.4262243068554 625.127655636498 2892.55965282705 187 187 189
-53.9290679616915 627.23145031351 2889.79087572336 173 173 175
-81.1089767176805 630.497202455329 2880.87315233367 157 157 159
-121.537227489127 635.35359338121 2863.62080371844 144 144 144
-153.332218827402 639.17373514061 2852.11842689849 140 140 140
-171.151338196172 641.316091044685 2849.65835476361 143 143 143
-177.550081866888 642.087566857958 2854.48146871344 152 152 150
266.130658413616 581.374861586865 2686.43729838033 147 148 143
272.637786349994 580.64712154602 2701.33851278245 204 204 204
274.512198038441 580.458277847365 2712.25830266856 199 199 201
273.286540761771 580.630178185447 2720.53487609853 193 191 194
268.151908574699 581.257135913439 2725.54097768571 194 192 195
264.593484082782 581.699994549748 2731.84324797375 193 191 194
259.464004010477 582.325477208239 2736.84445144944 185 183 186
256.710025981553 582.673775562909 2743.77877979387 179 177 180
256.349089129881 582.742590074007 2752.62915625882 192 190 193
251.238941451033 583.364721560314 2757.6116576838 186 184 187
244.534460319124 584.17238213011 2761.3157782013 169 167 170
235.424615035841 585.260313455426 2763.11597118852 162 160 163
227.097484537007 586.256735413121 2765.56968902841 150 148 151
214.739042775553 587.723178489066 2764.87186735723 149 147 150
196.710094452554 589.850948661493 2759.78849560507 143 141 144
181.040983860324 591.70343385027 2756.65318505497 136 134 137
172.603880089738 592.711963659388 2759.21398060227 98 96 99
173.884668534063 592.586237697605 2769.2970090535 114 112 115
176.010012183538 592.361573251438 2779.9729140837 137 135 138
174.096263931173 592.607910796723 2787.50486091995 161 159 162
170.56505316311 593.042663726936 2793.78096775574 152 150 153
167.04238723836 593.476178983902 2800.04911020536 152 150 153
162.70733547911 594.004295458709 2805.69273461952 159 157 160
158.377024085633 594.531565421873 2811.33211473643 164 162 165
156.524933784485 594.769245470305 2818.80411388991 165 163 166
153.862560066271 595.101219171132 2825.64989057636 163 161 164
149.555470067259 595.625073511436 2831.26637849086 161 159 162
144.422620407051 596.245172530615 2836.27172371669 160 158 161
138.458143987619 596.962226385186 2840.67164740807 161 161 163
134.993125171281 597.387101578649 2846.88348458248 158 158 160
130.700642748864 597.908511675643 2852.48616605758 162 162 164
128.08882865835 598.233374421709 2859.28278728232 189 189 191
119.608517252398 599.243813110217 2861.88620651872 191 191 193
107.745659584783 600.649312681483 2862.12251709936 154 154 156
99.2282322910625 601.663975113283 2864.76250653557 138 139 141
92.3876257960434 602.482545752436 2868.60018904746 165 166 168
83.8444791243278 603.500067223125 2871.26529564153 170 171 173
74.4366303368751 604.618667272523 2873.35687768966 170 171 175
65.8618961121218 605.639876012046 2876.05280621411 174 175 179
60.6867147137922 606.263631007884 2881.09964712992 181 182 186
47.8122269541612 607.787493418503 2880.90578021089 185 186 190
33.1887307300764 609.515840398135 2879.58466318673 181 182 186
21.1015687120937 610.947848032019 2880.03979342304 158 159 163
15.0133464247397 611.678421664053 2884.56026253137 169 168 173
4.6057211598356 612.914276922308 2886.21073565664 178 177 182
-9.28546191516144 614.557481499216 2885.59191417752 174 173 178
-19.746185423672 615.799689859726 2887.29383781589 166 165 170
-29.360442609125 616.942954684378 2889.5867410115 171 170 175
-39.8644900207579 618.190506773611 2891.33089612535 182 182 184
-58.2474726050486 620.359854804349 2888.00984975667 173 173 175
-88.0613536682278 623.866748857552 2877.42065549895 165 165 167
-132.888163794329 629.130441445357 2857.39105790721 141 141 141
-162.071430048747 632.564718943422 2847.60329583505 130 130 130
-181.670762580978 634.877930122174 2844.05193071746 138 138 138
270.850569169929 573.660584902593 2691.39265554147 206 207 202
274.248976518193 573.324593214561 2703.65500009459 205 205 205
276.126590615567 573.159742449036 2714.56772595426 202 202 204
271.769284548812 573.699319812494 2720.23209315241 192 190 193
267.416257138053 574.238017008328 2725.8920038283 192 190 193
263.067718518109 574.775794507798 2731.54759299927 187 185 188
258.723879631561 575.312524227089 2737.19900796895 190 188 191
256.759212704105 575.579728242921 2744.77843374705 178 176 179
254.810726784871 575.844538572603 2752.34214533055 182 180 183
251.287510779745 576.287145406392 2758.60949028704 184 182 185
244.582822472096 577.089583868425 2762.31458835836 167 165 168
235.472842711617 578.164323129596 2764.11686466474 158 156 159
223.940330764607 579.513258260703 2764.03349726097 145 143 146
209.164294882539 581.229611738989 2761.44837984668 146 144 147
191.121603551827 583.316257136965 2756.38439548606 142 140 143
176.246233311886 585.044088297046 2753.89656000321 90 88 91
167.797531535075 586.043482276871 2756.47056065571 103 101 104
169.877098908844 585.848867367618 2767.18714305396 135 133 136
170.366415819911 585.834182459057 2776.62245545893 164 162 165
170.883793486579 585.815740617583 2786.0307962338 147 145 148
168.161536191532 586.164374278473 2792.93357586247 150 148 151
166.270290221509 586.418342020222 2800.44204986 154 152 155
161.112452040064 587.042652678431 2805.4715865784 161 159 162
157.600477836041 587.479904431101 2811.72822189687 159 157 160
154.097196746862 587.915958787368 2817.97673964044 156 154 157
151.428817302318 588.256856787894 2824.82716109432 158 156 159
146.287355225844 588.878336383121 2829.84085452827 162 160 163
142.807274541807 589.310948278152 2836.06650487884 161 159 162
136.838803407135 590.025970070514 2840.47069571942 160 160 162
132.535582456678 590.551665924416 2846.08306943662 158 158 160
129.073275261702 590.981611369047 2852.29180239201 166 166 168
126.457496268259 591.315141136594 2859.09107984198 195 195 197
117.133306506191 592.410840667408 2861.10297192785 187 187 189
105.264648321117 593.795783739706 2861.34808074964 145 145 147
96.7414513992662 594.800470682802 2863.99527388475 136 137 139
92.4326469821395 595.326044857825 2869.61321005097 168 169 171
84.7371862181707 596.236626190706 2872.86926703093 175 176 178
74.4816147849239 597.438259150189 2874.37346865241 170 171 175
64.2036776853732 598.642610166137 2875.89981582559 175 176 180
57.3173752369285 599.461192045716 2879.78287343341 182 183 187
46.1463609495079 600.767309296579 2880.76377129147 184 185 189
33.2339999541382 602.271621589421 2880.61040255427 179 180 184
22.8656805670413 603.486642656407 2882.22458580421 156 157 161
15.9202808621033 604.312219380076 2886.16563186843 170 169 174
5.51450547767196 605.531785464198 2887.81633772587 178 177 182
-9.23975451525383 607.246602161965 2886.62707082697 173 172 177
-19.7003310111583 608.47269349957 2888.3312305686 163 162 167
-30.1835271716091 609.70169537413 2890.05742179541 165 164 169
-40.6892988639287 610.933425315539 2891.80562765201 177 177 179
-60.8197673647712 613.261673015453 2887.36221885191 170 170 172
-96.7628868234769 617.391795358988 2872.84829515059 165 165 167
-145.11555001324 622.936786708803 2850.61003298371 138 138 138
-170.810229800288 625.901281615912 2843.09579959531 127 127 127
-192.189888699411 628.374760989576 2838.45448083146 142 142 142
271.680446921593 566.403577248501 2693.05840438793 216 216 214
275.080095479658 566.097073959468 2705.31482018688 201 201 203
275.395579265449 566.127773071383 2714.91604371656 204 204 206
271.819764387311 566.584558838666 2721.23352449132 193 191 194
266.680729790002 567.212277951312 2726.24388520463 191 189 192
263.117616003203 567.666679502972 2732.54876815197 188 186 189
257.98371064656 568.293103336242 2737.5542268952 192 190 193
255.225268498354 568.658239860187 2744.49049950201 178 176 179
251.685587828694 569.108730755962 2750.77302885285 178 176 179
248.154118113287 569.557904724263 2757.04726140405 182 180 183
242.23900545616 570.268588070171 2761.39910770813 166 164 167
231.524468848916 571.506367761071 2761.93681674331 157 155 158
220.783448362662 572.747014415119 2762.50040092595 143 141 144
202.786700541967 574.785557770645 2757.39790344158 145 143 146
183.923449278101 576.919850683227 2751.72479562511 142 140 143
169.837480517069 578.5290260064 2749.88718156081 93 91 94
163.800345524621 579.252556546992 2754.35829903793 96 94 97
164.247992562951 579.26208326571 2763.83141177458 143 141 144
163.910509952455 579.357543347929 2772.65455962755 137 135 138
164.411858849088 579.360005249988 2782.07538980186 142 140 143
164.941100075897 579.358832942985 2791.4690596145 149 147 150
163.860732648087 579.534458490252 2799.60114533447 155 153 156
160.338183213149 579.978763394981 2805.86723956077 161 159 162
155.178942504123 580.60319189525 2810.89815159278 157 155 158
151.669680729223 581.045425344018 2817.15169497852 156 154 157
148.168795641463 581.486514325031 2823.39708934192 158 156 159
145.504806722554 581.834937559266 2830.24203871268 161 159 162
141.192331008726 582.364925470947 2835.86296818245 160 158 161
136.88438471809 582.8941949548 2841.47950605135 159 159 161
130.078492155454 583.698941301047 2845.28509818166 161 161 163
126.610014321499 584.135220760367 2851.49868466618 174 174 176
122.311978835856 584.662769079162 2857.10563534666 193 193 195
113.818296138789 585.65362213152 2859.72556506326 174 174 176
104.467866339172 586.739142221244 2861.76535625325 145 145 147
97.6304575660061 587.547019676527 2865.60144382798 146 147 149
90.7861173920206 588.355610485042 2869.44464679487 168 169 171
83.0868174791521 589.258744496482 2872.70561681729 174 175 177
72.8274378861546 590.444876983034 2874.21589096083 167 168 172
63.3970866344491 591.539571462793 2876.33335152137 175 176 180
53.948239585234 592.636407687324 2878.4691999753 182 183 187
43.6250888382408 593.830078306095 2880.04168568482 183 184 188
31.5645904163655 595.216237530544 2880.47711495093 179 180 184
21.1925056559257 596.41572324628 2882.09733339038 157 158 162
14.2430746823226 597.236572987771 2886.0427433679 162 161 166
2.97036592395106 598.536168667471 2887.1255892243 169 168 173
-11.7894927209066 600.222265719858 2885.94612662057 166 165 170
-23.1229528106423 601.529179295126 2887.08788002332 154 153 158
-32.7446232063342 602.646829662894 2889.39226829382 156 155 160
-44.1269371494455 603.959800551486 2890.5819768689 178 178 180
-69.5023160150239 606.823835332125 2882.76552090816 170 170 172
-113.337652698723 611.735208259343 2863.22001969914 160 160 162
-158.218847429479 616.764220577435 2843.27911246515 129 129 129
-178.669763702479 619.085867656031 2839.15488860884 121 121 121
-198.30525766204 621.31785095266 2835.65109992666 151 151 151
269.928462860448 559.33959550342 2683.08900649122 184 185 179
275.622101328201 558.820464614968 2697.34994845994 207 207 205
278.251103371555 558.625341942501 2708.93825631604 207 206 211
277.792084286442 558.757204983947 2717.87671134346 201 200 206
272.654128760742 559.385348266323 2722.88593783061 192 191 197
266.731070511601 560.096473076504 2727.2456089768 190 189 194
262.380014469227 560.64019946 2732.902818743 184 183 188
258.823270663827 561.099003677523 2739.20106333454 191 190 195
254.483189970823 561.640697786749 2744.84767478582 182 181 186
250.147619327211 562.181469519628 2750.4899440182 166 166 168
245.021205605833 562.806005412011 2755.4882424937 170 168 171
239.098123687308 563.515069297167 2759.84824174776 171 169 172
229.175007201025 564.650053605385 2761.03216133387 159 157 160
216.825405355644 566.043617207621 2760.33633304973 145 143 146
198.819035970988 568.040532661727 2755.24954250625 145 143 144
178.3359458356 570.302229403611 2748.33230976906 137 135 136
