ply
format ascii 1.0
comment KinectMotionCapture
element vertex 796
property float x
property float y
property float z
property uchar red
property uchar green
property uchar blue
end_header
27.5222100317478 58.8430613279343 2739.00008201599 5 7 2
34.7966067492962 58.4989860653877 2723.00004959106 5 7 2
41.8283939361572 57.9400025308132 2697.00002670288 8 10 5
49.3016913533211 58.0684058368206 2703.00006866455 10 12 7
56.3881434500217 57.7670633792877 2688.99989128113 10 12 7
63.9193207025528 57.9382665455341 2697.00002670288 9 11 6
71.2031796574593 57.8730814158916 2694.00000572205 10 12 7
78.4120410680771 57.7648542821407 2688.99989128113 14 16 11
85.3700563311577 57.5061850249767 2677.00004577637 14 16 11
92.9545909166336 57.6770603656769 2684.99994277954 14 16 11
98.9390313625336 56.9026917219162 2648.9999294281 14 16 11
108.814619481564 58.3192892372608 2714.99991416931 13 15 10
116.524323821068 58.4684237837791 2721.99988365173 13 16 9
123.36103618145 58.1878945231438 2709.00011062622 12 15 8
128.678262233734 57.2629198431969 2665.99988937378 12 15 6
136.004120111465 57.2829768061638 2667.00005531311 12 15 6
143.334820866585 57.3029443621635 2667.99998283386 13 16 7
151.291400194168 57.5590878725052 2680.0000667572 14 17 8
158.602684736252 57.5574301183224 2680.0000667572 14 17 8
165.789499878883 57.5127340853214 2677.99997329712 16 19 10
173.740386962891 57.7256754040718 2687.99996376038 18 21 12
182.553455233574 58.1962205469608 2710.00003814697 18 21 12
190.364390611649 58.3230815827847 2716.00008010864 19 22 13
196.750938892365 58.020394295454 2701.99990272522 22 25 16
204.571187496185 58.1471025943756 2707.99994468689 24 27 20
-154.375657439232 52.1752685308456 2782.99999237061 31 32 26
-145.622104406357 51.7642199993134 2760.99991798401 21 22 16
-137.888267636299 51.6905635595322 2756.99996948242 23 24 18
-127.575039863586 50.5856201052666 2697.99995422363 23 24 16
-118.474416434765 49.8555526137352 2658.99991989136 21 24 13
-111.844830214977 50.1378923654556 2674.00002479553 20 23 12
-105.562977492809 50.6264343857765 2700.00004768372 18 21 10
-98.1568098068237 50.6086461246014 2698.99988174438 17 20 9
-91.0248160362244 50.7408119738102 2706.00008964539 16 19 8
-82.9887986183167 50.3478571772575 2684.99994277954 15 18 9
-75.6024867296219 50.3111109137535 2683.00008773804 15 18 9
-67.9468289017677 50.0680170953274 2670.00007629395 15 18 9
-60.8616769313812 50.2374023199081 2678.99990081787 14 17 8
-53.5272508859634 50.2191968262196 2677.99997329712 12 15 6
-46.2498441338539 50.2571798861027 2680.0000667572 12 15 6
-38.6707745492458 49.9200373888016 2661.99994087219 14 15 9
-31.8504422903061 50.6329834461212 2700.00004768372 14 15 9
-24.3963599205017 50.4644773900509 2690.99998474121 13 14 8
-17.2003917396069 50.9147457778454 2714.99991416931 11 12 6
-9.68583952635527 50.3897927701473 2687.00003623962 11 12 6
-2.4255532771349 52.0401336252689 2775.00009536743 11 13 8
5.1296791061759 51.815077662468 2763.00001144409 9 11 6
12.4542145058513 50.9148389101028 2714.99991416931 10 12 7
20.0068540871143 51.2709952890873 2733.99996757507 9 11 6
27.5626834481955 51.4395460486412 2743.00003051758 6 8 3
34.7841829061508 51.0454289615154 2721.99988365173 6 8 3
42.511235922575 51.4013692736626 2740.9999370575 7 9 4
48.9373989403248 50.3132790327072 2683.00008773804 10 12 7
56.3048422336578 50.3502786159515 2684.99994277954 10 12 7
63.3037611842155 50.0871688127518 2671.0000038147 9 11 6
70.8338841795921 50.255298614502 2680.0000667572 9 11 6
78.3836916089058 50.4046007990837 2687.99996376038 13 15 10
85.6579467654228 50.3663271665573 2686.00010871887 13 15 10
92.2977551817894 49.9904453754425 2665.99988937378 14 16 11
99.836453795433 50.1207932829857 2673.00009727478 14 16 11
107.25262761116 50.1760616898537 2676.00011825562 11 13 8
115.49811065197 50.5875125527382 2697.99995422363 11 14 7
122.087217867374 50.2676330506802 2680.99999427795 11 14 7
129.934504628181 50.4726879298687 2691.99991226196 11 14 5
136.209458112717 50.0777065753937 2671.0000038147 11 14 5
144.303321838379 50.3576174378395 2686.00010871887 13 16 7
151.518732309341 50.3187216818333 2684.00001525879 14 17 8
157.834932208061 49.9985665082932 2667.00005531311 16 19 10
165.295898914337 50.0532947480679 2670.00007629395 17 20 11
173.418954014778 50.2954199910164 2683.00008773804 19 22 13
181.88165128231 50.6124347448349 2700.00004768372 19 22 13
190.296187996864 50.8918799459934 2714.99991416931 19 22 13
196.825712919235 50.6651513278484 2703.00006866455 22 25 16
-145.834371447563 44.2913472652435 2765.00010490417 7 10 3
-137.289315462112 43.9721122384071 2744.99988555908 25 28 21
-130.365997552872 44.1654175519943 2756.99996948242 22 25 16
-121.282510459423 43.6057522892952 2721.99988365173 21 24 13
-112.431399524212 43.0620200932026 2687.99996376038 20 23 12
-104.977436363697 43.0148430168629 2684.99994277954 19 22 11
-98.1213077902794 43.2239323854446 2697.99995422363 18 21 10
-90.2855768799782 43.000403791666 2684.00001525879 18 21 10
-83.0204486846924 43.0331602692604 2686.00010871887 16 19 10
-75.1804634928703 42.7454151213169 2667.99998283386 16 19 10
-68.1255683302879 42.890191078186 2677.00004577637 13 16 7
-60.9076507389545 42.9548099637032 2680.99999427795 13 16 7
-53.78757417202 43.1155003607273 2690.99998474121 15 18 9
-46.4400798082352 43.1159064173698 2690.99998474121 15 18 9
-39.3974743783474 43.4527285397053 2711.99989318848 14 15 9
-32.0984534919262 43.5972213745117 2720.99995613098 13 14 8
-24.6232282370329 43.5173436999321 2716.00008010864 12 13 7
-9.86255798488855 43.8380800187588 2736.00006103516 11 12 6
-2.36001866869628 43.2613119482994 2700.00004768372 5 7 2
5.17056882381439 44.6232296526432 2785.00008583069 16 18 13
12.7203855663538 44.4308817386627 2773.00000190735 9 11 6
19.5825956761837 42.8765565156937 2676.00011825562 20 22 17
27.0605087280273 43.1487485766411 2693.00007820129 0 2 0
35.1550839841366 44.0777987241745 2750.99992752075 9 11 6
42.1704016625881 43.5647629201412 2719.00010108948 6 8 3
49.6856719255447 43.6444953083992 2723.99997711182 12 14 9
55.6971989572048 42.5545610487461 2655.99989891052 10 12 7
62.5933110713959 42.3137545585632 2641.00003242493 9 11 6
70.5966353416443 42.7938625216484 2671.0000038147 12 14 9
77.9469758272171 42.8253002464771 2673.00009727478 13 15 10
85.212230682373 42.8086146712303 2671.99993133545 13 15 10
92.2985672950745 42.7117608487606 2665.99988937378 12 14 9
100.061431527138 42.919248342514 2678.99990081787 11 13 8
106.532134115696 42.5819829106331 2657.99999237061 11 13 8
114.172041416168 42.7252724766731 2667.00005531311 12 15 8
123.454436659813 43.4291809797287 2710.99996566772 14 17 10
130.997538566589 43.4762127697468 2713.99998664856 14 17 8
138.097509741783 43.3790124952793 2707.99994468689 14 17 8
145.379066467285 43.3458313345909 2706.00008964539 17 20 11
151.802316308022 43.0723279714584 2688.99989128113 18 21 12
157.540395855904 42.63861104846 2661.99994087219 17 20 11
164.182960987091 42.4771457910538 2651.99995040894 17 20 11
170.899599790573 42.347677052021 2644.00005340576 16 19 10
181.34431540966 43.1150533258915 2691.99991226196 17 20 11
189.456731081009 43.2897508144379 2703.00006866455 19 22 13
197.191491723061 43.3682948350906 2707.99994468689 23 26 17
206.08589053154 43.6869896948338 2727.9999256134 25 28 21
-142.565339803696 35.9193906188011 2703.00006866455 10 13 6
-138.940826058388 36.9170010089874 2778.00011634827 21 24 17
-127.718955278397 35.8946211636066 2700.99997520447 22 25 16
-120.21404504776 35.8555838465691 2697.99995422363 21 24 13
-111.846648156643 35.5374068021774 2674.00002479553 20 23 12
-105.251900851727 35.777360200882 2691.99991226196 19 22 11
-98.1584191322327 35.8710773289204 2698.99988174438 18 21 10
-90.5890017747879 35.7919745147228 2693.00007820129 18 21 10
-82.77378231287 35.5931930243969 2677.99997329712 17 20 11
-75.6600722670555 35.686768591404 2684.99994277954 16 19 10
-67.7443444728851 35.3815518319607 2661.99994087219 13 16 7
-61.3170377910137 35.8737707138062 2698.99988174438 13 16 7
-53.5081438720226 35.5817452073097 2677.00004577637 14 17 8
-47.0444485545158 36.2333841621876 2726.0000705719 15 18 9
-39.5430363714695 36.1805073916912 2721.99988365173 14 15 9
-32.0397131145 36.1010022461414 2716.00008010864 13 14 8
-24.5871469378471 36.0480286180973 2711.99989318848 12 13 7
-17.2640290111303 36.2209677696228 2724.99990463257 11 12 6
-9.92751773446798 36.606527864933 2753.99994850159 11 12 6
-2.36965110525489 36.0350087285042 2710.99996566772 11 13 8
5.0907745026052 36.4470556378365 2742.00010299683 2 4 0
12.8351636230946 37.1913574635983 2798.00009727478 0 1 0
20.2047638595104 36.6994328796864 2760.99991798401 0 1 0
27.2516328841448 36.0479615628719 2711.99989318848 2 4 0
34.6441864967346 36.0344611108303 2710.99996566772 7 9 4
42.3723459243774 36.3133288919926 2732.00011253357 14 16 11
49.2847561836243 35.9142608940601 2701.99990272522 11 13 8
56.6203184425831 35.887323319912 2700.00004768372 5 7 2
63.0914866924286 35.3818349540234 2661.99994087219 14 16 11
70.6764534115791 35.5408787727356 2674.00002479553 14 16 11
78.559935092926 35.8061976730824 2694.00000572205 13 15 10
85.7231169939041 35.725899040699 2687.99996376038 12 14 9
93.1301638484001 35.7518754899502 2690.00005722046 12 14 9
98.8669618964195 35.1797342300415 2647.0000743866 12 14 9
107.895657420158 35.7771031558514 2691.99991226196 12 14 9
114.857845008373 35.6567464768887 2683.00008773804 12 15 8
122.954435646534 35.881869494915 2700.00004768372 14 17 10
130.467563867569 35.9208919107914 2703.00006866455 14 17 8
137.843549251556 35.9199903905392 2703.00006866455 14 17 8
144.789159297943 35.8127355575562 2694.9999332428 16 19 10
151.351809501648 35.6257110834122 2680.99999427795 17 20 11
157.068103551865 35.2659076452255 2654.00004386902 17 20 11
163.503155112267 35.0921005010605 2641.00003242493 17 20 11
171.159401535988 35.1840034127235 2648.00000190735 16 19 10
180.874079465866 35.6744490563869 2684.99994277954 17 20 11
188.33664059639 35.6998033821583 2687.00003623962 19 22 13
195.955008268356 35.7516817748547 2690.99998474121 23 26 17
201.554656028748 35.4448109865189 2667.99998283386 26 29 22
-146.363750100136 29.3006785213947 2775.00009536743 7 10 3
-135.340571403503 28.5728592425585 2706.00008964539 24 27 20
-127.246871590614 28.4151695668697 2690.99998474121 16 19 12
-118.744388222694 28.1412769109011 2664.99996185303 21 24 13
-111.638180911541 28.1841326504946 2668.99991035461 20 23 12
-104.861557483673 28.3219907432795 2681.99992179871 19 22 11
-98.2681065797806 28.533736243844 2701.99990272522 18 21 10
-90.555913746357 28.428640216589 2691.99991226196 18 21 10
-83.1451937556267 28.4079872071743 2690.00005722046 17 20 11
-75.2660185098648 28.2077584415674 2671.0000038147 16 19 10
-68.4573277831078 28.4088011831045 2690.00005722046 14 17 8
-61.2946934998035 28.4936390817165 2697.99995422363 14 17 8
-53.5284578800201 28.2827280461788 2677.99997329712 14 17 8
-46.1473278701305 28.2407514750957 2674.00002479553 14 17 8
-31.898345798254 28.5580139607191 2703.9999961853 12 13 7
-24.5601013302803 28.6109745502472 2709.00011062622 12 13 7
-17.2894783318043 28.8223158568144 2729.00009155273 11 12 6
-9.7545487806201 28.5794753581285 2706.00008964539 11 12 6
-2.38802190870047 28.8541074842215 2732.00011253357 19 21 16
5.10008912533522 29.0125217288733 2746.99997901917 4 6 1
12.7434954047203 29.3398816138506 2778.00011634827 6 8 3
20.6586010754108 29.8150554299355 2822.99995422363 0 1 0
35.334475338459 29.2021930217743 2765.00010490417 3 5 0
42.4966774880886 28.9379488676786 2740.00000953674 9 11 6
49.5039448142052 28.6631062626839 2713.99998664856 10 12 7
56.5577521920204 28.4832827746868 2697.00002670288 14 16 11
63.70809674263 28.3879060298204 2687.99996376038 9 11 6
71.1262077093124 28.4192264080048 2690.99998474121 5 7 2
79.4935673475266 28.7884473800659 2726.0000705719 11 13 8
86.8398323655128 28.7563223391771 2723.00004959106 11 13 8
92.8883776068687 28.3334217965603 2683.00008773804 12 14 9
99.5025187730789 28.1322598457336 2664.00003433228 12 14 9
107.455417513847 28.3112265169621 2680.99999427795 14 16 11
115.500666201115 28.4901466220617 2697.99995422363 15 18 11
122.226551175117 28.3416789025068 2684.00001525879 16 19 12
129.30990755558 28.2882116734982 2678.99990081787 14 17 8
136.926427483559 28.3508561551571 2684.99994277954 14 17 8
144.306495785713 28.3606704324484 2686.00010871887 14 17 8
151.070445775986 28.2543022185564 2676.00011825562 15 18 9
157.601684331894 28.1162280589342 2663.00010681152 17 20 11
165.051877498627 28.1470455229282 2665.99988937378 17 20 11
171.354323625565 27.9877968132496 2651.00002288818 17 20 11
180.134132504463 28.2296892255545 2674.00002479553 18 21 12
187.636852264404 28.2603986561298 2677.00004577637 20 23 14
194.645434617996 28.2171722501516 2673.00009727478 22 25 16
-136.44152879715 21.3576499372721 2727.9999256134 22 24 19
-126.774609088898 20.9901984781027 2680.99999427795 24 27 20
-119.101397693157 20.9280513226986 2673.00009727478 21 24 13
-111.973322927952 20.9598280489445 2677.00004577637 20 23 12
-105.213925242424 21.0698712617159 2690.99998474121 19 22 11
-98.1958359479904 21.1407486349344 2700.00004768372 18 21 10
-91.0945609211922 21.2037619203329 2707.99994468689 18 21 10
-83.701953291893 21.2041102349758 2707.99994468689 17 20 11
-76.2244611978531 21.1809370666742 2704.99992370605 16 19 10
-68.6866864562035 21.1342442780733 2698.99988174438 15 18 9
-61.8175081908703 21.306773647666 2720.99995613098 14 17 8
-53.3887892961502 20.9154784679413 2671.0000038147 13 16 7
-46.2338402867317 20.9783222526312 2678.99990081787 13 16 7
-39.2674468457699 21.1664326488972 2703.00006866455 12 13 7
-32.1816131472588 21.362341940403 2727.9999256134 12 13 7
-24.6055442839861 21.2528258562088 2713.99998664856 13 14 8
-17.0107949525118 21.0258141160011 2684.99994277954 12 13 7
-9.99251194298267 21.7071548104286 2772.0000743866 11 12 6
-2.37666955217719 21.2921425700188 2719.00010108948 1 3 0
5.07783330976963 21.4174296706915 2734.99989509583 15 17 12
12.6930940896273 21.6679815202951 2766.99995994568 8 10 5
35.6924533843994 21.871292963624 2792.99998283386 0 1 0
42.7450388669968 21.5813983231783 2756.00004196167 16 18 13
49.3582524359226 21.1896803230047 2706.00008964539 7 9 4
56.3063658773899 21.025026217103 2684.99994277954 7 9 4
64.3720328807831 21.2675333023071 2716.00008010864 13 15 10
72.183795273304 21.3847160339355 2730.99994659424 11 13 8
79.814724624157 21.4313939213753 2736.99998855591 11 13 8
87.0315879583359 21.3684197515249 2729.00009155273 11 13 8
93.9966812729836 21.2584380060434 2714.99991416931 12 14 9
102.042846381664 21.3911570608616 2732.00011253357 13 15 10
107.616238296032 21.0227407515049 2684.99994277954 15 17 12
115.11591821909 21.0536178201437 2688.99989128113 15 18 11
122.04497307539 20.9826845675707 2680.0000667572 17 20 13
129.262238740921 20.9665279835463 2677.99997329712 15 18 9
136.111110448837 20.8955444395542 2668.99991035461 15 18 9
143.447563052177 20.9028217941523 2670.00007629395 15 18 9
150.958240032196 20.9335591644049 2674.00002479553 15 18 9
158.904403448105 21.01906016469 2684.99994277954 17 20 11
165.795564651489 20.9636278450489 2677.99997329712 17 20 11
171.7429459095 20.7985825836658 2657.00006484985 18 21 12
179.730772972107 20.8839997649193 2667.99998283386 19 22 13
186.866655945778 20.867632701993 2665.99988937378 22 25 16
194.136559963226 20.8668913692236 2665.99988937378 22 25 16
203.294336795807 21.061796694994 2690.99998474121 28 31 24
213.605150580406 21.3584005832672 2729.00009155273 16 19 12
-137.392267584801 14.0069322660565 2746.99997901917 18 20 15
-127.815321087837 13.7829156592488 2703.00006866455 31 34 27
-119.814701378345 13.7118464335799 2688.99989128113 21 24 13
-113.019376993179 13.7784359976649 2701.99990272522 20 23 12
-105.057872831821 13.7022277340293 2687.00003623962 19 22 11
-98.3780026435852 13.794282451272 2704.99992370605 18 21 10
-90.8930152654648 13.7792285531759 2701.99990272522 18 21 10
-83.9495062828064 13.8508519157767 2716.00008010864 17 20 11
-76.4219611883163 13.8306589797139 2711.99989318848 16 19 10
-69.5012807846069 13.9277465641499 2730.99994659424 15 18 9
-61.7495626211166 13.8616189360619 2717.99993515015 14 17 8
-53.8087226450443 13.7291708961129 2691.99991226196 12 15 6
-46.717207878828 13.8058010488749 2707.00001716614 12 15 6
-39.5145453512669 13.8722155243158 2720.00002861023 12 13 7
-32.1109443902969 13.8825075700879 2721.99988365173 14 15 9
-24.3245754390955 13.6836785823107 2683.00008773804 15 16 10
-17.2262601554394 13.8673381879926 2719.00010108948 14 15 9
-9.89160966128111 13.9948772266507 2743.99995803833 13 14 8
-2.41251545958221 14.0764964744449 2759.99999046326 5 7 2
4.96830977499485 13.648078776896 2676.00011825562 16 18 13
12.491294182837 13.887763954699 2723.00004959106 7 9 4
42.5590574741364 13.9945782721043 2743.99995803833 11 13 8
48.9936098456383 13.6986570432782 2686.00010871887 14 16 11
56.5582066774368 13.7546192854643 2697.00002670288 20 22 17
64.8699626326561 13.9584578573704 2736.99998855591 5 7 2
72.3690465092659 13.9633789658546 2737.99991607666 16 18 13
79.5233622193336 13.9070842415094 2726.99999809265 12 14 9
86.298368871212 13.7997753918171 2706.00008964539 12 14 9
92.9929837584496 13.6975506320596 2686.00010871887 12 14 9
99.3539169430733 13.5647123679519 2660.00008583069 13 15 10
108.6186170578 13.8194169849157 2710.00003814697 14 16 11
114.516958594322 13.6406505480409 2674.99995231628 15 18 11
121.589966118336 13.6148501187563 2670.00007629395 17 20 11
129.310920834541 13.6604178696871 2678.99990081787 16 19 10
136.111542582512 13.609086163342 2668.99991035461 15 18 9
142.749592661858 13.5475425049663 2657.00006484985 15 18 9
150.789365172386 13.6185493320227 2671.0000038147 16 19 10
159.733459353447 13.7609103694558 2698.99988174438 17 20 11
168.086782097816 13.8420686125755 2714.99991416931 17 20 11
174.199730157852 13.7396669015288 2694.9999332428 18 21 12
180.472359061241 13.6576471850276 2678.99990081787 19 22 13
185.815885663033 13.5144405066967 2651.00002288818 22 25 16
193.627461791039 13.5547425597906 2658.99991989136 22 25 16
204.80589568615 13.8193164020777 2710.99996566772 20 23 16
217.284649610519 14.1501147300005 2776.00002288818 23 26 19
-135.792016983032 6.43160240724683 2714.99991416931 19 21 16
-128.00469994545 6.41280878335238 2707.00001716614 26 29 22
-120.572417974472 6.41058897599578 2706.00008964539 21 24 13
-112.768642604351 6.38703815639019 2696.00009918213 20 23 12
-105.175368487835 6.37295423075557 2690.00005722046 19 22 11
-98.3054488897324 6.40387553721666 2703.00006866455 18 21 10
-90.9604653716087 6.40635844320059 2703.9999961853 18 21 10
-83.2387432456017 6.38040201738477 2693.00007820129 17 20 11
-75.999416410923 6.38997508212924 2697.00002670288 16 19 10
-69.3741664290428 6.45877374336123 2726.0000705719 15 18 9
-61.8859902024269 6.45411387085915 2723.99997711182 14 17 8
-46.8553602695465 6.4329206943512 2714.99991416931 12 15 6
-39.9649702012539 6.51827268302441 2750.99992752075 12 13 7
-31.9458469748497 6.41643069684505 2707.99994468689 14 15 9
-24.5784744620323 6.42357300966978 2710.99996566772 15 16 10
-17.0932468026876 6.39279512688518 2697.99995422363 15 16 10
-9.89523250609636 6.50417618453503 2744.99988555908 14 15 9
-2.4064015597105 6.52313977479935 2753.00002098084 20 22 17
5.12798875570297 6.54446380212903 2762.00008392334 1 3 0
12.4959042295814 6.45441329106689 2723.99997711182 3 5 0
42.2334335744381 6.45191082730889 2723.00004959106 78 80 75
50.2887666225433 6.53241435065866 2756.99996948242 0 1 0
57.6487928628922 6.51339394971728 2749.00007247925 16 18 13
65.3204098343849 6.52990490198135 2756.00004196167 7 9 4
72.1048787236214 6.46348064765334 2727.9999256134 14 16 11
79.3193876743317 6.44443510100245 2720.00002861023 13 15 10
86.0434025526047 6.39221165329218 2697.99995422363 13 15 10
93.0277779698372 6.36604288592935 2687.00003623962 13 15 10
101.03490203619 6.40857079997659 2704.99992370605 13 15 10
108.698979020119 6.4250286668539 2711.99989318848 14 16 11
115.544617176056 6.39409618452191 2698.99988174438 15 18 11
122.364364564419 6.36552507057786 2687.00003623962 15 18 9
128.587141633034 6.31088810041547 2664.00003433228 14 17 8
136.060804128647 6.3202059827745 2667.99998283386 13 16 7
143.072217702866 6.30819564685225 2663.00010681152 14 17 8
150.225102901459 6.30328338593245 2661.00001335144 15 18 9
158.786863088608 6.35521160438657 2683.00008773804 17 20 11
168.149024248123 6.43318379297853 2716.00008010864 17 20 11
174.846455454826 6.4069265499711 2704.99992370605 19 22 13
179.731667041779 6.31908141076565 2667.99998283386 20 23 14
188.339591026306 6.3638654537499 2687.00003623962 21 24 15
194.428831338882 6.32337853312492 2670.00007629395 22 25 16
205.108448863029 6.42971601337194 2714.99991416931 23 26 19
-146.365255117416 -1.0022307978943 2775.00009536743 11 13 8
-136.842429637909 -0.988170970231295 2736.00006103516 29 31 26
-127.957478165627 -0.977359828539193 2706.00008964539 29 32 25
-120.483361184597 -0.976660056039691 2703.9999961853 21 24 13
-112.726859748363 -0.97343057859689 2694.9999332428 20 23 12
-105.01904040575 -0.97019987879321 2686.00010871887 18 21 10
-98.6691862344742 -0.979971140623093 2713.00005912781 17 20 9
-90.9605175256729 -0.976737588644028 2703.9999961853 17 20 9
-82.4969559907913 -0.964110600762069 2668.99991035461 17 20 11
-75.0131905078888 -0.961596611887217 2661.99994087219 15 18 9
-68.8397735357285 -0.977142830379307 2704.99992370605 14 17 8
-62.1586479246616 -0.988353276625276 2736.00006103516 13 16 7
-54.6683520078659 -0.988002866506577 2734.99989509583 13 16 7
-47.4249050021172 -0.992708490230143 2747.99990653992 13 16 7
-39.9504601955414 -0.993439112789929 2750 12 12 4
-32.1700051426888 -0.985136837698519 2726.99999809265 14 13 8
-24.2883693426847 -0.967801955994219 2678.99990081787 15 16 10
-17.0995891094208 -0.975030881818384 2698.99988174438 14 15 9
-9.79430414736271 -0.981536111794412 2717.00000762939 14 15 9
-2.3845499381423 -0.985510996542871 2727.9999256134 9 11 6
5.07786218076944 -0.988039537332952 2734.99989509583 10 12 7
12.5784836709499 -0.990566681139171 2742.00010299683 13 15 12
42.6987558603287 -0.994520145468414 2753.00002098084 175 177 172
50.5441576242447 -1.00101379211992 2770.99990844727 16 19 12
58.1521242856979 -1.00172637030482 2773.00000190735 10 13 6
64.9649277329445 -0.990155269391835 2740.9999370575 14 17 10
71.9198882579803 -0.982917961664498 2720.99995613098 7 10 3
79.2027860879898 -0.981098040938377 2716.00008010864 11 14 7
94.7935208678246 -0.989012769423425 2737.99991607666 14 17 10
101.147003471851 -0.978158437646925 2707.99994468689 14 17 10
107.21605271101 -0.966219522524625 2674.99995231628 13 16 9
116.14403128624 -0.979924690909684 2713.00005912781 13 16 9
123.639523983002 -0.980625045485795 2714.99991416931 12 15 6
129.456028342247 -0.968682928942144 2681.99992179871 14 17 8
135.601907968521 -0.96035172464326 2658.99991989136 15 18 9
143.125995993614 -0.962132355198264 2664.00003433228 16 19 10
150.959089398384 -0.965717190410942 2674.00002479553 15 18 9
158.135920763016 -0.964966835454106 2671.99993133545 16 19 10
165.672674775124 -0.966382212936878 2676.00011825562 17 20 11
174.264803528786 -0.973574002273381 2696.00009918213 20 23 14
178.721308708191 -0.958014454226941 2653.00011634827 21 24 15
186.236888170242 -0.959426048211753 2657.00006484985 21 24 15
196.467876434326 -0.974196242168546 2697.99995422363 21 24 15
205.939576029778 -0.984270474873483 2726.0000705719 28 29 23
-144.677311182022 -8.47910717129707 2743.00003051758 11 13 8
-135.291814804077 -8.36185831576586 2704.99992370605 20 22 17
-127.768218517303 -8.35278909653425 2701.99990272522 24 27 20
-120.750606060028 -8.37771594524384 2710.00003814697 21 24 13
-113.145045936108 -8.36244039237499 2704.99992370605 20 23 12
-106.582880020142 -8.42753518372774 2726.0000705719 18 21 10
-99.8329073190689 -8.48643574863672 2744.99988555908 17 20 9
-90.8258855342865 -8.34746286273003 2700.00004768372 17 20 9
-83.1769034266472 -8.31977464258671 2690.99998474121 16 19 10
-75.5203515291214 -8.28589033335447 2680.0000667572 16 19 10
-68.8906162977219 -8.36948212236166 2707.00001716614 14 17 8
-62.1358714997768 -8.45615658909082 2734.99989509583 13 16 7
-55.1480315625668 -8.53045471012592 2759.0000629425 13 16 7
-47.3040528595448 -8.47487989813089 2740.9999370575 13 16 7
-39.587240666151 -8.42547882348299 2724.99990463257 14 14 6
-31.9340415298939 -8.3698807284236 2707.00001716614 15 16 10
-24.3880748748779 -8.31736251711845 2690.00005722046 16 17 11
-17.0615632086992 -8.32667108625174 2693.00007820129 15 16 10
-9.68615058809519 -8.30814056098461 2687.00003623962 13 14 8
-2.3758071474731 -8.40400066226721 2717.99993515015 10 12 7
5.08157117292285 -8.4627466276288 2736.99998855591 10 12 7
50.5441166460514 -8.56760889291763 2770.99990844727 0 2 0
57.6907135546207 -8.50568618625402 2750.99992752075 9 12 5
64.4197389483452 -8.40355921536684 2717.99993515015 9 12 5
71.6026574373245 -8.37562698870897 2709.00011062622 6 9 2
79.6401277184486 -8.44352506101131 2730.99994659424 9 12 5
87.4465927481651 -8.4774037823081 2742.00010299683 9 12 5
94.5164710283279 -8.44016019254923 2730.00001907349 10 13 6
100.698694586754 -8.33489187061787 2696.00009918213 12 15 8
107.81717300415 -8.31617973744869 2690.00005722046 14 17 10
115.544565021992 -8.34382697939873 2698.99988174438 15 18 11
123.730503022671 -8.3992863073945 2717.00000762939 14 17 8
129.455924034119 -8.29089153558016 2681.99992179871 14 17 8
135.448783636093 -8.2103107124567 2655.99989891052 13 16 7
142.105087637901 -8.17609298974276 2644.99998092651 14 17 8
150.902509689331 -8.26241727918386 2673.00009727478 15 18 9
158.076599240303 -8.25599487870932 2671.0000038147 17 20 11
164.310500025749 -8.20320006459951 2654.00004386902 17 20 11
172.842621803284 -8.2647567614913 2674.00002479553 20 23 14
181.213647127151 -8.31393431872129 2690.00005722046 21 24 15
188.129231333733 -8.29510763287544 2684.00001525879 22 25 16
197.414368391037 -8.37825518101454 2710.99996566772 22 25 16
207.072585821152 -8.47065821290016 2740.9999370575 23 26 19
-140.457466244698 -15.5018121004105 2663.00010681152 35 36 30
-133.340910077095 -15.5196748673916 2665.99988937378 19 20 14
-128.335371613503 -15.7994870096445 2713.99998664856 28 29 23
-121.195904910564 -15.8347859978676 2720.00002861023 21 24 13
-114.106826484203 -15.8817023038864 2727.9999256134 20 23 12
-106.778137385845 -15.899496152997 2730.99994659424 18 21 10
-98.8143607974052 -15.8182941377163 2717.00000762939 17 20 9
-91.2629812955856 -15.795286744833 2713.00005912781 17 20 9
-84.3203514814377 -15.8828776329756 2727.9999256134 16 19 10
-76.4782652258873 -15.8016048371792 2713.99998664856 15 18 9
-68.6105191707611 -15.6970210373402 2696.00009918213 14 17 8
-61.6359226405621 -15.7961938530207 2713.00005912781 13 16 7
-55.0079829990864 -16.0234421491623 2752.00009346008 13 16 7
-46.7862077057362 -15.7848689705133 2710.99996566772 13 16 7
-39.2094328999519 -15.7151259481907 2698.99988174438 16 16 8
-31.757015734911 -15.6744755804539 2691.99991226196 16 17 11
-24.5058815926313 -15.738608315587 2703.00006866455 14 15 9
-17.0171763747931 -15.6396869570017 2686.00010871887 13 14 8
-9.71136149019003 -15.6863052397966 2694.00000572205 11 12 6
-2.40115076303482 -15.9949269145727 2746.99997901917 5 7 2
5.18924370408058 -16.2744130939245 2795.00007629395 13 15 10
49.4860634207726 -15.7964657992125 2713.00005912781 4 7 0
57.271171361208 -15.9011110663414 2730.99994659424 13 16 9
64.3010884523392 -15.7961249351501 2713.00005912781 10 13 6
72.6333111524582 -15.9997045993805 2747.99990653992 10 13 6
79.406663775444 -15.8539228141308 2723.00004959106 10 13 6
87.4145030975342 -15.9584749490023 2740.9999370575 10 13 6
94.2392796278 -15.847584232688 2721.99988365173 9 12 5
100.735813379288 -15.7017465680838 2697.00002670288 10 13 6
107.696682214737 -15.6432222574949 2687.00003623962 13 16 9
114.944979548454 -15.6312491744757 2684.99994277954 14 17 10
122.682817280293 -15.6832933425903 2694.00000572205 15 18 9
130.420997738838 -15.7294925302267 2701.99990272522 14 17 8
136.417433619499 -15.5719257891178 2674.99995231628 14 17 8
142.964392900467 -15.4900187626481 2661.00001335144 15 18 9
150.902166962624 -15.5594432726502 2673.00009727478 16 19 10
158.549696207047 -15.5939143151045 2678.99990081787 17 20 11
164.867341518402 -15.5003136023879 2663.00010681152 18 21 12
173.165410757065 -15.5929494649172 2678.99990081787 20 23 14
181.347995996475 -15.6680997461081 2691.99991226196 21 24 15
188.829734921455 -15.6792048364878 2694.00000572205 22 25 16
198.724716901779 -15.8823449164629 2729.00009155273 22 25 16
210.396185517311 -16.2076614797115 2785.00008583069 32 35 28
-142.988651990891 -23.1822021305561 2710.99996566772 11 12 6
-136.741474270821 -23.3794841915369 2733.99996757507 31 32 26
-128.524050116539 -23.2432316988707 2717.99993515015 25 26 18
-121.596470475197 -23.3378410339355 2729.00009155273 21 24 13
-114.608362317085 -23.4324242919683 2740.00000953674 20 23 12
-106.504060328007 -23.2960693538189 2723.99997711182 18 21 10
-98.6321493983269 -23.1938846409321 2711.99989318848 17 20 9
-91.7335972189903 -23.3225896954536 2726.99999809265 17 20 9
-83.7636813521385 -23.1775753200054 2710.00003814697 17 20 11
-76.787956058979 -23.3062114566565 2724.99990463257 16 19 10
-68.7375068664551 -23.1012627482414 2700.99997520447 15 18 9
-61.4312291145325 -23.1272075325251 2703.9999961853 15 18 9
-54.5080751180649 -23.3241803944111 2726.99999809265 15 18 9
-47.2865104675293 -23.435590788722 2740.00000953674 16 19 10
-39.3400378525257 -23.1620818376541 2707.99994468689 18 19 13
-32.0164263248444 -23.2135560363531 2713.99998664856 15 16 10
-24.4423281401396 -23.0597201734781 2696.00009918213 10 11 5
-17.2388553619385 -23.2736449688673 2720.99995613098 9 10 4
-9.82667971402407 -23.3164709061384 2726.0000705719 10 11 5
-2.41425330750644 -23.6244183033705 2762.00008392334 3 5 0
5.12052979320288 -23.5901977866888 2757.99989700317 19 21 16
49.8506873846054 -23.3756452798843 2733.00004005432 0 3 0
56.9773688912392 -23.2385620474815 2717.00000762939 13 16 9
65.4148012399673 -23.6060712486506 2759.99999046326 7 10 3
72.2101479768753 -23.3662929385901 2732.00011253357 12 15 8
79.4063732028008 -23.2889857143164 2723.00004959106 12 15 8
87.4779596924782 -23.4596766531467 2743.00003051758 11 14 7
95.0352177023888 -23.4763845801353 2744.99988555908 11 14 7
102.080084383488 -23.3733281493187 2733.00004005432 10 13 6
108.257405459881 -23.0992026627064 2700.99997520447 10 13 6
115.715131163597 -23.115823045373 2703.00006866455 10 13 6
122.91007488966 -23.0810977518559 2698.99988174438 14 17 8
131.820321083069 -23.3541987836361 2730.99994659424 14 17 8
139.068782329559 -23.3194120228291 2726.99999809265 15 18 9
145.112901926041 -23.0964682996273 2700.99997520447 16 19 10
151.29679441452 -22.9162611067295 2680.0000667572 17 20 11
158.371612429619 -22.8813942521811 2676.00011825562 18 21 12
165.300115942955 -22.8293985128403 2670.00007629395 19 22 13
173.746526241302 -22.9825787246227 2687.99996376038 19 22 13
180.471584200859 -22.9048728942871 2678.99990081787 21 24 15
188.758969306946 -23.023784160614 2693.00007820129 22 25 16
198.432713747025 -23.2965424656868 2724.99990463257 24 27 18
208.129063248634 -23.5521569848061 2755.00011444092 24 29 23
-145.097672939301 -31.0343261808157 2750.99992752075 16 17 11
-136.090591549873 -30.6966863572598 2720.99995613098 22 23 17
-128.286987543106 -30.6071862578392 2713.00005912781 33 34 26
-121.640421450138 -30.7996869087219 2730.00001907349 21 24 13
-114.607788622379 -30.9131853282452 2740.00000953674 20 23 12
-106.58173263073 -30.755864456296 2726.0000705719 18 21 10
-99.0317091345787 -30.7226032018662 2723.00004959106 17 20 9
-91.3631096482277 -30.6441709399223 2716.00008010864 17 20 9
-84.5359787344933 -30.8590494096279 2734.99989509583 17 20 11
-76.9002884626389 -30.7918172329664 2729.00009155273 17 20 11
-68.8135102391243 -30.5101536214352 2703.9999961853 16 19 10
-61.2264536321163 -30.4089765995741 2694.9999332428 16 19 10
-54.8875704407692 -30.9847705066204 2746.00005149841 17 20 11
-47.320794314146 -30.9399329125881 2742.00010299683 17 20 11
-39.8337654769421 -30.9401825070381 2742.00010299683 16 17 11
-32.0988409221172 -30.7034291327 2720.99995613098 13 14 8
-25.1584257930517 -31.3129276037216 2775.00009536743 12 13 7
-17.4605082720518 -31.0986507683992 2756.00004196167 10 11 5
-9.95279755443335 -31.155152246356 2760.99991798401 9 12 5
-2.38102534785867 -30.7376775890589 2723.99997711182 13 16 9
50.032839179039 -30.9511162340641 2743.00003051758 0 2 0
58.0256134271622 -31.2216095626354 2766.99995994568 11 14 7
65.5092746019363 -31.1874039471149 2763.99993896484 8 11 4
73.1877386569977 -31.2434211373329 2769.00005340576 11 14 7
79.7850713133812 -30.8706350624561 2736.00006103516 11 14 7
87.0629474520683 -30.8024603873491 2730.00001907349 11 14 7
94.1692218184471 -30.6891091167927 2720.00002861023 12 15 8
99.9879315495491 -30.2034020423889 2677.00004577637 12 15 8
108.938239514828 -30.6653808802366 2717.99993515015 11 14 7
115.714557468891 -30.4955076426268 2703.00006866455 11 14 7
123.046062886715 -30.4835420101881 2701.99990272522 11 14 5
132.157534360886 -30.8889597654343 2737.99991607666 13 16 7
140.44500887394 -31.0686882585287 2753.99994850159 14 17 8
147.261187434196 -30.9212170541286 2740.9999370575 16 19 10
153.667092323303 -30.7060275226831 2721.99988365173 17 20 11
160.027921199799 -30.5020920932293 2703.9999961853 19 22 13
166.53747856617 -30.3432457149029 2690.00005722046 19 22 13
173.03466796875 -30.1956534385681 2677.00004577637 19 22 13
180.201232433319 -30.1720984280109 2674.99995231628 20 23 14
188.267394900322 -30.2951391786337 2686.00010871887 23 26 17
196.756899356842 -30.4745230823755 2701.99990272522 24 27 18
209.110110998154 -31.2177576124668 2767.99988746643 18 23 17
-143.567189574242 -38.1379500031471 2721.99988365173 10 11 3
-135.78961789608 -38.0408577620983 2714.99991416931 39 40 32
-128.569886088371 -38.0978398025036 2719.00010108948 20 21 13
-121.728762984276 -38.2808819413185 2732.00011253357 19 22 11
-114.146955311298 -38.2396802306175 2729.00009155273 19 22 11
-106.424644589424 -38.1423756480217 2721.99988365173 19 22 11
-99.1038084030151 -38.185141980648 2724.99990463257 19 22 11
-91.5643349289894 -38.1437800824642 2721.99988365173 19 22 11
-84.1954424977303 -38.17243501544 2723.99997711182 18 21 12
-76.3925760984421 -37.9908308386803 2710.99996566772 17 20 11
-68.78761947155 -37.8792434930801 2703.00006866455 20 23 14
-61.4305213093758 -37.89371997118 2703.9999961853 21 24 15
-54.3075650930405 -38.0763150751591 2717.00000762939 14 17 8
-47.1651665866375 -38.3009053766727 2733.00004005432 10 13 4
-40.0949977338314 -38.6796034872532 2759.99999046326 9 12 5
-33.1131406128407 -39.3385402858257 2806.99992179871 11 14 7
-25.7747527211905 -39.8432724177837 2842.99993515015 11 14 7
-17.7898369729519 -39.3529199063778 2808.00008773804 11 14 7
-9.93831269443035 -38.6382751166821 2756.99996948242 10 13 6
51.035713404417 -39.2117016017437 2798.00009727478 5 8 1
57.6687343418598 -38.5386347770691 2750 11 14 7
65.4377490282059 -38.6923514306545 2760.99991798401 15 18 11
72.6322159171104 -38.5096780955791 2747.99990653992 6 9 2
79.2304947972298 -38.0747132003307 2717.00000762939 10 13 6
87.3812884092331 -38.3964292705059 2740.00000953674 10 13 6
93.4415757656097 -37.8212444484234 2698.99988174438 12 15 8
100.136697292328 -37.5683233141899 2680.99999427795 13 16 9
107.975609600544 -37.7497486770153 2694.00000572205 14 17 10
115.842245519161 -37.9171036183834 2706.00008964539 14 17 10
123.682834208012 -38.0563773214817 2716.00008010864 12 15 6
132.204964756966 -38.3777394890785 2739.00008201599 10 13 4
138.710230588913 -38.1105653941631 2720.00002861023 10 13 4
146.293208003044 -38.1515994668007 2723.00004959106 14 17 8
154.230654239655 -38.2766388356686 2732.00011253357 17 20 11
161.269694566727 -38.177452981472 2724.99990463257 19 22 13
167.155519127846 -37.8260612487793 2700.00004768372 19 22 13
173.809200525284 -37.670761346817 2688.99989128113 19 22 13
181.749492883682 -37.7956070005894 2697.99995422363 20 23 14
188.336312770844 -37.6402251422405 2687.00003623962 22 25 16
197.629481554031 -38.017101585865 2713.99998664856 21 27 17
207.446813583374 -38.4639389812946 2746.00005149841 28 33 26
-141.720086336136 -44.9826419353485 2687.00003623962 21 22 14
-135.038360953331 -45.2014468610287 2700.00004768372 26 27 19
-129.136309027672 -45.7215458154678 2730.99994659424 25 26 18
-123.019933700562 -46.2248623371124 2760.99991798401 18 21 10
-114.64799195528 -45.8910316228867 2740.9999370575 18 21 10
-106.658391654491 -45.6743091344833 2727.9999256134 18 21 10
-99.4303449988365 -45.7756444811821 2733.99996757507 18 21 10
-91.1599695682526 -45.3746169805527 2710.00003814697 18 21 10
-83.4529772400856 -45.2079214155674 2700.00004768372 18 21 12
-76.0820135474205 -45.208603143692 2700.00004768372 19 22 13
-69.0415650606155 -45.426893979311 2713.00005912781 19 22 13
-61.0438287258148 -44.992096722126 2687.00003623962 17 20 11
-54.1872121393681 -45.394454151392 2710.99996566772 13 16 7
-47.354631125927 -45.9474585950375 2743.99995803833 13 16 7
-40.0075204670429 -46.1152791976929 2753.99994850159 10 13 6
-32.8061729669571 -46.5677008032799 2780.99989891052 11 14 7
-25.1127332448959 -46.383760869503 2769.99998092651 11 14 7
-17.5426173955202 -46.3671982288361 2769.00005340576 11 14 7
-10.0211435928941 -46.5515069663525 2779.99997138977 11 14 7
-2.49112513847649 -47.723725438118 2849.99990463257 10 13 6
49.3025295436382 -45.2607870101929 2703.00006866455 5 8 1
72.0237344503403 -45.6276051700115 2724.99990463257 12 15 8
79.0257453918457 -45.3757978975773 2710.00003814697 12 15 8
86.4557698369026 -45.3918389976025 2710.99996566772 12 15 8
94.1678881645203 -45.5417670309544 2720.00002861023 11 14 7
101.816669106483 -45.6413887441158 2726.0000705719 11 14 7
109.337486326694 -45.6739813089371 2727.9999256134 12 15 8
116.183809936047 -45.4386323690414 2713.99998664856 14 17 10
121.49602919817 -44.6674935519695 2667.99998283386 12 15 6
132.252186536789 -45.8718203008175 2740.00000953674 11 14 5
137.587249279022 -45.167550444603 2697.99995422363 11 14 5
144.250527024269 -44.9487343430519 2684.99994277954 14 17 8
150.785833597183 -44.7131283581257 2671.0000038147 16 19 10
159.72974896431 -45.180544257164 2698.99988174438 18 21 12
166.658967733383 -45.0620017945766 2691.99991226196 19 22 13
174.131065607071 -45.0940579175949 2694.00000572205 20 23 14
181.411296129227 -45.0758449733257 2693.00007820129 21 24 15
190.6478703022 -45.5262139439583 2720.00002861023 22 25 16
198.501795530319 -45.6250235438347 2726.0000705719 23 26 17
208.276242017746 -46.1421869695187 2756.99996948242 31 36 29
-135.037153959274 -52.5720193982124 2700.00004768372 28 28 18
-128.945976495743 -53.0990362167358 2726.99999809265 17 19 8
-123.642615973949 -54.0349297225475 2775.00009536743 17 19 8
-116.445481777191 -54.2113557457924 2783.99991989136 17 20 9
-108.143113553524 -53.8619495928288 2766.00003242493 17 20 9
-99.3567109107971 -53.2008968293667 2732.00011253357 18 21 10
-90.890035033226 -52.6176318526268 2701.99990272522 19 22 11
-83.3903923630714 -52.5405928492546 2697.99995422363 18 21 12
-76.3912722468376 -52.7945496141911 2710.99996566772 18 21 12
-68.9900293946266 -52.7952760457993 2710.99996566772 15 18 9
-61.2704455852509 -52.5232702493668 2697.00002670288 13 16 7
-53.92687022686 -52.5433160364628 2697.99995422363 13 16 7
-47.5440211594105 -53.6538995802403 2755.00011444092 15 18 9
-40.0507301092148 -53.6932833492756 2756.99996948242 12 15 8
-32.145269215107 -53.0704334378242 2724.99990463257 11 14 7
-24.7679986059666 -53.2070472836494 2732.00011253357 10 13 6
-17.5677966326475 -54.0057495236397 2773.00000190735 11 14 7
-10.0498897954822 -54.2980246245861 2788.00010681152 12 15 8
-2.44652456603944 -54.5123144984245 2799.00002479553 8 9 1
65.555140376091 -53.8667999207973 2766.00003242493 10 13 6
72.8952810168266 -53.7103153765202 2757.99989700317 15 18 11
78.9666995406151 -52.7358539402485 2707.99994468689 11 14 7
86.9333446025848 -53.0855655670166 2726.0000705719 11 14 7
95.1017588376999 -53.493607789278 2746.99997901917 12 15 8
102.039836347103 -53.2005354762077 2732.00011253357 12 15 8
109.416641294956 -53.1605519354343 2730.00001907349 11 14 7
116.782061755657 -53.1204864382744 2727.9999256134 13 16 9
122.997663915157 -52.5935627520084 2700.99997520447 12 15 6
132.057934999466 -53.2738268375397 2736.00006103516 12 15 6
138.809889554977 -52.9998950660229 2721.99988365173 12 15 6
145.055085420609 -52.5701530277729 2700.00004768372 14 17 8
151.68771147728 -52.3155964910984 2687.00003623962 15 18 9
159.609958529472 -52.5087751448154 2697.00002670288 17 20 11
167.400375008583 -52.6434667408466 2703.9999961853 18 21 12
173.547759652138 -52.2719100117683 2684.99994277954 21 24 15
181.948557496071 -52.581675350666 2700.99997520447 22 25 16
190.926522016525 -53.027618676424 2723.99997711182 23 26 17
200.029164552689 -53.4734651446342 2746.99997901917 23 26 17
209.483072161675 -53.9776124060154 2773.00000190735 19 25 15
-135.885953903198 -60.3197887539864 2717.00000762939 25 25 15
-128.471776843071 -60.3212639689446 2717.00000762939 20 22 11
-122.839294373989 -61.2107329070568 2756.99996948242 17 20 9
-116.987995803356 -62.1001645922661 2796.99993133545 17 20 9
-107.946492731571 -61.3021329045296 2760.99991798401 18 21 10
-98.4100997447968 -60.0821264088154 2706.00008964539 19 22 11
-91.0908952355385 -60.1275935769081 2707.99994468689 19 22 11
-83.8531255722046 -60.239601880312 2713.00005912781 16 19 10
-76.2495696544647 -60.0850768387318 2706.00008964539 15 18 9
-68.6075836420059 -59.8638541996479 2696.00009918213 15 18 9
-61.5878403186798 -60.197651386261 2710.99996566772 16 19 10
-54.3660297989845 -60.3981614112854 2720.00002861023 14 17 8
-47.3882034420967 -60.9760694205761 2746.00005149841 12 15 6
-40.1229411363602 -61.3318532705307 2762.00008392334 9 14 7
-32.3100797832012 -60.8215406537056 2739.00008201599 8 13 6
-24.7405376285315 -60.5998039245605 2729.00009155273 7 12 5
-17.4535755068064 -61.1773952841759 2755.00011444092 10 13 6
-10.0389672443271 -61.8437267839909 2785.00008583069 11 14 5
-2.41503212600946 -61.3552667200565 2763.00001144409 15 16 8
5.10733248665929 -61.0887780785561 2750.99992752075 11 12 4
58.0655708909035 -61.4859834313393 2769.00005340576 3 6 0
65.6492412090302 -61.5074895322323 2769.99998092651 11 14 7
71.9430223107338 -60.4408830404282 2721.99988365173 16 19 12
78.7617415189743 -59.9737390875816 2700.99997520447 8 11 4
86.6454094648361 -60.3280737996101 2717.00000762939 9 12 5
94.7891771793365 -60.7933327555656 2737.99991607666 13 16 9
101.964063942432 -60.6145970523357 2730.00001907349 14 17 10
108.173042535782 -59.9251240491867 2698.99988174438 12 15 8
115.710638463497 -60.0126832723618 2703.00006866455 11 14 7
124.635726213455 -60.7662014663219 2736.99998855591 12 15 6
132.008269429207 -60.7203654944897 2734.99989509583 13 16 7
139.828339219093 -60.8742535114288 2742.00010299683 14 17 8
147.041335701942 -60.7616528868675 2736.99998855591 14 17 8
154.05710041523 -60.5823807418346 2729.00009155273 13 16 7
162.153020501137 -60.8248151838779 2740.00000953674 15 18 9
166.965276002884 -59.8684623837471 2697.00002670288 17 20 11
173.67522418499 -59.644591063261 2687.00003623962 22 25 16
183.428660035133 -60.4417249560356 2723.00004959106 24 27 18
190.994650125504 -60.4840517044067 2724.99990463257 24 27 18
198.934882879257 -60.6372877955437 2732.00011253357 22 25 16
207.894504070282 -61.0789507627487 2752.00009346008 24 27 16
-136.634543538094 -68.1102648377419 2732.00011253357 19 19 9
-129.226803779602 -68.1368559598923 2733.00004005432 15 17 6
-122.214086353779 -68.3877542614937 2743.00003051758 17 20 9
-114.895321428776 -68.4889703989029 2746.99997901917 17 20 9
-107.593350112438 -68.6150342226028 2752.00009346008 17 20 9
-99.4272008538246 -68.167544901371 2733.99996757507 17 20 9
-90.7870680093765 -67.2960728406906 2698.99988174438 17 20 9
-84.0066596865654 -67.7709206938744 2717.99993515015 17 20 11
-76.2768387794495 -67.497655749321 2707.00001716614 17 20 11
-68.6576440930367 -67.2741606831551 2697.99995422363 17 20 11
-61.3826476037502 -67.3747286200523 2701.99990272522 17 20 11
-54.4253326952457 -67.8991079330444 2723.00004959106 12 15 6
-47.784548252821 -69.046787917614 2769.00005340576 11 14 5
-40.4420420527458 -69.4213733077049 2783.99991989136 8 13 6
-32.6281897723675 -68.9730048179626 2766.00003242493 9 14 7
-24.8399619013071 -68.3250203728676 2740.00000953674 9 14 7
-17.4533650279045 -68.699337542057 2755.00011444092 11 14 7
-9.9811740219593 -69.0486282110214 2769.00005340576 10 13 4
-2.42112157866359 -69.0736398100853 2769.99998092651 17 18 10
5.03486720845103 -67.6273107528687 2711.99989318848 4 5 0
57.729359716177 -68.6469078063965 2753.00002098084 16 19 12
65.1507526636124 -68.5463845729828 2749.00007247925 11 14 7
71.7307180166245 -67.6727965474129 2713.99998664856 12 15 8
78.4400403499603 -67.0734196901321 2690.00005722046 7 10 3
85.9427973628044 -67.1970546245575 2694.9999332428 8 11 4
94.7880446910858 -68.2680606842041 2737.99991607666 13 16 9
102.186940610409 -68.2169571518898 2736.00006103516 13 16 9
107.650741934776 -66.9689923524857 2686.00010871887 12 15 8
115.152761340141 -67.0673176646233 2690.00005722046 11 14 7
123.996719717979 -67.8885579109192 2723.00004959106 12 15 6
132.48935341835 -68.435437977314 2744.99988555908 13 16 7
139.316737651825 -68.1096464395523 2732.00011253357 14 17 8
146.287485957146 -67.8834915161133 2723.00004959106 14 17 8
154.676258563995 -68.3054029941559 2740.00000953674 14 17 8
161.440968513489 -68.0042952299118 2727.9999256134 15 18 9
166.406139731407 -67.0051351189613 2687.99996376038 17 20 11
173.867121338844 -67.052885890007 2690.00005722046 21 24 15
183.291777968407 -67.8233876824379 2720.99995613098 23 26 17
190.852239727974 -67.8709223866463 2723.00004959106 22 25 16
198.495671153069 -67.9433047771454 2726.0000705719 21 24 13
203.737288713455 -67.218042910099 2697.00002670288 15 19 5
213.28130364418 -67.9133236408234 2724.99990463257 19 23 9
-145.458355545998 -76.2846395373344 2757.99989700317 25 25 17
-138.333141803741 -76.5078887343407 2766.00003242493 29 29 19
-130.643591284752 -76.426774263382 2763.00001144409 24 26 15
-123.593635857105 -76.7328143119812 2773.9999294281 17 20 9
-114.475533366203 -75.7109820842743 2736.99998855591 17 20 9
-107.122771441936 -75.7955238223076 2740.00000953674 16 19 8
-99.0985855460167 -75.3820240497589 2724.99990463257 16 19 8
-92.0976996421814 -75.7429823279381 2737.99991607666 16 19 8
-84.5927819609642 -75.7165551185608 2736.99998855591 18 21 12
-76.9520774483681 -75.5517035722733 2730.99994659424 20 23 14
-69.2929178476334 -75.331412255764 2723.00004959106 18 21 12
-61.927042901516 -75.4153281450272 2726.0000705719 14 17 8
-54.8643171787262 -75.9417861700058 2744.99988555908 11 14 5
-47.7148778736591 -76.4958262443542 2765.00010490417 12 15 6
-40.5141338706017 -77.160432934761 2789.00003433228 10 13 6
-32.804686576128 -76.9396126270294 2780.99989891052 10 15 8
-25.3291688859463 -77.2996917366982 2793.99991035461 10 15 8
-17.6115091890097 -76.9126638770103 2779.99997138977 12 15 8
-9.92697104811668 -76.1935263872147 2753.99994850159 11 14 5
-2.45255464687943 -77.6322782039642 2805.99999427795 9 10 2
57.644709944725 -76.0521665215492 2749.00007247925 37 40 33
65.031386911869 -75.9129822254181 2743.99995803833 15 18 11
72.0204859972 -75.3863751888275 2724.99990463257 8 11 4
78.8763836026192 -74.8320296406746 2704.99992370605 13 16 9
86.3880962133408 -74.9415308237076 2709.00011062622 12 15 8
95.5483987927437 -76.3511061668396 2759.99999046326 10 13 6
102.409668266773 -75.851783156395 2742.00010299683 8 11 4
107.569150626659 -74.2458775639534 2684.00001525879 12 15 8
115.964576601982 -74.9358832836151 2709.00011062622 13 16 9
124.040611088276 -75.3491222858429 2723.99997711182 12 15 6
132.294535636902 -75.8175700902939 2740.9999370575 12 15 6
