ply
format ascii 1.0
comment KinectMotionCapture
element vertex 766
property float x
property float y
property float z
property uchar red
property uchar green
property uchar blue
end_header
83.1446970415604 913.831114807409 2694.31137016545 145 109 95
81.9080865521196 913.439268223424 2702.6821418465 143 110 93
83.1615299739763 912.419130184226 2712.92451802371 148 112 96
78.6688305784486 912.857055333878 2718.73801910962 161 122 105
74.1803185841028 913.294511563902 2724.54743135037 158 117 99
68.8668899413734 913.940648202979 2729.72824582643 150 107 90
66.0471735976485 913.958104195679 2736.77675164587 142 99 83
63.2393609800865 913.974177472206 2743.81364125411 153 110 94
58.7733836159781 914.408733885202 2749.6011048656 154 117 99
52.6378641000975 915.263371605944 2754.15054204491 149 113 97
48.1763287015884 915.697485976249 2759.93366005261 77 49 35
43.7191690419949 916.131153614879 2765.71283675563 55 32 18
43.4794500891065 915.509713049363 2774.54452361204 46 28 16
47.4869700921814 913.829250685526 2786.40072247332 42 28 17
37.9913241063128 915.526847734659 2788.49391293366 34 24 14
29.325226149175 917.015226446573 2791.21151947708 30 23 15
12.9896456869614 920.412801365939 2788.5096597727 20 17 8
17.0616580477985 918.725165254798 2800.30253920407 24 27 18
-4.63539009646752 922.776394080209 2802.82842424517 27 26 21
26.1014386031944 914.483307760257 2833.04625895703 19 16 9
73.7272422492117 911.614862586519 2650.14399492295 138 111 100
74.0041791530288 910.840867611053 2659.90242951095 144 110 100
80.017951584114 908.628453059141 2674.0957403076 147 111 99
81.1811317830511 907.64056909799 2684.42298206085 146 110 96
83.195033568706 906.443405202476 2695.35328550314 146 110 96
81.958262090414 906.06455205552 2703.72229662418 142 109 90
82.3880040309297 905.271470483685 2713.33181454247 144 111 92
78.7187710706037 905.505779421387 2719.77494283207 159 122 103
71.7484607600176 906.564753343613 2723.70589164994 158 117 99
66.4291679810538 907.211275437281 2728.89247232995 153 110 93
62.7725631540352 907.4439334293 2735.32330470555 152 109 93
60.789979013002 907.26137065521 2742.98699787673 162 119 102
57.9882193981511 907.284287833184 2750.01686523815 163 125 106
53.5245376786384 907.720913596761 2755.80174339151 162 125 106
49.903899133033 907.949391280485 2762.19747856572 107 74 55
47.9728436288691 907.760568378268 2769.81092828296 91 62 44
46.9003070042358 907.361705406432 2778.02014705185 53 32 15
43.3132567688683 907.586256631997 2784.38277102428 43 25 11
33.8083385902799 909.271151876218 2786.48738407227 35 21 8
23.4356301000043 911.167550845531 2788.00521841015 32 24 13
13.8904075716715 912.857599100184 2790.14875481856 23 19 8
23.9311645490181 909.73236865061 2806.14643717689 10 13 2
-12.0917359734483 917.922898371677 2789.69470149641 19 20 12
-13.1473154957389 917.522972164439 2797.88690091574 17 14 7
70.5314661768441 904.933955385406 2648.63690785884 135 113 100
69.9867884374634 904.381433565904 2657.76157497978 135 105 94
79.2529496625183 901.39803390767 2674.50714199975 136 104 93
80.4139818251084 900.431472611685 2684.83336530425 133 101 88
84.8839930719736 898.649831687808 2697.66182914628 133 101 86
80.3654386167492 899.095897653242 2703.50013932165 133 102 82
79.9676382990238 898.524931607691 2712.48134319821 137 106 86
76.2925357924309 898.76487490756 2718.92946727775 154 117 98
71.7980931686255 899.207678356127 2724.74397840467 156 118 99
64.8206052646274 900.261765145145 2728.68311483704 162 116 93
62.8221753561262 900.091401588805 2736.3607400505 165 119 95
60.006506940085 900.123679170786 2743.40303559349 175 127 104
59.7077244695261 899.540453189667 2752.28806313917 174 128 104
55.2478482920913 899.978898988431 2758.06889333259 177 133 108
52.4699334934637 900.006594033536 2765.07437627233 160 120 95
49.7038804423524 900.032852685718 2772.06829261969 137 99 76
47.7923709320436 899.852180089169 2779.66112826446 87 56 35
41.673571452876 900.698872069791 2784.19513657706 80 53 32
29.6250042290347 902.988800154774 2784.48480350226 76 51 31
20.9399356682809 904.457162258642 2787.22420658143 60 41 24
15.6414103651166 905.10130215731 2792.39051693836 50 34 18
8.63821844578316 906.159173103229 2796.35428069921 37 29 16
-7.76972045348678 909.49540220567 2793.73334087743 17 9 0
-14.8089709860644 910.557982781306 2797.73255313505 33 26 16
77.8879879163967 895.641983572568 2655.45831978349 126 107 93
71.6647940673103 896.499077625342 2660.09411798494 132 104 92
78.487809187485 894.161853278066 2674.91953282147 133 103 92
76.3763562475117 894.016411428298 2682.70570815862 130 98 85
79.1975787423382 892.667980193043 2694.27359676678 124 92 77
76.3081155748986 892.717226723431 2701.38666358562 126 98 77
75.9006457206262 892.163152346538 2710.37531071565 135 104 84
73.866172242377 892.00777013716 2718.08651349016 151 115 93
68.5387651490523 892.654607543167 2723.28110520125 154 116 95
63.2117199900462 893.301340352775 2728.47535296553 166 120 94
60.3782731732747 893.343525132098 2735.53383844381 173 126 98
59.2228729011222 892.980465035067 2743.82005039038 183 133 106
57.252024190114 892.817297788129 2751.46922345561 180 133 105
54.4601804087352 892.854237843795 2758.48717167261 182 137 108
51.6802817936579 892.889907896755 2765.49344586874 177 133 106
50.5937372726506 892.518534289088 2773.71217392779 163 121 96
46.1560308168654 892.956838839367 2779.47101013634 129 93 69
40.8780057826297 893.597627758656 2784.61745869646 122 90 67
30.5211571456536 895.459050729545 2786.12505124485 99 71 50
21.8379774572712 896.916160578396 2788.86390388222 86 59 38
13.1397867625016 898.375149765207 2791.6177227475 70 47 29
8.68804641478116 898.815577323512 2797.39018103855 36 20 5
-5.15669364290616 901.503574601542 2796.57082105174 36 22 9
-43.0137764117382 909.924599326246 2779.07256975978 37 25 11
73.6312833644814 889.864127910358 2643.53499169217 133 117 101
73.8800359421656 889.149057745097 2653.31270467145 130 111 96
70.0881928456467 889.414096564719 2659.87304477567 131 103 89
75.2757249442086 887.511248048907 2673.42416139392 128 99 83
73.1563758675886 887.377121177262 2681.21650536266 119 88 70
74.3305884203083 886.451074032516 2691.52331452907 120 89 69
69.7867596459831 886.904748889451 2697.38559788609 124 93 72
71.8334122054252 885.774526712332 2708.27314752713 130 100 76
68.1387654774555 886.027076510006 2714.73881607254 143 107 83
66.1064511695293 885.881741647535 2722.44638976551 150 112 89
60.7735424127966 886.52880087502 2727.64641192458 171 127 100
60.4274075049336 885.982856867883 2736.57295088104 179 134 105
58.4387583143786 885.832017323558 2744.23797805654 182 138 111
57.3009888668876 885.479884629241 2752.50506726824 189 145 118
54.5091590367992 885.524606811222 2759.52185143653 188 147 119
52.5679568363091 885.368021695203 2767.14061224249 188 148 122
50.642526884507 885.209625143105 2774.7439787018 182 142 116
46.204884999737 885.650162368588 2780.50242080197 177 141 115
39.2378964719313 886.691544560898 2784.43300893242 154 118 94
28.877075827094 888.53708797064 2785.94655489355 131 99 76
20.1903820461173 889.983423711757 2788.69082732722 120 88 67
14.8900785615846 890.62696221487 2793.85899233053 104 76 55
6.18076403904633 892.076326566369 2796.62527986768 49 27 13
0.873187967113331 892.721017769986 2801.80049628916 46 29 13
68.0139309476715 883.711405791312 2640.10343441595 130 115 96
68.2488462458717 883.016478308857 2649.89191093859 126 107 92
66.8839595372908 882.706199409087 2658.37800713341 128 101 84
67.9857194882283 881.810324899164 2668.75264114417 128 99 81
67.4838296299285 881.299584048565 2677.82864405773 120 89 69
67.0055367922142 880.78586841858 2686.88165445211 123 92 71
64.9080977195702 880.659122080953 2694.6511506233 123 93 69
64.4731739946711 880.139762178711 2703.66192906852 129 99 75
66.537423146102 879.031204046298 2714.52880309724 139 105 80
66.1555379555536 878.505334700533 2723.4878755867 148 111 85
63.3099198491518 878.56426782154 2730.55597193792 170 130 105
62.1384853567859 878.229411251698 2738.85393763319 177 137 112
59.3206936507977 878.284954350442 2745.89490300126 177 140 114
59.019443078633 877.749109674188 2754.77504063017 188 151 125
54.5578002201674 878.194723474781 2760.55690357841 190 153 127
53.4552427375248 877.851550714322 2768.78736467219 191 155 131
52.3726238877602 877.50579236564 2776.99874639957 186 150 126
47.9388300622219 877.948144266345 2782.75309911182 190 155 133
40.1310712308254 879.181289517462 2786.07299492655 183 151 130
30.6190885035003 880.811939507543 2788.19264060075 180 148 127
24.4815398446669 881.65186798998 2792.74592892601 173 141 120
15.7895045688941 883.087849940837 2795.49703582866 155 124 104
5.37755794122674 884.923445259311 2797.06282097005 120 93 76
5.19370526930008 884.373967050976 2805.82873362064 111 88 72
57.5382211200033 878.666386509788 2632.8304482825 119 104 83
60.1827195621123 877.419547221024 2644.55881124215 115 94 77
58.7982409866994 877.124770298022 2653.06207126496 122 95 78
61.5113195985453 875.869285389169 2664.72361092112 120 89 71
61.8113740112953 875.1841775093 2674.4462898491 115 84 64
60.4997278595483 874.88015993321 2682.87859196304 124 93 72
56.7440630417955 875.150367762313 2689.40224252429 127 99 75
57.1128696053438 874.456664588146 2699.05758208893 122 92 68
62.4605077513625 872.602625688054 2712.44249699537 147 113 88
67.031482025973 870.935629435491 2725.15375862599 147 110 84
66.6750053250365 870.422360591383 2734.08573776102 170 135 113
65.5111474273773 870.099580982043 2742.37439481625 173 141 120
66.0328206493257 869.387019318418 2751.88072280582 175 143 122
69.0866481469992 868.089108317668 2763.21016433902 184 153 132
67.9954913519891 867.757517392125 2771.42793043329 185 154 133
66.0850940636934 867.617864823201 2779.01359888299 185 157 136
63.3499244470821 867.671070823997 2785.97286471699 191 163 142
58.9413631938194 868.11271844875 2791.70226520365 200 171 153
47.7805611273019 870.115031566515 2792.5701247303 200 173 156
35.7463958457154 872.315929163475 2792.85864898118 195 168 151
25.3787303553232 874.129417831673 2794.38406749392 193 164 148
20.0902111231063 874.770704147792 2799.54086343273 193 164 148
10.5403438291383 876.392639266106 2801.69907925388 200 172 158
14.6391674357069 874.875758116024 2813.44009721323 186 163 149
53.5403964413721 872.045577905337 2630.69367763481 103 90 71
52.928354154973 871.580271840717 2639.8723482963 106 87 72
52.3399301477365 871.11198831673 2649.02800572462 119 93 78
53.406125110012 870.262714118749 2659.43073094713 113 86 69
52.8689560706805 869.787910122823 2668.53645515754 120 93 76
51.536080306235 869.499411043 2676.98788280575 111 85 68
54.3294887508639 868.260099378946 2688.56726335195 119 96 78
61.2783040396767 866.066480666245 2703.24619406929 117 95 74
75.7125624437309 862.154620108873 2723.4994597397 124 97 78
81.1415790435008 860.325172738085 2736.79993002128 138 109 91
85.7920438097857 858.6802344876 2749.42899625551 158 136 123
86.3344871002512 857.983629607158 2758.91234085442 154 136 124
89.4032083763516 856.7103769809 2770.22334814849 194 176 166
90.8413546721518 855.815024932926 2780.26386832645 235 218 210
85.6162960621436 856.447898247483 2785.35889036725 255 252 243
80.3915547152689 857.080908472461 2790.45357712576 255 252 243
75.1671965612899 857.713811421059 2795.54789922346 255 251 242
69.9431354888826 858.346735886631 2800.64192313458 255 252 243
59.6521514166377 860.134354254281 2802.09468164266 255 252 243
48.4918634253453 862.117555633742 2802.96485539159 255 240 230
39.0015180681029 863.718247329597 2805.06710481824 248 230 220
32.0434404717469 864.741817979515 2808.99147680023 242 224 214
23.3732472908432 866.15305101498 2811.72455205867 227 207 196
18.9588358775916 866.598207680201 2817.45924320603 218 200 190
22.2539023274617 865.298189713107 2828.54944230224 196 186 177
42.4276692792684 866.435559427453 2632.63889735608 81 65 50
56.4581422021719 862.637463214896 2653.27631365785 108 86 73
57.5337085843515 861.808354315717 2663.6667524995 113 89 77
58.6407817933225 860.975096573918 2674.02651779351 116 92 80
61.4179816410596 859.764482170615 2685.61775227343 108 86 73
76.5541465780735 855.744127818616 2706.60695903372 100 82 68
101.666263465979 849.465557232087 2735.02758674696 101 85 70
114.544475945741 845.981065608008 2753.92870760365 113 94 79
111.792942791748 846.05202020054 2760.90159943806 128 106 92
114.027812868541 844.993881519827 2771.5919302347 148 134 125
112.973789313069 844.684099400417 2779.76926129917 214 201 195
112.772589931181 844.183334424593 2788.54519969469 255 252 248
107.585774962875 844.811445489274 2793.60294909238 255 252 248
100.725730680561 845.817186419319 2797.43226992714 255 252 250
93.8584778281637 846.823764097426 2801.26896314955 252 245 239
86.1430782276518 848.020675999319 2804.50250015589 255 252 250
81.7867263992778 848.460577240263 2810.1803140266 255 251 246
71.5229733053766 850.228605251955 2811.6089272167 255 251 246
61.2365571943458 851.999359321494 2813.05998004966 255 252 246
49.2301671477158 854.153590227774 2813.32782039814 255 252 244
43.9959030353143 854.787683011004 2818.43180340196 255 250 243
31.943933763944 856.947469958397 2818.74442125593 255 249 242
26.694788109062 857.583497765341 2823.86289585576 255 251 243
16.3090963554011 859.366839113795 2825.4103326331 236 229 223
16.1973853514743 858.85591311372 2834.09890954137 196 191 185
112.220878869498 841.997304780231 2707.22932957791 105 91 88
98.7438691932372 844.478371686181 2706.07539210492 140 129 127
109.809229776397 841.442242485173 2723.87627744606 231 226 222
138.199738780793 834.526026393387 2754.80397000615 255 254 251
144.522056064324 832.572920215761 2768.65256553871 255 254 251
145.12289485093 831.906398859979 2778.0734762149 255 254 251
139.134531381822 832.716421001507 2782.48337942752 249 240 241
135.629804605637 832.971092592858 2788.7601410531 251 242 243
131.302190322222 833.410142544485 2794.40954393704 255 253 255
126.14588141206 834.034407835815 2799.43756877165 250 245 249
120.155245429234 834.8444805885 2803.84972114368 251 249 252
111.650600467311 836.213333056755 2806.42433056076 255 254 255
104.808567851423 837.211247222454 2810.23726017884 248 249 253
97.9589276543904 838.21007451372 2814.05727143591 253 254 255
91.9446112321936 839.022955655575 2818.4925237556 255 255 255
81.7041786154649 840.771768354464 2819.90081938197 255 255 255
72.2873385669782 842.336008909191 2821.93546441316 255 255 251
62.0032389204335 844.090254524292 2823.386656905 255 252 249
56.7981017512023 844.720380549395 2828.46230270879 254 253 251
42.218374967979 847.419097842874 2826.95396383223 255 255 253
30.1592037285849 849.558328059933 2827.27677162268 255 255 253
15.5010319604192 852.266744645814 2825.8452340666 255 254 255
9.38089225384431 853.093038500864 2830.38325023689 255 254 255
0.67739318775617 854.486828713048 2833.15197677334 253 251 252
195.920081735691 817.139441986196 2755.32006326575 183 175 173
189.976866677928 817.942252301517 2759.68586150126 255 250 251
179.13754770208 819.830680147404 2760.25131575993 255 249 250
168.271615141729 821.722227183185 2760.84273668652 255 253 255
162.295028667562 822.52846486314 2765.24150451084 253 253 253
166.170175364057 821.155537548034 2777.1833606345 252 253 255
165.149195268367 820.868407553618 2785.32486892274 249 250 254
162.497706775658 820.94284841658 2792.19789966031 251 252 255
153.241461350856 822.474401044861 2794.07790311741 255 254 255
148.111406244909 823.095415595841 2799.08033799434 255 253 255
143.812744246254 823.533351311479 2804.70115551511 254 249 253
138.685433112277 824.153843034712 2809.70094286102 255 254 255
131.889027889901 825.140638979261 2813.47020707108 255 254 255
123.411732519785 826.495239263745 2816.02010224773 245 246 251
118.274048815704 827.116861707774 2821.03002258905 251 254 255
110.61483706809 828.290237935433 2824.21124278922 251 255 255
102.944357736103 829.465093589963 2827.4034332086 250 251 255
95.2627405252375 830.64117644462 2830.60650232671 247 248 250
84.1841352872406 832.557411372894 2831.40546150636 250 250 248
71.3819968113567 834.846649573709 2831.02662847152 255 254 252
63.6473192690552 836.029303588584 2834.2814160685 252 255 255
49.9356874431536 838.511053619513 2833.36036089288 245 249 250
37.8941044291761 840.626307064321 2833.66924707196 241 245 246
18.9730937170096 844.232060543497 2829.25292333009 255 255 255
10.2869164148407 845.612462995075 2832.00642780407 252 250 253
1.58534927678566 846.994936555564 2834.77457066161 255 253 255
2.3495073798121 846.327580761781 2844.03342617187 238 234 235
206.764642073364 808.183883030903 2755.79392314892 255 255 255
204.894353778748 808.093366437556 2763.33250049925 255 254 255
201.41303290282 808.356704202092 2769.58473886327 255 254 255
194.677955227711 809.331771992562 2773.29449948636 255 253 254
190.387785608012 809.772175238483 2778.90651924939 248 248 248
182.824682578648 810.92659505123 2781.99510382144 253 253 255
180.99933892717 810.829691807647 2789.49033226284 254 255 255
177.543282692393 811.089091005893 2795.71772674109 252 253 255
172.44522120648 811.706131221537 2800.6889788854 251 252 254
164.039382964521 813.041639530281 2803.17073786313 255 255 255
155.618495804002 814.378809119022 2805.66719510299 253 253 253
151.337114592772 814.81716094519 2811.27079104544 253 253 253
147.060070131269 815.254966055147 2816.87016133571 252 253 255
140.28301777812 816.233838162162 2820.62137900027 252 253 255
135.171993406743 816.851981836051 2825.60534039082 253 254 255
126.706680666647 818.194221255553 2828.14516356917 253 254 255
120.747945257031 818.994506527021 2832.52674694388 254 255 255
108.888231367253 821.065662670235 2832.66155195602 254 255 255
101.220166946843 822.231840313429 2835.85262693879 253 255 254
88.4623820651891 824.491309820085 2835.43414992921 253 255 254
81.6086745140505 825.479491719849 2839.26011135524 253 255 254
70.4960204328753 827.380867215123 2840.09473991522 254 255 255
60.209072311685 829.10286216467 2841.55352761877 251 255 255
45.6283152095316 831.742268769129 2840.05497795807 250 254 255
29.2932454089252 834.753297622733 2837.40974249887 249 250 254
18.0564409405424 836.670075333767 2838.36571562986 255 255 255
5.07297686146391 838.957510500632 2838.1675459291 255 254 255
-4.49765350764597 840.513836202241 2840.35607683394 255 254 255
-1.99389673080264 839.495393176 2850.77353216216 147 146 144
210.600283576238 801.26512774497 2741.67137537735 231 233 232
214.35179892159 799.967095727627 2753.72526760999 245 245 245
213.288414573861 799.712803974006 2761.90369262771 255 255 255
207.375667631691 800.506335129292 2766.24094487183 255 255 255
206.340326039701 800.248213296597 2774.39208910257 254 254 254
202.063266998345 800.689663273908 2779.99127300304 255 255 255
200.24250413787 800.602986881989 2787.48010328505 253 253 253
192.702561160289 801.746467241809 2790.54730642968 253 253 253
188.436328955186 802.186152580504 2796.13566209253 254 254 254
184.174603271507 802.625020887351 2801.72000131192 254 254 254
178.266715967516 803.416832038234 2806.0523442374 253 253 253
169.047471346614 804.916640398001 2807.90063498026 255 255 255
163.125106654694 805.710027740453 2812.24745904753 254 255 255
158.861113062279 806.14872324053 2817.8337380326 254 255 255
153.768562932913 806.764478973844 2822.79970716432 254 255 255
145.33736138608 808.091744777838 2825.30787051733 253 255 254
138.564380513189 809.064514609467 2829.05560921344 252 254 253
132.62286615136 809.859844321476 2833.42116210464 253 255 254
126.677721177829 810.655408892381 2837.7899476929 253 255 254
116.516726174514 812.345662835784 2839.12835339532 253 255 254
108.021607383851 813.680468742437 2841.69853525045 253 255 254
97.8188201719807 815.375755382473 2843.07769740341 253 255 254
90.986253122991 816.355860091906 2846.88352196151 253 255 254
79.8952411532223 818.235506255122 2847.70020901271 254 254 255
67.0729255879041 820.478697785641 2847.34821780371 254 254 255
53.3621707664715 822.906203873512 2846.43430898077 253 253 255
37.9008111770025 825.699511641682 2844.37055476517 253 253 253
22.3936592385141 828.498461287493 2842.35177700402 254 254 254
6.84016766841555 831.303088911606 2840.37783813737 255 255 255
-6.1737678643472 833.569906464299 2840.21263647295 255 255 253
-20.0859242912301 836.022566549371 2839.49500467169 255 255 253
-14.1249248516799 834.302076235814 2852.25110432374 207 207 205
228.642004198751 790.80435321845 2747.97401629361 252 254 253
226.762120903708 790.736805724336 2755.51872679837 254 255 255
222.475337794762 791.182783829159 2761.12689758644 253 253 255
218.192724894894 791.628131313122 2766.73068265874 249 249 251
211.479809477192 792.589908747788 2770.4204001414 251 251 253
209.640640368444 792.516507919743 2777.92588381949 254 254 255
206.186332928934 792.786713825111 2784.1499444916 254 254 255
204.37527142867 792.709356804619 2791.62810162248 254 254 255
197.664127473467 793.670144323546 2795.3162063258 251 251 253
192.588238144966 794.284448355273 2800.26584559682 250 250 252
187.512817582176 794.89857535398 2805.21504554196 254 254 255
181.612777370485 795.686494743787 2809.54050923136 255 255 255
174.882145223663 796.649090401831 2813.24769875488 251 251 253
168.144202280348 797.61237182663 2816.96204665136 252 253 255
162.230028345929 798.401719183803 2821.3013342834 254 255 255
156.312411599035 799.19138262454 2825.64399396212 254 255 255
147.887006974792 800.507008401433 2828.14812127623 254 255 255
140.28322669411 801.648983517752 2831.27893828085 253 254 255
134.345398722389 802.440854129473 2835.6410039437 254 255 255
129.24477356477 803.057274035446 2840.61489353341 252 253 255
122.459704367156 804.025775809577 2844.3756047737 252 253 255
113.978329678953 805.348044720575 2846.93432933639 253 254 255
105.48169432185 806.672191550452 2849.50759257131 253 254 255
98.6668211376442 807.644391621833 2853.29735300415 253 254 255
85.8927287660967 809.857267664859 2852.90195606668 253 253 255
72.2320910490515 812.251683848172 2851.94317089167 253 253 255
57.6790831363834 814.828374486684 2850.42667310997 253 253 255
44.7958529995387 817.054596297367 2850.13767908816 253 253 253
25.8724092766802 820.531337859728 2845.74283926684 253 253 253
8.60730268719623 823.659157768769 2842.58697310275 254 254 254
-9.57359698340454 826.97204109133 2838.89590355472 255 255 255
-20.9018911674002 828.86231764165 2839.94664418575 250 250 248
-35.7197319715352 831.471687048235 2838.68829947258 255 255 253
-41.035876583833 832.115276605933 2843.87218740409 220 220 218
233.792498833809 783.133102643237 2743.99330646753 254 255 255
234.315454567702 782.570926712608 2753.47613395812 254 255 255
230.837575609145 782.850341840185 2759.72257822007 249 250 252
227.367882818295 783.128548064769 2765.9610721718 255 255 255
221.477465781577 783.913970024192 2770.27701118332 254 254 255
215.583794808625 784.699671218417 2774.59647797283 255 255 255
212.127119267563 784.975469817086 2780.82240144915 253 253 255
208.678482458107 785.25020907499 2787.04016107427 250 250 252
206.872789393215 785.182861673421 2794.51117001016 254 254 255
200.986779047129 785.966771560337 2798.82329443839 251 251 253
195.097369482736 786.750874097425 2803.13876586704 246 246 248
190.027583519894 787.364172827626 2808.08249298886 249 249 251
182.48309640998 788.491360963157 2811.1566165077 255 255 255
175.754364379092 789.448174011707 2814.86277385517 248 248 250
169.847401692104 790.233781772888 2819.19545332257 245 246 248
164.767862888941 790.84777928414 2824.14876187947 250 251 253
158.855969827588 791.633831690871 2828.48627156308 251 252 254
149.601542169725 793.110432089772 2830.37259186624 251 252 254
140.328405590072 794.589260069975 2832.27749901176 252 253 255
136.90643996049 794.859221750032 2838.4694798849 254 255 255
132.652286074858 795.301381266931 2844.0458137575 254 255 255
128.402215748476 795.743097993038 2849.61782019769 253 254 255
120.778848829084 796.879050805372 2852.76897711799 253 254 255
113.990558881274 797.842428574462 2856.53330609456 252 253 255
104.650185730303 799.329261042213 2858.50379708957 252 253 255
91.0396656561541 801.690528284253 2857.50014375332 254 254 255
78.2429214593288 803.881905824442 2857.13041788254 254 254 255
64.557787549099 806.252166544301 2856.19952795643 254 254 255
49.9783077543214 808.802474095627 2854.71321655375 254 254 255
29.3508389776225 812.58536565544 2849.13109348766 254 254 255
11.2339092425167 815.850013742448 2845.38396783677 253 253 253
-4.3552990802822 818.5942193528 2843.4544265808 255 255 255
-19.1267389797378 821.168195806003 2842.1552361464 250 250 250
-33.0747521463715 823.571124882499 2841.48056083912 255 255 255
-47.0611583032552 825.978894005455 2840.84329498196 249 249 249
-53.2600784521571 826.800730993369 2845.46020001909 255 255 253
242.45256466759 775.17164717705 2733.73661408083 183 185 182
247.742596578021 773.638643583982 2747.13128395261 254 255 255
243.461585303859 774.089980884356 2752.73259329466 245 246 248
242.399894160325 773.875869321582 2760.90339832093 253 254 255
236.524077442825 774.657314763115 2765.20576456923 253 254 255
233.067729628365 774.939086866939 2771.43047972674 255 255 255
226.381143149181 775.887048669442 2775.09609412863 255 255 255
222.121891246565 776.334345541109 2780.67639326667 255 255 255
217.053565663451 776.948167793158 2785.61859283354 251 251 253
212.801202319911 777.39422940163 2791.19257194394 250 250 252
207.735770595822 778.007391992636 2796.13199536363 253 253 255
201.851404200918 778.788277167622 2800.44259653314 252 252 254
195.963805666864 779.569379860716 2804.75671295752 243 243 245
191.718976772664 780.013797044123 2810.32311545166 245 245 247
185.003472151337 780.963504397576 2814.01752584652 253 253 255
179.107608877359 781.74511827302 2818.33977372729 251 251 253
172.379268141937 782.696279954043 2822.04637778222 248 249 251
165.643680385754 783.648119361877 2825.76007806817 248 249 251
159.73372644471 784.431096808011 2830.09611665448 249 250 252
151.316023192009 785.724169114159 2832.59592978593 249 250 252
143.720003187074 786.848772590653 2835.7216082428 250 251 253
138.628651615642 787.463492694298 2840.68654025438 250 251 253
135.218606637782 787.737199812351 2846.86613017004 253 254 255
130.131973931959 788.351383996832 2851.82645548693 252 253 255
123.357038945173 789.307639990938 2855.578913227 252 253 255
114.035541628427 790.778602036505 2857.53266803906 252 253 255
103.847060893216 792.423258929512 2858.90510670371 252 253 255
91.0849769179687 794.586030810358 2858.50519062449 254 254 255
79.1404711310775 796.581087244822 2858.73510490565 254 254 255
68.0197066074566 798.407579272647 2859.58919284064 254 254 255
52.5922667795511 801.099535189612 2857.50707340172 253 253 255
32.8288633070315 804.660555394555 2852.51662252242 252 252 254
15.5798802729059 807.710803606529 2849.35621049246 251 251 251
0.000827504142097979 810.42151893076 2847.42187231286 255 255 255
-13.0332736846168 812.617757339975 2847.28712700953 255 255 255
-28.6988867743645 815.339162130658 2845.43682676779 255 255 255
-44.4105879207646 818.066318084364 2843.63144262824 249 249 249
-55.8205928749058 819.928860682511 2844.76742232795 249 249 249
-67.2574272303677 821.79490349065 2845.92952669028 255 255 253
246.017187936827 767.817420826701 2728.44968544508 254 255 255
250.479396465576 766.485857103989 2741.21971412976 245 247 246
252.588754356669 765.637207892661 2752.00338008814 254 255 255
249.121063309979 765.926424811446 2758.23825890253 250 251 253
245.661622745237 766.214365750581 2764.46513345563 252 253 255
238.18195257327 767.319466038135 2767.4781573712 250 251 253
234.729066947798 767.606062941492 2773.69838357861 250 250 252
228.046418418489 768.548031164069 2777.36131122855 250 250 252
224.602274376268 768.833054301348 2783.5730895165 247 247 249
218.726237020337 769.610753552966 2787.87622854726 247 247 249
215.292914912463 769.893986593772 2794.0778629119 241 241 243
209.415692758213 770.671494432994 2798.38186891358 242 242 244
205.173833024061 771.11835477236 2803.94529973251 245 245 247
198.47257681784 772.061325543177 2807.62621906252 233 233 235
195.056649611114 772.341775992034 2813.81099129905 232 232 234
188.348594429773 773.28519109991 2817.49859643903 241 241 243
181.633291689164 774.229342971312 2821.19328961917 252 252 254
174.082066208491 775.340738338568 2824.27677644604 246 247 249
167.350312560249 776.286610295312 2827.98755139279 239 240 242
161.444147774231 777.06622058575 2832.32032495629 240 241 243
153.865036722396 778.180790597285 2835.43069551451 248 249 251
147.111433026446 779.129004317941 2839.16282176996 247 248 250
141.189198910169 779.910404527483 2843.51128786669 246 247 249
136.944483027722 780.356399622278 2849.07734492387 246 247 249
130.176701476367 781.306223780404 2852.82331197737 247 248 250
124.246071299149 782.088564509183 2857.1799764784 250 251 253
114.926821784443 783.545608346761 2859.13389413686 251 252 254
106.436607769327 784.836217965753 2861.70573766939 253 254 255
94.5308166285108 786.804857144354 2861.90145003556 253 253 255
82.5944567308348 788.777232062821 2862.12696548846 253 253 255
69.7733709174928 790.922852062217 2861.78817414726 252 252 254
51.7819229497989 794.091319706037 2857.93032083188 251 251 253
35.4487517527047 796.926794889373 2855.30914678713 247 247 249
16.4860982192732 800.279101866076 2850.97163426475 246 246 248
6.08004115057037 801.934322628692 2852.5585681096 254 254 255
-7.80391613596532 804.275219967466 2851.82945263021 249 249 251
-22.5920302161464 806.791870926909 2850.55495474471 252 252 254
-39.1573391516298 809.655962103595 2848.16006747449 252 252 254
-53.1640423853474 812.012215581711 2847.55057090448 253 253 255
-67.2091822034839 814.373432539678 2846.97850883084 249 249 251
246.414431339064 761.088895994666 2720.54755831572 201 203 202
253.228723396719 759.314567337905 2735.29843954505 250 251 253
256.112042071151 758.333113753653 2746.75042659236 249 250 252
256.635012840574 757.827487032152 2756.22488120403 253 254 255
253.978511589045 757.960290314137 2763.09426374517 248 249 253
251.334129880495 758.091329859852 2769.95187208043 252 253 255
243.062258412515 759.347619478502 2772.312308559 249 250 254
238.813242887462 759.799404837122 2777.88177942639 247 247 249
230.521032346271 761.057668830861 2780.26212109356 247 247 249
227.082495158373 761.34723336062 2786.46766047646 244 244 246
221.212094838152 762.121509408299 2790.76570779547 241 241 243
217.784379046093 762.409342878299 2796.96109506421 236 236 238
211.095668656364 763.345719699351 2800.63053079587 241 241 243
204.399648008651 764.282723250445 2804.30713309135 244 244 246
198.517649659962 765.057458943848 2808.61662948864 238 238 240
195.924582668718 765.180083482815 2815.42452528537 242 242 244
190.868598907494 765.79105253793 2820.35489094191 224 224 226
185.812977080588 766.401916996646 2825.28491265163 246 246 248
177.442364650262 767.667765010032 2827.74198763891 244 245 247
169.887519096221 768.771256209606 2830.82989964268 240 241 243
163.987119435884 769.547368179504 2835.1574654014 244 245 247
158.083108268392 770.323948475172 2839.48821037978 234 235 237
153.012483809635 770.936055596924 2844.43294625965 237 238 240
144.588030404106 772.207924525988 2846.94259624251 245 246 248
139.510583557622 772.820714811637 2851.89400588293 241 242 244
132.748591903302 773.764324960381 2855.63514191095 247 248 250
124.290658931372 775.040119676626 2858.17745736854 242 243 245
114.971490756286 776.483590429962 2860.13330035148 244 245 247
103.936826362116 778.261665025926 2860.90904566042 247 248 250
96.2761435073061 779.377496228897 2864.1002318213 252 253 255
81.7873159029388 781.827581616449 2862.53837640351 251 252 254
70.6726369170889 783.615448478942 2863.39213009211 249 250 252
52.6836387167822 786.743200606608 2859.538199699 248 249 251
36.3527431823636 789.543361423575 2856.91998533549 245 246 250
17.3923535143481 792.852335760741 2852.58662930649 244 245 249
6.12648783619729 794.658790357444 2853.58776635649 246 247 251
-6.02990437489881 796.636567697861 2854.0306408317 247 248 252
-19.948052842794 798.95464971814 2853.33884979495 248 249 253
-35.6395658276028 801.614617761568 2851.52368669828 252 253 255
-49.6384519203863 803.942891080242 2850.91022520512 254 255 255
-62.8038714136161 806.106962959714 2850.91097296041 255 255 255
-73.3840132396879 807.767926482717 2852.66958892331 245 244 242
260.301517002532 751.660759747625 2723.73830524578 241 243 242
260.754860447042 751.183134494195 2733.27776221563 253 254 255
261.235819860225 750.70190987146 2742.79032810554 244 245 247
260.148544473924 750.531712099275 2750.98004822401 248 249 251
256.68181727067 750.831657774352 2757.21238422214 245 246 250
254.826762360431 750.814700868751 2764.72496250686 241 242 246
250.576570869813 751.269700855493 2770.29512600481 240 241 246
245.525202630627 751.882151959644 2775.22068933354 239 240 244
239.666725422847 752.65291996945 2779.50741531211 238 237 242
232.995464821907 753.582543329811 2783.16085914609 239 238 243
226.316725806811 754.512886625707 2786.82128490772 238 237 242
221.257629138699 755.125250582247 2791.754535561 233 232 237
216.198979977721 755.737440185749 2796.68736760238 229 228 233
210.323656026958 756.509093649835 2800.99069177602 232 231 236
204.444745058665 757.280858539427 2805.29722360046 238 237 242
200.205007926222 757.732463641372 2810.85784537068 224 223 228
197.615674060247 757.862519383331 2817.66093579026 244 243 248
192.563368571369 758.472965764944 2822.58772611891 228 227 232
185.857646780074 759.405000572551 2826.27469617149 241 240 245
175.829123664573 760.982330242696 2827.4979076473 235 236 240
168.270377070678 762.078175532275 2830.59082350347 234 235 239
163.198710941643 762.690413973116 2835.53657436843 231 232 236
158.127555556967 763.30252905769 2840.48183628868 234 235 239
151.383786000812 764.238521789131 2844.2063411968 243 244 248
144.632493897823 765.175416926212 2847.93784488797 250 251 255
138.714563732215 765.950554578217 2852.28296270134 230 231 235
133.63558842221 766.563301675673 2857.23589651182 227 228 232
126.023914971928 767.665052641728 2860.38049666238 242 243 247
117.554943206537 768.931211802735 2862.93519793591 241 242 246
108.222508974111 770.362746192381 2864.90564065725 248 249 253
99.7214798129566 771.632887728669 2867.49158680534 248 249 251
87.7969111512069 773.560624031419 2867.71165311258 248 249 251
72.425924935009 776.148695229363 2865.58882851879 247 248 252
56.1528297741223 778.906836752039 2862.91942796327 246 247 251
38.9720976030707 781.835555555551 2859.70920381085 243 244 248
20.87760624857 784.935872350332 2855.96374676755 242 243 247
5.31083745029104 787.547930465596 2854.03145407407 244 245 249
-8.57445372379395 789.834862579381 2853.31163920143 245 246 250
-22.4981809437907 792.126699136303 2852.629267016 246 247 251
-35.5924594201165 794.257448434875 2852.56429575275 250 251 255
-46.982596419689 796.060535513189 2853.68899593775 251 252 255
-58.3992245957936 797.86700815615 2854.83983970967 252 253 255
-68.9693968696221 799.510498431401 2856.59113829821 255 254 255
-80.4376419479498 801.323596142699 2857.79225923487 246 244 245
270.985818699367 742.910566055564 2724.34095143215 250 252 251
270.646314631383 742.606089033708 2733.22521715161 246 248 247
268.742492752134 742.606896838243 2740.78359614107 237 238 240
266.058776395761 742.759878163345 2747.67702137768 240 241 243
262.589194891557 743.065739776009 2753.91097952385 247 248 250
257.52835958496 743.680150949176 2758.84565409313 241 242 246
256.47684775416 743.518404716477 2766.99894918045 238 239 243
251.426667841261 744.130941888523 2771.92331976281 236 237 242
247.988132475752 744.431946140878 2778.12716655005 236 237 242
241.327845095108 745.355114833386 2781.77066781114 232 231 236
234.660059118744 746.278888067983 2785.42118809559 235 234 239
227.985300032169 747.203291460704 2789.07887748645 236 235 240
222.1163776458 747.971792190733 2793.37597294274 229 228 233
216.244266175943 748.740446042192 2797.67655041679 225 224 229
210.368819263511 749.509284503879 2801.98041274931 230 229 234
204.489805515109 750.278349784519 2806.28744563694 236 235 240
200.249917136865 750.732568581765 2811.84783129345 213 212 217
196.83716493756 751.028376485069 2818.02684303362 239 238 243
191.782883478028 751.638954031527 2822.95557614423 227 226 231
185.902173593105 752.407453504472 2827.26471478862 234 233 238
176.702460220226 753.810226680321 2829.10761462929 236 237 241
169.976572921925 754.738893749945 2832.81544492063 231 232 236
163.243184873874 755.668401508514 2836.53026147189 236 237 241
158.171946070412 756.280350202871 2841.47563082064 238 239 243
150.591381225718 757.3703955498 2844.59106975138 252 253 255
143.838372829602 758.301950945302 2848.32540480047 236 237 241
138.758866593678 758.914706005579 2853.27886465133 222 223 227
133.679850382043 759.527281352856 2858.23186446234 230 231 235
125.22381925658 760.781089852073 2860.77520306955 236 237 241
116.752862159038 762.036766969325 2863.33342504874 241 242 246
107.418806129111 763.454929944314 2865.30779237021 242 243 247
100.616143917386 764.392345248364 2869.0902304583 245 246 248
88.6938107219097 766.298204106668 2869.31164823321 246 247 249
75.0329090822319 768.530666195281 2868.37706188174 246 247 251
60.4776603142709 770.929625479973 2866.88872007695 245 246 250
42.4490941458515 773.981519517625 2863.08529305368 241 242 246
24.3626667355383 777.040485046798 2859.33794009359 241 242 246
8.80405626206215 779.619186720769 2857.40281397243 239 240 244
-7.66429093399701 782.366148787233 2854.92895389294 240 241 246
-20.720207206868 784.467779801908 2854.82985422221 240 241 246
-35.5455198502002 786.899946327749 2853.6051196642 243 244 249
-46.0657962714461 788.520635166554 2855.31024097587 244 245 250
-56.6089049430096 790.144261342128 2857.03760091254 245 246 251
-67.1748878435365 791.77077117772 2858.78724909302 245 243 246
-76.8884051667054 793.236299527502 2861.13142650644 253 251 254
277.702786254964 734.954116251239 2721.68068179619 237 239 238
273.404289826988 735.422504939443 2727.29717180878 247 249 248
273.862220077942 734.982100463952 2736.82657279729 251 253 252
273.553885573965 734.689497668787 2745.6781316734 238 239 241
269.289605263625 735.152642408377 2751.26108178668 230 231 235
265.827521011583 735.462984005316 2757.48693291091 245 246 250
259.974461534873 736.228764299703 2761.76901618461 230 231 235
258.12659002662 736.232071620849 2769.27146620111 232 233 238
251.472872648271 737.149635585229 2772.90927172917 230 231 236
247.22854580744 737.608849621105 2778.47298870856 235 236 241
240.565971976976 738.526894462816 2782.11917990904 222 221 226
234.705741102405 739.292045636364 2786.40847747061 228 227 232
226.407919010053 740.51834832542 2788.79911535791 231 230 235
220.53515042156 741.284549357585 2793.10070788609 222 221 226
215.474292522594 741.8967815323 2798.03572694494 218 217 222
211.231084051958 742.354439328007 2803.59856337781 220 219 224
204.534787399338 743.275143308969 2807.27784881959 221 220 225
199.473488993838 743.886782359441 2812.21339297145 207 206 211
194.412701871204 744.498239016931 2817.14845636946 230 229 234
191.00249445569 744.79878439097 2823.3245787476 225 224 229
185.119768518721 745.564825453291 2827.63608271349 230 229 234
176.746946744999 746.798473204036 2830.09977295418 230 231 235
168.359328166184 748.033796382785 2832.57824685554 226 227 231
159.956724444542 749.270772801586 2835.07135687708 232 233 237
154.877685358806 749.883527938986 2840.0243528295 252 253 255
145.616112832466 751.279770019196 2841.92964501709 231 232 236
142.20553084018 751.579478082192 2848.1062631097 196 197 201
137.962464999223 752.03546677002 2853.66920460261 225 226 230
133.724032692644 752.490681382826 2859.22799717732 231 232 236
126.956750163252 753.418388290201 2862.97673761464 232 233 237
118.48976175067 754.662655858755 2865.53270495731 236 237 241
111.704028391876 755.592511879869 2869.2994497029 238 239 243
102.360870534767 756.998200485879 2871.2846989796 242 243 247
91.2945392377904 758.723480218208 2872.09969304894 244 245 249
76.7855207673844 761.087127026084 2870.57066304393 245 246 250
62.2345364918391 763.455933314944 2869.08288097674 243 244 248
42.4943483113993 766.785509622923 2864.1039221181 239 240 244
26.9876496007875 769.32554202182 2862.122624309 239 240 244
10.5733198285511 772.030843757259 2859.60128150785 237 238 243
-5.89088202706289 774.742373692417 2857.12854189755 237 238 243
-20.6737473225491 777.139586704708 2855.86682260968 238 239 244
-35.4987465793473 779.542052403477 2854.64616662348 240 240 248
-45.149378505625 780.985690475807 2856.93079543962 241 241 249
-56.5616212916198 782.753693315236 2858.08297027449 241 242 247
-65.3806877961025 784.041638295647 2860.9821008647 241 239 242
-74.2151010808092 785.331589988292 2863.89583660135 248 246 249
292.275114102287 725.528738313377 2725.60747474878 254 255 255
285.63258577624 726.442074254167 2729.23445644055 253 255 254
280.56297685766 727.059242607673 2734.17743582617 247 248 250
276.286036345136 727.527272583284 2739.77257351362 254 255 255
273.601235444734 727.696724997328 2746.66464129873 240 241 243
269.336697057199 728.162555868841 2752.24745067736 227 228 232
265.076605481832 728.627413367237 2757.82598816989 243 244 248
259.221402401613 729.390751330889 2762.11056104897 223 224 229
257.371307027245 729.405071332114 2769.61359172809 227 228 233
253.126230469407 729.867328323054 2775.17760344012 225 226 231
246.46899442386 730.779556926349 2778.81969162077 233 234 239
240.611764818361 731.54186608944 2783.10609108369 216 215 220
232.322944847172 732.756655404625 2785.48949140323 223 222 227
226.453451976808 733.519907820933 2789.78826689902 228 227 232
218.953775015845 734.585898290639 2792.82693826582 218 217 222
215.519489403401 734.895611861942 2799.0256155939 214 213 218
211.27615094554 735.355880672969 2804.58819519908 216 215 220
205.39897054788 736.119217691845 2808.8945920189 216 215 220
199.518265831404 736.882776169711 2813.20411796588 214 213 218
194.457394751477 737.494125473698 2818.13928060152 229 228 233
190.22213964107 737.952536648858 2823.69444572295 226 225 230
186.817882745081 738.257475191175 2829.86367199689 228 227 232
178.449046848421 739.479875094454 2832.32540447167 224 225 229
169.234592518294 740.857249966445 2834.18703400101 240 241 245
159.168421532534 742.390322654032 2835.45417153122 247 248 252
154.921950267953 742.849512184462 2841.02002157699 179 180 184
148.170148854218 743.770078194494 2844.75444445911 178 179 183
143.088135721719 744.382972382438 2849.71037313232 232 233 237
136.325896049704 745.304605387567 2853.4553414998 215 216 220
131.240972107665 745.917689622825 2858.41413256101 211 212 216
124.467915347872 746.840581394002 2862.1693185695 223 224 228
117.687798828036 747.764291153371 2865.93173196776 222 223 227
110.051989221632 748.844317958291 2869.10351049968 233 234 238
103.25516698816 749.770028838563 2872.88187931176 233 234 238
93.042961963373 751.320155154145 2874.29151028273 237 238 242
81.1001050541802 753.185377202862 2874.53931451146 239 240 244
65.7029667625557 755.679695634975 2872.45597809103 236 237 241
47.6866169043242 758.649380257993 2868.65257060673 233 234 239
28.7527131156753 761.783003562377 2864.31883051404 233 234 239
12.3425281453766 764.452932203225 2861.79859999123 232 233 238
-4.11752675426946 767.128852896934 2859.32700542269 232 232 240
-18.8964202755146 769.49597589099 2858.06545155384 232 232 240
-31.9821669442701 771.552705181295 2858.00294820445 233 233 241
-43.3635803855816 773.29771559219 2859.12790731521 234 234 242
-54.7719488672316 775.046314058606 2860.27876502446 234 235 240
-62.7135394510803 776.164345657044 2863.74890933736 242 240 245
-75.0427392119897 778.077400866467 2864.3729501668 242 240 243
302.880150864033 716.897039866575 2726.27131864194 249 249 249
294.682101015703 718.093840625756 2728.56724158837 255 254 255
289.621438727038 718.710234927365 2733.50145124276 249 248 253
285.351297204823 719.180428230276 2739.0891798515 242 241 246
279.501633740328 719.941711554336 2743.36855548511 241 240 245
277.61816099125 719.972033069284 2750.90236537399 249 248 254
273.363100954833 720.439322641225 2756.47554701456 230 229 235
267.516890534459 721.199168184156 2760.75170622774 242 243 247
259.268014402544 722.399722806788 2763.09754560574 219 220 225
255.012516013624 722.866183107631 2768.67128510273 223 224 229
250.761399584126 723.331796148729 2774.24079847385 221 222 227
245.709246931618 723.944110265337 2779.16716098331 230 231 236
239.042623774578 724.851861255848 2782.81923249364 213 212 217
231.559214778355 725.908252880323 2785.84316823611 220 219 224
225.687599563059 726.669060285914 2790.14441262331 225 224 229
218.999133655832 727.57863443884 2793.81756700288 214 213 218
214.749264763514 728.042498049738 2799.38610011616 210 209 214
209.686666353764 728.654654799361 2804.32285867575 215 214 219
203.805514653471 729.41572092919 2808.6335346942 215 214 219
196.278817013904 730.475918647845 2811.69989416037 221 220 225
191.210060078886 731.088144151515 2816.64275806477 230 229 234
186.966705465793 731.55018406396 2822.20509194432 225 224 229
185.208583503776 731.560975046478 2829.61765109478 223 222 227
176.006922900791 732.923482117831 2831.46843587638 230 231 235
166.78664002585 734.288028940417 2833.33774921699 253 254 255
156.714685448191 735.805673283204 2834.61291024207 229 230 234
152.462259884767 736.268149107152 2840.18418728186 169 170 174
147.377823812986 736.881289776265 2845.14248553979 220 221 225
143.132266923998 737.342663819356 2850.70710472706 198 199 203
136.369991221876 738.258935203443 2854.45290131822 196 197 201
131.285068356853 738.871901365273 2859.41170876114 208 209 213
126.200656236187 739.484744170835 2864.37002725936 216 217 221
119.424163689474 740.402526007856 2868.12938030108 221 222 226
111.792339975321 741.47391262967 2871.29847779836 226 227 231
102.449300664775 742.852637537301 2873.28759457942 230 231 235
93.9393582040498 744.080324773858 2875.88866649271 237 238 242
79.4365340998828 746.384103919312 2874.36233380481 237 238 242
62.3241391028704 749.153896197504 2871.10773909939 234 235 239
43.442412703155 752.238071376097 2866.72949449957 230 231 236
27.9381324346284 754.713169058119 2864.75539246452 231 232 237
8.94144150704435 757.81135255364 2860.48957675923 230 231 236
-7.52603271810104 760.45329902594 2858.03037106567 230 230 238
-19.7157486494954 762.327128523028 2858.52169993359 230 230 238
-31.0683326678949 764.049575533783 2859.62136586191 231 231 239
-42.447576018998 765.775501314678 2860.74699074099 231 231 239
-54.7250462796613 767.660275701676 2861.32384330518 232 233 238
-62.6663919423214 768.770079757026 2864.794960435 240 238 243
-72.3697546832245 770.193475601523 2867.134943522 234 232 237
-24.1447362915128 760.998881329162 2915.54542550729 213 212 210
310.696350819402 709.108219024022 2715.40983506544 255 255 253
311.894306171261 708.58894005949 2725.63328496392 255 254 252
305.281353422446 709.488699734811 2729.23290423639 240 238 239
297.875041232718 710.531598076914 2732.18227601155 248 247 253
291.245598828671 711.432669940543 2735.79807581458 246 245 251
287.769239724735 711.761957999977 2742.03563964087 243 242 248
282.717108587581 712.376569188465 2746.96164127904 225 224 230
279.253339946367 712.703680331754 2753.18702433698 255 254 255
274.206061688377 713.317031080623 2758.10839328682 236 235 241
266.765905587124 714.361896201299 2761.09108187741 239 238 244
257.715073561586 715.696189796966 2762.79626159135 220 219 225
251.852206391633 716.454714995911 2767.08915634935 214 213 219
250.004002110568 716.48984846583 2774.58723292329 223 222 228
244.144159582149 717.247343703559 2778.87727639536 221 220 226
238.280960891086 718.004967194784 2783.17063363073 202 201 206
231.604869116212 718.908145947938 2786.83244555124 212 211 216
227.355695013115 719.374988348593 2792.39984846473 211 210 215
220.67116544024 720.278746031736 2796.07029151979 207 206 211
