ply
format ascii 1.0
comment KinectMotionCapture
element vertex 763
property float x
property float y
property float z
property uchar red
property uchar green
property uchar blue
end_header
334.039270877838 839.777827262878 2585.00003814697 134 135 129
340.114235877991 837.485611438751 2578.00006866455 139 140 134
346.824020147324 836.81732416153 2575.99997520447 136 137 131
353.660017251968 836.473882198334 2575.00004768372 145 146 140
360.490173101425 836.130321025848 2573.99988174438 139 140 134
367.029100656509 835.136950016022 2571.00009918213 129 130 124
373.260349035263 833.493709564209 2565.99998474121 134 135 129
379.760593175888 832.500338554382 2562.99996376038 130 131 125
386.244207620621 831.506609916687 2559.99994277954 122 123 117
392.864882946014 830.837905406952 2558.00008773804 126 127 121
399.161696434021 829.519391059875 2553.99990081787 129 130 124
405.754566192627 828.850567340851 2552.00004577637 130 131 125
412.336260080338 828.181684017181 2549.99995231628 129 130 124
418.906778097153 827.512800693512 2548.00009727478 123 124 118
425.633251667023 827.168703079224 2546.99993133545 118 120 117
432.523816823959 827.149331569672 2546.99993133545 111 113 110
439.069002866745 826.480507850647 2545.00007629395 100 102 99
445.603102445602 825.811743736267 2542.99998283386 102 104 101
452.837824821472 826.442003250122 2545.00007629395 105 107 104
461.708754301071 829.994738101959 2555.99999427795 95 97 94
-46.4486554265022 873.601138591766 2710.00003814697 185 181 169
-38.9262996613979 869.735717773438 2697.99995422363 149 137 115
-31.5861217677593 869.093537330627 2696.00009918213 144 128 102
-24.2207143455744 867.161214351654 2690.00005722046 140 114 89
-16.8689358979464 864.261329174042 2680.99999427795 126 96 70
-9.56236198544502 861.038565635681 2671.0000038147 144 110 82
-2.31348350644112 859.104752540588 2664.99996185303 143 112 83
4.91576222702861 859.426975250244 2665.99988937378 135 106 76
12.1322013437748 858.45947265625 2663.00010681152 117 92 62
19.3468816578388 858.135879039764 2661.99994087219 115 90 60
26.5660807490349 858.134329319 2661.99994087219 112 84 60
33.8106267154217 858.776986598969 2664.00003433228 111 80 59
41.0505458712578 859.096705913544 2664.99996185303 105 79 52
48.2958219945431 859.41606760025 2665.99988937378 105 80 50
55.671401321888 861.668944358826 2673.00009727478 108 81 52
62.9906952381134 862.631916999817 2676.00011825562 123 92 63
70.3523978590965 863.916754722595 2680.0000667572 128 97 68
77.6198357343674 863.911747932434 2680.0000667572 142 111 83
85.1405188441277 866.484940052032 2687.99996376038 150 120 96
92.7732214331627 869.702339172363 2697.99995422363 166 144 123
100.79387575388 875.820398330688 2717.00000762939 174 155 138
189.672499895096 877.960324287415 2723.99997711182 203 205 204
195.464193820953 870.857000350952 2701.99990272522 220 222 221
201.661691069603 866.009771823883 2687.00003623962 231 233 230
208.399668335915 863.740503787994 2680.0000667572 239 240 235
215.099394321442 861.470878124237 2673.00009727478 247 248 243
221.927165985107 859.845459461212 2667.99998283386 245 246 241
229.071080684662 859.508812427521 2667.00005531311 255 255 251
235.943481326103 858.205139636993 2663.00010681152 255 255 251
242.793798446655 856.901049613953 2658.99991989136 208 209 204
249.43408370018 854.952156543732 2653.00011634827 204 205 200
255.847990512848 852.358460426331 2644.99998092651 244 245 240
262.11878657341 849.442303180695 2635.99991798401 232 233 228
268.646895885468 847.492694854736 2630.00011444092 198 199 194
275.246977806091 845.865070819855 2625 207 208 203
281.819581985474 844.237148761749 2619.99988555908 193 194 189
288.25443983078 842.286825180054 2614.00008201599 162 163 158
294.656455516815 840.336382389069 2608.00004005432 167 168 163
301.372617483139 839.352190494537 2605.00001907349 160 161 156
307.953745126724 838.04577589035 2601.0000705719 144 145 140
314.755022525787 837.383389472961 2598.99997711182 140 141 135
321.421265602112 836.398720741272 2595.99995613098 136 137 131
327.817916870117 834.769487380981 2591.00008010864 135 136 130
334.186941385269 833.140075206757 2585.99996566772 133 134 128
340.528607368469 831.510603427887 2581.00008964539 136 137 131
347.381323575974 831.169545650482 2579.99992370605 132 133 127
354.365617036819 831.150591373444 2579.99992370605 138 139 133
361.489593982697 831.453561782837 2581.00008964539 129 130 124
368.190288543701 830.789983272552 2578.9999961853 125 126 120
374.297887086868 828.837752342224 2572.99995422363 131 132 126
380.520790815353 827.207744121552 2568.00007820129 121 122 116
387.017995119095 826.221704483032 2565.00005722046 127 128 122
393.652230501175 825.557827949524 2562.99996376038 131 132 126
400.275319814682 824.894070625305 2561.00010871887 124 125 119
406.728148460388 823.908030986786 2558.00008773804 126 127 121
413.164377212524 822.921931743622 2555.0000667572 128 129 123
420.077264308929 822.902143001556 2555.0000667572 120 121 115
427.156865596771 823.204278945923 2555.99999427795 110 112 109
433.732122182846 822.540283203125 2553.99990081787 102 104 101
440.123736858368 821.55430316925 2551.00011825562 97 99 96
447.199732065201 821.856617927551 2552.00004577637 103 105 102
455.526292324066 824.413061141968 2559.99994277954 99 101 98
-61.5572668612003 872.058570384979 2727.9999256134 207 207 195
-53.7419803440571 865.349590778351 2707.00001716614 183 179 167
-46.2976172566414 863.434970378876 2700.99997520447 153 147 133
-38.9145836234093 862.159311771393 2697.00002670288 161 146 123
-31.6000357270241 862.161695957184 2697.00002670288 151 134 108
-24.2494195699692 860.88502407074 2693.00007820129 137 111 86
-16.8952830135822 858.329057693481 2684.99994277954 127 97 71
-9.58093255758286 855.452954769135 2676.00011825562 133 99 72
-2.31798598542809 853.535294532776 2670.00007629395 141 110 81
4.92532597854733 853.854894638062 2671.0000038147 141 110 81
12.1558280661702 852.895200252533 2667.99998283386 122 95 66
19.3991083651781 853.213727474213 2668.99991035461 119 93 66
26.6278199851513 852.892518043518 2667.99998283386 115 89 66
33.8891334831715 853.529751300812 2670.00007629395 115 84 64
41.130430996418 853.527069091797 2670.00007629395 108 81 54
48.4441146254539 854.802668094635 2674.00002479553 107 82 52
55.7794161140919 856.077671051025 2677.99997329712 111 84 55
63.1363093852997 857.352197170258 2681.99992179871 127 96 67
70.409782230854 857.34748840332 2681.99992179871 131 100 71
77.654168009758 857.022762298584 2680.99999427795 143 112 84
85.1147174835205 858.935117721558 2687.00003623962 152 124 100
92.6420539617538 861.166477203369 2694.00000572205 166 144 123
100.207187235355 863.397479057312 2700.99997520447 177 158 141
107.611067593098 864.0296459198 2703.00006866455 181 165 152
115.578390657902 868.816792964935 2717.99993515015 250 239 233
123.807817697525 874.881863594055 2736.99998855591 254 247 241
173.63253235817 864.263296127319 2703.9999961853 223 223 221
180.02562224865 859.776794910431 2690.00005722046 255 255 253
186.551406979561 856.248915195465 2678.99990081787 247 247 245
193.596035242081 855.277597904205 2676.00011825562 219 219 217
200.323805212975 853.02722454071 2668.99991035461 231 232 227
207.47996866703 852.694272994995 2667.99998283386 220 221 216
214.388936758041 851.402223110199 2664.00003433228 212 213 208
221.442252397537 850.748896598816 2661.99994087219 194 195 190
228.484392166138 850.095272064209 2660.00008583069 199 200 195
235.515385866165 849.441230297089 2657.99999237061 191 192 187
242.443814873695 848.467350006104 2654.99997138977 194 195 190
248.979523777962 846.214830875397 2648.00000190735 187 188 183
255.380243062973 843.642592430115 2640.00010490417 194 195 190
261.63774728775 840.750336647034 2631.00004196167 193 194 189
268.459022045136 839.775323867798 2628.00002098084 167 168 163
275.158822536469 838.480412960052 2624.00007247925 177 178 172
281.836539506912 837.185204029083 2619.99988555908 136 137 131
288.271725177765 835.250914096832 2614.00008201599 139 140 134
294.899851083755 833.95516872406 2609.99989509583 134 135 129
301.737427711487 833.29850435257 2608.00004005432 142 143 137
308.326900005341 832.002401351929 2604.00009155273 140 141 135
315.257668495178 831.664681434631 2602.9999256134 131 132 124
321.811109781265 830.368161201477 2598.99997711182 133 134 126
328.595578670502 829.710483551025 2596.99988365173 129 130 122
334.981083869934 828.094303607941 2592.00000762939 136 137 129
341.47110581398 826.797425746918 2588.00005912781 128 129 121
348.073661327362 825.819790363312 2585.00003814697 139 140 132
354.934304952621 825.480997562408 2584.00011062622 126 127 121
361.649066209793 824.82248544693 2582.00001716614 120 121 115
368.352591991425 824.163973331451 2579.99992370605 133 134 128
374.899417161942 823.185861110687 2576.99990272522 120 121 115
381.281405687332 821.888208389282 2572.99995422363 115 116 110
387.943208217621 821.229517459869 2571.00009918213 128 129 123
394.900918006897 821.209311485291 2571.00009918213 120 121 115
401.54567360878 820.550441741943 2569.00000572205 124 125 119
407.861173152924 819.252550601959 2565.00005722046 127 128 122
414.154648780823 817.954778671265 2561.00010871887 110 111 105
421.741485595703 819.211959838867 2565.00005722046 106 107 102
429.182529449463 820.149838924408 2568.00007820129 104 106 103
435.790181159973 819.490551948547 2565.99998474121 103 105 102
442.21419095993 818.512141704559 2562.99996376038 106 108 105
-68.5306191444397 859.327435493469 2710.99996566772 217 217 209
-60.9297230839729 855.845332145691 2700.00004768372 206 206 196
-53.5273663699627 854.581415653229 2696.00009918213 197 193 181
-46.1980290710926 854.26789522171 2694.9999332428 155 149 137
-38.9173291623592 854.90494966507 2697.00002670288 147 135 113
-31.5905511379242 854.59041595459 2696.00009918213 138 122 97
-24.2511294782162 853.641450405121 2693.00007820129 133 107 84
-16.9090647250414 851.741075515747 2687.00003623962 133 103 77
-9.59951151162386 849.839985370636 2680.99999427795 131 97 70
-2.32422724366188 848.572552204132 2677.00004577637 135 104 76
4.9330503679812 847.938418388367 2674.99995231628 139 108 80
12.1749127283692 846.986889839172 2671.99993133545 126 99 72
19.4077491760254 846.351861953735 2670.00007629395 120 94 67
26.6396813094616 846.033215522766 2668.99991035461 117 91 68
33.8915288448334 846.347987651825 2670.00007629395 116 85 65
41.1333329975605 846.345365047455 2670.00007629395 108 80 56
48.4656468033791 847.927093505859 2674.99995231628 108 83 53
55.7833388447762 848.874270915985 2677.99997329712 111 84 55
63.1878301501274 850.771963596344 2684.00001525879 122 91 62
70.4147219657898 850.133419036865 2681.99992179871 130 99 70
77.688567340374 850.12811422348 2681.99992179871 144 114 86
85.0889906287193 851.390302181244 2686.00010871887 142 114 90
92.5453379750252 852.968871593475 2690.99998474121 151 128 110
99.9544411897659 853.913068771362 2694.00000572205 172 153 138
107.180573046207 853.271901607513 2691.99991226196 186 169 159
114.820912480354 855.799853801727 2700.00004768372 252 241 235
122.549705207348 858.644306659698 2709.00011062622 237 229 226
130.614757537842 863.389849662781 2723.99997711182 244 244 242
138.102367520332 864.014565944672 2726.0000705719 235 235 233
145.493820309639 864.004790782928 2726.0000705719 234 234 232
152.324184775352 860.82512140274 2716.00008010864 246 246 244
159.217640757561 858.278870582581 2707.99994468689 246 246 244
166.005954146385 855.415344238281 2698.99988174438 252 252 250
172.552525997162 851.600587368011 2687.00003623962 231 231 229
179.502248764038 850.004076957703 2681.99992179871 222 223 218
186.215654015541 847.456395626068 2674.00002479553 214 215 210
193.247109651566 846.492886543274 2671.0000038147 201 202 197
200.036808848381 844.578266143799 2664.99996185303 194 195 190
207.18252658844 844.247877597809 2664.00003433228 176 175 170
214.161515235901 843.283236026764 2661.00001335144 187 186 181
221.456632018089 843.585848808289 2661.99994087219 155 154 149
228.413268923759 842.620491981506 2658.99991989136 169 168 163
235.441878437996 841.971695423126 2657.00006484985 193 192 187
242.002695798874 839.738130569458 2650.00009536743 185 184 179
248.807221651077 838.454782962799 2645.99990844727 173 172 167
255.49304485321 836.854577064514 2641.00003242493 169 168 163
262.151330709457 835.253775119781 2635.99991798401 171 170 165
268.680036067963 833.335995674133 2630.00011444092 149 148 143
275.385528802872 832.051634788513 2625.99992752075 155 154 149
281.853795051575 830.133318901062 2619.99988555908 142 142 134
288.509726524353 828.848361968994 2615.9999370575 137 137 129
295.256584882736 827.880144119263 2612.99991607666 138 138 130
302.102535963058 827.228486537933 2611.00006103516 138 138 130
308.937191963196 826.57653093338 2608.99996757507 138 138 130
315.397262573242 824.973940849304 2604.00009155273 134 134 126
322.325110435486 824.638307094574 2602.9999256134 132 132 124
328.994125127792 823.668956756592 2599.99990463257 131 131 123
335.646420717239 822.699368000031 2596.99988365173 132 132 124
342.414021492004 822.046518325806 2595.00002861023 132 132 124
349.170327186584 821.393311023712 2592.99993515015 132 132 124
355.778098106384 820.423305034637 2589.99991416931 125 126 121
362.229108810425 819.136321544647 2585.99996566772 127 128 123
369.086384773254 818.799555301666 2585.00003814697 125 126 121
376.374304294586 819.41282749176 2586.99989318848 121 122 117
382.931649684906 818.442344665527 2584.00011062622 122 123 118
389.774173498154 818.105161190033 2582.99994468689 117 118 113
396.303653717041 817.134439945221 2579.99992370605 122 123 118
403.129160404205 816.797137260437 2578.9999961853 121 122 117
409.312725067139 815.192878246307 2573.99988174438 120 121 116
415.954083204269 814.538896083832 2572.00002670288 105 106 101
423.406362533569 815.468192100525 2575.00004768372 101 102 97
431.375831365585 817.347347736359 2581.00008964539 96 98 95
438.698083162308 817.959845066071 2582.99994468689 104 106 103
-91.0954922437668 856.732189655304 2726.0000705719 226 228 225
-83.2107588648796 851.70978307724 2710.00003814697 234 236 233
-75.7205784320831 850.14396905899 2704.99992370605 214 215 209
-68.2826787233353 848.892033100128 2700.99997520447 210 209 204
-60.7760772109032 846.382319927216 2693.00007820129 198 198 190
-53.4318946301937 845.757782459259 2690.99998474121 189 185 174
-46.1156070232391 845.44712305069 2690.00005722046 189 182 172
-38.8623811304569 846.393048763275 2693.00007820129 133 122 104
-31.5342135727406 845.766961574554 2690.99998474121 129 114 93
-24.2078322917223 844.82604265213 2687.99996376038 141 116 94
-16.8850980699062 843.256115913391 2683.00008773804 136 108 86
-9.58945602178574 841.685593128204 2677.99997329712 131 99 74
-2.32265703380108 840.743064880371 2674.99995231628 133 101 76
4.93155932053924 840.428709983826 2674.00002479553 138 108 82
12.1712274849415 839.485287666321 2671.0000038147 128 102 77
19.401865079999 838.855445384979 2668.99991035461 125 99 74
26.6515649855137 839.168190956116 2670.00007629395 126 98 76
33.9193344116211 839.794516563416 2671.99993133545 122 91 71
41.167076677084 839.791834354401 2671.99993133545 113 85 63
48.4509840607643 840.417265892029 2674.00002479553 115 87 63
55.724810808897 840.727746486664 2674.99995231628 118 90 66
63.0981400609016 842.294931411743 2680.0000667572 126 99 72
70.3672096133232 842.290341854095 2680.0000667572 131 104 77
77.6650980114937 842.599213123322 2680.99999427795 139 113 88
84.9999561905861 843.222081661224 2683.00008773804 138 114 90
92.3455059528351 843.844294548035 2684.99994277954 155 136 119
99.8130589723587 845.408916473389 2690.00005722046 160 144 131
107.10846632719 845.401585102081 2690.00005722046 219 206 197
114.743910729885 847.907960414886 2697.99995422363 223 215 212
122.105844318867 848.213851451874 2698.99988174438 225 220 217
129.808649420738 850.719213485718 2707.00001716614 220 219 217
136.997327208519 849.767029285431 2703.9999961853 243 242 240
144.436359405518 850.385844707489 2706.00008964539 243 242 240
151.437267661095 848.490059375763 2700.00004768372 218 217 215
158.581778407097 847.536504268646 2697.00002670288 214 213 209
165.279194712639 844.38294172287 2687.00003623962 193 192 188
171.922072768211 841.228902339935 2677.00004577637 181 180 176
178.912028670311 839.959919452667 2673.00009727478 186 185 181
185.88000535965 838.690459728241 2668.99991035461 184 183 179
192.97069311142 838.049292564392 2667.00005531311 182 181 176
199.824973940849 836.464762687683 2661.99994087219 163 162 157
206.96297287941 836.136937141418 2661.00001335144 151 148 143
214.175686240196 836.122870445251 2661.00001335144 157 154 149
221.471220254898 836.422622203827 2661.99994087219 144 141 136
228.342309594154 835.150897502899 2657.99999237061 170 167 162
235.102742910385 833.564758300781 2653.00011634827 146 143 138
241.744354367256 831.664025783539 2647.0000743866 165 162 157
248.729199171066 831.019699573517 2644.99998092651 150 147 142
255.509346723557 829.746782779694 2641.00003242493 140 137 132
262.366890907288 828.787624835968 2638.00001144409 145 142 137
268.901288509369 826.88570022583 2631.99996948242 141 138 133
275.717377662659 825.926065444946 2628.99994850159 149 146 141
282.194018363953 824.02366399765 2622.99990653992 135 135 127
288.968652486801 823.063313961029 2619.99988555908 129 129 121
295.952647924423 822.731137275696 2618.99995803833 134 134 126
302.699387073517 821.770489215851 2615.9999370575 135 135 127
309.429407119751 820.809364318848 2612.99991607666 132 132 124
316.021651029587 819.534063339233 2608.99996757507 127 126 121
322.839498519897 818.886935710907 2607.00011253357 129 128 123
329.51956987381 817.925333976746 2604.00009155273 131 130 125
336.182862520218 816.963493824005 2601.0000705719 129 128 123
342.829555273056 816.00147485733 2598.00004959106 123 122 117
349.594205617905 815.353393554688 2595.99995613098 122 121 116
356.347620487213 814.7052526474 2594.00010108948 131 132 127
363.229840993881 814.37087059021 2592.99993515015 131 132 127
370.248973369598 814.350485801697 2592.99993515015 118 119 114
377.267748117447 814.32980298996 2592.99993515015 119 120 115
384.286016225815 814.309120178223 2592.99993515015 122 123 118
391.002118587494 813.660144805908 2591.00008010864 111 112 107
397.553384304047 812.697231769562 2588.00005912781 130 131 126
404.087960720062 811.734080314636 2585.00003814697 107 108 103
410.764873027802 811.084926128387 2582.99994468689 109 110 105
417.754054069519 811.063706874847 2582.99994468689 99 100 95
424.907326698303 811.356604099274 2584.00011062622 105 106 101
431.062638759613 809.76527929306 2578.9999961853 89 91 88
-112.908810377121 846.572577953339 2717.00000762939 208 210 207
-105.267889797688 844.399273395538 2710.00003814697 226 228 225
-97.6647511124611 842.225432395935 2703.00006866455 230 232 231
-90.0659710168839 839.739382266998 2694.9999332428 226 228 225
-82.6946869492531 839.122474193573 2693.00007820129 224 226 223
-75.4460617899895 839.751243591309 2694.9999332428 205 206 201
-68.1358873844147 839.756369590759 2694.9999332428 199 198 194
-60.7127360999584 838.203132152557 2690.00005722046 191 190 185
-53.3364564180374 836.960911750793 2686.00010871887 190 186 177
-46.0332036018372 836.652755737305 2684.99994277954 207 200 192
-38.7785919010639 837.279140949249 2687.00003623962 120 111 94
-31.501330435276 837.593257427216 2687.99996376038 126 113 94
-24.173554033041 836.34889125824 2684.00001525879 143 121 100
-16.8737303465605 835.415482521057 2680.99999427795 132 105 84
-9.58656799048185 834.17010307312 2677.00004577637 136 106 82
-2.32195644639432 833.235681056976 2674.00002479553 130 100 74
4.93007153272629 832.923948764801 2673.00009727478 134 107 80
12.1584348380566 831.365346908569 2667.99998283386 127 101 76
19.3887297064066 831.052541732788 2667.00005531311 123 97 72
26.6235396265984 831.050872802734 2667.00005531311 128 100 79
33.8963903486729 831.98356628418 2670.00007629395 127 96 78
41.139230132103 831.980884075165 2670.00007629395 117 89 68
48.3638644218445 831.665933132172 2668.99991035461 119 91 69
55.6246563792229 831.973791122437 2670.00007629395 124 96 72
63.0084946751595 833.839178085327 2676.00011825562 129 101 77
70.3722462058067 835.080683231354 2680.0000667572 134 108 83
77.6996240019798 835.698485374451 2681.99992179871 143 119 95
84.8792865872383 834.75786447525 2678.99990081787 147 125 102
92.1457260847092 834.751546382904 2678.99990081787 157 141 125
99.560409784317 835.991144180298 2683.00008773804 190 178 166
106.996603310108 837.230026721954 2687.00003623962 223 216 210
114.709503948689 840.338051319122 2697.00002670288 223 218 215
122.114464640617 840.952694416046 2698.99988174438 218 214 213
129.57800924778 841.878592967987 2701.99990272522 218 217 215
136.702924966812 840.622782707214 2697.99995422363 228 227 225
144.07280087471 840.924441814423 2698.99988174438 218 217 215
151.111274957657 839.356362819672 2694.00000572205 197 196 194
158.239990472794 838.4108543396 2690.99998474121 203 202 198
165.106073021889 836.218655109406 2684.00001525879 188 187 183
171.93391919136 834.026098251343 2677.00004577637 181 180 176
178.924322128296 832.767724990845 2673.00009727478 183 182 178
185.962349176407 831.820487976074 2670.00007629395 176 175 171
193.056166172028 831.184387207031 2667.99998283386 178 177 172
199.838519096375 829.301774501801 2661.99994087219 157 156 151
206.899136304855 828.66495847702 2660.00008583069 151 148 143
214.029043912888 828.339159488678 2658.99991989136 152 149 144
221.48597240448 829.259097576141 2661.99994087219 145 142 137
228.271543979645 827.686488628387 2657.00006484985 169 166 161
235.029578208923 826.113522052765 2651.99995040894 142 139 134
241.668835282326 824.228763580322 2645.99990844727 153 150 145
248.839408159256 824.212670326233 2645.99990844727 143 140 135
255.719363689423 823.261678218842 2642.99988746643 140 137 132
262.582689523697 822.310566902161 2640.00010490417 146 143 138
269.020587205887 820.113062858582 2632.99989700317 140 137 132
275.734812021255 818.849682807922 2628.99994850159 144 141 136
282.319396734238 817.274689674377 2624.00007247925 133 133 125
289.317637681961 816.945195198059 2622.99990653992 128 128 120
296.422988176346 816.926836967468 2622.99990653992 134 134 126
303.065121173859 815.662503242493 2618.99995803833 134 134 126
309.921979904175 815.020799636841 2617.00010299683 131 131 123
316.404193639755 813.444495201111 2611.99998855591 127 126 121
323.23032617569 812.802195549011 2609.99989509583 130 129 124
329.79217171669 811.537027359009 2605.99994659424 129 128 123
336.719632148743 811.205744743347 2605.00001907349 124 123 118
343.509286642075 810.562968254089 2602.9999256134 123 122 117
350.422412157059 810.231387615204 2601.99999809265 126 125 120
357.741743326187 810.833632946014 2604.00009155273 129 130 125
365.071445703506 811.435759067535 2605.99994659424 118 119 114
372.125953435898 811.414837837219 2605.99994659424 106 107 102
378.743559122086 810.459792613983 2602.9999256134 118 119 114
385.789066553116 810.438692569733 2602.9999256134 124 125 120
392.683267593384 810.106098651886 2601.99999809265 126 127 122
399.110734462738 808.839440345764 2598.00004959106 109 110 105
405.828773975372 808.195173740387 2595.99995613098 111 112 107
412.535607814789 807.551085948944 2594.00010108948 99 100 95
419.554620981216 807.529389858246 2594.00010108948 110 111 106
-135.67017018795 843.251466751099 2730.00001907349 236 241 237
-127.420365810394 837.700963020325 2711.99989318848 235 240 236
-119.356490671635 832.767605781555 2696.00009918213 240 241 236
-111.919485032558 831.849336624146 2693.00007820129 235 234 230
-104.459658265114 830.621421337128 2688.99989128113 215 215 213
-97.2381681203842 831.246495246887 2690.99998474121 209 209 209
-89.9722054600716 831.562221050262 2691.99991226196 206 206 206
-82.6392397284508 831.259489059448 2690.99998474121 206 206 206
-75.3395408391953 831.265389919281 2690.99998474121 200 200 200
-68.0902674794197 831.888437271118 2693.00007820129 190 189 187
-60.6945715844631 830.657362937927 2688.99989128113 188 187 185
-53.3204711973667 829.425930976868 2684.99994277954 189 186 181
-45.9851175546646 828.502833843231 2681.99992179871 178 173 169
-38.6948175728321 828.197002410889 2680.99999427795 174 168 154
-31.4215905964375 828.199625015259 2680.99999427795 140 131 114
-24.1212751716375 827.274799346924 2677.99997329712 131 112 97
-16.8560799211264 827.276408672333 2677.99997329712 138 115 97
-9.5765246078372 826.041698455811 2674.00002479553 139 111 90
-2.32125772163272 825.733244419098 2673.00009727478 142 114 92
4.92674205452204 825.115263462067 2671.0000038147 147 119 97
12.1593233197927 824.187994003296 2667.99998283386 141 115 90
19.39014531672 823.87787103653 2667.00005531311 130 104 81
26.6354642808437 824.185013771057 2667.99998283386 133 105 84
33.9369550347328 825.727462768555 2673.00009727478 138 105 88
41.1884561181068 825.72478055954 2673.00009727478 124 95 77
48.3855083584785 824.794709682465 2670.00007629395 123 96 77
55.5870272219181 824.173033237457 2667.99998283386 128 101 80
62.9659742116928 826.022207736969 2674.00002479553 136 109 88
70.3510865569115 827.561736106873 2678.99990081787 148 123 101
77.6183232665062 827.556371688843 2678.99990081787 167 146 125
84.6636295318604 825.388193130493 2671.99993133545 174 157 139
91.8771922588348 825.073003768921 2671.0000038147 204 192 178
99.3077903985977 826.610505580902 2676.00011825562 231 224 214
106.844991445541 828.765392303467 2683.00008773804 209 208 204
114.590100944042 832.155227661133 2694.00000572205 199 199 199
121.942199766636 832.455575466156 2694.9999332428 222 222 222
129.20355796814 832.137644290924 2694.00000572205 225 224 222
136.256575584412 830.58375120163 2688.99989128113 218 217 215
143.709301948547 831.500470638275 2691.99991226196 207 206 204
150.841444730759 830.563366413116 2688.99989128113 201 200 198
158.13347697258 830.552458763123 2688.99989128113 191 190 186
164.87155854702 827.761352062225 2680.0000667572 189 188 184
171.753197908401 825.896263122559 2674.00002479553 174 173 168
178.53507399559 823.722124099731 2667.00005531311 168 167 162
185.696586966515 823.400497436523 2665.99988937378 155 154 149
192.707628011703 822.460889816284 2663.00010681152 162 161 156
199.852183461189 822.138428688049 2661.99994087219 149 148 143
206.83541893959 821.197867393494 2658.99991989136 150 147 140
214.043572545052 821.183621883392 2658.99991989136 148 145 138
221.334502100945 821.477591991425 2660.00008583069 154 151 144
228.372767567635 820.844769477844 2657.99999237061 157 154 147
235.222533345222 819.594025611877 2654.00004386902 146 143 136
242.050230503082 818.342745304108 2650.00009536743 143 140 133
249.137938022614 818.017542362213 2648.9999294281 139 136 129
256.219923496246 817.69210100174 2648.00000190735 137 134 127
263.097107410431 816.748678684235 2644.99998092651 137 134 127
269.753247499466 815.187394618988 2640.00010490417 137 134 127
276.172041893005 813.008248806 2632.99989700317 139 136 129
282.982975244522 812.063932418823 2630.00011444092 131 131 123
289.887458086014 811.428129673004 2628.00002098084 127 127 119
297.006696462631 811.409592628479 2628.00002098084 133 132 127
303.662598133087 810.155630111694 2624.00007247925 133 132 127
310.533255338669 809.518992900848 2621.99997901917 129 128 123
317.150413990021 808.264672756195 2618.00003051758 130 129 124
323.993027210236 807.627439498901 2615.9999370575 132 131 126
330.824494361877 806.990206241608 2614.00008201599 125 124 120
337.773829698563 806.661307811737 2612.99991607666 119 118 114
344.585359096527 806.023478507996 2611.00006103516 125 124 120
351.520270109177 805.694222450256 2609.99989509583 132 131 127
359.136313199997 806.908130645752 2614.00008201599 115 116 111
366.493344306946 807.504534721375 2615.9999370575 105 106 101
373.289555311203 806.865990161896 2614.00008201599 107 108 103
379.492372274399 804.992616176605 2608.00004005432 123 124 119
386.403352022171 804.662466049194 2607.00011253357 124 125 120
393.761247396469 805.258095264435 2608.99996757507 117 118 113
401.283174753189 806.162178516388 2611.99998855591 116 117 112
408.664554357529 806.757509708405 2614.00008201599 102 103 98
417.169600725174 809.512972831726 2622.99990653992 106 107 102
-156.619742512703 829.138338565826 2707.99994468689 211 216 212
-148.503869771957 824.862658977509 2694.00000572205 226 231 227
-141.30225777626 825.485467910767 2696.00009918213 243 248 244
-133.890718221664 824.882984161377 2694.00000572205 242 247 243
-126.536786556244 824.586272239685 2693.00007820129 226 228 225
-119.099460542202 823.676586151123 2690.00005722046 212 211 207
-111.719764769077 823.072552680969 2687.99996376038 212 208 205
-104.15643453598 820.936918258667 2680.99999427795 205 204 202
-96.8838632106781 820.944249629974 2680.99999427795 204 202 203
-89.6779447793961 821.563541889191 2683.00008773804 197 197 197
-82.4917256832123 822.48854637146 2686.00010871887 195 195 195
-75.233057141304 822.800397872925 2687.00003623962 194 194 194
-67.9688155651093 823.111891746521 2687.99996376038 184 182 183
-60.6313087046146 822.504281997681 2686.00010871887 185 184 182
-53.2648079097271 821.283519268036 2681.99992179871 182 181 177
-45.9542013704777 820.6747174263 2680.0000667572 178 174 171
-38.6543646454811 820.065438747406 2677.99997329712 189 183 171
-31.3887372612953 820.068001747131 2677.99997329712 165 158 142
-24.1140443831682 819.763779640198 2677.00004577637 130 112 98
-16.8762058019638 820.990264415741 2680.99999427795 138 115 99
-9.59513708949089 820.378720760345 2678.99990081787 141 113 92
-2.32663960196078 820.379197597504 2678.99990081787 144 116 94
4.93079517036676 818.541824817657 2673.00009727478 145 117 95
12.1647762134671 817.316174507141 2668.99991035461 146 120 97
19.4061156362295 817.31504201889 2668.99991035461 134 108 85
26.6474112868309 817.313313484192 2668.99991035461 135 107 86
33.9267514646053 818.229734897614 2671.99993133545 141 108 89
41.2068963050842 818.839550018311 2674.00002479553 128 99 83
48.4253093600273 818.223774433136 2671.99993133545 126 99 82
55.6327812373638 817.607462406158 2670.00007629395 129 102 83
62.9705861210823 818.827986717224 2674.00002479553 136 111 91
70.3562349081039 820.354104042053 2678.99990081787 148 123 103
77.6529759168625 820.654928684235 2680.0000667572 165 147 127
84.7014933824539 818.505525588989 2673.00009727478 162 147 128
91.8838679790497 817.886531352997 2671.0000038147 209 199 187
99.2036610841751 818.491995334625 2673.00009727478 208 204 195
106.81290179491 821.240365505219 2681.99992179871 200 200 198
114.385686814785 823.375701904297 2688.99989128113 196 197 199
121.905721724033 824.89812374115 2694.00000572205 217 218 220
129.020988941193 823.664307594299 2690.00005722046 211 207 206
136.164993047714 822.736084461212 2687.00003623962 216 212 211
143.239080905914 821.50137424469 2683.00008773804 211 207 206
150.459483265877 821.184635162354 2681.99992179871 201 197 196
157.674208283424 820.867478847504 2680.99999427795 185 181 178
164.637118577957 819.32520866394 2676.00011825562 191 187 184
171.572580933571 817.782342433929 2671.0000038147 174 171 166
178.413689136505 815.932929515839 2664.99996185303 162 159 154
185.500577092171 815.307796001434 2663.00010681152 153 150 145
192.57627427578 814.682245254517 2661.00001335144 159 156 149
199.866011738777 814.974665641785 2661.99994087219 148 145 138
207.083061337471 814.960539340973 2661.99994087219 147 144 137
214.138731360435 814.33379650116 2660.00008583069 144 141 134
221.349582076073 814.318835735321 2660.00008583069 149 146 139
228.560104966164 814.303517341614 2660.00008583069 136 133 126
235.681563615799 813.981473445892 2658.99991989136 136 133 126
242.797195911407 813.659191131592 2657.99999237061 141 138 131
249.530807137489 812.112152576447 2653.00011634827 141 138 131
256.527155637741 811.482965946198 2651.00002288818 138 135 128
263.114392757416 809.629142284393 2644.99998092651 136 133 126
270.077407360077 808.999300003052 2642.99988746643 138 135 128
276.39976143837 806.532740592957 2634.99999046326 141 138 131
283.539205789566 806.5145611763 2634.99999046326 131 128 121
290.347248315811 805.57781457901 2631.99996948242 131 128 123
297.590643167496 805.864930152893 2632.99989700317 134 131 126
304.260402917862 804.621636867523 2628.99994850159 131 128 123
311.2633228302 804.296135902405 2628.00002098084 129 126 121
317.89693236351 803.052246570587 2624.00007247925 137 133 130
324.879944324493 802.726209163666 2622.99990653992 129 125 122
331.604033708572 801.787853240967 2619.99988555908 121 117 116
338.56987953186 801.461517810822 2618.99995803833 124 120 119
345.661878585815 801.440834999084 2618.99995803833 124 120 119
352.618664503098 801.113843917847 2618.00003051758 117 116 114
360.256552696228 802.316665649414 2621.99997901917 105 106 101
367.35525727272 802.295327186584 2621.99997901917 116 117 112
374.310672283173 801.967799663544 2621.00005149841 127 128 123
380.969196557999 801.028192043304 2618.00003051758 121 122 117
387.610882520676 800.088346004486 2615.00000953674 112 113 108
395.292460918427 801.290094852448 2618.99995803833 112 113 108
403.456181287766 803.409516811371 2625.99992752075 111 112 107
-163.793668150902 820.929229259491 2704.99992370605 232 234 231
-155.127137899399 813.960492610931 2681.99992179871 232 234 231
-147.687643766403 813.060879707336 2678.99990081787 231 233 230
-140.368983149529 812.76798248291 2677.99997329712 210 211 206
-133.204579353333 813.384890556335 2680.0000667572 193 195 190
-126.076057553291 814.304828643799 2683.00008773804 202 203 198
-118.88674646616 814.920842647552 2684.99994277954 207 206 204
-111.52008920908 814.322173595428 2683.00008773804 191 190 188
-103.930950164795 811.902105808258 2674.99995231628 188 187 185
-96.637986600399 811.605870723724 2674.00002479553 191 190 188
-89.3836989998817 811.612784862518 2674.00002479553 183 182 180
-82.2827965021133 813.136756420136 2678.99990081787 188 187 185
-75.0705972313881 813.749551773071 2680.99999427795 185 184 182
-67.8221136331558 814.058363437653 2681.99992179871 184 183 181
-60.5003535747528 813.456177711487 2680.0000667572 180 179 177
-53.1893111765385 812.853336334229 2677.99997329712 177 176 174
-45.8718724548817 811.946451663971 2674.99995231628 174 173 171
-38.5850630700588 811.342597007751 2673.00009727478 171 164 156
-31.3207395374775 811.041533946991 2671.99993133545 185 176 167
-24.0707956254482 811.043560504913 2671.99993133545 146 133 124
-16.8271008878946 811.348736286163 2673.00009727478 128 111 101
-9.57077741622925 811.046123504639 2671.99993133545 140 118 104
-2.3216016124934 811.350166797638 2673.00009727478 136 113 97
4.92931669577956 811.046481132507 2671.99993133545 131 108 90
12.1702402830124 810.438752174377 2670.00007629395 143 116 95
19.4221008569002 810.741126537323 2671.0000038147 134 106 84
26.6793500632048 811.042904853821 2671.99993133545 140 108 85
33.9800678193569 812.254846096039 2676.00011825562 142 110 87
41.2253588438034 811.948418617249 2674.99995231628 134 102 81
48.4651550650597 811.64163351059 2674.00002479553 130 99 79
55.6577406823635 810.727119445801 2671.0000038147 135 109 92
62.9516988992691 811.329782009125 2673.00009727478 132 109 93
70.256382226944 811.931908130646 2674.99995231628 120 101 87
77.4848461151123 811.62291765213 2674.00002479553 121 111 101
84.6126675605774 810.402870178223 2670.00007629395 176 167 158
91.8562188744545 810.396313667297 2670.00007629395 191 186 182
99.2480516433716 811.603307723999 2674.00002479553 184 181 176
106.780901551247 813.720405101776 2680.99999427795 187 183 180
114.138789474964 814.319252967834 2683.00008773804 202 202 202
121.507316827774 814.917623996735 2684.99994277954 205 205 205
128.646612167358 813.99792432785 2681.99992179871 197 193 192
135.921448469162 813.988327980042 2681.99992179871 212 208 207
142.875671386719 812.157273292542 2676.00011825562 210 206 205
150.133684277534 812.146663665771 2676.00011825562 194 190 189
157.332614064217 811.832129955292 2674.99995231628 185 181 178
164.341226220131 810.606598854065 2671.0000038147 192 188 185
171.263575553894 809.077084064484 2665.99988937378 172 169 164
178.091585636139 807.243824005127 2660.00008583069 157 154 149
185.304686427116 807.230889797211 2660.00008583069 152 149 144
192.517444491386 807.217478752136 2660.00008583069 155 152 145
199.955090880394 808.114171028137 2663.00010681152 145 142 135
207.330882549286 808.706760406494 2664.99996185303 148 145 138
214.395090937614 808.085143566132 2663.00010681152 145 142 135
221.531271934509 807.766556739807 2661.99994087219 153 150 143
228.833541274071 808.054387569427 2663.00010681152 130 127 120
235.96353828907 807.734966278076 2661.99994087219 139 136 129
243.179053068161 807.718634605408 2661.99994087219 136 133 126
249.64165687561 805.274605751038 2654.00004386902 139 136 129
256.641119718552 804.650664329529 2651.99995040894 141 138 131
263.330906629562 803.116261959076 2647.0000743866 137 134 127
270.504027605057 803.098320960999 2647.0000743866 137 134 127
277.152270078659 801.563262939453 2641.99995994568 139 136 129
284.203380346298 801.241397857666 2641.00003242493 132 129 122
290.807336568832 799.705684185028 2635.99991798401 134 131 126
297.722816467285 799.079895019531 2634.0000629425 136 133 128
304.742753505707 798.757076263428 2632.99989700317 132 129 124
311.875253915787 798.737406730652 2632.99989700317 130 127 122
318.886131048203 798.414051532745 2631.99996948242 137 133 130
325.891107320786 798.090517520905 2631.00004196167 126 122 119
333.016812801361 798.069953918457 2631.00004196167 117 116 114
339.883387088776 797.442436218262 2628.99994850159 129 125 124
347.002685070038 797.421514987946 2628.99994850159 120 116 115
353.986799716949 797.096908092499 2628.00002098084 105 104 102
361.239790916443 797.378659248352 2628.99994850159 101 102 97
368.217557668686 797.053694725037 2628.00002098084 128 129 124
376.046299934387 798.548102378845 2632.99989700317 125 126 121
383.319556713104 798.82937669754 2634.0000629425 110 111 106
390.449404716492 798.806965351105 2634.0000629425 108 109 104
395.465672016144 794.538795948029 2619.99988555908 97 98 93
-170.509174466133 810.629546642303 2694.9999332428 233 235 232
-162.35214471817 806.430578231812 2680.99999427795 253 255 252
-154.675617814064 804.336428642273 2674.00002479553 219 221 218
-147.367596626282 804.04669046402 2673.00009727478 211 211 209
-140.16954600811 804.358005523682 2674.00002479553 196 197 192
-132.916063070297 804.367959499359 2674.00002479553 182 183 178
-125.756353139877 804.979205131531 2676.00011825562 180 181 176
-118.585519492626 805.58979511261 2677.99997329712 202 201 199
-111.320465803146 805.598318576813 2677.99997329712 184 183 181
-103.82205247879 803.801298141479 2671.99993133545 181 180 178
-96.4644253253937 802.906215190887 2668.99991035461 184 183 181
-89.1228839755058 802.010595798492 2665.99988937378 182 181 179
-82.0738971233368 803.822040557861 2671.99993133545 187 186 184
-74.9081745743752 804.730474948883 2674.99995231628 185 184 182
-67.6754415035248 805.036664009094 2676.00011825562 183 182 180
-60.3016763925552 803.53718996048 2671.0000038147 180 179 177
-53.0145205557346 802.939772605896 2668.99991035461 177 176 174
-45.7724072039127 802.943527698517 2668.99991035461 173 172 170
-38.5013334453106 802.344977855682 2667.00005531311 175 168 162
-31.2527529895306 802.046775817871 2665.99988937378 180 171 164
-24.0185465663671 802.048861980438 2665.99988937378 174 164 155
-16.7905911803246 802.351236343384 2667.00005531311 140 127 118
-9.55716799944639 802.653014659882 2667.99998283386 122 104 92
-2.31830147095025 802.954316139221 2668.99991035461 142 123 108
4.92599746212363 803.255140781403 2670.00007629395 139 118 101
12.1711539104581 803.25448513031 2670.00007629395 132 105 86
19.4235611706972 803.554117679596 2671.0000038147 135 107 86
26.67136490345 803.552389144897 2671.0000038147 140 108 85
33.9572131633759 804.45259809494 2674.00002479553 141 106 84
41.1976277828217 804.148972034454 2673.00009727478 142 110 87
48.4506487846375 804.145574569702 2673.00009727478 139 108 87
55.6202195584774 802.938222885132 2668.99991035461 133 107 90
62.8857463598251 803.234755992889 2670.00007629395 127 105 91
70.130281150341 803.229749202728 2670.00007629395 136 120 107
77.3457065224648 802.923321723938 2668.99991035461 150 141 134
84.5238715410233 802.315711975098 2667.00005531311 181 173 170
91.7942225933075 802.609980106354 2667.99998283386 183 179 176
99.2182791233063 804.107010364532 2673.00009727478 178 174 171
106.629453599453 805.302619934082 2677.00004577637 184 181 176
113.806828856468 804.69274520874 2674.99995231628 190 185 181
121.108926832676 804.984986782074 2676.00011825562 190 187 182
128.320261836052 804.674983024597 2674.99995231628 191 190 186
135.830014944077 806.169331073761 2680.0000667572 194 193 189
142.619103193283 803.451836109161 2671.0000038147 196 195 191
149.920150637627 803.741931915283 2671.99993133545 185 184 180
156.93224966526 802.527606487274 2667.99998283386 180 179 175
164.229989051819 802.816689014435 2668.99991035461 173 172 167
171.083152294159 800.999879837036 2663.00010681152 161 160 155
178.10432612896 800.084948539734 2660.00008583069 151 150 145
185.317859053612 800.071895122528 2660.00008583069 146 145 140
192.820623517036 801.2615442276 2664.00003433228 147 146 141
200.119391083717 801.548361778259 2664.99996185303 146 145 140
207.578837871552 802.436172962189 2667.99998283386 141 138 131
214.651629328728 801.819860935211 2665.99988937378 141 138 131
221.879586577415 801.804423332214 2665.99988937378 140 137 130
229.02125120163 801.488041877747 2664.99996185303 131 128 121
235.979795455933 800.569713115692 2661.99994087219 138 135 128
243.104353547096 800.252437591553 2661.00001335144 136 133 126
249.564602971077 797.829747200012 2653.00011634827 136 133 126
256.755292415619 797.812402248383 2653.00011634827 137 134 127
263.547539710999 796.591877937317 2648.9999294281 137 134 127
270.828723907471 796.874701976776 2650.00009536743 135 132 125
277.8000831604 796.254873275757 2648.00000190735 134 131 124
284.760177135468 795.634865760803 2645.99990844727 133 130 123
291.267663240433 793.811619281769 2640.00010490417 136 133 128
298.081278800964 792.890310287476 2637.00008392334 125 124 119
305.456876754761 793.472051620483 2638.99993896484 128 127 122
312.724411487579 793.752670288086 2640.00010490417 132 131 126
319.996893405914 794.033110141754 2641.00003242493 110 109 104
327.026516199112 793.711960315704 2640.00010490417 114 113 108
334.050238132477 793.390393257141 2638.99993896484 125 126 121
340.938746929169 792.768001556396 2637.00008392334 115 116 111
347.947955131531 792.446076869965 2635.99991798401 104 105 100
355.085968971252 792.424440383911 2635.99991798401 115 116 111
362.223476171494 792.402625083923 2635.99991798401 122 122 120
369.780838489532 793.282389640808 2638.99993896484 116 116 114
378.496617078781 796.566724777222 2650.00009536743 115 115 113
387.853533029556 801.052749156952 2664.99996185303 95 97 94
-178.886711597443 808.133006095886 2710.99996566772 209 211 208
-170.331731438637 802.481770515442 2691.99991226196 206 208 205
-162.303388118744 798.916816711426 2680.0000667572 197 199 196
-154.455527663231 795.947372913361 2670.00007629395 210 212 209
-147.102728486061 795.362174510956 2667.99998283386 189 190 185
-139.970153570175 795.969009399414 2670.00007629395 186 187 182
-132.826462388039 796.575307846069 2671.99993133545 176 177 172
-125.624656677246 796.883046627045 2673.00009727478 156 157 152
-118.372894823551 796.89222574234 2673.00009727478 194 193 191
-111.162453889847 797.19877243042 2674.00002479553 169 168 166
-103.71321439743 795.716106891632 2668.99991035461 169 168 166
-96.3993445038795 795.12745141983 2667.00005531311 171 170 168
-89.0961289405823 794.538080692291 2664.99996185303 184 183 181
-82.0186138153076 796.03523015976 2670.00007629395 187 186 184
-74.8017802834511 796.339333057404 2671.0000038147 185 184 182
-67.5540715456009 796.344637870789 2671.0000038147 185 184 182
-60.1933263242245 794.858753681183 2665.99988937378 182 181 179
-52.919190376997 794.266700744629 2664.00003433228 177 176 174
-45.6901118159294 794.27045583725 2664.00003433228 171 170 168
-38.4609326720238 794.273674488068 2664.00003433228 164 161 154
-31.2082208693028 793.67995262146 2661.99994087219 169 165 156
-23.9663068205118 793.085753917694 2660.00008583069 183 176 168
-16.7414899915457 792.789161205292 2658.99991989136 171 161 151
-9.52564924955368 792.790114879608 2658.99991989136 124 108 95
-2.31152772903442 793.386936187744 2661.00001335144 130 112 98
4.91714477539063 794.579446315765 2664.99996185303 133 110 92
12.1538387611508 794.876873493195 2665.99988937378 133 106 87
19.4104816764593 795.770108699799 2668.99991035461 137 109 88
26.6733821481466 796.364784240723 2671.0000038147 140 109 88
33.947080373764 796.958744525909 2673.00009727478 140 108 87
41.1699116230011 796.359539031982 2671.0000038147 146 115 94
48.4180524945259 796.356201171875 2671.0000038147 137 109 88
55.6035749614239 795.45783996582 2667.99998283386 130 107 91
62.8433600068092 795.453310012817 2667.99998283386 133 114 100
70.0042173266411 794.553935527802 2664.99996185303 126 112 101
77.1486535668373 793.653964996338 2661.99994087219 173 166 158
84.3400210142136 793.349742889404 2661.00001335144 182 177 173
91.6634500026703 794.237554073334 2664.00003433228 172 168 165
99.1514399647713 796.317338943481 2671.0000038147 170 169 165
106.438204646111 796.607673168182 2671.99993133545 180 179 175
113.602548837662 796.003222465515 2670.00007629395 185 182 177
120.846346020699 795.994579792023 2670.00007629395 188 187 183
128.185823559761 796.581506729126 2671.99993133545 185 184 180
135.586589574814 797.466099262238 2674.99995231628 190 189 185
142.576172947884 795.965254306793 2670.00007629395 191 190 186
149.706676602364 795.358300209045 2667.99998283386 176 175 171
156.884893774986 795.049011707306 2667.00005531311 172 171 167
164.180397987366 795.335292816162 2667.99998283386 166 165 160
171.288281679153 794.726848602295 2665.99988937378 160 159 154
178.385019302368 794.117987155914 2664.00003433228 152 151 146
185.540229082108 793.806731700897 2663.00010681152 146 145 140
192.979171872139 794.687271118164 2665.99988937378 147 146 141
200.208723545074 794.673144817352 2665.99988937378 147 146 141
207.515776157379 794.956803321838 2667.00005531311 139 139 131
214.747309684753 794.941842556 2667.00005531311 138 138 130
221.978396177292 794.926285743713 2667.00005531311 137 137 129
229.123190045357 794.612348079681 2665.99988937378 129 129 121
235.907554626465 793.105840682983 2661.00001335144 136 136 128
242.938429117203 792.493045330048 2658.99991989136 135 135 127
249.8639523983 791.581869125366 2655.99989891052 134 134 126
257.256716489792 792.160511016846 2657.99999237061 134 134 126
264.162421226501 791.248619556427 2654.99997138977 135 135 127
271.153599023819 790.634393692017 2653.00011634827 133 133 125
278.028547763824 789.721786975861 2650.00009536743 131 131 123
285.209655761719 789.702892303467 2650.00009536743 132 129 124
291.948944330215 788.491606712341 2645.99990844727 138 137 132
298.77907037735 787.578046321869 2642.99988746643 118 117 112
306.055575609207 787.856161594391 2644.00005340576 132 131 126
313.336968421936 788.134038448334 2644.99998092651 139 138 133
320.623278617859 788.411378860474 2645.99990844727 116 115 111
328.038334846497 788.986444473267 2648.00000190735 112 111 107
335.590392351151 789.859235286713 2651.00002288818 119 120 115
342.899560928345 790.135741233826 2651.99995040894 112 113 108
349.817663431168 789.518177509308 2650.00009536743 105 106 101
356.993824243546 789.496183395386 2650.00009536743 120 121 116
364.444315433502 790.069878101349 2651.99995040894 125 125 123
