ply
format ascii 1.0
comment KinectMotionCapture
element vertex 803
property float x
property float y
property float z
property uchar red
property uchar green
property uchar blue
end_header
41.7406938734404 159.167322420885 2885.22439062759 15 16 8
17.8655562569876 158.387319658383 2877.873669404 12 13 7
-2.70706097089057 157.87919065609 2872.87162674617 14 15 10
-41.1682459322491 156.012586509425 2856.07651775633 14 15 10
-66.1714259748179 155.202427687717 2848.43350707207 13 15 10
-76.7713378990162 155.501691342819 2850.41301368046 13 15 10
-77.9953431417959 156.511818637183 2858.56439488028 12 14 9
-82.6242913186812 157.262844109666 2864.46691692923 12 14 9
-76.0914402900723 158.843786148846 2877.58411855761 19 21 16
-76.3847226278456 159.908660975852 2886.22009581045 17 22 16
-16.3072790595367 165.408714254336 2933.44227927921 0 2 0
57.5149885046469 110.248062397039 2555.1288019197 51 53 48
50.1986449266067 110.818380884195 2559.47558994737 10 12 7
231.166017068099 132.377838003627 2736.50681640877 21 24 17
216.136290944614 134.439528839352 2752.54408678414 23 24 18
257.38286032694 139.54631828041 2794.43458330329 21 22 16
201.64823098672 135.386842218204 2759.70570971895 20 21 13
209.840375056651 137.321788410359 2775.37395296438 19 22 13
200.626647653642 137.606832609806 2777.3963066407 18 21 12
202.540686526039 138.935310386075 2788.05248669601 19 22 13
217.260257260854 141.44519823726 2808.48987286973 20 23 14
217.676912562425 142.612913565226 2817.82258108849 19 22 11
167.595559794136 139.138013800282 2788.71502828739 17 20 9
176.789532293967 141.121273536579 2804.79854753117 15 18 7
173.965924190134 141.998373835989 2811.72386287282 19 22 11
184.079990422579 144.040317690618 2828.3016134273 20 23 12
179.693221956498 144.76496788349 2833.96788354014 20 23 12
173.687473915331 145.344131434456 2838.42883284668 20 23 12
159.542479276654 145.201893795355 2836.90902826438 20 23 12
150.24929185609 145.496457643109 2839.00887991291 20 23 12
147.477875376511 146.366779339202 2845.88337007475 20 23 12
147.996893688628 147.521265854661 2855.11638552354 17 20 9
150.186747560877 148.814573023804 2865.50353756508 16 19 8
142.532338876843 149.251877174012 2868.7887793837 18 21 10
133.216767891081 149.549074862685 2870.91046896283 19 22 11
99.0655267573826 147.734428282914 2855.49581784662 20 23 12
102.092454548467 149.096877888984 2866.45877105025 20 23 12
97.6791801706947 149.824482590262 2872.15092525019 18 21 10
78.2758774231991 149.296073873486 2867.40764267836 18 21 12
71.332313394604 149.818258739751 2871.39136923087 19 22 13
60.197463987766 149.994997524319 2872.50327647199 14 15 7
63.2970118186846 151.348211138348 2883.39548197814 16 17 9
42.8939249986495 150.770844170778 2878.23498861824 18 19 11
35.0632012437302 151.229984968728 2881.69208646168 13 14 6
4.41585317316617 149.846746329219 2869.81947810413 11 12 6
-18.7271585908793 149.090313398319 2863.15550863519 14 15 10
-52.9813939730257 147.462512649218 2849.23276375776 14 15 10
-62.7027615625844 147.810231828461 2851.74961046699 12 14 9
-44.3128657124507 150.381628281255 2872.78462223652 12 14 9
-65.1134841211158 149.853960019612 2868.01153817369 12 14 9
-68.0008821132665 150.738324396625 2874.99912418993 12 14 9
-88.0398524048842 150.289347733761 2870.87532886343 9 11 6
-53.0947684968357 154.094592660177 2902.21139814186 9 14 8
88.4982514561399 105.426993414413 2581.75494249493 52 54 49
59.5671217857392 103.749102316616 2568.22165340031 28 30 25
204.580975504558 121.127596520731 2706.47160032808 22 25 18
206.252735924437 122.511616442462 2717.36015736342 15 18 11
219.901766094528 126.287025911636 2747.17569419125 26 27 21
261.813750857577 131.647342961579 2789.78486144855 23 24 18
233.795522654257 130.031559636289 2776.75311536 20 21 15
238.067809095865 131.619907031214 2789.27984005479 20 21 13
217.82767648063 130.797788710888 2782.57679558595 18 21 12
204.662343462497 130.680688993205 2781.4973664763 18 21 12
199.420510902616 131.339058070371 2786.60527703471 19 22 13
202.958614559145 132.842442757697 2798.45704206364 20 23 14
212.1404059965 134.876394294146 2814.54482721461 20 23 12
183.70013845849 133.313309108049 2801.92404582035 18 21 10
170.422626150325 133.210108125921 2800.95395817698 17 20 9
182.089014138348 135.463145346992 2818.79352509269 20 23 12
176.065917697159 136.042321463959 2823.27169975965 20 23 12
178.947225801844 137.450892005919 2834.37243881036 17 20 9
166.446325044961 137.427109300049 2834.0366735893 17 20 9
163.674850629669 138.306110402904 2840.90993846963 20 23 12
146.235581243047 137.840039927908 2837.04094680723 21 24 13
139.366928802527 138.348242102857 2840.95268952305 20 23 12
129.213449650316 138.560672590305 2842.50171569363 15 18 7
140.393854282329 140.697413672354 2859.42381262486 14 17 6
126.952931027864 140.614404140267 2858.61301017932 17 20 9
101.094989252633 139.434839522901 2849.03923206913 16 19 8
99.9575649961555 140.462555964726 2857.10203740134 19 22 11
91.3779131067178 140.831284768694 2859.89894764705 19 22 11
78.6285884546674 140.838399689214 2859.80530437059 17 20 11
67.5112318601867 140.99463814842 2860.90287092958 14 17 8
64.7172504620239 141.876117411279 2867.79778146365 13 16 7
52.7302114975843 141.964473334264 2868.35207916377 14 15 7
35.6800984372216 141.626271669023 2865.49499772208 15 16 10
28.6658736831407 142.15240368996 2869.54830803183 16 17 11
7.31894699621938 141.46844700894 2863.92390620764 9 10 4
-10.7218302559522 141.077533406308 2860.64145043674 10 11 5
-36.4389576285467 140.057060276472 2852.32157505045 13 14 9
-45.2778758596399 140.458116223868 2855.37116266841 13 14 9
-54.9815265382541 140.7907484051 2857.87298391688 11 13 8
-48.5083901874752 142.455966355911 2871.03702716016 12 14 9
-40.2714012966827 144.253808723891 2885.26409340316 12 14 9
-85.0590294259233 141.732786537714 2864.92891779347 13 15 10
214.7694978913 114.744484395435 2715.71884066681 26 29 22
195.391068772754 113.943124856023 2709.57395306641 25 28 21
175.161069745036 113.068973322878 2702.86887412349 27 28 22
247.423132193028 121.791373202449 2770.10656870406 23 24 18
231.208407674363 121.311680162704 2766.44084645451 23 24 18
226.765033430304 122.050095016449 2772.16095468882 21 22 16
227.068153224447 123.27098007023 2781.59854688255 20 21 13
232.944972118339 125.050193227159 2795.33789373403 16 19 10
202.344973731742 123.141234783337 2780.6621489624 16 19 10
188.339799450254 122.923159259422 2779.01437166275 18 21 12
198.234887525051 125.096477201387 2795.79049157412 20 23 14
207.404517010466 127.181071920927 2811.88286868281 18 21 10
184.567101095883 126.094769382531 2803.54728328403 17 20 9
184.154114835261 127.225606460523 2812.29237910991 15 18 9
182.153579766969 128.196241813531 2819.80345563766 20 23 14
179.361745508485 129.086478015617 2826.69527760049 18 21 12
162.007386153698 128.569770329762 2822.74945317893 18 21 12
160.017374787863 129.539001606275 2830.25028703646 19 22 13
158.857563155427 130.583737077536 2838.33280795882 15 18 9
142.222668480978 130.156397675031 2835.0765830405 16 19 10
122.264270367338 129.427330564759 2829.49692843629 16 19 10
126.82001615138 131.012529072066 2841.74297705995 17 20 11
128.959115985529 132.361913849214 2852.17257820762 16 19 10
115.491014282591 132.255770802881 2851.39184564449 14 17 8
106.111650011809 132.534998025184 2853.57953892576 13 16 7
92.5778144721403 132.437113993322 2852.8631981975 15 18 9
88.1265374224762 133.175935433019 2858.59109394137 18 21 12
83.6802533172549 133.914154935893 2864.31445842559 18 21 12
72.5745257294759 134.050523710316 2865.40307609776 15 18 9
55.5983493248466 133.665828680823 2862.47944616288 14 17 8
31.0369459031308 132.615839364726 2854.43319160579 17 18 12
23.1636724804507 133.065281374769 2857.93397537492 18 19 13
-3.21659630616056 131.884186825562 2848.8794396737 16 17 11
-6.09752122247809 132.785212054461 2855.85813536331 10 11 5
-35.9937464380709 131.326552044908 2844.66770747042 10 11 5
-39.758165600138 132.158710617021 2851.11665730859 20 21 16
-55.3923485979384 131.964908112784 2849.66635072798 7 8 3
-43.8585921945918 134.111553929679 2866.23610021129 9 11 6
-62.0791033411621 133.703198133986 2863.134362961 11 13 8
-67.5421922097468 134.389135755936 2868.45790968583 14 16 11
-125.209704453413 133.002269030182 2857.91120308426 14 16 11
209.385920852085 106.737784627543 2712.32915807164 27 30 23
175.164225963442 104.285292770358 2694.24492319359 26 29 22
214.352478305581 109.765796518423 2735.28996767236 27 28 22
244.350396822985 114.210783552626 2768.61027307667 20 21 15
217.905112927624 112.606276654194 2756.84838418041 17 18 12
200.815676327692 112.016494300819 2752.65062579294 17 18 12
210.537671071558 114.263503861481 2769.58773835166 18 19 11
213.996590405061 115.837253364931 2781.50739685283 15 18 9
193.674544548084 114.923465710997 2774.89924213142 15 18 9
183.628790408344 115.09119863632 2776.3479020523 16 19 10
196.703828500135 117.646846727661 2795.57775147226 20 23 14
201.069411761922 119.289107125216 2808.00420056917 18 21 10
198.265062310796 120.189563684823 2814.90693973893 17 20 9
186.630555104413 120.191771814156 2815.12356295621 14 17 8
190.276611779716 121.741857675446 2826.86122662854 19 22 13
167.310104107337 120.61264491153 2818.65983552418 17 20 11
157.214308943103 120.786503868302 2820.15728149735 16 19 10
147.907872390672 121.043715358725 2822.27581039179 15 18 9
151.600127566131 122.587863051384 2833.96813808726 15 18 9
135.763587575553 122.205372572175 2831.32941583246 15 18 9
132.13952112618 123.026146980694 2837.64101376853 15 18 9
133.440459889068 124.323146368939 2847.49341662815 15 18 9
127.381454393249 124.902275484731 2852.00759430594 15 18 9
116.379759841392 125.007329849409 2852.99787173363 14 17 8
105.351896267202 125.115651907971 2854.01365242361 14 17 8
97.6064757173827 125.541577286944 2857.39095214779 15 18 9
97.3123233008755 126.67390420104 2866.01782401265 15 18 9
96.2112743335073 127.725047133527 2874.04070787797 16 19 10
90.1328394406042 128.306522438095 2878.57383246861 17 20 13
56.4991741446113 126.32720545244 2864.08646842617 17 20 13
26.919343930365 124.751162592528 2852.59954259577 18 19 13
7.29322295807133 124.114553934476 2848.0931758771 18 19 13
-1.46804622235441 124.485522671022 2851.0704415585 16 17 11
-18.6704124760846 124.091941487822 2848.37273485711 10 11 5
-28.3247601423819 124.392553989525 2850.82999213818 11 12 7
-48.1557731091051 123.781694002355 2846.52361839852 12 13 8
-31.5674322611996 126.442919040345 2866.50016781404 13 14 9
-90.5631547043666 122.35733821599 2836.41593336456 17 19 14
-84.1720118014533 124.109616715306 2849.64852980261 5 7 2
-85.4139212895366 125.178366108513 2857.80902586208 14 16 11
-114.439234869321 124.992713518856 2856.90157012541 21 23 18
180.624318049059 94.7758448525974 2680.30908453685 32 35 28
203.224241247009 98.6056156184085 2708.31343996618 26 29 22
197.866706350747 99.2800118642062 2713.53387584648 24 27 20
196.422367231539 100.388846029032 2721.88946301038 23 24 18
220.883405460563 104.355063615478 2750.85935555646 18 19 13
242.347981533903 107.956883770188 2777.19099982938 16 17 11
205.071602779494 106.345178781587 2766.26657120772 20 21 13
210.101093961514 108.122225918242 2779.43073782203 14 17 8
158.00459107866 103.74098033411 2748.2071505952 15 18 9
179.71457653631 107.311822195464 2774.29967829991 16 19 10
199.961559359426 110.695979226387 2799.03842470684 19 22 13
196.334783296193 111.523102812464 2805.35143708187 18 21 10
193.518684718477 112.433600229883 2812.26435927362 17 20 9
189.911421325648 113.25827853754 2818.55869453156 13 16 7
186.312558161204 114.081840875362 2824.8445153364 18 21 12
173.837608051679 113.983286975947 2824.49403188864 17 20 11
158.089776941674 113.555041015516 2821.77398304421 17 20 11
145.538745794862 113.465986339415 2821.49730736811 15 18 9
116.682629770692 111.721243177517 2809.31631863747 13 16 7
137.460396915219 115.038467983152 2833.53788092048 15 18 9
140.379599976385 116.524732853107 2844.58950653146 15 18 9
135.144793841193 117.183329174394 2849.69040615969 15 18 9
134.017404294427 118.251891833305 2857.73687198177 14 17 8
120.561582096129 118.091248458417 2856.95233865577 14 17 8
120.271188203819 119.239861596969 2865.57307115369 15 18 9
111.733587630927 119.572542311156 2868.33388955436 14 17 8
104.839584210385 120.06910433024 2872.27218873606 14 17 8
112.897099013026 122.020940061949 2886.65471524981 16 19 10
75.2051925745976 119.534192076704 2869.18735830319 17 20 13
54.8959069125781 118.752919948643 2863.96419394241 18 21 14
26.1493875930716 117.179575630197 2853.06595070741 17 18 12
9.03830504447711 116.737308683206 2850.28479367202 16 17 11
-15.6923822560029 115.585481782423 2842.42169205956 14 15 9
-19.4450941240096 116.428199494548 2848.85779358738 9 10 4
-29.101322163366 116.716134874154 2851.3187917798 9 10 5
-30.3105799991226 117.79490209837 2859.44538363478 8 9 4
-62.0435803139161 116.041163521696 2847.28835657384 10 11 6
-52.2269518028655 118.142315879672 2862.73614471593 12 14 9
-55.1244038923957 119.062733814708 2869.72838589937 11 13 8
-64.8433442461855 119.358521637508 2872.2504977594 6 8 3
-69.4434889727304 120.122421720494 2878.12251469456 24 26 21
198.554253787639 89.3013775243419 2695.90479637708 29 32 25
187.720878041857 89.3486897335243 2696.73646500749 24 27 20
182.324415249517 90.0283703068182 2701.99477584276 21 24 17
198.0545928057 93.1276783543336 2724.17599277517 23 24 18
203.693520879052 95.0517527031051 2738.13015830722 20 21 15
219.610011611262 98.1275252406953 2760.12950419772 20 21 15
201.736761470884 97.3679331292444 2755.31793489118 19 20 14
196.4455715899 98.0342944671727 2760.47367674642 17 18 10
226.010221187736 102.589878536215 2792.79063123959 13 16 7
218.424139787134 102.980798353444 2796.01521648186 14 17 8
208.438920758474 103.109329430674 2797.40955815859 17 20 11
207.20908470751 104.204930133189 2805.55375866274 19 22 13
194.000612897172 103.986748010389 2804.5321069468 18 21 10
189.57496585604 104.732226576878 2810.23390563488 17 20 9
191.584433292076 106.172464513871 2820.77846777086 13 16 7
189.601042471057 107.174780218784 2828.26783746544 15 18 9
177.941685270398 107.137796992448 2828.51526740163 14 17 8
160.584700473617 106.501252735081 2824.59009971771 19 22 13
131.807888466364 104.668648313334 2812.34334678178 18 21 12
133.833619151421 106.106788097204 2822.87206937718 16 19 10
131.818210411847 107.113132659912 2830.39297571677 16 19 10
125.731845432345 107.691303092046 2834.93412561735 15 18 9
131.113692285772 109.459422981445 2847.74971728441 14 17 8
122.584943904918 109.780731767303 2850.50342609357 14 17 8
121.450875755634 110.864195689877 2858.55465930841 15 18 9
117.861356074858 111.692362763668 2864.83052131788 15 18 9
102.701237619882 111.343541965933 2862.93237327437 14 17 8
96.6149155950711 111.921659070774 2867.47348840204 14 17 8
74.7369714391795 110.913560021232 2861.00739355722 14 17 10
77.7703584510574 112.412912427195 2871.94369848509 17 20 13
59.9719408994108 111.831842718953 2868.44868093819 17 20 13
28.7273275318203 109.933563304413 2855.8280414917 16 17 11
1.5574362711499 108.462925364116 2846.18315980703 15 16 10
-3.8546062983551 109.144267800639 2851.45669596867 13 14 8
-22.7474140607344 108.512798031311 2847.6386260264 9 10 5
-39.1672956318585 108.134410174199 2845.57890206068 9 10 5
-37.8606801656409 109.474851439557 2855.41924717952 11 12 7
-51.793471362652 109.347668933906 2855.10340561827 10 11 6
-30.8996823406034 112.548995273234 2877.80963904477 8 10 5
-107.897588418967 106.440335728694 2836.14372649349 7 9 4
-42.56497106857 113.829412426405 2887.78728878252 18 20 15
-59.9570487259316 113.385239346376 2885.28544576965 0 1 0
211.144495232742 84.6242541580671 2716.68505649655 24 27 20
180.831784478583 82.3346342567881 2701.78029245618 23 26 19
205.94616559906 86.6158845173105 2731.47209132093 24 25 19
206.113756764736 87.9312452432118 2741.03030198313 20 21 15
200.018886583063 88.5083539568134 2745.58005459673 18 19 13
203.380185969933 90.1849781528515 2757.58178415535 18 19 13
226.539783457488 94.1397664194795 2785.01189720957 17 18 10
230.036758089724 95.7992388213558 2796.88109642959 13 16 7
217.261108488261 96.8363845142896 2805.16314986703 17 20 11
203.285169604081 96.4974153518 2803.50454725465 19 22 13
195.666593386971 96.8846838444829 2806.76160215225 18 21 10
201.668736339558 98.8012196843316 2820.35620412825 17 20 9
211.745307894383 101.158950760047 2836.9248520805 14 17 10
202.558640558228 101.361946512998 2838.93212359299 13 16 9
194.96884858073 101.745572474096 2842.16113367972 12 15 8
172.795197603754 100.530383614382 2834.60237854537 17 20 13
158.656567165564 100.211887451821 2833.1023051507 17 20 13
146.103059086561 100.075456758128 2832.8350912596 17 20 13
135.961925516845 100.20780099685 2834.38369479684 16 19 12
126.615964959074 100.430892795178 2836.54651448844 15 18 11
106.600035246558 99.5165074617206 2831.05137956484 15 18 11
120.18749602029 102.19546622585 2849.75416042304 15 18 11
121.517077459102 103.555275162436 2859.56917530023 16 19 12
117.102480669334 104.302430872166 2865.25941520232 16 19 10
93.6696250189337 103.054931744639 2857.53859720691 15 18 9
70.9816658708702 101.904515565451 2850.48098431542 14 17 8
74.803982255125 103.522920029518 2862.03318418952 14 17 10
68.6752024949291 104.104257376419 2866.6163223677 14 17 10
45.0118190615982 102.885795061392 2859.12013024035 14 17 10
1.18153464873538 99.6265099574914 2837.94341310498 16 17 11
-18.5031687379058 98.8613052126483 2833.51456387722 13 14 9
-13.8738382385322 100.568956184629 2845.66944336997 11 12 7
-28.5766463245709 100.32145656594 2844.71877561952 11 12 7
-30.6529362289223 101.346743358934 2852.29733820236 11 12 7
-22.5555710398053 103.381003460217 2866.62777256542 15 16 11
-55.9663515778182 101.290693358256 2853.3527325573 9 10 5
-87.8031097191467 99.383893522031 2841.32169878124 13 15 10
257.708036954529 81.5992774719045 2745.99579861732 34 37 30
229.117499330423 79.3936091641257 2732.201963985 25 28 21
212.11771066611 78.6318435043502 2727.9406029298 22 25 18
202.101678985593 78.7326510239058 2729.36963955504 21 24 15
191.278825040467 78.7415212146418 2730.19654159539 13 16 7
181.215684287878 78.8482747220208 2731.6714794112 12 15 6
186.89453843492 80.8438665054552 2745.57542751626 16 19 10
212.382889900991 85.183881947253 2774.8871828314 18 21 12
208.71572928816 86.0336996251042 2781.23728132632 13 16 7
201.086806439482 86.4145993868987 2784.50555187766 14 17 8
192.651146364713 86.7035506387236 2787.17160505218 16 19 10
200.957565212291 88.9489100944593 2802.68049280932 17 20 11
197.332563269486 89.7933755940015 2808.9891803293 19 22 13
186.499887638763 89.8035083810471 2809.82564883746 19 22 13
215.829621568596 94.4339161978799 2840.94790982668 14 17 10
201.012944209363 93.9779840964114 2838.72455070202 13 16 9
193.419374227161 94.3544431919412 2841.95837166287 12 15 8
179.338156983998 93.9994091867105 2840.40634855202 13 16 9
158.723049085236 92.9188048089592 2834.11420205127 14 17 10
148.610247953654 93.0318563427386 2835.63752251198 17 20 13
138.475061519347 93.1477322030842 2837.18265447498 17 20 13
125.048133096535 92.9039286889593 2836.38172023505 16 19 12
114.041264451529 92.9360468417828 2837.38791555398 15 18 11
107.935740089439 93.5122872146421 2841.9487141086 15 18 11
115.821246504753 95.6170250921155 2856.47911078135 16 19 12
112.218286460312 96.4587858933857 2862.76664796563 16 19 10
92.9097851503302 95.6007972756502 2857.97793793036 15 18 9
63.5882202629769 93.6810998426292 2846.28500496632 15 18 9
54.9288132413772 93.9983042520373 2849.16906636228 14 17 10
52.9178138512929 95.0266871287339 2856.68199905747 13 16 9
41.7405150001198 95.0803119089913 2857.8542554204 13 16 9
-38.0767537621711 87.9064319228093 2812.0602285356 14 15 9
-31.0141837075681 89.9212742749335 2826.00419038144 11 12 7
-44.9079720892418 89.736363883974 2825.65815060423 10 11 6
-27.6644837050877 92.7917983809103 2846.34311200524 10 11 6
-0.181904522388976 96.8803499803175 2873.71139812176 11 12 7
-13.1757823534344 96.7756912770812 2873.87711985998 14 15 10
-92.3764343554265 89.9114321938571 2830.25884021812 19 20 15
-113.72189989615 90.2788632512803 2834.39697155559 18 20 15
232.149603880442 71.0647755939826 2726.17130935523 35 38 31
234.634340245989 72.7157878343099 2737.63001722817 26 29 22
215.307134540886 71.618051455723 2731.47806838839 23 26 19
194.346052956366 70.3335888053144 2724.14236187599 17 20 11
173.307908861561 69.0588595365584 2716.88174098593 15 18 9
169.490333214138 69.9334561414161 2723.37754151915 15 18 9
172.774978835383 71.6800399868386 2735.44471155257 17 20 11
205.338521422086 77.0013552667011 2770.33852135032 18 21 12
182.643754459038 75.5428014368525 2761.91630201223 13 16 7
190.831360474636 77.8495487560926 2777.53409956849 13 16 7
188.738285566457 78.8994966841682 2785.12534716128 16 19 10
191.44912743446 80.522083972603 2796.36373012329 17 20 11
190.200538390516 81.661990227211 2804.52034212744 18 21 12
196.990156679287 83.7522288153582 2818.72420558096 19 22 13
190.17547487103 84.2192446231629 2822.58844198819 15 18 11
182.548046026972 84.5923257982755 2825.85638455456 13 16 9
169.256437318602 84.3048847282433 2824.9275254495 13 16 9
167.260981342118 85.3425759938252 2832.42364752941 13 16 9
149.863068983281 84.5909475575374 2828.55579306902 14 17 10
147.863804563751 85.6291832965538 2836.05595435823 16 19 12
140.988410743895 86.1038621704528 2839.97900825065 15 18 11
122.663461980033 85.272782507777 2835.62654818341 15 18 11
112.470170382172 85.3802873737837 2837.23061666208 14 17 10
99.7911158644267 85.2121087215269 2837.09310241697 13 16 9
97.7790139088057 86.2519546819355 2844.60543573727 13 16 9
92.4830492749211 86.920323069903 2849.76562235161 13 16 9
83.0527622448467 87.1280298499976 2852.01411553376 14 17 10
60.3406166896203 85.8682824499796 2844.99667920882 14 17 10
45.8571525556817 85.5348761515702 2843.84123448318 12 15 8
32.9977214369208 85.3894526380113 2843.87913582777 10 13 6
64.3482426659587 90.0781394394172 2874.40302086541 11 14 7
49.0137204246048 89.6556879793661 2872.68894093966 10 13 6
-42.6851600130389 80.9907409791714 2819.07548948644 8 11 4
-53.2434837321931 81.1443837246175 2821.03522109929 8 11 4
-32.6499242425466 84.6364326200199 2843.99695606484 12 15 8
-24.6025965241032 86.7646080066811 2858.3635355798 13 16 9
-46.9630066762274 85.656989694506 2852.39124550494 11 14 7
-58.3715139116761 85.7214310912861 2853.79115867816 13 16 9
-68.10529235399 85.9675505980883 2856.33568377685 17 20 13
-68.483160831605 87.1942121334908 2865.03174431212 15 18 11
-9.04668531929254 94.6258283523971 2912.60493437669 189 192 185
205.816452579208 60.2502736234488 2705.74026347684 33 36 29
213.683821512562 62.6437174567914 2721.66324748282 20 23 16
188.061490779519 60.6986486698362 2710.551735989 18 21 14
179.550149451658 60.9762683153815 2713.29461657308 13 16 7
178.866836666413 62.2578486419789 2722.28587084776 19 22 13
164.841892726154 61.8370390008408 2720.6880269675 20 23 14
158.656481241842 62.4186901732214 2725.32701705964 16 19 10
164.320049578152 64.4928461986158 2739.23487028206 16 19 10
181.127598853271 67.9491634577006 2761.71004684125 13 16 7
165.490727193391 67.3334669640887 2758.9075187295 13 16 7
198.357287583248 72.7468772042901 2793.48715361638 14 17 8
208.272341018316 75.2804415164339 2810.19020337367 16 19 10
206.26447384094 76.3309199158836 2817.69676002673 18 21 12
200.264053754137 76.8893310653523 2822.1554857917 18 21 12
173.363963675261 74.9065808093208 2810.90146820401 16 19 12
147.971229416016 73.1320053935584 2800.95401233156 14 17 10
137.82680668756 73.2175578946283 2802.51279785045 13 16 9
149.517863351812 75.9254077976044 2820.26030944824 13 16 9
133.700632358745 75.3326198418844 2817.63349494865 14 17 10
133.289236283084 76.5801123953459 2826.35977006903 13 16 9
122.302155677237 76.5728942556829 2827.3521294594 13 16 9
110.471609704637 76.472970416635 2827.77885497184 13 16 9
85.898796710298 76.1889704316919 2828.13251114871 12 15 8
69.8603265273254 75.6242021855134 2825.72124913438 12 15 8
60.3731607006157 75.8261559163334 2828.02741194258 12 15 8
71.5427979470631 78.4007269098217 2844.89548997714 13 16 9
59.5804478540307 78.3175222698819 2845.45062783926 13 16 9
22.2401476794412 76.6572629249829 2837.43100692286 10 13 6
59.4077531397024 82.1254815301826 2871.98226777444 10 13 6
45.7351970092388 81.8597703674278 2871.42848342016 10 13 6
-25.0025853022664 75.2515202313253 2832.12214628831 9 12 5
-65.7808384055172 72.0328349926689 2813.57669141569 10 13 6
-74.7051536314536 72.3630399082868 2816.72188910548 12 15 8
-28.7549014735786 78.7146827591568 2856.59138894042 13 16 9
-51.1245178760564 77.5548241618024 2850.63596189959 16 19 12
-57.4523475125135 78.1549083884283 2855.41398876676 17 20 13
-51.0294642818394 80.1335085374503 2868.58161634914 15 18 11
-60.7427592087255 80.3641463408705 2871.10808920321 5 8 1
172.496241763122 49.7304160675291 2689.37010403317 23 26 19
167.841348752707 50.5203754006362 2695.29297311975 16 19 12
176.490190541778 53.063499805151 2711.83472962237 18 21 12
198.542357803914 57.3473021999856 2738.89899979909 20 23 14
186.138639979815 57.0962899517061 2738.49997707428 19 22 13
162.666715174772 55.4156803113655 2729.4650595539 14 17 8
169.129563323629 57.6290884291117 2743.97520618423 15 18 9
164.563296126345 58.4080059073511 2749.81170050956 14 17 8
179.057115425647 61.6268240871969 2770.36848160299 14 17 8
187.281923508547 64.0217646290681 2785.93663987868 14 17 8
229.083848412722 70.6584813353572 2827.04919973132 15 18 9
230.325845651033 72.1176674148333 2836.93649911602 17 20 11
205.943492824958 70.3502618076854 2827.40156916739 18 21 12
173.431658682866 67.5899184890483 2811.91564555635 17 20 13
141.594319561336 64.9464144747299 2797.15991678057 15 18 11
145.163572254305 66.7176651806513 2808.94115987529 14 17 10
146.347748075339 68.1842125752559 2818.88445094095 13 16 9
139.449208527841 68.6519652274242 2822.83151257562 14 17 10
120.342803683843 67.6321194462218 2817.86604018017 14 17 10
106.878846660114 67.3134147581467 2817.11294624913 14 17 10
114.626543911197 69.5668187027608 2831.75855452135 14 17 10
118.341080103733 71.3197745241151 2843.39789508727 12 15 8
95.8218843964191 69.9231966587114 2836.20908019406 11 14 7
63.3448712400195 67.360711489535 2822.0765826411 9 12 5
57.1424670021834 67.942678539177 2826.73273794415 10 13 6
88.9785066307698 73.0107552906892 2858.13533168254 12 15 8
62.9652908855691 71.2477021541995 2848.8023201102 12 15 8
25.223896771577 68.138408280025 2831.47611716748 10 13 6
-15.1661630585975 64.7577695124345 2812.569117297 9 12 5
-15.2733539051648 67.3981384450759 2830.70648651538 9 12 5
-64.868420230157 64.3730138893215 2815.21967421114 12 15 8
-52.728356651933 67.0816819354476 2832.5215322266 12 15 8
-54.0170826341622 68.2549458929624 2840.71273270788 12 15 8
-67.1343306941701 68.0946907614846 2841.00884219302 14 17 10
-70.1057713543678 69.0766051151609 2848.06546597706 14 17 10
-48.4080856075089 72.7997263073159 2871.31354418039 14 17 10
-51.2982758682177 73.77138485769 2878.29100091988 24 27 20
-12.3251611280861 79.3518438171583 2912.45002245059 178 181 174
180.350224335668 43.230898488952 2696.70171579825 25 28 21
171.032711717326 43.3847887142996 2698.84651422772 18 21 14
183.600408794225 46.5054496349387 2718.49665212593 22 25 16
215.079912792719 52.1497135608412 2753.00228728025 19 22 13
206.6482473947 52.3964709509081 2755.67060991604 16 19 10
146.97392622795 45.8114644866675 2718.12751645835 14 17 8
169.198782805938 50.1685766493942 2745.00913059793 15 18 9
178.88863310066 52.834167265473 2761.91629697264 15 18 9
168.804300365777 52.8804302960708 2763.42121920619 15 18 9
188.145971875095 56.7831247210583 2787.56540421258 14 17 8
201.226148797101 59.8392531252852 2806.71617992649 15 18 9
209.597879194484 62.2620416815431 2822.13398840563 17 20 11
219.640111494995 64.8832273744308 2838.69779726768 18 21 12
212.076158135507 65.2253150635174 2841.90728856322 16 19 12
155.358698371821 59.290597738194 2808.41676000169 15 18 11
134.733927164548 58.0076608595865 2802.16411396441 13 16 9
149.654166716988 61.2408383566735 2822.29533114201 13 16 9
128.157559301237 59.863373179379 2815.5051554294 13 16 9
112.277886486241 59.2092091774263 2812.94941793488 14 17 10
124.069977847537 62.0189093994924 2830.58188499425 14 17 10
124.963380698109 64.7734002468446 2849.12569202845 14 17 10
92.2228823819364 63.3845773450436 2843.58350395391 10 13 6
95.1635818437673 65.0609124025505 2854.58569103054 10 13 6
88.2203786228928 65.5295744287542 2858.57696994805 12 15 8
63.8635688657696 63.8996295979737 2850.41326802935 12 15 8
50.2195577548088 63.5773529763386 2849.83949839885 11 14 7
10.7216248721347 60.1758440023525 2831.46693504854 10 13 6
-18.9176154483555 57.9851881771886 2820.12950601774 10 13 6
-38.6283526923474 56.9965938516739 2815.75952567765 9 12 5
-56.726833645985 56.2137045735022 2812.59196652699 12 15 8
-63.9555419133351 56.7186170359185 2816.86139837754 12 15 8
-57.7113397513038 58.7965808579693 2830.19211083699 12 15 8
-51.4121173349551 60.8675552007074 2843.46888257055 13 16 9
-61.9843419871353 60.9761540088864 2845.44907548964 17 20 13
-68.337303410209 61.5752049676562 2850.25221130897 19 22 15
-75.5434781579929 62.0773393762665 2854.49967763663 12 15 8
-98.9468847102293 60.7366724889735 2848.18063356531 9 12 5
181.198829941028 35.8040252541593 2698.37397366779 25 28 21
192.951585505275 38.8827724146308 2717.42230821084 25 28 21
181.323283551026 38.6932755024703 2717.66144128442 24 27 18
201.816952652546 42.9493083998529 2743.44327101563 16 19 10
177.629382282175 41.0280674310183 2733.73765600834 14 17 8
185.661062552968 43.5400557787624 2749.47995559982 17 20 11
174.798790124289 43.4613356603789 2750.35894658649 17 20 11
193.213587037143 47.3579093693436 2774.00718924833 17 20 11
180.782583765382 47.0626218907878 2773.64180523611 16 19 10
169.909319541669 46.9854090860255 2774.53148845745 15 18 9
144.648807811941 44.9925561685575 2764.48465713601 15 18 9
175.275635699514 50.45750813477 2797.02969586724 18 21 12
185.233784466055 53.1411496049333 2813.6677699849 19 22 13
194.462980073089 55.709467506269 2829.62950297926 15 18 11
173.956109707802 54.360650242856 2823.2691789131 14 17 10
160.644191386368 53.9695261246975 2822.37581186328 13 16 9
135.152316610766 52.0062104548317 2812.55469971627 12 15 8
136.340914079734 53.5164454780758 2822.48714300774 12 15 8
131.054710704705 54.1855200616593 2827.63753217233 10 13 6
133.107231736302 55.794096659791 2838.11479891286 11 14 7
142.550670172716 58.3355274715096 2853.86775951065 14 17 10
114.38272497179 56.0882895575585 2842.49492264411 15 18 11
86.9281526760237 53.9583708167236 2831.81326553233 15 18 11
103.815077820688 57.4260930047144 2852.79102571844 14 17 10
99.3576382005457 58.1980173079055 2858.52014839713 10 13 6
70.0968969033529 55.8815856826993 2846.82545384927 12 15 8
56.9360663507714 56.925036087152 2855.48906583158 11 14 7
44.102882822449 56.6813176292528 2855.5157687227 11 14 7
-34.7049211540771 48.3882951882444 2810.30164646679 12 15 8
-34.3730260905373 49.7997370076985 2819.68250018589 10 13 6
-53.2999290024701 48.874198875325 2815.94175040677 12 15 8
-63.0421216626296 49.0697076937794 2818.50211118581 12 15 8
-53.4268308409986 51.5896875437153 2834.08759026742 11 14 7
-38.6743725920948 54.7050640392241 2852.98625622056 13 16 9
-29.7523232406438 57.1052347409608 2867.86093275211 13 16 9
-55.5415277401901 55.3876025380436 2859.71533298293 13 16 9
-103.527084262998 51.0820929777525 2837.15151888382 14 17 10
-121.881031776526 50.2917987137601 2834.23907409928 12 15 8
202.211671493215 29.8264023939206 2706.73161483412 30 33 26
199.170977740182 30.8418491201976 2713.85205189307 25 28 21
191.460952140128 31.1865552618066 2717.2062080767 27 30 23
209.553766611333 35.205200149621 2741.15614199596 22 25 16
195.612679418598 34.6562906147803 2739.49362239213 15 18 9
172.196190105173 32.7832133772963 2730.43210323589 15 18 9
167.6049014959 33.5746041194506 2736.29160065025 18 21 12
185.138682397258 37.4539188212847 2759.40034679132 17 20 11
177.443322522867 37.7970709592775 2762.74016937362 15 18 9
201.493351313362 42.5340584258271 2790.58737159861 15 18 9
174.753864596029 40.2406419365501 2779.21978883235 15 18 9
167.854973488037 40.6933944866488 2783.16941658033 15 18 9
178.54345120698 43.5466678909043 2800.47410104395 17 20 11
159.648414635554 42.3634602417973 2795.32288164196 18 21 12
169.618759896514 45.0974272329342 2811.94140637035 18 21 14
172.413635115031 46.8469646486798 2823.07757979969 14 17 10
131.642674433613 42.7547180275955 2801.81983895779 12 15 8
135.221813376035 44.615399884832 2813.57804697554 12 15 8
148.581203208919 47.7617336457463 2832.4382278291 12 15 8
141.697381571271 48.2128997215546 2836.37312585047 12 15 8
135.622186491742 48.7720836332172 2840.90632791667 13 16 9
131.178366707415 49.5453757464288 2846.62172373533 16 19 12
93.9731411254381 46.053569977159 2828.81963260534 16 19 12
120.663134692298 50.8775038774202 2856.86661661404 15 18 11
94.0079895210597 48.7842735729685 2846.80260333274 12 15 8
54.8785275239041 45.1156037282399 2828.10362920613 13 16 9
18.8986109017071 41.8895007036549 2811.87967389349 12 15 8
37.4803135777277 45.6368281339089 2833.96698804029 12 15 8
59.4987210806317 49.7903940826044 2858.24987456941 11 14 7
-8.288425247863 42.5991834074101 2820.35073939625 10 13 6
-4.58417965248836 44.4443830374628 2831.98666508263 10 13 6
-38.4832821672756 41.5859969592505 2817.89314799231 11 14 7
-47.3571780393804 41.8688809460207 2820.99493468903 11 14 7
-59.6071342660665 41.7380025612613 2821.84271585213 11 14 7
-69.3599630455308 41.921914240949 2824.41501466492 11 14 7
-15.8049456982026 49.8647712336672 2869.25122471984 11 14 7
-13.6014604176364 51.4794280341736 2879.57734523623 12 15 8
-26.6297111111045 51.2368534123015 2879.7975836475 14 17 10
-56.6950879955872 48.9448677139329 2868.89829103521 20 23 16
-91.9841807616271 46.0523436191397 2854.77285323644 15 18 11
222.467328525553 25.3303611660552 2724.12430589398 28 31 24
200.797507609536 23.600129591581 2716.14102530743 28 31 24
209.477121991717 26.3357130338415 2732.62411665046 30 33 26
220.574026719941 29.4043553136963 2750.90830494817 18 21 12
206.660692155752 28.8226155177307 2749.22341671419 18 21 12
182.485825414107 26.7706775325252 2739.52416593574 18 21 12
200.773194182685 30.8464508610293 2763.27279884507 18 21 12
182.838351761404 29.708868721558 2758.57825834503 17 20 11
174.345216878953 29.9322638710303 2761.31073617451 16 19 10
162.662048747543 29.7075394291133 2761.6095587866 15 18 9
202.67716386275 36.7843599038006 2801.59758139339 13 16 7
189.464288226413 36.3273204391189 2800.61560575258 14 17 8
164.217882252387 34.1984779222406 2790.57520425261 15 18 9
170.94117982038 36.5431735530841 2804.80731652248 19 22 13
143.169150761448 34.0951044638644 2793.07101183422 17 20 13
150.733001421023 36.5465425052617 2807.86991313655 14 17 10
135.750299824208 35.8877683508019 2805.84106065894 13 16 9
157.955466691363 40.3200549986567 2831.31420689866 13 16 9
136.886811605614 40.2196649765906 2833.82935795386 12 15 8
119.386603903125 39.2407753597402 2830.09701122715 13 16 9
125.527400632313 41.4465303972314 2843.51118148221 13 16 9
122.713173710809 42.4428255377048 2850.40956422567 13 16 9
82.9632999193564 38.5292934441366 2830.9456115559 13 16 9
108.069260230444 43.2336210459156 2857.74908528515 12 15 8
28.5512867685007 34.1299461154433 2810.52616727497 13 16 9
13.1823957344928 33.5205280462405 2808.87351180958 13 16 9
23.461725893251 36.2676894518092 2825.18325983812 12 15 8
32.9850021418192 38.8975756243226 2840.84420448652 11 14 7
-10.354366020441 36.0791312050303 2829.03388510458 10 13 6
-34.227354517796 34.4163632247749 2821.81150208763 11 14 7
-49.7994169032609 33.8329008889871 2820.3567625316 11 14 7
-41.0437392175487 36.347103580762 2835.38013255032 11 14 7
-49.0689948371412 36.7254240882819 2839.04234861471 12 15 8
-46.9731356768666 38.3785926849609 2849.46965143291 12 15 8
-16.9148165775184 43.5212371732799 2878.37579890427 13 16 9
-30.798966136953 43.1502561323022 2878.04768879491 19 22 15
-54.0720934750092 41.6248279081667 2871.62658318293 14 17 10
-104.691449108544 36.7450486812315 2847.51198154626 10 13 6
236.511059256963 20.0357821665462 2736.46726706599 33 36 29
217.990184697405 18.7134067102407 2730.96506819621 23 26 19
212.6678369957 19.3875575232949 2736.15059894701 21 24 17
216.139751284703 22.8319948095571 2757.69990733595 20 23 14
207.710571109801 23.0367589940947 2760.37196868589 20 23 14
193.750543044735 22.4317013445294 2758.73689415711 18 21 12
187.647995297009 22.9891793891235 2763.2971721116 17 20 11
164.912552951408 21.1222325990806 2754.97570433084 17 20 11
155.587717431891 21.2248753045036 2757.1350110285 16 19 10
173.301626961934 25.2392640824693 2780.04492288903 13 16 7
180.281533097301 29.1034643751725 2803.71701568271 17 20 11
190.25003933997 31.9412714319121 2820.3220190671 18 21 12
172.971676505321 30.8938498586883 2816.37916825839 17 20 13
135.498123598565 27.0100961206819 2797.48455054939 15 18 11
155.199496966051 31.2045343177476 2821.22808884916 14 17 10
162.881337270734 33.6848306455393 2835.90555944755 13 16 9
151.154097663374 33.4449787975447 2836.25038151077 14 17 10
119.06459867158 30.3899359040479 2821.80587648039 14 17 10
107.228431421764 30.1639544628398 2822.25647742075 13 16 9
127.231779719265 34.3203882804678 2845.70610502367 12 15 8
100.667259365577 32.0761135244472 2835.57442426284 12 15 8
85.4974296488202 31.4094478606122 2833.73255913624 12 15 8
68.6362030189906 30.5255488885138 2830.76856450041 14 17 10
73.1694178281708 32.5418619234289 2842.97293033428 13 16 9
60.3863553098938 32.2203952391973 2842.9613534754 12 15 8
45.9115405962809 31.6816334316366 2841.82733336008 12 15 8
12.2882582676773 28.605650360954 2827.49208348797 11 14 7
1.84904772500172 28.6347156824375 2829.35194644461 10 13 6
-26.9737789843316 26.2454384704024 2818.65040994307 9 12 5
-47.5387809578263 24.9679102199218 2813.75418425594 11 14 7
-37.986702964985 27.6434486716597 2829.37978095958 11 14 7
-40.1299969296205 28.7795657724768 2837.00816105171 12 15 8
-52.3649435685125 28.6047799018161 2837.84752697949 12 15 8
-55.3429001016186 29.6308763385058 2844.90375318708 13 16 9
-51.5381054235546 31.5240807857717 2856.43307489893 11 14 7
-42.6008327177603 34.0617641320175 2871.27231010578 22 25 18
-136.142563185734 24.9842358745795 2828.05194689494 13 16 9
-59.7947044358071 36.0290025357253 2886.63841259927 0 2 0
204.751639588508 7.74989640211576 2711.72335270736 33 36 29
188.486014281988 6.751644847869 2708.18448057259 29 32 25
214.298153138899 12.2219353814352 2738.42456537495 21 24 17
205.069846201175 12.29888485507 2740.49215305436 19 22 13
209.152593511262 14.4041040772986 2753.1310373203 19 22 13
202.27803457505 14.8384683322922 2757.05922064399 19 22 13
190.668704437864 14.561771492007 2757.29240253406 17 20 11
172.709495773518 13.3415572864517 2752.63427105687 16 19 10
196.658663177306 18.3927306876956 2780.53519358592 16 19 10
185.824234465182 18.236557203567 2781.39798292408 15 18 9
170.188795478722 17.3776640364525 2778.62997650858 14 17 8
174.446667783257 19.4611524123648 2791.0981708758 14 17 8
164.358101145244 19.4291778982031 2792.61886091269 15 18 9
181.501577954361 23.3762906852724 2814.68791710001 16 19 10
180.273332500527 24.625466686521 2822.80817759761 17 20 13
155.706054033822 22.4949255144126 2813.51021497975 16 19 12
156.077080044051 23.9786408966378 2822.8418669313 15 18 11
150.810524125447 24.6470703253263 2827.97284123483 13 16 9
134.997697849988 23.8111661883393 2825.37758525096 13 16 9
115.069010224365 22.4042477735091 2819.86861381973 15 18 11
108.114740738499 22.8497092108019 2823.87464858086 14 17 10
109.324893257367 24.4458127970908 2833.77299605301 13 16 9
98.2809103365478 24.3169783385614 2834.83983512214 12 15 8
96.2419392152865 25.4508162647318 2842.36495794964 13 16 9
113.970597011805 29.3242994454557 2863.86414103155 15 18 11
88.0890548555557 27.1424242194785 2854.46193951882 14 17 10
70.379925074199 26.1102150180874 2850.94459827418 13 16 9
74.9906635188844 28.1497644718666 2863.06888550141 12 15 8
39.774575849389 24.7472536857969 2847.52941905509 11 14 7
-12.2329843233504 19.1022707295679 2820.65535602915 9 12 5
-14.3813133347881 20.2503077372057 2828.28697424016 9 12 5
-10.6573218627428 22.1838907516584 2839.89056679548 11 14 7
-36.2360991793982 20.1825899198159 2831.57793582247 11 14 7
-48.4602666650114 19.9853785523506 2832.40991237034 12 15 8
-44.7101248941166 21.9157000573418 2843.98768150001 13 16 9
-67.0886998346756 20.3831287367054 2838.09623719767 13 16 9
-72.6196372459085 21.0859638344721 2843.48466108879 15 18 11
-66.2756110853997 23.3432003135858 2856.68941257967 18 21 14
-116.831352331434 18.1704419994512 2832.55494309696 11 14 7
-106.24648551134 20.9829223864098 2848.55163458721 13 16 9
192.523295450665 1.39636103026602 2721.9711724802 27 30 23
177.765609146698 0.612186918823199 2719.73741054933 22 25 16
183.348214065859 3.00268264652698 2733.67890677199 17 20 11
209.422542108794 8.54854801666066 2763.64746390892 17 20 11
184.435362452413 6.1848643198279 2753.3840184253 17 20 11
184.629049878796 7.70978962631125 2762.88534156136 16 19 10
200.687938730384 11.6489909474957 2784.61566961714 15 18 9
189.069680506994 11.3524119899043 2784.86065579706 15 18 9
175.033994285717 10.6985720836988 2783.30792093206 15 18 9
162.551614919904 10.2903937311277 2783.01023936259 15 18 9
166.827638845493 12.4045352674815 2795.45587837804 14 17 8
179.166710010986 15.709224512898 2813.88859872024 14 17 8
171.50432319331 16.0178472419824 2817.20078200136 19 22 15
167.858564901669 16.9237191174995 2823.52134288901 17 20 13
144.036243370446 14.8557007677127 2814.8916333356 16 19 12
153.308773203207 17.6643009145973 2830.77482119226 13 16 9
117.219994076116 13.8324674219139 2813.33158533719 12 15 8
111.887381632926 14.5098950955228 2818.52682480946 14 17 10
116.337786570079 16.602392205321 2830.8024999394 14 17 10
97.9565067728956 15.3938506053417 2826.56176613046 13 16 9
90.9807702828993 15.8371885226369 2830.58909395737 13 16 9
95.4923138107873 17.9220960792737 2842.80517929556 13 16 9
105.811891543589 20.8195959808158 2859.05274092406 14 17 10
57.6401575096539 15.4223338300988 2834.00100792435 14 17 10
64.6639652583927 17.8526408426058 2847.92205581757 13 16 9
84.1782509702531 22.0185160043734 2870.43868721145 12 15 8
52.3073704890695 18.9803158556171 2857.19184857766 11 14 7
-2.16753826970573 12.8336482847346 2828.59098214356 9 12 5
-9.30010433150663 13.2973098942233 2832.77104022081 8 11 4
-10.5837798560935 14.5684223341507 2840.94310140201 11 14 7
-23.585309022252 14.2273716744186 2841.15102181504 12 15 8
-53.4281159524648 11.5961932261054 2830.08084648828 12 15 8
-65.693631392874 11.3832457497268 2830.95620795652 14 17 10
-63.6371447956341 13.1160545312149 2841.4108375273 14 17 10
-85.237508188357 11.6527745912411 2836.15362357778 16 19 12
-95.0371031060016 11.7910689302474 2838.77910408015 16 19 12
-83.6037231574123 14.7690735532782 2855.32565439839 19 22 15
-151.326231547718 7.20514254245091 2820.25123933536 9 12 5
220.535504979173 -3.12578319714002 2735.91641605552 26 28 23
183.232546128601 -7.57942686933183 2715.51937825058 22 25 18
162.97734687321 -9.26653007185341 2708.95947740796 21 24 15
184.203499121189 -4.34141286186246 2735.33195949516 18 21 12
196.916874977013 -0.800787036611073 2754.77536558287 17 20 11
215.236153674884 3.59706312996971 2778.4443708027 17 20 13
176.011221076536 -1.0603506024634 2757.15217983176 16 19 12
183.337953842918 1.59554238560811 2772.15632435544 15 18 11
183.583759661432 3.13335705337486 2781.60398811569 15 18 11
167.147591218459 2.08257888505076 2778.24256908913 16 19 10
166.610976590332 3.49573032322248 2787.06836593037 15 18 11
173.295230931747 6.00938621050645 2801.31461429128 14 17 10
172.824662838146 7.41435318882466 2810.07637344898 13 16 9
168.360824151848 8.20573308735623 2815.80897496647 20 23 16
167.928988310655 9.6059130741713 2824.53297994021 18 21 14
173.980333912827 11.9760426632928 2838.01168199977 16 19 12
112.10404944742 4.14389966208822 2801.42258756644 13 16 9
120.536713291193 6.88421598172451 2816.73295776779 11 14 7
113.585552790631 7.31940083248123 2820.73742413555 12 15 8
103.366867882138 7.27296698424845 2822.3894606218 13 16 9
83.3207746952618 5.78479655867842 2817.00908366017 13 16 9
79.586437125847 6.70824811950543 2823.41500681028 13 16 9
70.9350361918339 6.9112954164704 2826.30799041427 13 16 9
49.1026021428356 5.20190980844876 2819.90035320762 12 15 8
28.0183204149891 3.6217121583339 2814.14760508029 14 17 10
73.0040661707023 11.5829970611707 2854.73696963828 13 16 9
66.017994441907 12.0230916330912 2858.77537771712 12 15 8
38.2583950668565 9.49757727957079 2848.45474802099 11 14 7
-0.428516285443603 5.44596306707867 2830.78982288998 9 12 5
-15.0678020505808 4.84080334096865 2829.82927638552 8 11 4
-16.365126598922 6.12771526453659 2838.0125560923 11 14 7
-33.5721267244264 5.17624859347005 2835.40156828356 12 15 8
-47.4707866470947 4.701328852942 2835.10322927379 12 15 8
-68.1452351745069 3.29379692943754 2830.33523796071 14 17 10
-109.14976409659 -0.911380157658459 2812.16028138555 14 17 10
-106.315933008694 0.971808251791051 2823.23801750222 15 18 11
-116.16366763631 1.10333090418158 2825.91230230055 15 18 11
-111.579279418929 3.21257163700428 2838.05245535241 16 19 12
-142.729658388156 0.445936820749948 2826.88382946416 10 13 6
162.242142647412 -20.1245838797756 2690.03903270763 23 25 20
170.822196815684 -17.1310485379517 2706.58252579475 21 24 17
177.126997918817 -14.5290081014098 2721.19251363284 20 23 16
196.035284020596 -9.89775134490395 2745.65903771912 18 21 12
193.057919159622 -8.83902957930738 2752.71019222016 18 21 12
178.274388389456 -9.68373340888246 2750.51137833419 18 21 14
164.234672465454 -10.3960137244977 2748.97094464856 16 19 12
168.364688903076 -8.19789228927575 2761.54915906558 16 19 12
163.810858137418 -7.39234432665786 2767.3690300145 15 18 11
164.036056688476 -5.83246470155041 2776.83389590492 13 15 10
164.289483034646 -4.27603136769156 2786.27157837983 13 15 10
161.37234173087 -3.22440220766462 2793.26364044032 12 14 9
153.658943799228 -2.92463468109971 2796.62812514875 13 15 10
147.541465646999 -2.37383227272664 2801.20421587173 16 19 12
176.053860553917 3.53408755456031 2831.53238155825 20 23 16
165.977245524596 3.45357871110147 2833.04837682371 19 22 15
130.790185976248 -0.470438873893198 2816.14025418339 15 18 11
115.74114831549 -1.28045681342909 2814.19962816329 14 17 10
125.042007471441 1.62297790561911 2830.04100591688 12 15 8
114.035669078192 1.43401128597065 2831.07935092079 12 15 8
80.1252811516071 -2.19811897953115 2815.69415230447 12 15 8
73.9262032635275 -1.63629081325978 2820.34998101121 13 16 9
56.2308622641088 -2.79040940697295 2816.83696545722 13 16 9
39.3014393213762 -3.81482857019777 2813.96145959111 13 16 9
39.6397246172491 -2.26823234051171 2823.31599195223 13 16 9
32.565285478745 -1.8218642849786 2827.4408851151 14 17 10
62.7755171092961 4.09784996006429 2857.49823994433 12 15 8
14.2433400524449 -1.53318093839533 2832.83932095553 10 13 6
-15.3403887723078 -4.35297073121449 2821.53975391451 9 12 5
-28.3453526257142 -4.74115412370385 2821.75805122007 9 12 5
-36.3654591956011 -4.40121909911023 2825.4208275596 11 14 7
-33.4972264946054 -2.49500602412417 2836.46099933041 10 13 6
-50.7567820934254 -3.47690744585327 2833.90703596843 12 15 8
-47.0132944745361 -1.45493508649175 2845.47786681317 14 17 10
-98.0984612820568 -7.21481720877204 2820.53899206408 13 16 9
-111.316143506474 -7.57563123789146 2820.96447667665 12 15 8
-111.846550353695 -6.14495086422146 2829.78185617267 17 19 14
-129.352667507081 -7.09526804927069 2827.46806394284 15 17 12
-139.244758423764 -6.97092770388708 2830.18745673375 11 13 8
-103.046406143265 -0.450375780559009 2862.71184728075 16 18 13
144.41735403686 -30.7307952106185 2676.71562549798 31 33 28
177.915653648333 -23.5066792640272 2713.23413112177 22 25 18
