ply
format ascii 1.0
comment KinectMotionCapture
element vertex 759
property float x
property float y
property float z
property uchar red
property uchar green
property uchar blue
end_header
301.889538764954 469.839960336685 2661.99994087219 187 189 186
312.835097312927 475.467264652252 2694.00000572205 191 193 190
-232.671588659286 474.462151527405 2729.00009155273 200 202 199
-223.929703235626 471.696227788925 2713.00005912781 188 190 187
-215.673193335533 469.798982143402 2701.99990272522 181 183 180
-207.938447594643 468.944430351257 2697.00002670288 170 172 169
-200.602129101753 468.958705663681 2697.00002670288 162 163 158
-193.336814641953 469.146400690079 2697.99995422363 158 159 154
-186.134397983551 469.507575035095 2700.00004768372 158 159 154
-179.052919149399 470.216035842896 2703.9999961853 158 159 154
-172.139599919319 471.445739269257 2710.99996566772 156 157 152
-165.309175848961 473.022907972336 2720.00002861023 148 150 145
-158.487245440483 474.773466587067 2730.00001907349 140 142 137
-151.499718427658 476.17581486702 2737.99991607666 138 140 135
-144.205078482628 476.708114147186 2740.9999370575 143 145 140
-136.893644928932 477.239966392517 2743.99995803833 135 137 132
-129.376754164696 477.075576782227 2743.00003051758 216 218 213
-121.109321713448 473.953932523727 2724.99990463257 202 205 198
-112.93950676918 470.831632614136 2707.00001716614 156 159 152
-105.062298476696 468.578398227692 2694.00000572205 161 164 157
-97.4006429314613 467.020243406296 2684.99994277954 154 156 151
-89.9218767881393 466.157346963882 2680.0000667572 152 154 149
-82.4392139911652 465.119957923889 2674.00002479553 163 165 160
-74.8203098773956 463.038355112076 2661.99994087219 182 184 179
-67.4949437379837 462.521642446518 2658.99991989136 184 186 183
-60.1403824985027 461.656600236893 2654.00004386902 179 181 178
-52.7530312538147 460.269093513489 2645.99990844727 184 186 183
-45.3230030834675 458.011269569397 2632.99989700317 186 188 185
-38.0071140825748 456.274837255478 2622.99990653992 176 177 172
-30.8396890759468 455.929458141327 2621.00005149841 171 172 167
-23.6649680882692 455.235630273819 2617.00010299683 172 173 168
-16.5309123694897 455.063134431839 2615.9999370575 176 177 172
-9.3842688947916 454.020380973816 2609.99989509583 173 174 169
-2.27289344184101 453.498899936676 2607.00011253357 165 166 161
4.82214847579598 452.977001667023 2604.00009155273 165 166 161
11.9145568460226 452.97634601593 2604.00009155273 161 162 157
18.9996268600225 452.80122756958 2602.9999256134 159 160 155
26.0691624134779 452.451765537262 2601.0000705719 159 160 155
33.1404581665993 452.275604009628 2599.99990463257 157 158 153
40.2371361851692 452.446907758713 2601.0000705719 154 156 151
47.3391190171242 452.617675065994 2601.99999809265 155 157 152
54.4254742562771 452.613949775696 2601.99999809265 156 158 153
61.4643655717373 452.261865139008 2599.99990463257 158 160 155
68.4921517968178 451.909273862839 2598.00004959106 160 162 157
75.5378901958466 451.730012893677 2596.99988365173 164 166 161
82.7051773667336 452.246159315109 2599.99990463257 163 165 160
89.8194462060928 452.413827180862 2601.0000705719 166 168 163
97.0878899097443 453.276753425598 2605.99994659424 172 174 169
104.303278028965 453.791260719299 2608.99996757507 167 169 164
111.577346920967 454.479247331619 2612.99991607666 164 166 161
118.827402591705 454.992741346359 2615.9999370575 167 169 166
126.334115862846 456.375330686569 2624.00007247925 180 182 179
134.03657078743 458.279103040695 2634.99999046326 190 192 189
141.744866967201 460.008412599564 2644.99998092651 186 188 185
149.22559261322 460.867613554001 2650.00009536743 159 161 156
156.73303604126 461.726278066635 2654.99997138977 158 160 155
164.76121544838 463.975608348846 2667.99998283386 154 156 151
172.859594225883 466.224312782288 2680.99999427795 152 154 149
181.028187274933 468.472480773926 2694.00000572205 149 151 146
189.127072691917 470.372259616852 2704.99992370605 151 154 147
197.575777769089 472.966969013214 2720.00002861023 148 151 144
206.708312034607 476.952105760574 2743.00003051758 136 138 133
226.0832041502 470.64745426178 2707.00001716614 213 215 210
232.064604759216 467.849791049957 2690.99998474121 146 148 143
238.314092159271 465.747237205505 2678.99990081787 151 153 148
244.314268231392 463.296830654144 2664.99996185303 154 155 150
250.615060329437 461.541444063187 2654.99997138977 159 160 155
257.055014371872 460.13343334198 2647.0000743866 160 161 156
264.049649238586 459.768056869507 2644.99998092651 161 162 157
270.827531814575 459.054619073868 2641.00003242493 162 163 158
277.898639440537 458.862364292145 2640.00010490417 162 164 161
285.071462392807 458.843439817429 2640.00010490417 171 173 170
293.129056692123 460.214495658875 2648.00000190735 181 183 180
302.023082971573 462.801575660706 2663.00010681152 187 189 186
-232.261314988136 466.209828853607 2723.99997711182 200 202 199
-223.532453179359 463.487029075623 2707.99994468689 189 191 188
-215.608328580856 462.304085493088 2700.99997520447 182 184 181
-208.107084035873 461.976379156113 2698.99988174438 172 174 171
-200.764909386635 461.990624666214 2698.99988174438 163 164 159
-193.42203438282 462.004333734512 2698.99988174438 158 159 154
-186.147481203079 462.18878030777 2700.00004768372 157 158 153
-178.999304771423 462.715089321136 2703.00006866455 157 158 153
-172.2152531147 464.268088340759 2711.99989318848 155 156 151
-165.381640195847 465.820699930191 2720.99995613098 146 148 143
-158.614605665207 467.715352773666 2732.00011253357 140 142 137
-151.731848716736 469.438314437866 2742.00010299683 135 137 132
-144.478440284729 470.133632421494 2746.00005149841 132 134 129
-137.302562594414 471.170902252197 2752.00009346008 130 132 127
-129.574686288834 470.324277877808 2746.99997901917 215 217 212
-121.02910131216 466.224044561386 2723.00004959106 187 190 183
-112.864166498184 463.150471448898 2704.99992370605 157 160 153
-104.952841997147 460.76112985611 2690.99998474121 157 160 153
-97.2988307476044 459.227383136749 2681.99992179871 157 159 154
-89.7941440343857 458.20677280426 2676.00011825562 162 164 159
-82.3218375444412 457.185506820679 2670.00007629395 185 187 182
-74.7413784265518 455.307573080063 2658.99991989136 189 191 186
-67.3982948064804 454.627811908722 2654.99997138977 177 179 176
-60.0767508149147 453.947454690933 2651.00002288818 177 179 176
-52.6970364153385 452.581584453583 2642.99988746643 185 187 184
-45.3262962400913 450.872749090195 2632.99989700317 181 183 180
-38.0243621766567 449.334591627121 2624.00007247925 172 173 168
-30.8301616460085 448.652118444443 2619.99988555908 171 172 167
-23.6395578831434 447.626680135727 2614.00008201599 173 174 169
-16.5068339556456 447.285622358322 2611.99998855591 174 175 170
-9.3741649761796 446.430385112762 2607.00011253357 170 171 166
-2.27131508290768 446.088284254074 2605.00001907349 163 164 159
4.82064671814442 445.745706558228 2602.9999256134 161 162 157
11.9199985638261 446.087539196014 2605.00001907349 159 160 155
19.0375056117773 446.600198745728 2608.00004005432 159 160 155
26.141220703721 446.598589420319 2608.00004005432 157 158 153
33.2193449139595 446.253925561905 2605.99994659424 154 155 150
40.2864702045918 445.908784866333 2604.00009155273 152 154 149
47.3789423704147 445.905596017838 2604.00009155273 152 154 149
54.4503331184387 445.730686187744 2602.9999256134 153 155 150
61.4688061177731 445.212781429291 2599.99990463257 157 159 154
68.5234665870667 445.036917924881 2598.99997711182 158 160 155
75.5724459886551 444.860517978668 2598.00004959106 162 164 159
82.7111303806305 445.197224617004 2599.99990463257 162 164 159
89.8949950933456 445.704787969589 2602.9999256134 164 166 161
97.1693843603134 446.554183959961 2608.00004005432 171 173 168
104.470692574978 447.403073310852 2612.99991607666 169 171 166
111.713446676731 447.908997535706 2615.9999370575 164 166 161
118.926770985126 448.243260383606 2618.00003051758 168 170 167
126.198694109917 448.748141527176 2621.00005149841 169 171 168
133.690029382706 449.937403202057 2628.00002098084 173 175 172
141.433402895927 451.810896396637 2638.99993896484 180 182 179
149.179860949516 453.512638807297 2648.9999294281 171 173 168
156.803175806999 454.700231552124 2655.99989891052 160 162 157
164.711102843285 456.572115421295 2667.00005531311 154 156 151
172.742828726768 458.614498376846 2678.99990081787 152 154 149
180.906504392624 460.827529430389 2691.99991226196 151 153 148
188.930571079254 462.5264108181 2701.99990272522 153 156 149
197.153747081757 464.567095041275 2713.99998664856 150 153 146
205.818355083466 467.462956905365 2730.99994659424 135 137 132
213.48163485527 467.96190738678 2733.99996757507 182 184 179
226.265862584114 463.652640581131 2709.00011062622 211 213 208
232.166841626167 460.727363824844 2691.99991226196 149 151 146
238.330453634262 458.486348390579 2678.99990081787 148 150 145
244.1476136446 455.731749534607 2663.00010681152 160 161 156
250.443369150162 454.003602266312 2653.00011634827 161 162 157
256.878197193146 452.617406845093 2644.99998092651 160 161 156
263.96769285202 452.428758144379 2644.00005340576 158 159 154
271.050870418549 452.239662408829 2642.99988746643 159 160 155
278.022527694702 451.879143714905 2641.00003242493 159 161 158
284.98250246048 451.518207788467 2638.99993896484 170 172 169
292.484253644943 452.012300491333 2641.99995994568 181 183 180
301.589369773865 454.901099205017 2658.99991989136 189 191 188
-231.765538454056 457.814753055573 2717.99993515015 200 202 199
-223.630353808403 456.314355134964 2709.00011062622 189 191 188
-215.70298075676 455.150187015533 2701.99990272522 183 185 182
-208.198592066765 454.827874898911 2700.00004768372 173 175 172
-200.778782367706 454.673439264297 2698.99988174438 163 164 159
-193.292126059532 454.350173473358 2697.00002670288 158 159 154
-185.884639620781 454.194754362106 2696.00009918213 157 158 153
-178.813114762306 454.881280660629 2700.00004768372 157 158 153
-172.036811709404 456.409811973572 2709.00011062622 154 155 150
-165.332451462746 458.274871110916 2720.00002861023 143 145 140
-158.62575173378 460.308015346527 2732.00011253357 138 140 135
-151.742517948151 462.003737688065 2742.00010299683 132 134 129
-144.593849778175 463.025063276291 2747.99990653992 128 130 125
-137.561738491058 464.551478624344 2756.99996948242 128 130 125
-129.678219556808 463.212907314301 2749.00007247925 214 216 211
-121.126599609852 459.177672863007 2724.99990463257 181 184 177
-112.91392147541 455.984324216843 2706.00008964539 156 159 152
-104.960322380066 453.464359045029 2690.99998474121 155 158 151
-97.3057597875595 451.954931020737 2681.99992179871 159 161 156
-89.8341089487076 451.119005680084 2677.00004577637 166 168 163
-82.3585614562035 450.114011764526 2671.0000038147 191 193 188
-74.7467279434204 448.097318410873 2658.99991989136 189 191 186
-67.4031153321266 447.428315877914 2654.99997138977 174 176 173
-60.0583963096142 446.590304374695 2650.00009536743 177 179 176
-52.7407042682171 445.751696825027 2644.99998092651 185 187 184
-45.3639812767506 444.069921970367 2634.99999046326 180 182 179
-38.0415879189968 442.387610673904 2625 173 174 169
-30.7970773428679 441.041857004166 2617.00010299683 172 173 168
-23.6231684684753 440.201133489609 2611.99998855591 173 174 169
-16.4827425032854 439.528465270996 2608.00004005432 173 174 169
-9.37124248594046 439.192324876785 2605.99994659424 168 169 164
-2.26973439566791 438.687115907669 2602.9999256134 163 164 159
4.82099363580346 438.687026500702 2602.9999256134 160 161 156
11.9208572432399 439.023524522781 2605.00001907349 158 159 154
19.0315768122673 439.35951590538 2607.00011253357 158 159 154
26.1431001126766 439.526408910751 2608.00004005432 155 156 151
33.2217365503311 439.187198877335 2605.99994659424 151 152 147
40.3357855975628 439.353138208389 2607.00011253357 151 153 148
47.4369302392006 439.349979162216 2607.00011253357 151 153 148
54.4960834085941 439.00927901268 2605.00001907349 152 154 149
61.5441463887692 438.668042421341 2602.9999256134 156 158 153
68.5811117291451 438.326388597488 2601.0000705719 157 159 154
75.6942182779312 438.48979473114 2601.99999809265 162 164 159
82.7170461416245 438.147097826004 2599.99990463257 162 164 159
89.8668766021729 438.477993011475 2601.99999809265 164 166 161
97.1018001437187 439.145416021347 2605.99994659424 171 173 168
104.438148438931 440.149337053299 2611.99998855591 169 171 166
111.721403896809 440.815716981888 2615.9999370575 164 166 161
119.026057422161 441.481590270996 2619.99988555908 166 168 165
126.352101564407 442.146956920624 2624.00007247925 169 171 168
133.699491620064 442.811787128448 2628.00002098084 163 165 162
141.336187720299 444.318562746048 2637.00008392334 172 174 171
149.134054780006 446.161806583405 2648.00000190735 179 181 176
156.932294368744 447.836011648178 2657.99999237061 161 163 158
164.599105715752 449.004143476486 2664.99996185303 154 156 151
172.496974468231 450.677245855331 2674.99995231628 150 152 147
180.650293827057 452.855110168457 2687.99996376038 151 153 148
188.73393535614 454.695463180542 2698.99988174438 159 162 155
196.94946706295 456.703782081604 2710.99996566772 152 155 148
205.455735325813 459.216803312302 2726.0000705719 140 142 137
214.355334639549 462.403029203415 2744.99988555908 162 164 159
226.949602365494 457.65632390976 2717.00000762939 224 226 221
232.096418738365 453.261315822601 2690.99998474121 155 157 152
237.99079656601 450.550436973572 2674.99995231628 149 151 146
243.980750441551 448.176175355911 2661.00001335144 152 153 148
250.365823507309 446.643739938736 2651.99995040894 153 154 149
257.283985614777 446.121484041214 2648.9999294281 155 156 151
264.284878969193 445.767253637314 2647.0000743866 159 160 155
271.479189395905 445.749461650848 2647.0000743866 163 164 159
278.251558542252 445.05763053894 2642.99988746643 167 169 166
285.109341144562 444.533884525299 2640.00010490417 178 180 177
292.282104492188 444.514930248261 2640.00010490417 181 183 180
301.1554479599 447.021126747131 2654.99997138977 187 189 186
-232.889845967293 452.599823474884 2730.99994659424 199 201 198
-223.728075623512 449.134886264801 2710.00003814697 189 191 188
-215.637847781181 447.658151388168 2700.99997520447 183 185 182
-208.058595657349 447.175323963165 2697.99995422363 170 172 169
-200.792565941811 447.355002164841 2698.99988174438 164 165 160
-193.377077579498 447.202682495117 2697.99995422363 159 160 155
-186.035349965096 447.215676307678 2697.99995422363 159 160 155
-178.891718387604 447.725504636765 2700.99997520447 159 160 155
-172.112226486206 449.229449033737 2710.00003814697 155 156 151
-165.404722094536 451.064556837082 2720.99995613098 146 148 143
-158.752933144569 453.230887651443 2733.99996757507 132 134 129
-151.808455586433 454.733639955521 2743.00003051758 123 125 120
-144.709229469299 455.904453992844 2750 120 122 117
-137.671187520027 457.406342029572 2759.0000629425 113 115 110
-129.923179745674 456.58665895462 2753.99994850159 211 213 208
-121.090658009052 451.62171125412 2723.99997711182 139 142 135
-112.963601946831 448.811382055283 2707.00001716614 150 153 146
-104.967720806599 446.16624712944 2690.99998474121 171 174 167
-97.3852053284645 445.012778043747 2684.00001525879 157 159 154
-89.8740217089653 444.024503231049 2677.99997329712 178 180 175
-82.3643952608109 442.869931459427 2671.0000038147 189 191 186
-74.808269739151 441.217452287674 2661.00001335144 182 184 179
-67.3825144767761 440.061748027802 2654.00004386902 176 178 175
-60.1079873740673 439.734607934952 2651.99995040894 178 180 177
-52.784338593483 438.909590244293 2647.0000743866 186 188 185
-45.4533025622368 437.752395868301 2640.00010490417 178 180 177
-38.0877740681171 435.765504837036 2628.00002098084 171 172 167
-30.8228060603142 434.275597333908 2618.99995803833 171 172 167
-23.6338954418898 433.28258395195 2612.99991607666 172 173 168
-16.4839178323746 432.454973459244 2608.00004005432 169 170 165
-9.3755079433322 432.290077209473 2607.00011253357 167 168 163
-2.27076839655638 431.793063879013 2604.00009155273 161 162 157
4.82319016009569 431.792944669724 2604.00009155273 160 161 156
11.9171300902963 431.792318820953 2604.00009155273 159 160 155
19.0329328179359 432.28867650032 2607.00011253357 158 159 154
26.165010407567 432.784497737885 2609.99989509583 157 158 153
33.2623496651649 432.616591453552 2608.99996757507 153 154 149
40.3695963323116 432.613998651505 2608.99996757507 150 152 147
47.4403090775013 432.279288768768 2607.00011253357 151 153 148
54.4790364801884 431.778192520142 2604.00009155273 151 153 148
61.5248791873455 431.442528963089 2601.99999809265 154 156 151
68.5859769582748 431.272089481354 2601.0000705719 155 157 152
75.7286697626114 431.598603725433 2602.9999256134 158 160 155
82.7865451574326 431.427210569382 2601.99999809265 159 161 156
89.9423137307167 431.752741336823 2604.00009155273 163 165 160
97.1459150314331 432.243585586548 2607.00011253357 173 175 170
104.485496878624 433.231264352798 2612.99991607666 173 175 170
111.814692616463 434.052705764771 2618.00003051758 165 167 162
119.170717895031 434.873551130295 2622.99990653992 166 168 165
126.457273960114 435.36239862442 2625.99992752075 165 167 164
133.810609579086 436.016499996185 2630.00011444092 162 164 161
141.34606719017 437.167406082153 2637.00008392334 165 167 164
149.088129401207 438.815087080002 2647.0000743866 180 182 177
156.766057014465 440.130710601807 2654.99997138977 182 184 179
164.425224065781 441.280007362366 2661.99994087219 157 159 154
172.315433621407 442.926079034805 2671.99993133545 157 159 154
180.595561861992 445.400387048721 2687.00003623962 156 158 153
188.607066869736 447.045296430588 2697.00002670288 154 157 150
196.817696094513 449.021190404892 2709.00011062622 151 154 147
205.168306827545 451.162129640579 2721.99988365173 141 143 138
213.745206594467 453.634083271027 2736.99998855591 159 161 156
222.16060757637 455.60821890831 2749.00007247925 223 225 220
225.711941719055 447.803556919098 2701.99990272522 206 208 203
231.422066688538 444.639384746552 2683.00008773804 150 152 147
237.561956048012 442.469269037247 2670.00007629395 156 158 153
243.997156620026 440.961688756943 2661.00001335144 157 158 153
250.571429729462 439.785271883011 2654.00004386902 156 157 152
257.398277521133 439.105570316315 2650.00009536743 156 157 152
264.302432537079 438.591212034225 2647.0000743866 161 162 157
271.497160196304 438.57353925705 2647.0000743866 163 164 159
278.375178575516 438.058465719223 2644.00005340576 159 161 158
285.236030817032 437.543034553528 2641.00003242493 167 169 166
292.411893606186 437.524169683456 2641.00003242493 170 172 169
301.288396120071 439.989864826202 2655.99989891052 188 190 187
-233.758270740509 446.824014186859 2740.9999370575 199 201 198
-224.238499999046 442.763864994049 2716.00008010864 189 191 188
-215.652391314507 440.333247184753 2700.99997520447 184 186 183
-207.84130692482 439.369291067123 2694.9999332428 171 173 170
-200.58299601078 439.546078443527 2696.00009918213 164 165 160
-193.31856071949 439.722448587418 2697.00002670288 159 160 155
-185.910135507584 439.572274684906 2696.00009918213 159 160 155
-178.705245256424 439.910739660263 2697.99995422363 159 160 155
-171.806439757347 441.064059734344 2704.99992370605 155 156 151
-165.112137794495 442.86921620369 2716.00008010864 130 132 127
-158.473506569862 445.00008225441 2729.00009155273 125 127 122
-151.542186737061 446.478337049484 2737.99991607666 123 125 120
-144.561365246773 447.956144809723 2746.99997901917 118 120 115
-137.680724263191 449.922740459442 2759.0000629425 116 118 113
-129.885047674179 448.95350933075 2753.00002098084 221 223 218
-120.876811444759 443.417519330978 2719.00010108948 140 143 136
-112.887993454933 441.142410039902 2704.99992370605 162 165 158
-104.975059628487 438.866823911667 2690.99998474121 154 157 150
-97.4645912647247 438.058406114578 2686.00010871887 156 158 153
-89.9138748645782 436.923265457153 2678.99990081787 179 181 176
-82.3393315076828 435.461461544037 2670.00007629395 187 189 184
-74.785403907299 433.835983276367 2660.00008583069 180 182 177
-67.3364624381065 432.536154985428 2651.99995040894 174 176 173
-60.0895546376705 432.377517223358 2651.00002288818 176 178 175
-52.7681075036526 431.565999984741 2645.99990844727 185 187 184
-45.4392805695534 430.427700281143 2638.99993896484 175 177 174
-38.119450211525 428.962707519531 2630.00011444092 169 170 165
-30.8602899312973 427.660286426544 2621.99997901917 171 172 167
-23.6717462539673 426.84668302536 2617.00010299683 171 172 167
-16.4914019405842 425.543218851089 2608.99996757507 167 168 163
-9.37976595014334 425.381064414978 2608.00004005432 165 166 161
-2.27180076763034 424.892127513886 2605.00001907349 160 161 156
4.82538249343634 424.892008304596 2605.00001907349 160 161 156
11.9133945554495 424.565225839615 2602.9999256134 159 160 155
19.0050695091486 424.564123153687 2602.9999256134 159 160 155
26.1367820203304 425.215005874634 2607.00011253357 156 157 152
33.264696598053 425.539135932922 2608.99996757507 154 155 150
40.4033921658993 425.86275935173 2611.00006103516 150 152 147
47.461848706007 425.370365381241 2608.00004005432 151 153 148
54.5247085392475 425.040543079376 2605.99994659424 151 153 148
61.6001412272453 424.873411655426 2605.00001907349 154 156 151
68.6435401439667 424.542665481567 2602.9999256134 155 157 152
75.7630839943886 424.700736999512 2604.00009155273 158 160 155
82.792341709137 424.369007349014 2601.99999809265 158 160 155
89.9140611290932 424.526065587997 2602.9999256134 163 165 160
97.1899777650833 425.335019826889 2608.00004005432 168 170 165
104.532785713673 426.306545734406 2614.00008201599 170 172 167
111.865185201168 427.114456892014 2618.99995803833 167 169 164
119.133569300175 427.595645189285 2621.99997901917 167 169 166
126.562371850014 428.565680980682 2628.00002098084 169 171 168
134.023413062096 429.535120725632 2634.0000629425 160 162 159
141.570255160332 430.667161941528 2641.00003242493 149 151 148
149.154752492905 431.798607110977 2648.00000190735 148 150 145
156.77684545517 432.929575443268 2654.99997138977 152 154 149
164.374768733978 433.896988630295 2661.00001335144 159 161 156
172.13374376297 435.18990278244 2668.99991035461 162 164 159
180.20461499691 437.13453412056 2680.99999427795 163 165 160
188.270226120949 438.915520906448 2691.99991226196 154 157 150
196.685761213303 441.348135471344 2707.00001716614 146 149 142
204.880699515343 443.12795996666 2717.99993515015 133 135 130
213.134869933128 444.907248020172 2729.00009155273 138 140 135
219.750970602036 443.262457847595 2719.00010108948 205 207 202
224.975258111954 439.009010791779 2693.00007820129 213 215 210
230.833753943443 436.222553253174 2676.00011825562 145 147 142
237.043932080269 434.250861406326 2664.00003433228 156 158 153
243.463143706322 432.767897844315 2654.99997138977 158 159 154
250.021487474442 431.610643863678 2648.00000190735 161 162 157
257.123857736588 431.430965662003 2647.0000743866 161 162 157
264.02023434639 430.924981832504 2644.00005340576 159 160 155
271.30976319313 431.070446968079 2644.99998092651 162 163 158
278.287976980209 430.726647377014 2642.99988746643 171 173 170
285.578578710556 430.871397256851 2644.00005340576 177 179 176
292.984426021576 431.178629398346 2645.99990844727 182 184 181
302.555710077286 434.581577777863 2667.00005531311 182 184 181
-233.859077095985 439.549922943115 2742.00010299683 200 202 199
-224.170848727226 435.236811637878 2714.99991416931 189 191 188
-215.66678583622 433.007001876831 2700.99997520447 184 186 183
-207.623839378357 431.578248739243 2691.99991226196 176 178 175
-200.522050261497 432.072818279266 2694.9999332428 165 166 161
-193.331599235535 432.406723499298 2697.00002670288 159 160 155
-186.198532581329 432.900369167328 2700.00004768372 159 160 155
-178.849831223488 432.912677526474 2700.00004768372 159 160 155
-172.008663415909 434.207201004028 2707.99994468689 154 155 150
-165.123388171196 435.501426458359 2716.00008010864 136 138 133
-158.426240086555 437.436521053314 2727.9999256134 119 121 116
-151.497200131416 438.890218734741 2736.99998855591 113 115 110
-144.51864361763 440.343528985977 2746.00005149841 111 113 108
-137.939691543579 443.239629268646 2763.99993896484 154 156 151
-129.752427339554 441.003680229187 2750 228 230 225
-120.707280933857 435.399383306503 2714.99991416931 163 166 159
-112.770572304726 433.322608470917 2701.99990272522 147 150 143
-104.982316493988 431.566029787064 2690.99998474121 167 170 163
-97.4350497126579 430.610746145248 2684.99994277954 164 166 161
-89.8865461349487 429.49452996254 2677.99997329712 182 184 179
-82.2525173425674 427.73625254631 2667.00005531311 177 179 174
-74.7343599796295 426.298260688782 2657.99999237061 173 175 170
-67.3157572746277 425.180524587631 2651.00002288818 171 173 170
-59.9803924560547 424.382954835892 2645.99990844727 176 178 175
-52.6920072734356 423.745274543762 2641.99995994568 186 188 185
-45.4080104827881 422.946810722351 2637.00008392334 168 170 167
-38.1510965526104 422.147661447525 2631.99996948242 163 164 159
-30.8977533131838 421.027362346649 2625 170 171 166
-23.6914902925491 420.066922903061 2618.99995803833 170 171 166
-16.5051966905594 418.785154819489 2611.00006103516 166 167 162
-9.37682390213013 418.14449429512 2607.00011253357 164 165 160
-2.27283127605915 417.984485626221 2605.99994659424 160 161 156
4.82942443341017 418.144792318344 2607.00011253357 159 160 155
11.9371125474572 418.304651975632 2608.00004005432 159 160 155
19.0356038510799 418.143182992935 2607.00011253357 159 160 155
26.1686835438013 418.622761964798 2609.99989509583 159 160 155
33.2925170660019 418.781071901321 2611.00006103516 155 156 151
40.4062084853649 418.778538703918 2611.00006103516 150 152 147
47.4287532269955 417.973548173904 2605.99994659424 150 152 147
54.4657371938229 417.488843202591 2602.9999256134 151 153 148
61.533484607935 417.3244535923 2601.99999809265 153 155 150
68.6483010649681 417.480319738388 2602.9999256134 154 156 151
75.7392421364784 417.475342750549 2602.9999256134 158 160 155
82.8299000859261 417.469829320908 2602.9999256134 158 160 155
89.9548381567001 417.624264955521 2604.00009155273 161 163 158
97.2712337970734 418.580085039139 2609.99989509583 165 167 162
104.540005326271 419.214695692062 2614.00008201599 168 170 165
111.872904002666 420.009106397629 2618.99995803833 168 170 165
119.141772389412 420.482277870178 2621.99997901917 169 171 168
126.667380332947 421.75680398941 2630.00011444092 175 177 174
134.134367108345 422.710031270981 2635.99991798401 169 171 168
141.633540391922 423.662781715393 2641.99995994568 157 159 156
149.164929986 424.615025520325 2648.00000190735 144 146 141
156.728491187096 425.566792488098 2654.00004386902 144 146 141
164.385929703712 426.678329706192 2661.00001335144 145 147 142
172.145441174507 427.949756383896 2668.99991035461 152 154 149
179.880708456039 429.060280323029 2676.00011825562 161 164 157
187.863290309906 430.651247501373 2686.00010871887 159 162 155
196.117669343948 432.722628116608 2698.99988174438 154 157 150
204.366758465767 434.633165597916 2710.99996566772 151 153 148
212.368100881577 435.901880264282 2719.00010108948 146 148 143
219.19983625412 434.76527929306 2711.99989318848 169 171 166
224.906668066978 431.54439330101 2691.99991226196 180 182 177
230.590254068375 428.483635187149 2673.00009727478 151 153 148
236.703604459763 426.384329795837 2660.00008583069 157 159 154
243.112370371819 424.926042556763 2651.00002288818 159 160 155
249.565735459328 423.627585172653 2642.99988746643 159 160 155
256.363451480865 422.970026731491 2638.99993896484 156 157 152
263.238459825516 422.472357749939 2635.99991798401 157 158 153
270.609259605408 422.775685787201 2638.00001144409 161 162 157
277.779459953308 422.758042812347 2638.00001144409 169 171 168
285.380870103836 423.381000757217 2641.99995994568 172 174 171
293.335378170013 424.484312534332 2648.9999294281 188 190 187
303.028732538223 427.990645170212 2671.0000038147 178 180 177
-234.897926449776 434.002608060837 2753.99994850159 207 209 206
-224.185615777969 427.871525287628 2714.99991416931 190 192 189
-215.681031346321 425.679564476013 2700.99997520447 185 187 184
-207.560449838638 424.117386341095 2690.99998474121 178 180 177
-200.163319706917 423.973262310028 2690.00005722046 166 167 162
-192.914322018623 424.14391040802 2690.99998474121 160 161 156
-185.728222131729 424.471706151962 2693.00007820129 159 160 155
-178.663060069084 425.114333629608 2697.00002670288 158 159 154
-171.893194317818 426.544636487961 2706.00008964539 153 154 149
-165.073692798615 427.974611520767 2714.99991416931 145 147 142
-158.320784568787 429.719418287277 2726.0000705719 130 132 127
-151.507467031479 431.463897228241 2736.99998855591 105 107 102
-144.633680582047 433.207869529724 2747.99990653992 80 82 77
-137.94906437397 435.739785432816 2763.99993896484 194 196 191
-129.100665450096 431.334644556046 2736.00006103516 186 188 183
-120.58212608099 427.559345960617 2711.99989318848 22 25 18
-112.653061747551 425.517737865448 2698.99988174438 127 130 123
-104.989491403103 424.263924360275 2690.99998474121 167 170 163
-97.2965508699417 422.694146633148 2680.99999427795 172 174 169
-89.8255780339241 421.912223100662 2676.00011825562 178 180 175
-82.2273194789886 420.341372489929 2665.99988937378 172 174 169
-74.795737862587 419.400811195374 2660.00008583069 171 173 168
-67.3965737223625 418.459594249725 2654.00004386902 173 175 172
-60.0071996450424 417.36027598381 2647.0000743866 178 180 177
-52.6358000934124 416.102737188339 2638.99993896484 181 183 180
-45.3250333666801 415.002316236496 2631.99996948242 162 164 161
-38.1247363984585 414.689838886261 2630.00011444092 159 160 155
-30.8881141245365 413.746118545532 2624.00007247925 169 170 165
-23.6750338226557 412.644326686859 2617.00010299683 166 167 162
-16.5000129491091 411.541908979416 2609.99989509583 163 164 159
-9.37747210264206 411.06978058815 2607.00011253357 162 163 158
-2.27473303675652 411.227852106094 2608.00004005432 156 157 152
4.83161071315408 411.227762699127 2608.00004005432 156 157 152
11.9379367679358 411.227166652679 2608.00004005432 158 159 154
19.0369207412004 411.068439483643 2607.00011253357 159 160 155
26.1805187910795 411.697596311569 2611.00006103516 158 159 154
33.294815570116 411.695539951324 2611.00006103516 156 157 152
40.3935164213181 411.535352468491 2609.99989509583 154 156 151
47.4320203065872 410.901606082916 2605.99994659424 154 156 151
54.5322671532631 410.898149013519 2605.99994659424 155 157 152
61.6086684167385 410.736501216888 2605.00001907349 156 158 153
68.7321498990059 410.889685153961 2605.99994659424 157 159 154
75.8317410945892 410.884767770767 2605.99994659424 157 159 154
82.9310491681099 410.879343748093 2605.99994659424 157 159 154
90.0300815701485 410.873413085938 2605.99994659424 158 160 155
97.2778797149658 411.497712135315 2609.99989509583 160 162 157
104.547150433064 412.121534347534 2614.00008201599 163 165 160
111.965969204903 413.217753171921 2621.00005149841 167 169 164
119.286216795444 413.840532302856 2625 163 165 162
126.724168658257 414.778172969818 2631.00004196167 169 171 168
134.143471717834 415.557593107224 2635.99991798401 175 177 174
141.696766018867 416.651785373688 2642.99988746643 175 177 174
149.231344461441 417.587876319885 2648.9999294281 155 157 152
156.857162714005 418.681055307388 2655.99989891052 147 149 144
164.582327008247 419.931352138519 2664.00003433228 140 142 137
172.221496701241 420.865893363953 2670.00007629395 137 139 134
179.892763495445 421.799957752228 2676.00011825562 136 139 132
187.805905938148 423.206269741058 2684.99994277954 138 141 134
195.985406637192 425.084948539734 2697.00002670288 141 144 137
204.003378748894 426.490247249603 2706.00008964539 140 142 137
211.99157834053 427.737355232239 2713.99998664856 137 139 134
219.214290380478 427.408039569855 2711.99989318848 127 129 124
225.339218974113 425.029516220093 2697.00002670288 174 176 171
230.777874588966 421.547591686249 2674.99995231628 165 167 162
236.452102661133 418.695896863937 2657.00006484985 160 162 157
242.669597268105 416.946977376938 2645.99990844727 158 159 154
249.10980463028 415.670484304428 2638.00001144409 159 160 155
256.088584661484 415.339112281799 2635.99991798401 163 164 159
263.055682182312 415.007323026657 2634.0000629425 163 164 159
270.216256380081 414.990305900574 2634.0000629425 160 161 156
277.375966310501 414.972901344299 2634.0000629425 165 167 164
285.182982683182 415.900319814682 2640.00010490417 163 165 162
293.796926736832 417.930066585541 2653.00011634827 186 188 185
305.203586816788 423.739731311798 2690.00005722046 186 188 185
-234.145507216454 425.136506557465 2744.99988555908 202 204 201
-224.117636680603 420.350074768066 2713.99998664856 190 192 189
-215.69512784481 418.35081577301 2700.99997520447 185 187 184
-207.728326320648 417.12549328804 2693.00007820129 181 183 180
-200.176492333412 416.674107313156 2690.00005722046 168 169 164
-192.927032709122 416.841834783554 2690.99998474121 161 162 157
-185.809463262558 417.319029569626 2694.00000572205 160 161 156
-178.807377815247 418.105483055115 2698.99988174438 157 158 153
-171.904623508453 419.201523065567 2706.00008964539 151 152 147
-165.023878216743 420.45196890831 2713.99998664856 123 125 120
-158.331349492073 422.321766614914 2726.0000705719 101 103 98
-151.572942733765 424.191147089005 2737.99991607666 113 115 110
-144.696027040482 425.905227661133 2749.00007247925 80 82 77
-137.359365820885 426.379412412643 2752.00009346008 212 214 209
-128.448680043221 421.74020409584 2721.99988365173 8 10 5
-120.545797049999 420.044213533401 2710.99996566772 0 2 0
-112.493708729744 417.572945356369 2694.9999332428 145 148 141
-104.918546974659 416.65056347847 2688.99989128113 161 164 157
-97.2668379545212 415.262877941132 2680.0000667572 167 169 164
-89.8988023400307 414.959281682968 2677.99997329712 168 170 165
-82.3562815785408 413.72549533844 2670.00007629395 167 169 164
-74.8570561408997 412.491112947464 2661.99994087219 168 170 165
-67.4773454666138 411.7211997509 2657.00006484985 173 175 172
-60.0339509546757 410.33086180687 2648.00000190735 178 180 177
-52.6992231607437 409.404873847961 2641.99995994568 176 178 175
-45.3625693917274 408.168524503708 2634.0000629425 153 155 152
-38.1273403763771 407.551527023315 2630.00011444092 155 156 151
-30.8784488588572 406.469076871872 2622.99990653992 167 168 163
-23.6675981432199 405.386209487915 2615.9999370575 163 164 159
-16.520107164979 404.922664165497 2612.99991607666 161 162 157
-9.3925017863512 404.613673686981 2611.00006103516 160 161 156
-2.27750511839986 404.614061117172 2611.00006103516 155 156 151
4.8356456682086 404.458940029144 2609.99989509583 155 156 151
11.9433300569654 404.303431510925 2608.99996757507 157 158 153
19.0455224364996 404.147446155548 2608.00004005432 158 159 154
26.1823069304228 404.610812664032 2611.00006103516 157 158 153
33.2843326032162 404.453814029694 2609.99989509583 156 157 152
40.3807945549488 404.296338558197 2608.99996757507 154 156 151
47.4352538585663 403.828501701355 2605.99994659424 154 156 151
54.5150525867939 403.670072555542 2605.00001907349 154 156 151
61.6128593683243 403.666108846664 2605.00001907349 156 158 153
68.6840787529945 403.506815433502 2604.00009155273 156 158 153
75.8368894457817 403.811782598495 2605.99994659424 155 157 152
83.0003395676613 404.116362333298 2608.00004005432 156 158 153
90.1743844151497 404.420405626297 2609.99989509583 156 158 153
97.3590239882469 404.72400188446 2611.99998855591 158 160 155
104.554206132889 405.027151107788 2614.00008201599 160 162 157
111.930787563324 405.949473381042 2619.99988555908 164 166 161
119.339697062969 406.871408224106 2625.99992752075 163 165 162
126.780852675438 407.792806625366 2631.99996948242 163 165 162
134.152472019196 408.403873443604 2635.99991798401 169 171 168
141.652643680573 409.324258565903 2641.99995994568 172 174 171
149.184972047806 410.244137048721 2648.00000190735 160 162 157
156.808570027351 411.318480968475 2654.99997138977 156 158 153
164.531484246254 412.547171115875 2663.00010681152 147 149 144
172.232925891876 413.620501756668 2670.00007629395 146 148 143
179.904639720917 414.538323879242 2676.00011825562 143 146 139
187.748342752457 415.765523910522 2684.00001525879 139 142 135
195.707619190216 417.147129774094 2693.00007820129 134 137 130
203.639790415764 418.373197317123 2700.99997520447 136 138 133
211.380556225777 419.134169816971 2706.00008964539 127 129 124
218.824401497841 419.275045394897 2707.00001716614 128 130 125
225.103184580803 417.247205972672 2694.00000572205 170 172 167
230.620324611664 413.98012638092 2673.00009727478 152 154 149
236.378356814384 411.332219839096 2655.99989891052 169 171 166
242.776975035667 409.923136234283 2647.0000743866 161 162 157
249.125778675079 408.51366519928 2638.00001144409 162 163 158
256.104916334152 408.187836408615 2635.99991798401 164 165 160
263.072431087494 407.861709594727 2634.0000629425 165 166 161
270.233422517776 407.844871282578 2634.0000629425 166 167 162
277.182847261429 407.517939805985 2631.99996948242 176 178 175
284.984827041626 408.4292948246 2638.00001144409 182 184 181
294.036775827408 411.04319691658 2654.99997138977 175 177 174
-224.049493670464 412.832766771317 2713.00005912781 185 190 186
-215.629190206528 410.868614912033 2700.00004768372 181 186 182
-207.818925380707 409.969180822372 2694.00000572205 181 183 180
-200.115069746971 409.22138094902 2688.99989128113 175 176 171
-192.79620051384 409.234076738358 2688.99989128113 160 162 157
-185.545682907104 409.39861536026 2690.00005722046 157 159 154
-178.554102778435 410.171389579773 2694.9999332428 158 160 155
-171.661749482155 411.248207092285 2701.99990272522 152 154 149
-164.852306246758 412.629008293152 2710.99996566772 144 146 141
-158.225625753403 414.618283510208 2723.99997711182 112 114 109
-151.527598500252 416.607230901718 2736.99998855591 101 106 100
-144.758254289627 418.595761060715 2750 112 117 111
-137.318566441536 418.757230043411 2750.99992752075 166 171 165
-128.598794341087 414.808243513107 2724.99990463257 225 230 224
-120.064683258533 411.010891199112 2700.00004768372 11 14 7
-112.250722944736 409.344047307968 2688.99989128113 13 16 9
-104.808501899242 408.894598484039 2686.00010871887 126 129 122
-97.1644669771194 407.531201839447 2677.00004577637 154 157 150
-89.8041129112244 407.232940196991 2674.99995231628 171 173 168
-82.3926478624344 406.629681587219 2671.0000038147 155 157 152
-74.9183222651482 405.569285154343 2664.00003433228 172 174 169
-67.5072744488716 404.660582542419 2657.99999237061 168 170 165
-60.0379854440689 403.142392635345 2648.00000190735 166 168 163
-52.7426712214947 402.537196874619 2644.00005340576 157 159 156
-45.4345196485519 401.627033948898 2638.00001144409 146 148 145
-38.1733998656273 400.868564844131 2632.99989700317 152 153 148
-30.9158526360989 399.805128574371 2625.99992752075 160 161 156
-23.6782487481833 398.436814546585 2617.00010299683 160 161 156
-16.540190204978 398.285865783691 2615.9999370575 162 163 158
-9.40032955259085 397.829920053482 2612.99991607666 152 153 148
-2.28027603588998 397.982627153397 2614.00008201599 151 152 147
4.84153116121888 397.830277681351 2612.99991607666 152 153 148
11.9578698650002 397.677451372147 2611.99998855591 153 154 149
19.0614126622677 397.371917963028 2609.99989509583 154 155 150
26.1840708553791 397.522687911987 2611.00006103516 155 156 151
33.2993343472481 397.520691156387 2611.00006103516 156 157 152
40.383517742157 397.213697433472 2608.99996757507 152 153 148
47.4748574197292 397.058516740799 2608.00004005432 154 155 150
54.5815117657185 397.055089473724 2608.00004005432 154 155 150
61.6879686713219 397.051244974136 2608.00004005432 151 152 147
68.7941983342171 397.046834230423 2608.00004005432 151 152 147
75.9292915463448 397.194266319275 2608.99996757507 152 153 148
83.1013843417168 397.493451833725 2611.00006103516 151 152 147
90.2840793132782 397.792100906372 2612.99991607666 151 152 147
97.4400788545609 397.938132286072 2614.00008201599 154 155 150
104.681193828583 398.388087749481 2617.00010299683 155 156 151
112.066432833672 399.294286966324 2622.99990653992 166 167 162
119.529440999031 400.352239608765 2630.00011444092 160 160 158
126.933798193932 401.10519528389 2634.99999046326 160 160 158
134.364947676659 401.857644319534 2640.00010490417 160 160 158
141.715615987778 402.305215597153 2642.99988746643 160 160 158
149.25117790699 403.20897102356 2648.9999294281 160 161 156
156.818896532059 404.112190008163 2654.99997138977 160 161 156
164.542317390442 405.319333076477 2663.00010681152 156 157 152
172.244235873222 406.373769044876 2670.00007629395 153 154 149
180.118128657341 407.732039690018 2678.99990081787 146 147 141
188.040390610695 409.089803695679 2687.99996376038 144 145 139
196.011066436768 410.447120666504 2697.00002670288 140 141 135
203.577622771263 410.890758037567 2700.00004768372 131 133 128
211.159855127335 411.333948373795 2703.00006866455 119 124 118
218.515172600746 411.320149898529 2703.00006866455 118 123 117
224.950551986694 409.632086753845 2691.99991226196 129 134 128
230.548784136772 406.574219465256 2671.99993133545 156 161 157
236.215457320213 403.820544481277 2654.00004386902 164 169 165
242.517232894897 402.283906936646 2644.00005340576 170 175 171
249.047130346298 401.203334331512 2637.00008392334 180 182 179
256.023973226547 400.883167982101 2634.99999046326 192 194 191
263.18883895874 400.866895914078 2634.99999046326 188 193 189
270.558148622513 401.154518127441 2637.00008392334 185 187 184
277.726739645004 401.137441396713 2637.00008392334 163 168 164
285.974889993668 402.641177177429 2647.0000743866 153 158 154
295.494794845581 405.817538499832 2667.99998283386 138 143 139
-223.733365535736 404.871255159378 2709.00011062622 188 193 189
-215.563073754311 403.39058637619 2698.99988174438 181 186 182
-207.755088806152 402.507275342941 2693.00007820129 178 183 179
-200.202345848083 402.071863412857 2690.00005722046 171 172 167
-192.808598279953 401.934921741486 2688.99989128113 163 165 160
-185.764610767365 402.545005083084 2693.00007820129 161 163 158
-178.764417767525 403.304070234299 2697.99995422363 158 160 155
-171.799957752228 404.212266206741 2703.9999961853 154 156 151
-164.741396903992 404.970556497574 2709.00011062622 124 126 121
-157.94549882412 406.475961208344 2719.00010108948 119 121 116
-151.094555854797 407.980859279633 2729.00009155273 107 112 106
-144.609794020653 410.681515932083 2746.99997901917 183 188 182
-138.02644610405 413.38175535202 2765.00010490417 133 138 132
-128.84321808815 408.157706260681 2730.00001907349 216 221 215
-119.672328233719 402.334958314896 2690.99998474121 10 13 6
-112.049400806427 401.295959949493 2684.00001525879 19 22 15
-104.65931892395 401.003986597061 2681.99992179871 27 30 23
-97.0619842410088 399.814486503601 2674.00002479553 166 169 162
-89.7093266248703 399.521559476852 2671.99993133545 156 158 153
-82.3055580258369 398.929119110107 2667.99998283386 159 161 156
-74.8389214277267 397.887706756592 2661.00001335144 170 172 167
-67.4355626106262 396.995216608047 2654.99997138977 154 156 151
-59.9966235458851 395.653635263443 2645.99990844727 170 172 167
-52.7661256492138 395.5078125 2644.99998092651 139 141 138
-45.4892180860043 394.912958145142 2641.00003242493 151 153 150
-38.2484383881092 394.467115402222 2638.00001144409 148 149 144
-30.9767816215754 393.422722816467 2631.00004196167 157 158 153
-23.7341150641441 392.228215932846 2622.99990653992 157 158 153
-16.5729094296694 391.930550336838 2621.00005149841 162 163 158
-9.41894575953484 391.48274064064 2618.00003051758 151 152 147
-2.28304509073496 391.333609819412 2617.00010299683 149 150 145
4.84556052833796 391.034483909607 2615.00000953674 150 151 146
11.9769806042314 391.183435916901 2615.9999370575 151 152 147
19.0918985754251 390.883326530457 2614.00008201599 152 153 148
26.2058712542057 390.732288360596 2612.99991607666 153 154 149
33.3143062889576 390.580832958221 2611.99998855591 153 154 149
40.4326431453228 390.578329563141 2611.99998855591 150 151 146
47.5508384406567 390.575468540192 2611.99998855591 153 154 149
54.6479299664497 390.42255282402 2611.00006103516 152 153 148
61.7630295455456 390.418708324432 2611.00006103516 150 151 146
68.8515156507492 390.264838933945 2609.99989509583 150 151 146
75.9634226560593 390.26004076004 2609.99989509583 151 152 147
83.138719201088 390.553891658783 2611.99998855591 150 151 146
90.255506336689 390.548199415207 2611.99998855591 151 152 147
97.483791410923 390.99058508873 2615.00000953674 152 153 148
104.688100516796 391.283005475998 2617.00010299683 154 155 150
112.073808908463 392.172962427139 2622.99990653992 166 167 162
119.582742452621 393.361479043961 2631.00004196167 160 160 158
127.086669206619 394.400030374527 2638.00001144409 156 156 154
134.628251194954 395.438015460968 2644.99998092651 154 154 152
141.885757446289 395.578503608704 2645.99990844727 153 153 151
149.373605847359 396.316558122635 2651.00002288818 155 156 151
156.829103827477 396.904647350311 2654.99997138977 156 157 152
164.614781737328 398.239642381668 2664.00003433228 154 155 150
172.384396195412 399.42467212677 2671.99993133545 157 158 153
180.19700050354 400.609254837036 2680.0000667572 142 143 137
188.052505254745 401.793211698532 2687.99996376038 141 142 136
196.096330881119 403.275728225708 2697.99995422363 141 142 136
203.741475939751 403.860807418823 2701.99990272522 117 119 114
211.017072200775 403.698146343231 2700.99997520447 97 102 96
217.720627784729 402.488946914673 2693.00007820129 133 138 132
223.962023854256 400.532007217407 2680.0000667572 149 154 148
229.614213109016 397.678166627884 2661.00001335144 179 184 180
235.696315765381 395.720809698105 2648.00000190735 164 169 165
241.982132196426 394.211500883102 2638.00001144409 170 175 171
248.684927821159 393.449008464813 2632.99989700317 173 178 174
255.748450756073 393.283903598785 2631.99996948242 178 183 179
263.205230236053 393.716067075729 2634.99999046326 175 180 176
270.882725715637 394.446730613709 2640.00010490417 168 172 171
278.270483016968 394.728630781174 2641.99995994568 141 146 142
286.748766899109 396.504193544388 2654.00004386902 140 145 141
296.95275425911 400.52005648613 2680.99999427795 162 167 163
-224.242985248566 398.397594690323 2714.99991416931 192 197 193
-215.976014733315 396.797180175781 2703.9999961853 182 187 183
-207.613915205002 394.902765750885 2690.99998474121 178 183 179
-199.917316436768 394.181847572327 2686.00010871887 165 166 161
-192.534059286118 394.047439098358 2684.99994277954 164 166 161
-185.431495308876 394.499659538269 2687.99996376038 163 165 160
-178.510785102844 395.391792058945 2694.00000572205 154 156 151
-171.556800603867 396.283566951752 2700.00004768372 147 149 144
-164.691150188446 397.468417882919 2707.99994468689 123 125 120
-157.839462161064 398.799747228622 2717.00000762939 125 127 122
-151.104316115379 400.571048259735 2729.00009155273 61 66 60
-144.566491246223 403.075844049454 2746.00005149841 224 229 223
-130.550727248192 406.029343605042 2766.00003242493 81 86 80
-112.307190895081 394.888460636139 2690.00005722046 12 15 8
-104.549065232277 393.280684947968 2678.99990081787 22 25 18
-96.9957187771797 392.259627580643 2671.99993133545 1 4 0
-89.4801691174507 391.238063573837 2664.99996185303 137 140 133
-82.1566954255104 390.949994325638 2663.00010681152 154 156 151
-74.7875720262527 390.367835760117 2658.99991989136 165 167 162
-67.4653798341751 389.932036399841 2655.99989891052 156 158 153
-60.0459203124046 388.761758804321 2648.00000190735 164 166 161
-52.7496449649334 388.178110122681 2644.00005340576 144 146 141
-45.4749837517738 387.594103813171 2640.00010490417 142 144 139
-38.2364541292191 387.156397104263 2637.00008392334 147 148 143
-31.0141444206238 386.718183755875 2634.0000629425 147 148 143
-23.7718727439642 385.692268610001 2627.00009346008 147 148 143
