ply
format ascii 1.0
comment KinectMotionCapture
element vertex 800
property float x
property float y
property float z
property uchar red
property uchar green
property uchar blue
end_header
25.074228644371 217.141211032867 2496.99997901917 26 29 22
32.807357609272 223.401144146919 2569.00000572205 25 28 21
40.080837905407 224.877908825874 2585.99996566772 22 25 18
47.2464226186275 225.397810339928 2592.00000762939 17 20 13
54.1930869221687 224.873915314674 2585.99996566772 16 19 12
61.5568086504936 226.001918315887 2598.99997711182 15 18 11
68.8855722546577 226.781785488129 2608.00004005432 15 18 11
76.0300308465958 226.865664124489 2608.99996757507 16 19 12
83.4983512759209 227.818801999092 2619.99988555908 14 17 10
90.2652218937874 226.858660578728 2608.99996757507 12 15 8
97.792848944664 227.811127901077 2619.99988555908 13 16 9
104.458913207054 226.763501763344 2608.00004005432 16 19 12
110.97352206707 225.541710853577 2594.00010108948 16 19 12
119.641229510307 228.579983115196 2628.99994850159 16 19 10
126.618206501007 228.227064013481 2625 19 22 13
131.840139627457 224.917829036713 2586.99989318848 19 22 13
140.666261315346 227.781191468239 2619.99988555908 18 21 12
148.317813873291 228.557616472244 2628.99994850159 20 23 14
155.663028359413 228.812083601952 2631.99996948242 18 21 12
163.085862994194 229.153230786324 2635.99991798401 19 22 13
172.855287790298 232.623517513275 2676.00011825562 20 23 14
180.081978440285 232.529297471046 2674.99995231628 20 23 14
188.213169574738 233.564838767052 2687.00003623962 20 23 14
203.2350897789 233.983352780342 2691.99991226196 15 21 9
214.08973634243 237.886071205139 2736.99998855591 29 37 24
-209.175124764442 227.992013096809 2707.99994468689 103 95 82
-200.454920530319 226.484656333923 2690.00005722046 149 126 108
-192.047417163849 225.229516625404 2674.99995231628 149 124 104
-184.135377407074 224.479243159294 2665.99988937378 151 123 102
-176.139026880264 223.560258746147 2654.99997138977 157 126 105
-168.456435203552 222.977742552757 2648.00000190735 143 111 88
-161.237552762032 222.984373569489 2648.00000190735 137 105 84
-154.599711298943 223.832830786705 2657.99999237061 126 95 74
-147.740423679352 224.428430199623 2664.99996185303 69 42 23
-140.736982226372 224.855348467827 2670.00007629395 88 62 45
-133.405804634094 224.776685237885 2668.99991035461 104 85 70
-126.032322645187 224.613532423973 2667.00005531311 105 92 76
-118.313014507294 223.776310682297 2657.00006484985 20 20 10
-110.020786523819 221.675410866737 2631.99996948242 22 22 12
-103.2320484519 222.521975636482 2641.99995994568 17 19 8
-95.4797491431236 221.26267850399 2627.00009346008 16 19 8
-88.7501835823059 222.361400723457 2640.00010490417 15 21 9
-81.3006460666656 221.69104218483 2631.99996948242 16 22 12
-73.753647506237 220.599234104156 2618.99995803833 17 23 13
-66.175565123558 219.170197844505 2601.99999809265 16 22 12
-59.2121779918671 219.678178429604 2608.00004005432 17 20 11
-52.2757358849049 220.438554883003 2617.00010299683 14 15 7
-45.1519899070263 220.524787902832 2618.00003051758 13 14 6
-37.7612970769405 219.094529747963 2601.0000705719 16 19 12
-30.6282695382833 218.843221664429 2598.00004959106 18 21 14
-23.620218038559 219.602480530739 2607.00011253357 17 20 13
-16.5059678256512 219.603285193443 2607.00011253357 16 19 12
-9.44568961858749 220.867365598679 2621.99997901917 16 19 12
-2.28428794071078 220.277950167656 2615.00000953674 18 21 14
4.83335135504603 219.435542821884 2605.00001907349 16 19 12
12.0201697573066 220.867216587067 2621.99997901917 14 17 10
18.6854097992182 215.222746133804 2555.0000667572 21 24 17
25.6978925317526 215.558767318726 2559.00001525879 25 28 21
32.6427109539509 215.304881334305 2555.99999427795 27 30 23
39.8655161261559 216.651126742363 2572.00002670288 25 28 21
46.9202809035778 216.817811131477 2573.99988174438 22 25 18
54.0905669331551 217.405378818512 2581.00008964539 18 21 14
61.1804015934467 217.571452260017 2582.99994468689 15 18 11
68.4922263026237 218.41111779213 2592.99993515015 13 16 9
75.9166404604912 219.418913125992 2605.00001907349 12 15 8
83.661176264286 221.100226044655 2625 12 15 8
90.026780962944 219.159439206123 2601.99999809265 14 17 10
97.647599875927 220.334753394127 2615.9999370575 16 19 12
105.264335870743 221.341297030449 2628.00002098084 12 15 8
112.817771732807 222.094878554344 2637.00008392334 9 12 5
118.872500956059 219.984605908394 2611.99998855591 15 18 9
127.250507473946 222.169309854507 2638.00001144409 17 20 11
134.138971567154 221.658676862717 2631.99996948242 18 21 12
140.618354082108 220.558315515518 2618.99995803833 18 21 12
147.759720683098 220.552489161491 2618.99995803833 21 24 15
155.314534902573 221.135854721069 2625.99992752075 20 23 14
163.649365305901 222.729399800301 2644.99998092651 20 23 14
171.311974525452 223.312094807625 2651.99995040894 20 23 14
180.22395670414 225.410133600235 2677.00004577637 20 23 14
186.609670519829 224.30819272995 2664.00003433228 20 23 14
194.961473345757 225.563555955887 2678.99990081787 20 23 12
204.073771834373 227.576300501823 2703.00006866455 10 16 4
214.176580309868 230.514734983444 2737.99991607666 35 41 29
220.01713514328 228.822335600853 2717.99993515015 33 38 32
-210.573747754097 222.080960869789 2726.0000705719 117 109 96
-200.388252735138 219.07451748848 2688.99989128113 144 123 104
-191.983208060265 217.86005795002 2674.00002479553 145 122 104
-183.935433626175 216.97111427784 2663.00010681152 148 120 99
-176.079630851746 216.24481678009 2654.00004386902 153 122 101
-168.399468064308 215.681150555611 2647.0000743866 134 102 79
-161.183059215546 215.687587857246 2647.0000743866 129 97 76
-154.605850577354 216.590106487274 2657.99999237061 122 91 70
-148.023530840874 217.573910951614 2670.00007629395 52 25 6
-140.953466296196 217.905551195145 2674.00002479553 72 46 29
-133.461132645607 217.584982514381 2670.00007629395 112 93 78
-126.084625720978 217.42707490921 2667.99998283386 107 93 80
-118.317760527134 216.535478830338 2657.00006484985 20 20 10
-110.861256718636 216.132506728172 2651.99995040894 22 22 12
-103.470668196678 215.810760855675 2648.00000190735 16 18 7
-96.2105393409729 215.733230113983 2647.0000743866 15 18 7
-88.081382215023 213.536351919174 2619.99988555908 12 18 6
-81.5819576382637 215.251311659813 2641.00003242493 14 20 10
-73.8692805171013 213.78730237484 2622.99990653992 16 22 12
-66.4325803518295 212.893545627594 2611.99998855591 18 24 14
-59.4870336353779 213.548108935356 2619.99988555908 20 23 14
-52.6773743331432 214.935958385468 2637.00008392334 16 17 9
-45.3262962400913 214.204370975494 2628.00002098084 14 15 7
-37.9951223731041 213.309422135353 2617.00010299683 14 17 10
-30.818147584796 213.066294789314 2614.00008201599 16 19 12
-23.7570852041245 213.719457387924 2621.99997901917 16 19 12
-16.5003053843975 212.41606771946 2605.99994659424 16 19 12
-9.35600697994232 211.683005094528 2596.99988365173 17 20 13
-2.28088651783764 212.824404239655 2611.00006103516 16 19 12
4.88364603370428 214.536055922508 2631.99996948242 17 20 13
11.9656436145306 212.742492556572 2609.99989509583 16 19 12
19.0225932747126 212.008267641068 2601.0000705719 16 19 12
25.6888940930367 208.502441644669 2558.00008773804 23 26 19
32.6312631368637 208.256736397743 2555.0000667572 27 30 23
39.5571254193783 208.010792732239 2552.00004577637 24 27 20
46.7034392058849 208.824157714844 2562.00003623962 23 26 19
54.0717989206314 210.289254784584 2579.99992370605 21 24 17
61.5381821990013 211.754083633423 2598.00004959106 16 19 12
68.7855780124664 212.240546941757 2604.00009155273 13 16 9
76.5317156910896 214.030712842941 2625.99992752075 11 14 7
84.2701345682144 215.494617819786 2644.00005340576 12 15 8
92.106431722641 216.95813536644 2661.99994087219 15 18 11
98.5100939869881 215.079829096794 2638.99993896484 15 18 11
106.029652059078 215.727791190147 2647.0000743866 13 16 9
113.378494977951 215.967938303947 2650.00009536743 8 11 4
120.197117328644 215.229839086533 2641.00003242493 12 15 6
126.387313008308 213.513597846031 2619.99988555908 16 19 10
133.430823683739 213.345468044281 2618.00003051758 17 20 11
140.462890267372 213.177099823952 2615.9999370575 18 21 12
147.483512759209 213.008478283882 2614.00008201599 20 23 14
155.26157617569 213.898897171021 2625 21 24 15
163.965240120888 215.929761528969 2650.00009536743 20 23 14
173.321381211281 218.612089753151 2683.00008773804 19 22 13
180.163756012917 218.034833669662 2676.00011825562 21 24 15
185.916498303413 216.235235333443 2654.00004386902 21 24 15
189.510881900787 212.154284119606 2604.00009155273 20 23 12
203.100249171257 219.153195619583 2690.00005722046 28 34 22
209.413126111031 218.086168169975 2677.00004577637 24 30 20
217.597186565399 218.974083662033 2687.99996376038 17 22 15
-201.141119003296 212.535202503204 2698.99988174438 144 125 108
-192.277699708939 210.888907313347 2677.99997329712 140 119 100
-184.287831187248 210.108458995819 2667.99998283386 118 91 72
-176.61714553833 209.642753005028 2661.99994087219 122 94 73
-168.978542089462 209.176748991013 2655.99989891052 127 95 74
-161.615535616875 209.025502204895 2654.00004386902 134 103 82
-154.960826039314 209.819093346596 2664.00003433228 113 85 64
-148.140102624893 210.45495569706 2671.99993133545 42 16 0
-141.064345836639 210.775539278984 2676.00011825562 68 45 29
-133.516296744347 210.386946797371 2671.0000038147 119 100 86
-126.089528203011 210.155591368675 2667.99998283386 91 77 64
-118.545025587082 209.687650203705 2661.99994087219 20 20 10
-110.990986227989 209.140628576279 2654.99997138977 23 23 13
-103.435635566711 208.514600992203 2647.0000743866 18 20 9
-95.3782871365547 206.706613302231 2624.00007247925 17 20 9
-88.65637332201 207.734227180481 2637.00008392334 12 18 6
-81.2762379646301 207.264840602875 2631.00004196167 12 18 8
-74.0411579608917 207.110270857811 2628.99994850159 13 19 9
-66.8930113315582 207.19176530838 2630.00011444092 15 21 11
-59.7164332866669 207.194238901138 2630.00011444092 17 20 11
-53.0789941549301 209.323525428772 2657.00006484985 19 20 12
-45.4488173127174 207.592204213142 2634.99999046326 19 20 12
-38.1418131291866 206.963568925858 2627.00009346008 13 16 9
-30.9018902480602 206.492200493813 2621.00005149841 13 16 9
-23.8033272325993 206.965953111649 2627.00009346008 17 20 13
-16.5452789515257 205.863758921623 2612.99991607666 19 22 15
-9.37799364328384 205.076426267624 2602.9999256134 17 20 13
-2.26874579675496 204.603925347328 2596.99988365173 17 20 13
4.84487181529403 205.706894397736 2611.00006103516 17 20 13
12.0211318135262 206.57317340374 2621.99997901917 16 19 12
19.0525967627764 205.233246088028 2605.00001907349 17 20 13
25.8807204663754 203.026413917542 2576.99990272522 20 23 16
32.4154235422611 199.952706694603 2538.00010681152 9 12 5
39.0626527369022 198.533222079277 2519.99998092651 10 13 6
46.5594343841076 201.210170984268 2553.99990081787 15 18 11
54.3044731020927 204.123169183731 2591.00008010864 20 23 16
61.8011653423309 205.538973212242 2608.99996757507 16 19 12
69.1316872835159 206.166684627533 2617.00010299683 13 16 9
76.7678916454315 207.503139972687 2634.0000629425 17 20 13
84.5921635627747 209.075570106506 2654.00004386902 17 20 13
92.3522487282753 210.253819823265 2668.99991035461 13 16 9
99.1112217307091 209.14725959301 2654.99997138977 10 13 6
105.713322758675 207.882940769196 2638.99993896484 11 14 7
113.340117037296 208.666458725929 2648.9999294281 13 16 9
119.519092142582 206.850275397301 2625.99992752075 13 16 7
126.392215490341 206.372946500778 2619.99988555908 17 20 11
133.5379332304 206.367999315262 2619.99988555908 17 20 11
140.038758516312 205.417603254318 2608.00004005432 17 20 11
147.037819027901 205.25461435318 2605.99994659424 20 23 14
155.20840883255 206.666573882103 2624.00007247925 21 24 15
163.909658789635 208.629488945007 2648.9999294281 19 22 13
171.906784176826 209.568217396736 2661.00001335144 19 22 13
179.901316761971 210.427850484848 2671.99993133545 21 24 15
185.993671417236 209.082216024399 2654.99997138977 22 25 16
191.774278879166 207.500144839287 2634.99999046326 20 23 12
203.107982873917 211.823791265488 2690.00005722046 15 21 9
209.812179207802 211.186110973358 2681.99992179871 15 21 11
218.010187149048 212.044298648834 2693.00007820129 22 27 20
-211.361989378929 207.985639572144 2736.00006103516 106 96 84
-201.372116804123 205.408439040184 2701.99990272522 123 104 87
-192.85923242569 204.199239611626 2686.00010871887 121 100 81
-184.916347265244 203.521877527237 2677.00004577637 119 92 73
-177.353575825691 203.224390745163 2673.00009727478 109 81 60
-169.557422399521 202.622473239899 2664.99996185303 114 83 63
-162.108719348907 202.400460839272 2661.99994087219 127 96 76
-155.199304223061 202.86251604557 2667.99998283386 120 92 71
-148.312002420425 203.400358557701 2674.99995231628 38 12 0
-141.122356057167 203.557759523392 2677.00004577637 71 48 32
-133.721277117729 203.410744667053 2674.99995231628 101 82 68
-126.519650220871 203.567653894424 2677.00004577637 101 87 74
-118.683099746704 202.6596814394 2664.99996185303 19 19 9
-110.744349658489 201.447203755379 2648.9999294281 21 21 11
-102.931536734104 200.310483574867 2634.0000629425 20 22 11
-97.1630439162254 203.280106186867 2673.00009727478 17 20 9
-88.8950750231743 201.078087091446 2644.00005340576 11 17 5
-81.3102051615715 200.168654322624 2631.99996948242 10 16 6
-73.9876478910446 199.791297316551 2627.00009346008 10 16 6
-67.3533976078033 201.391071081161 2648.00000190735 10 16 6
-60.7632175087929 203.523010015488 2676.00011825562 13 16 7
-52.5815673172474 200.178667902946 2631.99996948242 16 17 9
-45.260813087225 199.572056531906 2624.00007247925 16 17 9
-38.0997098982334 199.573636054993 2624.00007247925 16 19 12
-30.9973955154419 199.955224990845 2628.99994850159 15 18 11
-23.849543184042 200.184419751167 2631.99996948242 16 19 12
-16.5712404996157 199.044317007065 2617.00010299683 18 21 14
-9.34232212603092 197.219371795654 2592.99993515015 18 21 14
-2.25572823546827 196.382969617844 2582.00001716614 16 19 12
4.80980006977916 197.143509984016 2592.00000762939 15 18 11
11.8840439245105 197.14318215847 2592.00000762939 14 17 10
18.9874991774559 197.44685292244 2595.99995613098 15 18 11
25.9720999747515 196.685433387756 2585.99996566772 17 20 13
32.8509248793125 195.619493722916 2572.00002670288 17 20 13
46.5794429183006 194.323569536209 2555.0000667572 16 19 12
54.2646236717701 196.907564997673 2588.99998664856 20 23 16
61.8035197257996 198.426499962807 2608.99996757507 15 18 11
69.2399814724922 199.336692690849 2621.00005149841 13 16 9
76.7416581511498 200.246602296829 2632.99989700317 20 23 16
84.5953822135925 201.840698719025 2654.00004386902 18 21 14
91.7674973607063 201.685279607773 2651.99995040894 12 15 8
97.6963937282562 199.020028114319 2617.00010299683 11 14 7
105.39685189724 200.080916285515 2631.00004196167 12 15 8
112.274713814259 199.544548988342 2624.00007247925 13 16 9
119.43256855011 199.540242552757 2624.00007247925 14 17 8
126.203998923302 198.927357792854 2615.9999370575 17 20 11
133.746832609177 199.530884623528 2624.00007247925 18 21 12
139.99031484127 198.233157396317 2607.00011253357 18 21 12
147.776857018471 199.140310287476 2618.99995803833 18 21 12
155.391648411751 199.743017554283 2627.00009346008 19 22 13
162.987589836121 200.269430875778 2634.0000629425 19 22 13
170.556470751762 200.719490647316 2640.00010490417 17 20 11
179.773360490799 202.993959188461 2670.00007629395 17 20 11
188.732743263245 204.811871051788 2694.00000572205 17 20 11
193.091437220573 201.687976717949 2653.00011634827 18 21 12
200.246155261993 201.604798436165 2651.99995040894 16 19 8
209.272280335426 203.345835208893 2674.99995231628 19 22 13
220.851674675941 207.366913557053 2727.9999256134 21 24 15
-210.596963763237 199.79652762413 2726.0000705719 107 99 88
-201.826483011246 198.484420776367 2707.99994468689 110 93 77
-193.440541625023 197.465196251869 2694.00000572205 108 89 72
-185.406535863876 196.738868951797 2684.00001525879 113 88 68
-177.625328302383 196.232154965401 2677.00004577637 114 87 68
-169.818043708801 195.651859045029 2668.99991035461 119 91 70
-162.358164787292 195.43781876564 2665.99988937378 124 95 77
-155.321255326271 195.736691355705 2670.00007629395 125 96 78
-148.206487298012 195.96204161644 2673.00009727478 50 24 9
-141.074761748314 196.187123656273 2676.00011825562 72 49 35
-133.776128292084 196.192026138306 2676.00011825562 81 61 50
-126.713305711746 196.56328856945 2680.99999427795 46 32 21
-119.17732656002 196.201100945473 2676.00011825562 18 18 8
-110.832013189793 194.372236728668 2651.00002288818 20 20 10
-102.818064391613 192.909672856331 2631.00004196167 20 22 11
-96.2941721081734 194.233030080795 2648.9999294281 18 21 10
-89.2681926488876 194.67630982399 2654.99997138977 15 21 9
-82.2709202766418 195.266038179398 2663.00010681152 13 19 9
-74.0748718380928 192.849084734917 2630.00011444092 13 19 9
-67.4830600619316 194.538176059723 2653.00011634827 11 17 7
-60.5837889015675 195.640385150909 2667.99998283386 13 16 7
-52.8232492506504 193.882569670677 2644.00005340576 14 15 7
-44.9864938855171 191.244468092918 2608.00004005432 14 15 7
-38.1011143326759 192.419275641441 2624.00007247925 14 17 10
-31.1164502054453 193.520486354828 2638.99993896484 13 16 9
-23.8776076585054 193.228140473366 2634.99999046326 15 18 11
-16.5401920676231 191.542252898216 2611.99998855591 15 18 11
-9.37509443610907 190.80938398838 2601.99999809265 12 15 8
-2.27066385559738 190.589621663094 2598.99997711182 16 19 12
4.79513220489025 189.489617943764 2584.00011062622 15 18 11
11.8707269430161 189.855948090553 2588.99998664856 15 18 11
18.988199532032 190.368711948395 2595.99995613098 16 19 12
26.0333232581615 190.074592828751 2592.00000762939 14 17 10
46.690545976162 187.797352671623 2561.00010871887 15 18 11
54.0570206940174 189.115449786186 2578.9999961853 19 22 15
61.5215189754963 190.433293581009 2596.99988365173 15 18 11
69.0576061606407 191.677510738373 2614.00008201599 13 16 9
76.4821544289589 192.40814447403 2624.00007247925 17 20 13
84.917239844799 195.338264107704 2664.00003433228 15 18 11
90.6289145350456 192.035481333733 2618.99995803833 11 14 7
97.4012985825539 191.298857331276 2608.99996757507 10 13 6
105.16033321619 192.468374967575 2625 12 15 8
112.407192587852 192.611128091812 2627.00009346008 13 16 9
119.209334254265 192.020401358604 2618.99995803833 16 19 10
127.752423286438 194.142192602158 2648.00000190735 18 21 12
132.273495197296 190.251812338829 2595.00002861023 19 22 13
140.693470835686 192.079767584801 2619.99988555908 19 22 13
148.346468806267 192.734435200691 2628.99994850159 19 22 13
154.983177781105 192.069247364998 2619.99988555908 20 23 14
160.951405763626 190.670788288116 2601.0000705719 19 22 13
170.045748353004 192.937418818474 2631.99996948242 16 19 10
178.904473781586 194.763839244843 2657.00006484985 15 18 9
188.459277153015 197.176307439804 2690.00005722046 15 18 9
194.699570536613 196.070075035095 2674.99995231628 17 20 11
199.724718928337 193.864315748215 2644.99998092651 16 19 10
210.922658443451 197.595104575157 2696.00009918213 19 22 13
219.806998968124 198.980093002319 2714.99991416931 22 25 16
-210.295140743256 192.084535956383 2721.99988365173 108 102 90
-202.206090092659 191.456392407417 2713.00005912781 106 90 74
-194.021672010422 190.686821937561 2701.99990272522 108 91 75
-185.827434062958 189.846411347389 2690.00005722046 111 88 70
-177.963271737099 189.287975430489 2681.99992179871 117 92 72
-170.205697417259 188.799858093262 2674.99995231628 116 88 67
-162.729248404503 188.593804836273 2671.99993133545 124 95 77
-155.443027615547 188.599243760109 2671.99993133545 126 97 79
-148.267105221748 188.745632767677 2674.00002479553 57 31 16
-141.185149550438 189.032986760139 2677.99997329712 64 41 27
-134.030789136887 189.249485731125 2680.99999427795 75 55 44
-126.954093575478 189.606934785843 2686.00010871887 32 18 7
-119.003377854824 188.622921705246 2671.99993133545 18 18 8
-111.337631940842 187.991544604301 2663.00010681152 19 19 9
-103.564225137234 187.077552080154 2650.00009536743 20 22 11
-96.3339284062386 187.081024050713 2650.00009536743 19 22 11
-89.4058495759964 187.719643115997 2658.99991989136 16 22 10
-82.2738334536552 188.005015254021 2663.00010681152 14 20 10
-74.6971517801285 187.231168150902 2651.99995040894 13 19 9
-67.7907019853592 188.151448965073 2664.99996185303 12 18 8
-60.3588670492172 187.659487128258 2657.99999237061 14 17 8
-52.6652969419956 186.108216643333 2635.99991798401 15 16 8
-45.4538464546204 186.039313673973 2634.99999046326 15 16 8
-38.3928865194321 186.676219105721 2644.00005340576 13 16 9
-31.4830951392651 188.513159751892 2670.00007629395 13 16 9
-23.8422118127346 185.760542750359 2631.00004196167 14 17 10
-16.6041068732738 185.125812888145 2621.99997901917 13 16 9
-9.5051433891058 186.255931854248 2638.00001144409 11 14 7
-2.27074464783072 183.502554893494 2598.99997711182 13 16 9
4.80829365551472 182.937666773796 2591.00008010864 13 16 9
11.9261741638184 183.643445372581 2601.0000705719 15 18 11
19.0912820398808 184.278309345245 2609.99989509583 16 19 12
26.0744262486696 183.289080858231 2595.99995613098 14 17 10
33.0704562366009 182.793810963631 2588.99998664856 12 15 8
38.7724190950394 176.579415798187 2500.99992752075 13 16 9
47.2027026116848 182.790994644165 2588.99998664856 13 16 9
54.2475990951061 182.718634605408 2588.00005912781 15 18 11
61.1683540046215 182.292997837067 2582.00001716614 15 18 11
68.5580894351006 183.208540081978 2595.00002861023 14 17 10
76.4848738908768 185.253411531448 2624.00007247925 11 14 7
90.4937013983727 184.612214565277 2615.00000953674 9 12 5
97.927413880825 185.173690319061 2622.99990653992 9 12 5
105.684861540794 186.22912466526 2638.00001144409 12 15 8
112.41115629673 185.448810458183 2627.00009346008 13 16 9
120.715647935867 187.209561467171 2651.99995040894 15 18 9
128.239378333092 187.62880563736 2657.99999237061 18 21 12
134.571969509125 186.35368347168 2640.00010490417 19 22 13
140.859514474869 185.148924589157 2622.99990653992 18 21 12
148.520931601524 185.779243707657 2631.99996948242 18 21 12
155.284374952316 185.279920697212 2625 18 21 12
161.513954401016 184.215784072876 2609.99989509583 17 20 11
167.33805835247 182.798579335213 2589.99991416931 13 16 7
177.227273583412 185.756951570511 2631.99996948242 13 16 7
190.007135272026 191.396728157997 2711.99989318848 15 18 9
193.177774548531 187.297016382217 2654.00004386902 18 21 12
201.241835951805 188.066616654396 2664.99996185303 20 21 15
208.348035812378 187.918573617935 2663.00010681152 22 23 17
218.519106507301 190.451711416245 2698.99988174438 25 26 20
-203.181758522987 184.943124651909 2726.0000705719 99 86 70
-194.674447178841 183.931931853294 2710.99996566772 110 94 78
-186.109960079193 182.784751057625 2694.00000572205 117 96 79
-178.035601973534 182.044371962547 2683.00008773804 117 94 76
-170.46594619751 181.778684258461 2678.99990081787 105 78 59
-163.039237260818 181.648477911949 2677.00004577637 111 82 64
-155.564621090889 181.450173258781 2674.00002479553 125 98 79
-148.272126913071 181.455209851265 2674.00002479553 92 69 53
-141.18991792202 181.731432676315 2677.99997329712 70 46 34
-134.135335683823 182.075321674347 2683.00008773804 57 37 26
-126.769319176674 182.011783123016 2681.99992179871 22 8 0
-118.784733116627 180.997908115387 2667.00005531311 18 18 8
-111.174181103706 180.458813905716 2658.99991989136 19 19 9
-103.958576917648 180.530279874802 2660.00008583069 20 22 11
-96.1918085813522 179.583460092545 2645.99990844727 20 23 12
-88.8372883200645 179.315090179443 2641.99995994568 18 24 12
-81.9985717535019 180.132403969765 2654.00004386902 14 20 10
-75.6573975086212 182.306975126266 2686.00010871887 13 19 9
-68.2254806160927 182.037904858589 2681.99992179871 12 18 8
-59.4298616051674 177.628234028816 2617.00010299683 14 17 8
-52.5472275912762 178.51248383522 2630.00011444092 16 17 9
-45.6279143691063 179.532259702682 2644.99998092651 16 17 9
-38.6846289038658 180.82332611084 2664.00003433228 12 15 8
-31.3662551343441 180.553004145622 2660.00008583069 12 15 8
-23.8339714705944 178.517639636993 2630.00011444092 13 16 9
-16.7313348501921 179.332852363586 2641.99995994568 12 15 8
-9.51267778873444 179.197534918785 2640.00010490417 10 13 6
-2.27169645950198 176.482602953911 2599.99990463257 10 13 6
4.83072875067592 176.686197519302 2602.9999256134 10 13 6
12.0366355404258 178.179249167442 2625 13 16 9
19.2016642540693 178.178712725639 2625 15 18 11
26.3867024332285 178.313717246056 2627.00009346008 14 17 10
33.3015285432339 176.955163478851 2607.00011253357 13 16 9
54.2494580149651 175.661072134972 2588.00005912781 15 18 11
60.744009912014 174.030125141144 2563.99989128113 16 19 12
68.2962387800217 175.453335046768 2585.00003814697 13 16 9
76.5457823872566 178.233668208122 2625.99992752075 12 15 8
84.6362635493279 180.199280381203 2654.99997138977 11 14 7
91.8464660644531 180.128440260887 2654.00004386902 9 12 5
99.8348817229271 181.482642889023 2674.00002479553 10 13 6
106.489725410938 180.393263697624 2657.99999237061 11 14 7
113.869898021221 180.593177676201 2661.00001335144 13 16 9
121.448077261448 181.064337491989 2667.99998283386 14 17 8
128.533229231834 180.788710713387 2664.00003433228 17 20 11
134.321644902229 178.816318511963 2634.99999046326 18 21 12
141.025379300117 178.201004862785 2625.99992752075 16 19 10
148.356646299362 178.399756550789 2628.99994850159 16 19 10
155.348762869835 178.191184997559 2625.99992752075 15 18 9
162.138223648071 177.77881026268 2619.99988555908 15 18 9
169.605076313019 178.112626075745 2625 14 17 8
178.377941250801 179.735332727432 2648.9999294281 14 17 8
185.38923561573 179.525807499886 2645.99990844727 16 19 10
194.348827004433 181.147947907448 2670.00007629395 20 23 14
198.378935456276 178.224250674248 2627.00009346008 22 23 17
205.147057771683 177.878454327583 2621.99997901917 23 24 19
-203.71001958847 177.967518568039 2733.00004005432 100 87 71
-195.255190134048 177.062124013901 2719.00010108948 98 82 66
-186.461359262466 175.765693187714 2698.99988174438 105 84 67
-178.373128175735 175.055101513863 2687.99996376038 108 85 67
-170.916885137558 174.930363893509 2686.00010871887 109 82 63
-163.653582334518 175.000816583633 2687.00003623962 90 61 43
-156.325981020927 175.005882978439 2687.00003623962 110 83 64
-148.775994777679 174.750223755836 2683.00008773804 100 77 61
-141.510859131813 174.819990992546 2684.00001525879 81 57 45
-133.989706635475 174.563840031624 2680.0000667572 53 33 22
-126.253515481949 173.981785774231 2671.0000038147 28 14 5
-118.565909564495 173.399463295937 2661.99994087219 18 18 8
-111.386880278587 173.533424735069 2664.00003433228 19 19 9
-103.375740349293 172.299206256866 2644.99998092651 20 22 11
-95.8677679300308 171.781286597252 2637.00008392334 20 23 12
-88.5039493441582 171.458542346954 2631.99996948242 18 24 12
-81.6614106297493 172.177881002426 2642.99988746643 15 21 11
-75.1528665423393 173.809051513672 2667.99998283386 15 21 11
-67.9479092359543 174.006789922714 2671.0000038147 13 19 9
-60.0222758948803 172.184750437737 2642.99988746643 15 18 9
-52.4490550160408 171.013906598091 2625 16 17 9
-45.5086678266525 171.862438321114 2638.00001144409 16 17 9
-38.7149527668953 173.687949776649 2665.99988937378 13 16 9
-31.4144641160965 173.558801412582 2664.00003433228 12 15 8
-23.6897580325603 170.302197337151 2614.00008201599 12 15 8
-16.7762208729982 172.583118081093 2648.9999294281 12 15 8
-9.50938928872347 171.93204164505 2638.99993896484 12 15 8
-2.29012104682624 170.75951397419 2621.00005149841 9 12 5
4.85687190666795 170.498877763748 2617.00010299683 8 11 4
12.0186917483807 170.759201049805 2621.00005149841 8 11 4
19.2535053938627 171.475350856781 2631.99996948242 10 13 6
26.3775326311588 171.083718538284 2625.99992752075 12 15 8
33.558115363121 171.147897839546 2627.00009346008 11 14 7
40.2168929576874 168.996766209602 2594.00010108948 13 16 9
59.9404908716679 164.82238471508 2529.99997138977 19 22 15
69.0118595957756 170.162364840508 2611.99998855591 17 20 13
77.1021619439125 172.309800982475 2644.99998092651 10 13 6
85.4360237717628 174.587264657021 2680.0000667572 10 13 6
92.8531140089035 174.779832363129 2683.00008773804 10 13 6
99.3527695536613 173.343569040298 2661.00001335144 10 13 6
106.05251789093 172.428295016289 2647.0000743866 12 15 8
114.044807851315 173.597261309624 2664.99996185303 12 15 8
121.224455535412 173.463225364685 2663.00010681152 12 15 6
128.440916538239 173.394069075584 2661.99994087219 15 18 9
134.835794568062 172.282546758652 2644.99998092651 16 19 10
141.405910253525 171.496525406837 2632.99989700317 14 17 8
149.151518940926 172.143220901489 2642.99988746643 14 17 8
156.477823853493 172.268614172935 2644.99998092651 14 17 8
164.000079035759 172.589182853699 2650.00009536743 15 18 9
169.998228549957 171.346500515938 2631.00004196167 18 21 12
176.565498113632 170.754864811897 2621.99997901917 19 22 13
184.554427862167 171.530663967133 2634.0000629425 20 23 14
190.788224339485 170.678183436394 2621.00005149841 22 25 18
196.421787142754 169.369757175446 2601.0000705719 18 18 16
204.136416316032 169.884398579597 2608.99996757507 23 24 19
223.958149552345 180.100560188293 2766.00003242493 26 27 22
-205.281615257263 171.826586127281 2753.99994850159 118 114 102
-195.979312062263 170.272812247276 2729.00009155273 121 115 101
-187.019824981689 168.905913829803 2707.00001716614 69 59 47
-178.710445761681 168.037906289101 2693.00007820129 70 61 46
-171.176731586456 167.856022715569 2690.00005722046 93 81 67
-164.024114608765 168.048322200775 2693.00007820129 67 44 28
-156.738132238388 168.115615844727 2694.00000572205 84 61 45
-149.279713630676 167.995482683182 2691.99991226196 80 61 47
-141.884356737137 167.937517166138 2690.99998474121 78 59 45
-134.343892335892 167.692124843597 2687.00003623962 79 62 52
-126.493826508522 167.009651660919 2676.00011825562 77 64 55
-118.747800588608 166.389316320419 2665.99988937378 17 19 8
-110.8468323946 165.456682443619 2651.00002288818 19 19 9
-103.183582425117 164.77344930172 2640.00010490417 19 22 11
-95.7617238163948 164.402008056641 2634.0000629425 20 23 12
-88.5739997029305 164.40486907959 2634.0000629425 18 24 12
-81.3859179615974 164.407506585121 2634.0000629425 17 23 13
-74.507363140583 165.096521377563 2644.99998092651 16 22 12
-67.6447749137878 165.972590446472 2658.99991989136 14 20 10
-60.274001210928 165.662467479706 2654.00004386902 15 18 9
-52.6905059814453 164.603099226952 2637.00008392334 15 16 8
-45.251339673996 163.730725646019 2622.99990653992 15 16 8
-38.1498225033283 163.981705904007 2627.00009346008 13 16 9
-30.9201721101999 163.670673966408 2621.99997901917 11 14 7
-23.8264556974173 164.108484983444 2628.99994850159 12 15 8
-16.3840930908918 161.487355828285 2586.99989318848 13 16 9
-9.68626420944929 167.792469263077 2687.99996376038 13 16 9
-2.35747545957565 168.416887521744 2697.99995422363 9 12 5
4.92755277082324 165.73266685009 2654.99997138977 8 11 4
12.1704014018178 165.669977664948 2654.00004386902 7 10 3
19.3638503551483 165.23252427578 2647.0000743866 8 11 4
26.5190042555332 164.794862270355 2640.00010490417 10 13 6
33.546406775713 163.920000195503 2625.99992752075 10 13 6
60.416255146265 159.170150756836 2549.99995231628 20 23 16
67.2966241836548 158.980891108513 2546.99993133545 12 15 8
78.1540423631668 167.342722415924 2680.99999427795 9 12 5
85.1199254393578 166.653603315353 2670.00007629395 9 12 5
92.0946523547173 166.089102625847 2661.00001335144 9 12 5
98.4971448779106 164.650589227676 2638.00001144409 10 13 6
105.454847216606 164.272949099541 2631.99996948242 12 15 8
111.651875078678 162.834078073502 2608.99996757507 13 16 9
120.818547904491 165.639042854309 2654.00004386902 12 15 6
128.107190132141 165.697619318962 2654.99997138977 15 18 9
134.330227971077 164.445415139198 2634.99999046326 16 19 10
141.571462154388 164.50360417366 2635.99991798401 14 17 8
148.083940148354 163.750305771828 2624.00007247925 14 17 8
157.665923237801 166.304185986519 2664.99996185303 15 18 9
163.448169827461 164.801642298698 2641.00003242493 16 19 10
169.486552476883 163.673356175423 2622.99990653992 19 22 13
176.166921854019 163.23134303093 2615.9999370575 21 24 15
183.439031243324 163.350701332092 2618.00003051758 21 24 15
190.066188573837 162.908300757408 2611.00006103516 21 24 15
195.446074008942 161.467477679253 2588.00005912781 17 18 13
203.751444816589 162.459701299667 2604.00009155273 23 24 19
-197.134166955948 163.786306977272 2744.99988555908 122 118 106
-187.578067183495 162.001848220825 2714.99991416931 103 99 87
-179.379388689995 161.291122436523 2703.00006866455 66 60 48
-171.881839632988 161.176905035973 2700.99997520447 65 59 47
-164.881736040115 161.53983771801 2707.00001716614 64 58 46
-157.615557312965 161.663919687271 2709.00011062622 53 45 34
-149.94965493679 161.370024085045 2703.9999961853 45 37 26
-142.310425639153 161.075904965401 2698.99988174438 39 31 20
-134.547919034958 160.602554678917 2690.99998474121 31 21 11
-127.064883708954 160.4273468256 2687.99996376038 21 14 4
-118.885017931461 159.297004342079 2668.99991035461 14 17 8
-110.473833978176 157.688900828362 2641.99995994568 15 18 9
-103.382132947445 157.871127128601 2644.99998092651 17 20 11
-96.3099896907806 158.112838864326 2648.9999294281 18 21 12
-88.8793393969536 157.757446169853 2642.99988746643 19 22 13
-82.1917653083801 158.774703741074 2660.00008583069 18 21 12
-74.6786445379257 158.23982656002 2651.00002288818 18 21 12
-67.1380236744881 157.525643706322 2638.99993896484 16 19 10
-59.6853457391262 156.870931386948 2628.00002098084 16 19 10
-52.5522343814373 156.991988420486 2630.00011444092 15 18 9
-45.3562326729298 156.933754682541 2628.99994850159 15 18 9
-37.8314852714539 155.50234913826 2605.00001907349 14 17 8
-30.7796038687229 155.801847577095 2609.99989509583 12 15 6
-2.29812832549214 156.997725367546 2630.00011444092 11 14 7
12.3221045359969 160.400032997131 2687.00003623962 9 12 5
19.598538056016 159.921988844872 2678.99990081787 8 10 5
26.4796297997236 157.354444265366 2635.99991798401 9 11 6
33.9945591986179 158.845886588097 2661.00001335144 9 11 6
59.4940446317196 149.886310100555 2510.99991798401 14 17 10
68.5141086578369 154.779121279716 2592.99993515015 20 23 16
76.6113623976707 156.866133213043 2628.00002098084 10 13 6
85.345670580864 159.788534045219 2677.00004577637 10 13 6
92.3397168517113 159.248694777489 2667.99998283386 9 12 5
97.977377474308 156.619593501091 2624.00007247925 9 12 5
105.097435414791 156.556904315948 2622.99990653992 12 15 8
112.596780061722 157.031178474426 2631.00004196167 12 15 8
119.228832423687 156.311541795731 2618.99995803833 15 18 11
126.518711447716 156.486973166466 2621.99997901917 16 19 12
132.346019148827 154.93144094944 2595.99995613098 14 17 10
140.501528978348 156.121015548706 2615.9999370575 14 17 10
151.813149452209 160.53295135498 2690.00005722046 15 18 9
156.901523470879 158.260703086853 2651.99995040894 18 21 12
163.019806146622 157.181888818741 2634.0000629425 19 22 13
168.522343039513 155.625551939011 2608.00004005432 20 23 14
176.172137260437 156.097903847694 2615.9999370575 21 24 15
183.934956789017 156.629711389542 2625 20 23 12
192.401260137558 157.698273658752 2642.99988746643 20 23 12
195.149749517441 154.172450304031 2584.00011062622 23 26 19
202.427208423615 154.34567630291 2586.99989318848 20 23 16
-172.904938459396 154.721856117249 2717.00000762939 95 91 80
-165.434658527374 154.669642448425 2716.00008010864 45 41 30
-157.910957932472 154.560253024101 2713.99998664856 56 49 39
-150.231242179871 154.279828071594 2709.00011062622 44 37 27
-142.419993877411 153.828322887421 2700.99997520447 48 41 31
-135.301813483238 154.116988182068 2706.00008964539 24 15 6
-126.926735043526 152.924627065659 2684.99994277954 7 3 0
-118.309371173382 151.276364922523 2655.99989891052 15 18 9
-111.187897622585 151.450484991074 2658.99991989136 15 18 9
-103.658735752106 151.054814457893 2651.99995040894 17 20 11
-96.4582189917564 151.114612817764 2653.00011634827 18 21 12
-89.3863439559937 151.402041316032 2657.99999237061 18 21 12
-82.0396468043327 151.233583688736 2654.99997138977 17 20 11
-74.201911687851 150.039613246918 2634.0000629425 17 20 11
-66.427618265152 148.731470108032 2611.00006103516 16 19 10
-59.2782683670521 148.676291108131 2609.99989509583 16 19 10
-52.3939058184624 149.361461400986 2621.99997901917 16 19 10
-45.5128364264965 150.274306535721 2638.00001144409 15 18 9
-38.0940064787865 149.421006441116 2622.99990653992 14 17 8
-30.7215377688408 148.396611213684 2605.00001907349 12 15 6
-23.7644352018833 149.365812540054 2621.99997901917 11 14 5
-16.9994346797466 152.89831161499 2684.00001525879 11 14 5
-2.27722316049039 148.455455899239 2605.99994659424 13 16 9
4.78864228352904 146.974265575409 2579.99992370605 11 14 7
12.0748234912753 149.993285536766 2632.99989700317 10 13 6
19.2625857889652 149.99283850193 2632.99989700317 9 11 6
26.8219579011202 152.099937200546 2670.00007629395 8 10 5
34.1616347432137 152.326926589012 2674.00002479553 8 10 5
41.135385632515 151.129588484764 2653.00011634827 7 10 3
85.061214864254 151.973247528076 2667.99998283386 10 13 6
92.0655056834221 151.515051722527 2660.00008583069 9 12 5
98.5403209924698 150.316178798676 2638.99993896484 10 13 6
105.901844799519 150.541111826897 2642.99988746643 12 15 8
113.798357546329 151.449352502823 2658.99991989136 13 16 9
120.962262153625 151.332125067711 2657.00006484985 13 16 9
126.763626933098 149.619966745377 2627.00009346008 15 18 11
132.910639047623 148.477226495743 2607.00011253357 15 18 11
142.707675695419 151.320978999138 2657.00006484985 15 18 11
148.995622992516 150.348737835884 2640.00010490417 17 20 11
157.320156693459 151.426464319229 2658.99991989136 19 22 13
162.962570786476 149.941354990005 2632.99989700317 19 22 13
169.108718633652 149.025604128838 2617.00010299683 20 23 14
176.783263683319 149.476334452629 2625 21 24 15
186.532840132713 151.578173041344 2661.99994087219 21 24 15
195.901036262512 153.224140405655 2690.99998474121 21 24 13
201.499283313751 151.909068226814 2667.99998283386 20 23 16
-150.512635707855 147.161737084389 2713.99998664856 19 16 7
-142.107516527176 146.13538980484 2694.9999332428 25 22 15
-133.655458688736 144.946128129959 2673.00009727478 21 18 11
-126.31568312645 144.895404577255 2671.99993133545 20 20 12
-118.357188999653 144.085288047791 2657.00006484985 17 20 11
-110.981896519661 143.925681710243 2654.00004386902 17 20 11
-104.795157909393 145.392805337906 2680.99999427795 18 21 12
-97.3335132002831 145.178616046906 2677.00004577637 18 21 12
-89.6578729152679 144.584581255913 2665.99988937378 18 21 12
-82.3509469628334 144.532695412636 2664.99996185303 19 22 13
-74.1476267576218 142.745077610016 2631.99996948242 20 23 14
-66.6075646877289 141.987711191177 2618.00003051758 19 22 13
-59.1890625655651 141.338586807251 2605.99994659424 19 22 13
-52.0356744527817 141.231626272202 2604.00009155273 17 20 11
-44.9792519211769 141.395673155785 2607.00011253357 16 19 10
-38.1531678140163 142.481550574303 2627.00009346008 13 16 7
-30.9700593352318 142.428234219551 2625.99992752075 12 15 6
-23.7379055470228 142.049312591553 2618.99995803833 10 13 4
-16.8098956346512 143.948212265968 2654.00004386902 10 13 4
-9.72315203398466 146.335050463676 2697.99995422363 9 12 5
-2.29476415552199 142.430052161217 2625.99992752075 12 15 8
4.82404232025146 140.965580940247 2598.99997711182 12 15 8
11.9834393262863 141.724690794945 2612.99991607666 11 14 7
19.2265436053276 142.537847161293 2628.00002098084 11 13 8
26.5213269740343 143.188074231148 2640.00010490417 10 12 7
33.919844776392 144.000813364983 2654.99997138977 9 11 6
41.4001271128654 144.813358783722 2670.00007629395 9 12 5
69.3635940551758 142.36669242382 2625 16 19 12
76.3824880123138 142.093524336815 2619.99988555908 17 20 13
84.2665061354637 143.338724970818 2642.99988746643 12 15 8
92.2757238149643 144.583702087402 2665.99988937378 11 14 7
98.8791212439537 143.604934215546 2648.00000190735 12 15 8
106.465764343739 144.090250134468 2657.00006484985 12 15 8
113.844305276871 144.249960780144 2660.00008583069 14 17 10
120.737947523594 143.812969326973 2651.99995040894 14 17 10
127.73223221302 143.538504838943 2647.0000743866 14 17 10
135.46347618103 144.077226519585 2657.00006484985 14 17 10
142.657890915871 144.019275903702 2655.99989891052 15 18 11
149.846285581589 143.961146473885 2654.99997138977 17 20 11
156.969472765923 143.848612904549 2653.00011634827 18 21 12
164.638161659241 144.223868846893 2660.00008583069 18 21 12
170.728847384453 143.243446946144 2641.99995994568 19 22 13
179.145231842995 144.21471953392 2660.00008583069 19 22 13
188.57005238533 145.890533924103 2690.99998474121 20 23 14
194.959923624992 145.180687308311 2677.99997329712 20 23 12
201.731294393539 144.79598402977 2671.0000038147 21 24 17
208.620265126228 144.519552588463 2665.99988937378 14 17 10
-152.124881744385 141.251653432846 2743.00003051758 1 2 0
-142.374873161316 139.041066169739 2700.00004768372 16 16 8
-134.709030389786 138.735637068748 2694.00000572205 16 16 8
-126.22444331646 137.502998113632 2670.00007629395 15 16 8
-119.652152061462 138.330146670341 2686.00010871887 16 19 10
-112.657532095909 138.745129108429 2694.00000572205 16 19 10
-105.266988277435 138.696432113647 2693.00007820129 16 19 10
-97.3724350333214 137.926489114761 2677.99997329712 16 19 10
-89.1894102096558 136.589780449867 2651.99995040894 16 19 10
-81.2715590000153 135.458871722221 2630.00011444092 19 22 13
-74.5158419013023 136.233478784561 2644.99998092651 20 23 14
-66.8383166193962 135.308191180229 2627.00009346008 20 23 14
-59.4177655875683 134.743228554726 2615.9999370575 20 23 14
-51.857203245163 133.663013577461 2595.00002861023 18 21 12
-44.8251590132713 133.818790316582 2598.00004959106 17 20 11
-38.0670391023159 135.004580020905 2621.00005149841 14 17 8
-30.9237092733383 135.056957602501 2621.99997901917 14 17 8
-23.52100238204 133.666917681694 2595.00002861023 12 15 6
-16.7280025780201 136.036887764931 2641.00003242493 11 14 5
-9.65493638068438 137.994587421417 2678.99990081787 10 13 6
-2.3280328605324 137.222096323967 2664.00003433228 10 13 6
12.0158614590764 134.955406188965 2619.99988555908 11 14 7
19.3294808268547 136.088207364082 2641.99995994568 11 13 8
27.0042531192303 138.457059860229 2687.99996376038 10 12 7
34.4573445618153 138.919830322266 2697.00002670288 10 12 7
41.7578667402267 138.712823390961 2693.00007820129 11 14 7
48.7445965409279 137.681499123573 2673.00009727478 9 12 5
60.3046603500843 131.08566403389 2545.00007629395 16 19 12
68.0970251560211 132.732212543488 2576.99990272522 19 22 15
76.413668692112 134.996622800827 2621.00005149841 21 24 17
84.3962728977203 136.333703994751 2647.0000743866 14 17 10
92.0012593269348 136.897966265678 2657.99999237061 12 15 8
99.5165482163429 137.256041169167 2664.99996185303 13 16 9
106.388419866562 136.738359928131 2654.99997138977 11 14 7
112.777300179005 135.705515742302 2634.99999046326 14 17 10
120.012670755386 135.754019021988 2635.99991798401 15 18 11
128.60418856144 137.244328856468 2664.99996185303 13 16 9
136.690631508827 138.064906001091 2680.99999427795 12 15 8
144.863843917847 138.885274529457 2697.00002670288 15 18 11
150.866121053696 137.645617127419 2673.00009727478 15 18 9
157.328560948372 136.920779943466 2658.99991989136 19 22 13
165.013805031776 137.277141213417 2665.99988937378 19 22 13
173.253566026688 138.045236468315 2680.99999427795 19 22 13
180.564194917679 138.040751218796 2680.99999427795 19 22 13
188.43474984169 138.448014855385 2688.99989128113 20 23 14
195.401772856712 138.185769319534 2684.00001525879 21 24 13
201.358839869499 137.25408911705 2665.99988937378 22 25 18
210.660219192505 138.587474822998 2691.99991226196 23 26 19
-144.01313662529 133.186921477318 2730.99994659424 18 21 14
-137.112617492676 133.726790547371 2742.00010299683 13 16 9
-127.645879983902 131.681635975838 2700.00004768372 22 25 18
-120.590642094612 132.026061415672 2707.00001716614 18 21 12
-112.493075430393 131.199762225151 2690.00005722046 18 21 12
-104.214183986187 130.031824111938 2665.99988937378 17 20 11
-96.3567793369293 129.253894090652 2650.00009536743 17 20 11
-88.6535421013832 128.573283553123 2635.99991798401 17 20 11
-81.1499878764153 128.08758020401 2625.99992752075 14 17 8
-74.1514638066292 128.382161259651 2631.99996948242 17 20 11
-67.6033049821854 129.603341221809 2657.00006484985 19 22 13
-59.6464015543461 128.092765808105 2625.99992752075 20 23 14
-52.2182211279869 127.460017800331 2612.99991607666 21 24 15
-44.9988320469856 127.217307686806 2608.00004005432 20 23 14
-38.1260924041271 128.047585487366 2625 18 21 12
-30.8419279754162 127.560645341873 2615.00000953674 18 21 12
-23.4309565275908 126.09788775444 2585.00003814697 16 19 10
-16.4053831249475 126.342281699181 2589.99991416931 14 17 8
-9.45695955306292 128.001168370247 2624.00007247925 12 15 8
-2.30274838395417 128.537878394127 2634.99999046326 10 13 6
4.85584791749716 127.611011266708 2615.9999370575 11 14 7
11.9106806814671 126.683965325356 2596.99988365173 11 14 7
19.2641206085682 128.439694643021 2632.99989700317 11 13 8
26.6834460198879 129.561081528664 2655.99989891052 10 12 7
34.126028418541 130.292043089867 2671.0000038147 9 11 6
41.8674647808075 131.705746054649 2700.00004768372 13 16 9
54.0718287229538 125.801056623459 2578.9999961853 14 17 10
61.0170550644398 125.604525208473 2575.00004768372 16 19 12
68.0194646120071 125.554159283638 2573.99988174438 20 23 16
75.6867080926895 126.625508069992 2595.99995613098 24 27 20
84.0795412659645 128.62341105938 2637.00008392334 16 19 12
92.4535468220711 130.279630422592 2671.0000038147 13 16 9
99.2576405405998 129.643216729164 2657.99999237061 13 16 9
106.871947646141 130.079671740532 2667.00005531311 10 13 6
113.122530281544 128.906428813934 2642.99988746643 13 16 9
120.607540011406 129.196226596832 2648.9999294281 15 18 11
128.945201635361 130.31493127346 2671.99993133545 11 14 7
138.172641396523 132.16495513916 2710.00003814697 11 14 7
144.706293940544 131.38122856617 2694.00000572205 15 18 11
150.982737541199 130.451083183289 2674.99995231628 16 19 10
158.101662993431 130.301058292389 2671.99993133545 18 21 12
165.20357131958 130.150884389877 2668.99991035461 18 21 12
172.611594200134 130.244359374046 2671.0000038147 18 21 12
180.029839277267 130.337655544281 2673.00009727478 18 21 12
189.07006084919 131.55223429203 2697.99995422363 19 22 13
196.425780653954 131.547644734383 2697.99995422363 20 23 12
203.856229782104 131.591632962227 2698.99988174438 19 22 15
-153.130546212196 127.113610506058 2760.99991798401 0 2 0
-145.176663994789 126.748695969582 2753.00002098084 14 19 13
-138.566002249718 127.580687403679 2770.99990844727 20 25 19
-128.547161817551 125.189572572708 2719.00010108948 20 25 18
-120.014354586601 124.041333794594 2694.00000572205 16 19 10
-112.955749034882 124.366320669651 2700.99997520447 16 19 10
-103.982105851173 122.480973601341 2660.00008583069 16 19 10
-96.5772196650505 122.299112379551 2655.99989891052 16 19 10
-88.8574421405792 121.656589210033 2641.99995994568 16 19 10
-81.9554030895233 122.119039297104 2651.99995040894 18 21 12
-74.3504464626312 121.522232890129 2638.99993896484 17 20 11
-67.4776881933212 122.122503817081 2651.99995040894 18 21 12
-60.2384023368359 122.12398648262 2651.99995040894 20 23 14
-52.7790375053883 121.618755161762 2641.00003242493 19 22 13
-45.4657822847366 121.343590319157 2634.99999046326 18 21 12
-38.3158251643181 121.482715010643 2638.00001144409 21 24 15
-30.8426693081856 120.424345135689 2615.00000953674 21 24 15
-23.6399974673986 120.102614164352 2608.00004005432 20 23 14
-16.5071245282888 120.010979473591 2605.99994659424 18 21 12
-9.42114554345608 120.379701256752 2614.00008201599 14 17 10
-2.29755998589098 121.070601046085 2628.99994850159 16 19 12
4.8652458935976 120.702162384987 2621.00005149841 14 17 10
11.8651017546654 119.136206805706 2586.99989318848 11 14 7
19.059719517827 119.964778423309 2605.00001907349 11 13 8
