ply
format ascii 1.0
comment KinectMotionCapture
element vertex 800
property float x
property float y
property float z
property uchar red
property uchar green
property uchar blue
end_header
15.4753807451282 93.5499767832373 2848.73666918998 13 16 9
-4.17604288036655 92.7352417765344 2844.28209321852 12 14 9
-28.0952703081248 91.4902272435937 2837.04422020791 11 13 8
-34.4051080966903 92.0922039775177 2841.8037633504 10 12 7
-8.62686249737132 96.0083097996544 2868.05614668504 10 12 7
-35.1830298285547 94.5147281458076 2859.22246629643 12 13 7
-45.7161559610317 94.680813702994 2861.15533729108 12 13 7
-56.2714760648335 94.8496990056894 2863.10983342617 11 14 7
-102.642808181473 91.3998277695805 2841.65076413591 13 16 9
-73.1778361574378 95.6258108398144 2869.8643490219 14 17 10
-74.3728539918229 96.7450404994813 2877.97082001472 15 18 11
-38.652200590259 101.538040825449 2909.80765682211 14 17 10
149.781427497913 62.0079995747199 2669.0182181129 114 116 111
193.455691120245 68.8743202480511 2713.90623337096 30 32 27
222.510965741202 73.8524201659755 2746.66655708817 22 24 21
231.604152013922 77.6165339652044 2772.50599000061 16 18 13
190.115360833676 73.8142384239032 2749.08439217713 18 20 15
157.93004692809 71.1955685733159 2733.25328986767 17 20 13
184.227821357674 75.7358216643404 2763.14859049519 14 17 8
195.106198205514 79.6677269475777 2790.02465974595 15 18 7
222.568041939233 84.2575753006211 2820.173601506 18 22 8
244.591131979018 88.1584589017834 2845.90609386511 17 21 7
183.359477736433 82.1322791270426 2808.40995151496 16 20 6
157.221623736254 80.3223408941724 2797.79039000937 15 18 7
152.737450116436 81.0846971752444 2803.54781193642 13 16 7
132.105229100234 79.9553136889993 2797.2795307032 13 16 7
155.926945716448 84.0222313769498 2824.03557699525 14 17 8
175.020255929796 87.5070005574411 2847.0709104489 14 17 8
163.319389102918 87.4117612619444 2847.36783243714 14 17 8
149.142410766989 87.0396198917184 2845.91376781007 14 17 8
130.836871100851 86.2060915611008 2841.54239613393 13 16 9
111.65095780837 85.2872073060911 2836.64095473369 13 16 9
94.0423936031904 84.5622012220847 2832.97834589868 13 16 9
104.364234973318 86.9927152714856 2849.29268000686 13 16 9
99.9089936206325 87.7514960488281 2855.02190022284 13 16 9
106.209948437723 89.7070398074139 2868.31401224679 14 17 10
86.0388593446002 88.7160071388602 2862.98428132446 14 17 10
61.6444350856948 87.2755931667429 2854.82991858394 13 16 9
40.4934365252427 86.2118197709517 2849.06743182039 10 13 6
12.5911718894298 84.4281532559906 2838.77882605061 9 12 5
5.50378360684567 84.9297065267329 2842.90875939625 12 15 8
-9.97716495132206 84.5256933770916 2841.33701995146 10 13 6
-24.6629049512541 84.2178424488969 2840.37866107838 9 12 5
-39.3903513825595 83.915213483415 2839.46060766239 9 12 5
-17.8469027110268 87.4838538414884 2862.88467776137 10 13 6
-15.645941056202 88.9744956401689 2873.23197148053 14 15 7
-39.7079114414387 87.6886414990505 2866.14154257109 13 14 6
-90.212537119458 83.6490219623777 2841.78883715727 12 15 6
-87.2318827539509 85.2377443632 2852.7642975363 13 19 9
-97.8779197324591 85.4024852997623 2854.80948940453 12 18 8
-45.4473699550073 93.3254201536246 2906.43323197531 5 10 3
162.308705562556 57.3755646820211 2689.85439686306 25 28 21
191.285228788791 62.4830880460026 2722.67413099257 16 18 13
211.022413651708 66.3663954060273 2747.84534010953 21 23 18
219.091483594399 68.734452163314 2763.5717842303 21 23 18
222.49847337631 70.4957603958541 2775.51528844561 16 19 12
204.615926007737 69.5658672928301 2770.73812183629 15 18 11
161.326157503987 65.4685373521204 2746.31470843833 13 16 7
160.726669587759 66.7395798449479 2755.22394302416 13 16 7
173.682692431811 69.6860897854493 2774.51420713388 15 18 7
238.592259831204 79.023015973726 2833.37519524662 16 20 6
232.659141645648 79.5729627812143 2837.76867809679 17 21 7
186.633794578046 75.2233622585249 2811.84761649672 16 20 6
154.074629510964 72.5605144491382 2796.39462124217 16 19 8
134.274898447659 71.4743807281903 2790.71052004255 13 16 7
122.48217516315 71.3695672536051 2791.10007191059 13 16 7
112.278462044382 71.462618206545 2792.71662539562 14 17 8
139.381050992019 76.0100230040905 2821.81167629027 14 17 8
148.744561437243 78.4141243894042 2837.66464163611 14 17 8
141.871125720093 78.8836472585396 2841.58651315885 14 17 8
107.20219836313 76.0888052343855 2825.41389525604 13 16 9
75.6717290920053 73.6946832005153 2811.73382879435 12 15 8
91.6473462283571 76.8578158020258 2832.24464019447 11 14 7
87.9694081805913 77.7208404124589 2838.60315102073 11 14 7
92.5511519186646 79.5333645888492 2850.7897846571 11 14 7
81.467046291841 79.5384738190875 2851.87666934771 12 15 8
67.8699586317748 79.2631915304437 2851.24935829492 12 15 8
61.7129670210566 79.8415713552995 2855.86061053619 12 15 8
49.7235119897908 79.7618113651411 2856.44215488492 9 12 5
61.0773760990764 82.3131539497726 2873.13072607 9 12 5
18.9608341216347 78.8649746292048 2853.11431232264 10 13 6
-7.39121561954592 77.2117196086871 2844.10120196162 9 12 5
-23.7520524475872 76.6877640212425 2842.00402269816 9 12 5
-37.634686543782 76.4486139206544 2841.65492315598 9 12 5
-37.1994088903826 77.7885919860361 2850.94367874672 10 13 6
-44.3533354173309 78.2937569847848 2855.13915174081 14 15 7
-44.7276976440829 79.5367081231588 2863.82898507894 12 13 5
-74.8364341333536 77.5609818106402 2852.92634403806 11 14 5
-108.910183491886 76.4846419678664 2848.66157125601 11 17 7
-113.610822625437 77.2777847549606 2854.629396406 14 19 12
-78.8394341963032 82.2516677261065 2885.96522367004 2 7 0
170.939527210155 49.523123177048 2688.11276375998 101 104 97
164.719762365743 50.1067224271766 2692.78557932149 24 27 20
141.286231375539 48.4211823404073 2683.71326489324 20 22 17
153.839704142369 51.4810373664849 2703.38651482628 22 24 19
169.628496650011 54.9402111551726 2725.45633824602 20 22 17
184.734718412889 58.2835675369261 2746.80349726601 15 18 11
162.808896855295 56.8116657688396 2739.03658591037 15 18 11
173.275632497178 59.5292676911925 2756.58151572023 14 17 8
157.619647594726 58.8812573005857 2753.80274332077 15 18 9
173.751024792602 62.2972263991192 2775.53842287111 16 19 8
207.541384183402 67.9261823402773 2810.58576345104 16 19 8
192.734661047052 67.3729809715601 2808.36689599112 18 21 10
176.278350259894 66.6241416784966 2804.9805143342 19 22 11
153.339272674562 65.078436532131 2796.81377998213 16 19 8
138.371772932991 64.5455645592184 2794.7512235501 13 16 7
131.434479285514 65.0181714542772 2798.73605112396 13 16 7
124.490549753752 65.4916847949925 2802.72767209874 14 17 8
106.17909469078 64.5733734396551 2798.37470539312 13 16 7
138.237884509156 69.8152464804378 2830.94766504425 15 18 9
125.631930239797 69.5901237035151 2830.74563964663 15 18 9
94.1941715095154 67.0982565401957 2816.98761909283 15 18 11
105.233545275397 69.7438432533979 2833.97489243888 13 16 9
92.5372412960708 69.5301934179267 2833.86088994314 12 15 8
93.7999453080529 70.9869498100745 2843.72764846021 9 12 5
71.6118103226719 70.9629202813039 2845.92626423943 11 14 7
69.596631091601 72.0258617863134 2853.43823982834 12 15 8
81.7228347170307 74.7362070742331 2870.75361308621 12 15 8
78.1078736918448 75.5972777661941 2877.04987558638 11 14 7
42.7816400397676 72.7888800850832 2861.53197607156 10 13 6
26.5605329129461 72.2127112324247 2859.303760247 10 13 6
-21.5772265768162 67.9930335684786 2835.46149070954 10 13 6
-40.4923654926135 67.15126842113 2831.69667749776 11 14 7
-70.4207111397546 65.0749677925206 2820.62943268197 12 15 8
-89.4828750815932 64.2518148824208 2817.00786661394 13 16 9
-67.9805986971522 67.9996276556861 2840.44633979793 15 16 8
-103.18922649879 65.3784989645224 2826.20088697788 13 14 6
-40.7559682068315 73.650938193648 2876.34226712283 15 18 9
-65.7849873869227 72.1677085926801 2868.82439465133 13 19 9
-159.229746236449 63.1684342433753 2816.99403970612 12 18 8
-139.219789269609 66.7007993791124 2839.11209472163 15 20 13
-88.2060793542916 73.5880310488086 2880.95990647282 4 9 2
217.713054655599 48.3363353393944 2726.86200650999 23 26 19
145.268481521705 41.3177658800694 2687.89393575284 23 25 20
139.009703336249 41.9040958683467 2692.60542637881 21 23 18
160.263847848294 46.1791057685213 2719.04619731047 18 20 15
155.643197271304 46.9679198544835 2724.93489457949 13 16 9
155.767685051824 48.3854997975932 2734.52079958468 15 18 11
176.512598622381 52.5202377779479 2760.07106717982 14 17 8
175.156058938785 53.7156097360954 2768.32667795818 15 18 9
193.717264445437 57.5121650573493 2791.84431739609 16 19 8
191.6519423446 58.5923979123313 2799.40352994195 16 19 8
182.40513302751 58.737673392811 2801.47939220363 18 21 10
180.355244148799 59.816015928195 2809.02355872018 20 23 12
168.677598057983 59.6542984013799 2809.3072476278 17 20 9
161.803739917729 60.1139805217627 2813.23133092329 14 17 8
159.768199905429 61.1905878655747 2820.76150526394 13 16 7
148.844722115984 61.1384168243861 2821.69735013662 14 17 8
137.083568032231 60.9874164743993 2822.06271756364 13 16 7
123.665222432882 60.6363466687473 2821.26877652218 14 17 8
103.686755924052 59.4765709202592 2815.77304652168 15 18 9
112.243519495649 61.876195269124 2831.01053798326 15 18 11
133.155437361423 65.7854221897919 2855.0113889629 14 17 10
99.9968309951615 63.0156847178871 2840.16944602524 13 16 9
87.2843324802335 62.7803046527741 2840.0747366612 11 14 7
76.1879988107292 62.7501865160014 2841.17897056842 11 14 7
82.0994782507691 66.0991050450343 2863.15402880702 12 15 8
80.1298375724899 67.1676516626566 2870.61995550663 12 15 8
9.05601213882967 59.9768636781458 2830.31616584258 11 14 7
12.8014996982038 61.756303118533 2841.92085697636 10 13 6
-7.67223195387912 60.6594093625414 2836.90763865344 10 13 6
-44.9866251307589 57.5961983919175 2820.56751575263 11 14 7
-46.3043942855408 58.7872429127212 2828.7852664161 11 14 7
-72.8757590859601 57.0278855278564 2820.00562103408 13 16 9
-71.6775907972895 58.5151930600451 2829.93228687526 14 17 10
-101.761945965032 56.3809532491967 2819.02852520551 14 17 10
-105.661212068953 57.2840678971894 2825.60089277332 13 14 6
-99.3490677300954 59.3534923271561 2838.86539976524 13 16 7
-135.588754982177 56.5641271137913 2824.25176018813 14 20 10
-129.263172367756 58.6318262468877 2837.50283992989 13 19 9
-118.6023392227 61.17530020498 2853.46385476917 15 20 13
189.05013206017 38.3386573096668 2714.29204470021 21 24 17
168.024919620703 36.8474255318519 2707.05058146153 24 27 20
186.917035208258 40.8909662338798 2731.62002728366 19 22 15
170.553967452975 40.0552789216272 2728.15422785899 17 20 13
141.527676873189 37.500948972093 2714.84497223365 17 20 13
166.898372827453 42.3853854256308 2744.19309602352 18 21 12
174.997888679276 44.8888809893495 2759.86928911 13 16 7
195.867302727225 49.0975894925131 2785.28499307967 14 17 8
204.927769579951 51.6871156799408 2801.4111416459 15 18 9
181.348510106318 49.8966708095048 2792.49904263717 14 17 6
168.877600250574 49.6065964862775 2792.17285379268 15 18 7
179.621869412601 52.3983161270097 2809.43123414794 19 22 11
180.800965441933 53.9096236489355 2819.37295399459 17 20 9
177.17864714252 54.7831777509504 2825.67501517626 14 17 8
157.414104100005 53.5480036973852 2819.9776620059 13 16 7
154.579691378047 54.529469888243 2826.89828125989 13 16 7
142.020814365677 54.2506751672383 2826.65744014005 13 16 7
93.6401643665592 49.3718656271374 2800.31962739497 12 15 6
109.46348060589 52.7665246503012 2820.94745633324 12 15 6
125.38868940722 56.148316383709 2841.47600623101 13 16 9
123.393648739379 57.2312654650845 2848.96502681788 15 18 11
109.919460972716 56.8608965185364 2848.22972812066 14 17 10
82.4154620139885 54.7372603916482 2837.59622384826 13 16 9
63.8826540710498 53.7616607147012 2833.47153101356 11 14 7
64.3083434913247 55.1611124153334 2842.76101768421 11 14 7
40.7249481921088 53.5793079032039 2835.23943581729 12 15 8
12.9028576766963 51.4959953856568 2824.91550350909 12 15 8
11.6254797098891 52.6959272528542 2833.09183157989 9 12 5
-11.333489378532 51.24274351121 2826.34808447895 9 12 5
-17.6404662714971 51.8337069574209 2831.10641446894 7 10 3
-34.8514652447154 51.1061863635826 2828.46663628467 9 12 5
-51.275174802647 50.4866186801024 2826.44602199746 11 14 7
-48.3721864898357 52.1954710877661 2837.48085075239 13 16 9
-44.5851816637517 54.0000197637782 2849.04060349252 13 16 9
-33.1377446672354 56.7033261158503 2865.61379523885 14 15 7
-71.6579759030354 53.483288502617 2849.07769478968 13 14 6
-85.6732213698987 53.1817476489103 2848.86950162499 12 15 6
-105.691071050175 52.1868010958703 2844.80508948855 13 19 9
-112.108725138063 52.7919879106573 2849.67155920353 12 18 8
-121.953088135306 53.0005538300005 2852.33144680384 14 19 12
183.658082761334 30.0712150718004 2710.94931280727 25 28 19
204.078164952449 34.4261868691512 2736.78959230212 25 28 21
210.512127486099 36.7660906565365 2751.30972677062 19 22 15
159.618351919298 31.0105068075115 2720.51218729444 17 20 13
144.750797169605 30.368669061188 2718.36648910173 17 20 13
159.858117359092 33.9242133039573 2739.68153393667 17 20 11
175.859335551831 37.5769464611326 2761.51146967876 15 18 9
195.141987904045 41.6555571071586 2785.68792339798 14 17 8
195.445987480815 43.0893209848018 2795.09351639935 13 16 7
161.472696916211 39.8188583075311 2778.30041740314 15 18 9
155.351015010553 40.3835618472231 2782.87862793429 17 20 11
162.855103637932 42.7987605453516 2797.74222997714 21 24 15
166.40431144618 44.6631125021906 2809.52961761447 18 21 10
149.052171096977 43.7052630719993 2805.64679024472 14 17 8
144.562838146311 44.4841343642813 2811.40655671014 13 16 7
122.270569455328 42.8899201299683 2804.02161050412 14 17 8
88.5380441772234 39.7995811832698 2788.37971512826 14 17 8
103.470748771557 43.1674290705416 2808.47898795213 13 16 7
116.05564952393 46.2015758082835 2826.707919787 13 16 7
120.554539249345 48.1562115208206 2838.95548681778 14 17 10
111.175544876554 48.2924590473181 2841.16394512147 15 18 11
119.842089698154 50.7711454258363 2856.28073684548 15 18 11
118.699027749666 51.9679195125205 2864.32381600112 14 17 10
67.2530343879307 46.7037290955744 2836.83582785936 13 16 9
39.5713145489589 44.5302422693128 2826.38617095983 12 15 8
20.9033079682235 43.5291368350206 2822.39950211087 10 13 6
22.1133175184609 45.0591560945893 2832.30809662961 11 14 7
10.8643196770095 45.0117304011098 2833.56648636568 10 13 6
-3.74955036026137 44.5490216013246 2832.55930964104 9 12 5
-26.7708902325765 43.0476250195898 2825.88462348723 9 12 5
-23.8779748654898 44.785285724081 2836.92519697248 10 13 6
-25.147740962622 45.9983645815968 2845.09168538274 10 13 6
-33.9786552168806 46.275901782266 2848.1519187922 12 15 8
-30.1588089062128 48.1066219484246 2859.67552915983 12 15 8
-40.6823636278166 48.1778316604863 2861.61291821047 14 15 7
-59.7101972599861 47.2225672651591 2857.97678765726 14 15 7
-66.0466662093633 47.8153412422298 2862.76447394156 14 17 8
-68.9779081710009 48.8182154154883 2869.77774412951 13 19 9
-104.348977706605 45.9361491225576 2855.7325026582 13 19 9
-121.023523759967 45.3140014455956 2853.96135404091 14 19 12
-125.737078563425 46.1219760853862 2859.9394746587 6 11 4
157.211897313229 17.188723489408 2681.01711856116 35 38 29
175.145505493564 21.309003803548 2705.11012500912 35 38 29
193.97902128492 25.528481293584 2729.7120957567 22 25 16
164.316268724034 22.6800943649337 2715.66107062061 19 22 13
195.849694705957 28.7002625850921 2750.05793979974 18 21 12
177.131654800462 27.4487111349666 2744.74072343394 19 22 13
153.608542582812 25.5274419284014 2735.79220514975 18 21 12
175.137279829296 30.0450455233309 2761.92478403674 17 20 11
178.53963840185 31.9579051602908 2773.85048788002 16 19 10
165.273467546372 31.5075807192565 2772.9204427021 14 17 8
170.31790535175 33.6387107603708 2786.01743379981 14 17 8
159.419573763032 33.5277952076177 2786.93699053659 15 18 9
166.932999717194 35.9855200588665 2801.78503512905 17 20 11
160.04463311072 36.4321251267566 2805.72512048663 19 22 11
144.288552401884 35.658200887392 2803.06435471445 15 18 9
130.905349747432 35.2229950337908 2802.24828932234 14 17 8
127.197399716683 36.1192229091571 2808.6320329053 14 17 8
112.138867462727 35.4701521504442 2806.67704723356 14 17 8
125.500533511243 38.6788828207592 2825.5257455354 13 16 7
126.723906449251 40.2290727342783 2835.41808879869 13 16 7
109.183628847187 39.2552402317601 2831.72444679332 14 17 10
118.617432013141 41.8962199261261 2847.47226207574 14 17 10
105.132142373078 41.4742449432189 2846.75561505255 14 17 10
94.0781285698971 41.3835747799655 2847.82677426997 14 17 10
101.146829984957 43.6850491149357 2861.72262134435 13 16 9
45.4310444959947 37.7455885257732 2831.48918226802 12 15 8
25.1194524148688 36.483880385588 2826.33931644829 10 13 6
55.4155606884157 41.8093420027144 2856.39922478042 11 14 7
41.7461686405569 41.4109188098806 2855.86191322543 10 13 6
-36.2283126696727 32.7512144015688 2811.29139399546 9 12 5
-18.3323415548529 36.4513807400138 2832.65004863255 9 12 5
-22.1282864569088 37.3593172542157 2839.11944189182 10 13 6
-14.9898556359811 39.6521431218393 2852.94698703308 11 14 7
-48.2266520259196 36.8317843787714 2839.60707906429 12 15 8
-48.6616479105013 38.1663618802284 2848.34391802652 13 16 9
-57.5349866619841 38.4391010391639 2851.44698873734 14 15 7
-63.8784484987545 39.0305804010294 2856.24147256377 14 15 7
-54.0720934750092 41.6248279081667 2871.62658318293 14 17 8
-51.8637368131909 43.2638492815263 2881.94460311449 13 19 9
-76.0934911941904 41.6465438024994 2875.06977455613 13 19 9
-134.644352473453 35.8538808638062 2846.21300170335 14 19 12
-92.2064634312658 42.4114202028499 2882.45501419281 0 2 0
124.595381466827 4.64962361720761 2655.74449115228 44 47 38
173.656088259268 13.539987429434 2704.90357693218 26 29 20
176.841165849454 15.5101802083195 2717.03657018962 21 24 15
187.127053938686 18.5230370871075 2734.71744573907 19 22 13
194.347331248337 21.0611669513983 2749.84470744325 19 22 13
173.262023456159 19.4165962768582 2742.68558320015 19 22 13
159.999328588842 18.9390396717528 2741.75611121656 17 20 11
158.577167276456 20.1984412855861 2750.06708384524 16 19 10
160.350864652225 21.9162402530232 2760.80508357929 15 18 9
161.364748323927 23.5145843719724 2770.89833561032 14 17 8
193.522376705266 29.5834955767956 2804.66782054558 14 17 8
193.876173984122 31.0497298486421 2814.01882674056 16 19 10
183.035324139504 30.9131031949063 2814.88510334521 17 20 11
172.971676505321 30.8938498586883 2816.37916825839 19 22 11
158.858113308424 30.3087706102929 2814.89360358622 15 18 9
140.665343084397 29.1615269155217 2810.45661718084 14 17 8
146.693354010687 31.4197379939817 2823.9750324255 14 17 8
145.474736949683 32.6539235912388 2832.08794736184 13 16 7
128.823870497369 31.7430687768867 2828.91870817977 13 16 7
108.043790529089 30.276482345997 2822.84742936168 13 16 7
120.69435118125 33.4222151022576 2840.99432973863 13 16 9
100.667259365577 32.0761135244472 2835.57442426284 14 17 10
108.486768600061 34.5392314026477 2850.11772654617 14 17 10
115.546233679471 36.8828333268348 2864.0161811571 14 17 10
92.1426461515136 35.1014235199585 2856.34521124867 14 17 10
91.8070119275534 36.4398719246156 2864.98281049527 12 15 8
79.0637242743517 36.1133836155413 2864.93247880135 11 14 7
3.51450564604061 28.8553239125438 2830.49967278639 10 13 6
-4.43925084556973 29.2169317014998 2834.09335929225 8 11 4
-18.259423919988 28.8112462406785 2833.70684888562 10 13 6
-18.7015026330153 30.1634195653032 2842.44812054622 11 14 7
-30.0448529079258 30.0913941627716 2843.80383946975 12 15 8
-37.20255143703 30.5680645420213 2848.00693176807 13 16 9
-58.720035483661 29.1955767432407 2842.65366052189 14 17 10
-60.0003941166074 30.4382755859021 2850.82662749793 14 15 7
-56.171489289961 32.3284020060312 2862.3321245649 15 16 8
-63.350362438876 32.8078597202118 2866.55583160682 15 18 9
-62.0154613411992 34.3666485086703 2876.33615484891 13 19 9
-125.550377486279 27.7439305176126 2844.04917233969 13 19 9
-125.154604278095 29.2059418665774 2853.35911996249 12 17 10
130.815733787125 -0.58165679384603 2671.59609928041 31 34 25
169.090638637278 6.8058749544947 2711.84934409716 24 27 18
195.038640589266 12.2590893838739 2741.95703867842 20 23 14
166.905786484856 9.48706508609032 2729.20967187293 19 22 13
155.996847806252 9.34013734508493 2730.14508419247 17 20 11
159.280539976193 11.3283130658254 2742.17783168546 16 19 10
154.688806294484 12.1292042810271 2748.03602905557 13 16 7
162.803165827758 14.8164919130165 2763.67031775952 13 16 7
181.329566908022 19.0252706602786 2787.161592065 14 17 8
164.07633529529 17.9344326918857 2783.20054034765 15 18 11
200.342709846435 24.7028656778506 2819.8714750147 16 19 12
181.501577954361 23.3762906852724 2814.68791710001 17 20 11
157.773933185017 21.357841311318 2805.9568658495 19 22 13
111.404239375502 16.0899800350648 2780.51380203487 16 19 10
120.549942212873 18.8654993051811 2796.52782031194 16 19 10
149.191714682756 24.4151414390676 2826.7804654525 15 18 9
152.035261643731 26.2411583342132 2837.85700348842 13 16 7
124.014774436848 23.6743818868619 2826.38462846766 13 16 7
123.603351379736 25.0388996351389 2835.09363410834 13 16 7
105.239113601566 23.8709177904549 2830.82998260848 13 16 9
120.395996399853 27.4146471592456 2850.68064795571 13 16 9
110.199217209603 27.3970148115345 2852.30667489071 13 16 9
110.678619608202 28.8673312833981 2861.53234999763 14 17 10
94.6881520178344 28.0543302628881 2859.11010939487 14 17 10
76.9947081442335 27.0201821633989 2855.57781622223 12 15 8
55.9288646601437 25.539314965436 2849.79207764884 12 15 8
14.0225647591419 21.2364730914316 2829.69320916378 12 15 8
-11.4003848313713 19.2152697100924 2821.22878054328 9 12 5
-14.3813133347881 20.2503077372057 2828.28697424016 8 11 4
-14.0035728848864 21.7338162393132 2837.61165138866 10 13 6
-21.9820944647284 22.0911545488188 2841.23089886242 11 14 7
-26.609937326783 22.8979246985502 2847.12408427845 12 15 8
-51.4487220509929 21.0215128846745 2839.47541833944 13 16 9
-57.3878356113715 23.0890755790558 2853.56959262814 14 15 7
-59.4903751959372 24.2315096372485 2861.15656937485 15 16 8
-75.1777182337365 23.59922194092 2859.82352157771 15 18 9
-92.6143177463787 22.7516510035399 2857.42551145243 14 20 10
-89.6095734573179 24.5580540400779 2868.34487707837 13 19 9
-125.935330066425 21.2969383608353 2853.88643015796 12 17 10
-131.51826764009 22.0065131829079 2859.32549485078 0 2 0
169.117779485335 -2.27468748902809 2703.2454550893 28 31 22
178.547861489291 0.734328309962617 2720.35981712477 24 27 18
186.484481714028 3.49018065488194 2736.16046975494 19 22 13
204.706354115639 7.81877865911607 2759.93643630623 18 21 12
151.340643746006 1.08686056958507 2727.48646276839 18 21 12
145.133393060643 1.65308764102717 2732.14975702738 17 20 11
157.927653965807 5.12108337556244 2751.52357776109 14 17 8
181.131658352379 10.1460127247375 2778.75142772349 14 17 8
194.131872621779 13.5880152808334 2797.92457550238 14 17 10
187.27997468058 14.0149379310783 2801.83135598896 14 17 10
142.83842474271 8.80750436379357 2777.29850425303 15 18 11
127.064265689841 7.93175879919622 2774.67107753311 15 18 9
118.47194198279 8.13699080073355 2777.50473583704 20 23 14
81.6738297885444 4.17356529498636 2759.36808028587 17 20 11
89.9400982592668 6.88851060199253 2774.84777121902 16 19 10
128.219057119814 13.9856431204897 2812.30575474543 15 18 9
141.558662620585 17.3850737811624 2831.148174122 13 16 7
129.778512793441 17.1097293961467 2831.55078259708 13 16 7
113.076945639839 16.1306632741918 2828.44197156236 13 16 7
113.481490026542 17.6297585629854 2837.73772828512 12 15 8
114.733338136402 19.2427797405676 2847.59250884843 12 15 8
124.226934768137 22.0236362135909 2863.26027460862 13 16 9
105.811891543589 20.8195959808158 2859.05274092406 14 17 10
79.9116371528292 18.5730837713388 2849.67867425474 14 17 10
81.2001365581803 20.1816007041154 2859.49738742325 13 16 9
50.1996718726274 17.2542563027104 2846.78673792396 13 16 9
8.28099547147909 12.8346905883874 2826.71741121913 13 16 9
-2.16753826970573 12.8336482847346 2828.59098214356 9 12 5
-14.3075373215815 12.6045293270556 2829.34375627839 7 10 3
-24.8044143460562 12.6097215133674 2831.26441134288 9 12 5
-4.30128537199526 16.87168662716 2854.20215186638 10 13 6
-27.3764858090484 15.1526520429381 2847.61311685127 11 14 7
-61.4821625949364 11.9556208933659 2833.77444481754 12 15 8
-50.9734072077723 14.8295373053857 2849.83763586815 13 16 9
-59.0060681255586 15.1863131888643 2853.51038978915 14 15 7
-70.4417732681284 15.0895173345079 2854.96147952349 15 16 8
-83.6037231574123 14.7690735532782 2855.32565439839 15 18 9
-97.6513951524689 14.3397183705045 2855.16855215757 14 20 10
-85.265288985223 17.4182260218121 2872.17142411283 13 19 9
-111.310410389713 15.4122795570575 2864.32256633539 10 15 8
204.29696407732 -4.20233050517854 2732.36255862675 25 28 19
192.697232176946 -4.52302094363199 2732.59237371839 25 28 19
192.043994246115 -3.09558573367824 2741.53220592999 20 23 14
168.620973309409 -5.27687674809046 2732.52272663385 18 21 12
167.171560497923 -3.97235606056878 2740.85409182459 18 21 12
157.843808093165 -3.90871299389595 2743.02239700399 18 21 12
169.876844132827 -0.505565981685885 2761.74480057723 13 16 7
185.965100440565 3.50340089171258 2783.43565499678 14 17 8
188.632021297465 5.40630418927768 2794.67622158836 15 18 11
177.778434902831 5.21570506108887 2795.56312288361 14 17 10
166.898444413046 5.02853778408402 2796.47573660957 14 17 10
144.770275312602 3.13173400966132 2788.9722218442 14 17 8
128.186100482398 2.1000714065777 2785.75495007589 20 23 14
145.376633950175 6.19364214395551 2807.75563188444 17 20 11
157.025440355646 9.4220399185162 2825.46849970768 16 19 10
145.286155913814 9.12017326956494 2825.83411038808 15 18 9
143.252186194686 10.2757610634736 2833.35138997036 13 16 7
127.41001739894 9.37434135732085 2830.79495471541 13 16 7
112.333411766308 8.59990732469545 2828.87644481301 12 15 6
110.284604665044 9.75752606635455 2836.40782011991 12 15 8
119.718756976989 12.5950655171036 2852.12657509103 12 15 8
126.760622793545 15.063954048879 2866.02398872426 12 15 8
110.820384412065 14.175310354055 2863.56304972878 14 17 10
83.2828741721121 11.6214312853359 2853.02641237293 14 17 10
64.7362272246546 10.3914709358447 2848.95305627062 13 16 9
60.216956495398 11.1907546452774 2854.73987228839 14 17 10
35.7665693960394 9.1416256859323 2846.731049285 13 16 9
-13.7501120546282 3.55135351354879 2821.62614858928 9 12 5
-25.9167931613642 3.30464391043167 2822.40835613073 7 10 3
-37.2770303900216 3.17971471942957 2823.7886632058 9 12 5
-18.4806276455176 7.29437575261266 2845.60882310665 10 13 6
-39.9076049061318 5.75817639876858 2840.18987378036 10 13 6
-52.1418479922477 5.52022730307722 2841.03787656691 12 15 8
-54.2756327614224 6.68934016696693 2848.651937128 12 15 8
-58.0853146719198 7.62300337188387 2855.13083120407 14 15 7
-91.5691375671086 4.48014650693707 2842.08388928829 15 16 8
-92.8787519963006 5.76887312498364 2850.27910481738 17 18 10
-70.3133719124551 10.3016033434469 2873.9627991744 16 19 10
-122.761672493148 4.63613289693859 2848.94633524873 13 19 9
-94.9742512089151 9.8505694596519 2875.84584118815 10 15 8
202.807737403424 -11.8918568297983 2732.14373488393 23 26 17
195.114822885175 -11.5956388817903 2735.48806604422 21 24 15
141.937538736892 -18.6807994084519 2702.90319156107 18 21 12
180.482370112989 -10.8717251475837 2742.82609154805 17 20 11
180.638159112881 -9.30334425889512 2752.35896350778 18 21 12
183.191479840279 -7.35880992221066 2763.70618365788 18 21 12
177.074495279952 -6.80857834506809 2768.28186860541 14 17 8
175.71721273104 -5.50150317617454 2776.52170737425 14 17 8
166.423148272925 -5.45503762995819 2778.65876091266 14 17 8
168.277572949424 -3.64824479754861 2789.30344398934 14 17 8
171.766945500007 -1.59532811939461 2801.12204129661 13 16 7
164.880269423984 -1.17371242920911 2805.06447919356 13 16 7
153.96932331471 -1.37525759472185 2806.00995735292 13 16 7
165.583490475534 1.91464609558428 2823.74779406867 18 21 12
182.931787779945 6.06443654056343 2845.58384264903 17 20 11
160.734082442511 4.12046698178203 2838.15634947725 15 18 9
145.757087783232 3.30133909707714 2836.1458679796 13 16 7
125.855123703087 1.74655601653256 2830.63221400568 13 16 7
100.993723598477 -0.53939373725953 2821.64962568467 13 16 7
84.210669459404 -1.58264831126237 2818.63155729829 13 16 7
95.2202220895315 1.55765767548904 2835.57498633841 13 16 7
98.9197730088032 3.58464560562788 2847.1887056762 13 16 7
89.4969770288565 3.64852655326364 2849.45101753006 13 16 7
66.8587177174413 1.76118107950052 2842.45296979399 13 16 9
57.368186969291 1.83386076384229 2844.78158066653 14 17 10
46.2016201501672 1.66565198275503 2845.97562902449 13 16 9
31.6866041113717 1.01543012307437 2844.89834100838 12 15 8
2.1435221572359 -1.80953545136137 2833.55917600224 8 11 4
-35.8560157960026 -5.8289839662895 2816.62383416638 7 10 3
-35.5288550237751 -4.28057819865757 2825.98948373701 11 14 7
-39.3658861922241 -3.3376366424957 2832.49416469426 11 14 7
-40.6729064094264 -2.03534253635129 2840.68479886368 12 15 8
-50.382254760458 -1.93445994791663 2843.2261926317 13 16 9
-57.5772384729913 -1.47225234316778 2847.46878510209 13 16 9
-62.2407593355483 -0.651003940691119 2853.3952594206 14 14 4
-75.3799542874773 -1.02177887754895 2853.74427722915 14 14 2
-93.6528221100241 -2.10158562931112 2850.79410893215 16 18 7
-139.244758423764 -6.97092770388708 2830.18745673375 15 18 9
-123.539037980204 -3.29207579940594 2849.47314713415 11 14 5
-114.5821622296 -0.570920276338316 2864.2657991201 12 17 10
-113.278128965045 1.08054312802763 2874.06273946705 15 20 14
188.057063268938 -21.8102752499437 2721.33400617682 27 30 23
159.993962785915 -24.9034952005296 2708.56484557135 21 24 15
167.098788908185 -22.132441944065 2723.77232603565 18 21 12
160.119795540192 -21.7047976019843 2727.80554533611 18 21 12
175.982496952949 -17.5205856855272 2749.69447795985 19 22 13
188.001857599139 -13.9960391436317 2768.4121807615 19 22 13
169.228294650595 -15.5137145041586 2763.18977043797 14 17 8
170.232710601125 -13.8039272363112 2773.27595280733 14 17 8
157.74258939393 -14.2828872974868 2772.99642050642 14 17 8
155.587310610109 -13.0899391894384 2780.62830210311 14 17 8
138.257013612149 -14.3313538540854 2776.76603262248 14 17 8
150.524607970643 -10.8378062717646 2795.24181731093 13 16 7
156.451356276414 -8.37534489045716 2808.83093757114 13 16 7
172.097841615387 -4.39248812260062 2829.54742683772 19 22 13
172.507002436308 -2.83614113212177 2838.83013759655 20 23 14
168.088640319005 -2.04400033568874 2844.51746774838 16 19 10
146.639676260315 -3.90966349484539 2837.75213692642 14 17 8
120.235062405611 -6.5232256286023 2827.5162471614 13 16 7
101.066395069647 -7.98958809806916 2822.6785973124 13 16 7
82.6496146061619 -9.32181564823081 2818.49139691932 12 15 6
73.9994440220677 -9.13958465900066 2821.38623540885 12 15 6
73.5438919704725 -7.70241196746002 2830.12832342451 12 15 6
52.5411945465319 -9.39465269659884 2824.31112079552 13 16 7
33.1154198535479 -10.8279319280445 2819.72389266465 12 15 8
35.946434694516 -8.88973912598057 2830.79629573095 13 16 9
43.7890757505901 -6.21070577066879 2845.28437771827 13 16 9
23.4543727679988 -7.75785060489337 2840.19964878406 12 15 8
-15.2652700580855 -12.0202430120382 2822.59837941549 9 12 5
-34.1112930200875 -13.2972004616596 2818.82925427208 8 11 4
-49.6726398239327 -14.0730394946061 2817.39230717693 11 14 7
-47.6739375626316 -12.2583488096229 2827.89255317992 11 14 7
-46.4795474404713 -10.5710070995996 2837.79340583217 12 15 8
-48.6221706520462 -9.37806226920662 2845.41272074298 12 15 8
-82.8267112732974 -12.8360685098398 2831.71079396372 13 16 9
-63.0111968331848 -8.46343831030155 2853.89808031518 14 14 4
-74.4560914121455 -8.61403634076358 2855.36590939184 15 15 5
-91.026815503759 -9.49083453779287 2853.52930126741 16 18 7
-140.018989897057 -14.9726823217129 2830.72202655225 14 17 8
-131.146680679156 -12.1943173260881 2845.59019882024 11 14 5
-136.755660897327 -11.4790343218861 2851.05428057721 12 17 10
-111.486379912814 -6.42178887574651 2876.22650404243 11 16 10
184.175850348718 -31.5860693865002 2709.62870290497 21 24 17
159.266318924075 -34.2288360607561 2699.32973776356 33 36 29
152.246708410848 -33.8013212119925 2703.40297178673 23 26 17
133.460640081501 -35.3633936419117 2698.19954135866 21 24 15
158.620654933032 -29.4993433142115 2727.61208809519 20 23 14
172.115257984579 -25.6377752185497 2747.6491982192 19 22 13
182.544864479429 -22.3159436189974 2765.14169293853 18 21 12
177.218004696451 -21.6383197717006 2770.33119093979 15 18 9
172.685840192628 -20.8292139302294 2776.12935895948 15 18 9
163.384404194021 -20.8079938720591 2778.27746381868 15 18 9
129.534828450403 -23.2419169473547 2771.15691489657 13 16 7
142.58209468097 -19.5551695572202 2790.24716620288 12 15 6
139.651399364832 -18.4844710459784 2797.25020699822 15 18 9
146.397581770636 -15.8554436677927 2811.41790801976 19 22 13
162.083216889377 -11.8067523888604 2832.08579066431 20 23 14
159.258196748379 -10.749243232695 2838.98584382949 18 21 12
134.543599747089 -13.1828359134518 2829.87896157487 15 18 9
127.625737724932 -12.7666426693324 2833.85316901251 15 18 9
118.255669952116 -12.7357753865622 2836.06800038247 14 17 8
95.795185760327 -14.7584649126981 2828.91342311645 13 16 7
99.4603625822741 -12.6667300186803 2840.55170686804 11 14 5
80.5913054389049 -12.5879745382242 2845.10721281854 13 16 7
27.4164389532556 -19.3031277329705 2816.71631643373 11 14 7
13.6996323239718 -19.8809346993672 2816.2526011024 11 14 7
31.4335061860085 -15.6271778386209 2837.69040027031 11 14 7
14.3924939383542 -16.7116900672818 2834.93458596241 11 14 7
-19.352402115032 -20.3198395693483 2820.79841644094 10 13 6
-38.2076445454942 -21.6382765911276 2817.04457702866 9 12 5
-51.2689396367878 -22.0666350883486 2817.32508779109 10 13 6
-48.435989876527 -20.1007939586809 2828.39148304319 11 14 7
-48.0841393972962 -18.5165756286365 2837.7269844467 11 14 7
-61.1794044554914 -18.9405059539997 2838.04023556458 12 15 8
-78.529098916428 -19.9852635791405 2835.58507154459 12 15 8
-81.5487763886487 -18.9017036972182 2842.67457203136 15 15 7
-74.3798508720861 -16.3251459459813 2856.42990004057 17 17 7
-90.950174835065 -17.2364987201772 2854.59800173391 18 20 9
-107.569819706627 -18.1415232436195 2852.81414450588 14 17 8
-143.02242764017 -21.7639355748236 2838.95929469022 12 15 6
-140.101044487815 -19.8089922618656 2849.93948496922 13 18 11
156.999570770666 -42.2265406897545 2698.51164364485 27 30 23
146.06433273469 -42.4816188031383 2699.48915619284 23 26 17
149.213659801835 -40.2957812195575 2711.62577804019 19 22 13
146.905330850633 -39.0615285915599 2719.40353592557 18 21 12
175.339163022349 -32.5674266042348 2751.13998741998 17 20 11
173.929416436519 -31.2120686628567 2759.42478758035 16 19 10
174.915023520043 -29.455943311515 2769.5224608422 15 18 9
168.789636581074 -28.911343738545 2774.10765972569 15 18 9
150.726946843983 -30.375203812304 2769.58829723638 15 18 9
145.363918951496 -29.6922243209586 2774.81291914319 14 17 8
150.395254162155 -27.274637799894 2787.88058316851 12 15 6
124.221600363288 -30.0577430076533 2777.44040504612 12 15 6
115.62251808914 -29.9033360823542 2780.28862447315 12 15 6
130.363426605954 -25.8989401023066 2800.48427210715 15 18 9
140.358469004837 -22.7016411791106 2817.00945411328 18 21 12
164.185158916796 -17.2664112606761 2843.55832589904 21 24 15
129.749112845771 -21.3493031152562 2827.34482663909 19 22 13
142.334041116552 -17.7757719908296 2845.49401037099 16 19 10
111.808242597346 -21.1801600519871 2832.38251719623 15 18 9
94.2345581502404 -22.4699781331124 2828.76875121235 13 16 7
113.455110437783 -17.8592890286582 2851.51132093229 12 15 6
126.226241844968 -14.3091506860849 2869.4790596401 13 16 7
96.7697503960623 -15.966181302171 2866.38342029573 12 15 8
43.5354234965502 -22.8297889996937 2838.07351049155 11 14 7
-11.579861165592 -29.9241854243139 2808.83171138897 11 14 7
3.67042102078763 -25.9836650181772 2828.53098422109 10 13 6
-29.2660659488519 -29.5507431129647 2815.00322935263 9 12 5
-29.7865974455744 -28.071338974799 2823.80360112851 9 12 5
-35.301109864859 -27.3673828205166 2829.17554906816 10 13 6
-40.8146447934779 -26.6635056678444 2834.54653802153 10 13 6
-50.5284429082917 -26.6009004593219 2837.09800785081 11 14 7
-75.4196404941165 -28.8396948597834 2829.55494864622 12 15 8
-97.0224900218888 -30.556243783301 2824.33729866873 12 15 8
-97.5466383038848 -29.0760741055441 2833.14114881943 14 14 6
-81.9348320148299 -25.1812106390678 2852.48817094903 17 17 9
-91.7229957960855 -25.1088840148128 2855.1120501634 17 18 10
-103.233037118846 -25.2876513247212 2856.6490721689 11 14 5
-122.453292459257 -26.6016309498471 2853.25703717079 12 15 6
-144.301556924701 -28.2865927638971 2848.27841929332 11 17 7
161.757267603191 -50.6579864103403 2693.61643503608 25 27 22
167.213715458888 -48.0222216628312 2707.64661859169 21 24 17
193.056817600166 -41.7957927098417 2737.74419946678 20 23 14
183.780092995803 -41.8045538828322 2739.87253460105 17 20 11
170.555294232083 -42.5001855104236 2738.93766261947 16 19 10
161.231397142048 -42.5027509288395 2741.11158715754 18 21 12
191.376845745342 -35.6339067832617 2773.92714798315 18 21 12
174.98758747158 -36.8780549563618 2770.54738862536 15 18 9
166.481357272219 -36.7464027943101 2773.30676771359 15 18 9
139.661910775073 -39.7553578637792 2762.12434248037 15 18 9
134.271731573504 -39.0685058812054 2767.37535368596 14 17 8
145.671372094146 -35.5227291680588 2785.28840060567 12 15 6
129.90526048981 -36.6076730164953 2782.68356422339 11 14 5
132.56699062324 -34.5663715382045 2793.90883008945 14 17 8
130.436758469164 -33.3423847032577 2801.51159034426 13 16 7
127.515556495017 -32.2555756280449 2808.50282297635 15 18 9
148.073345676103 -27.2581613407319 2832.69415751531 20 23 14
154.15620814848 -24.7003471924204 2846.11416100297 20 23 14
129.397334458099 -27.2569322480269 2837.06942437443 18 21 12
116.771735310905 -27.7892570922474 2836.93264880429 17 20 11
95.1252777381981 -29.7902209484539 2830.38309150319 15 18 9
88.9614210542282 -29.2416782985745 2835.0059086271 12 15 6
130.105033309062 -19.4873757019582 2881.97971779398 15 18 9
89.4205332809586 -24.536212948199 2862.19475108155 13 16 9
18.8108111035312 -34.3400122867293 2821.81630196033 12 15 8
3.41137226085264 -35.2322766782125 2820.23612332544 10 13 6
8.72949140058488 -32.8142241869723 2833.01893779956 10 13 6
-19.1998086841436 -35.6798829447565 2822.91709661118 9 12 5
-29.7099043025866 -35.7668862698934 2824.86484223321 9 12 5
-18.4976265440886 -32.4336796179425 2841.57845158995 10 13 6
-21.4575103902921 -31.3406230529117 2848.60717251655 10 13 6
-46.2503545692363 -33.6535715666136 2840.97740687056 11 14 7
-69.4470117672346 -35.6938461354776 2834.55612150198 11 14 7
-81.7507049862423 -36.0279749651228 2835.48730461982 12 15 8
-79.7022989950773 -34.1449047661246 2845.92774978001 13 13 5
-72.5300869410628 -31.4866307977767 2859.66807442974 17 17 9
-127.340852158759 -38.3042105439932 2832.91678826846 17 18 10
-96.3408462988764 -32.0181324493244 2862.13573719598 11 14 5
-99.3237784814682 -30.9217280090702 2869.18685064684 12 15 6
-159.625201017292 -38.4673761538908 2839.49368281233 11 17 7
199.955981012115 -51.3213162623281 2725.21621200082 20 22 17
169.627423062853 -55.160321448622 2710.55584508594 29 32 25
195.475401178711 -48.8259455801538 2740.63262953922 18 21 12
199.530897823731 -46.4545480011111 2753.25923307351 15 18 9
161.984242131865 -51.5398518999233 2733.19754894011 15 18 9
165.243941763725 -49.3074690382267 2745.2180276693 21 24 15
175.654687325013 -45.8198055024102 2762.70474168672 19 22 13
184.560624207747 -42.6216887236897 2778.89439137391 17 20 11
150.682062024092 -46.970290342387 2762.16657415978 15 18 9
134.166862793778 -48.2355260355973 2758.91533060185 13 16 7
131.953115348679 -46.9901474692317 2766.59752324468 13 16 7
115.365761142002 -48.2459183260105 2763.41653174624 13 16 7
166.843271649178 -37.7140056142097 2811.34964697576 12 15 6
151.117357576084 -38.8386685568325 2808.7107643155 12 15 6
147.421159928173 -37.885329355849 2815.07439657959 13 16 7
153.420130094367 -35.2787586384999 2828.57016232584 15 18 9
145.718709787007 -35.0184565970328 2831.92824821576 18 21 12
153.417492886393 -32.1468487963419 2846.53105870375 20 23 14
136.788039427195 -33.3965162942536 2843.39097031163 19 22 13
111.955343623882 -36.0079070518342 2834.42797823334 19 22 13
97.6502391567791 -36.8314477960275 2833.16752353693 18 21 12
91.492248842866 -36.2858633974029 2837.7849524969 16 19 10
88.614564337782 -35.1953559959053 2844.7324250279 15 18 9
78.3447169953959 -35.3292183781652 2846.44818846646 14 17 8
88.6697395547484 -32.0695402097766 2862.63681351204 15 18 11
53.6050648643966 -36.2650311442441 2847.06419385876 14 17 10
29.1731036654692 -38.6860406166675 2839.09203744128 13 16 9
-1.16052059937477 -42.039862859752 2827.19914810298 12 15 8
-16.6255906600572 -42.955506615279 2825.68725985557 9 12 5
-17.9516187754896 -41.5806802135444 2833.88604890731 7 10 3
-14.2395711818355 -39.4035851238609 2845.46517309008 10 13 6
-24.7341729521131 -39.5081553958538 2847.39979163692 12 15 8
-44.4928891623513 -41.0798403279272 2843.16363565657 13 16 9
-66.0008050768126 -42.9099972853781 2837.86850641548 13 16 9
-70.6999378059563 -42.0678349187972 2843.82759061118 13 16 9
-58.4745897709777 -38.5682959679044 2860.92753168403 17 16 11
-122.48027071252 -47.0179076510299 2827.96113034901 19 18 13
-113.663952940289 -44.046651158461 2842.85639367125 18 19 13
-95.4110302766682 -39.6301266591241 2863.75471272034 12 15 8
-120.589080356078 -41.9549863799583 2856.50922269911 14 17 10
-27.9904577259904 -24.6244662269854 2933.45450585595 90 95 88
174.353968071918 -63.5497166405589 2705.6853556486 20 22 17
177.501069233188 -61.2734940793121 2717.81082899316 29 32 25
194.766475882554 -56.4145639585604 2741.04128800266 19 22 13
176.087601070877 -58.1725772704376 2735.76037280371 16 19 10
157.343208563875 -59.9221853180165 2730.54293750837 16 19 10
150.350156816951 -59.5176682808743 2734.5935351925 20 23 14
155.985260669732 -56.8274863841744 2748.4382678711 19 22 13
164.842194520062 -53.5740857043415 2764.66840735743 17 20 11
150.755950200577 -54.4561004662589 2763.19960157537 16 19 10
131.854594147861 -56.1849460749187 2758.13530256385 14 17 8
120.065346224014 -56.6291432559221 2758.57190195297 14 17 8
151.414689403101 -49.4256079655983 2791.55941978067 11 14 5
154.895838690349 -47.1904950083872 2803.35925437952 10 13 4
172.07685077598 -42.5629037467332 2825.29046306102 12 15 6
141.857808477182 -46.2568240625805 2811.91714916551 13 16 7
138.156666832632 -45.2968909985825 2818.28471632127 13 16 7
144.982880742631 -42.5139475187967 2832.34985830146 17 20 11
129.969097489905 -43.5201396048327 2830.40321858621 20 23 14
140.113397648999 -40.1861102675735 2846.76031457653 19 22 13
112.029355868605 -43.4211864177013 2835.45016243298 19 22 13
92.8234124303726 -45.1099091085476 2830.68239304818 19 22 13
89.9290074998849 -44.008804025035 2837.64456503401 18 21 12
71.452692495551 -45.5468222125441 2833.54723692839 17 20 11
57.8515678757863 -46.2455114151866 2832.98651399324 16 19 10
64.8288406573689 -43.4811100713655 2846.90439280049 16 19 12
63.5995216384968 -42.1049273000128 2855.00694781888 15 18 11
44.162555616214 -43.7636283530349 2850.46381224823 14 17 10
2.2381065926238 -49.1286580129722 2830.53995700108 11 14 7
-17.3807769099659 -50.7638488266968 2826.17433121651 8 11 4
-22.8806774967172 -50.0601941654858 2831.53181395099 8 11 4
-31.7246697928684 -49.9039472163915 2834.62296069559 10 13 6
-33.8775044888293 -48.6530386527868 2842.24384874689 12 15 8
-45.2554910680263 -48.9039358559998 2843.66039920663 13 16 9
-64.2384325237195 -50.3763478532678 2840.05612424827 13 16 9
-82.4384027666971 -51.7050471160665 2837.07001593957 13 16 9
-66.0107932921399 -47.4667104472059 2856.97307757458 15 14 9
-78.3100640986327 -47.8433678544655 2857.90615487662 18 17 12
-122.083262632033 -53.2150558404889 2838.40187216023 17 18 12
-93.6293279825113 -47.1015840917071 2865.92355278488 12 15 8
-70.9955681342387 -41.9502744195095 2889.44791925188 15 20 13
-93.5817930066092 -43.9366375588542 2883.82974463407 16 21 14
197.853652729257 -64.9842268487417 2734.9912023945 29 31 26
201.876580912449 -62.5432255778776 2747.63952165559 20 23 14
185.567369628416 -63.9104106576505 2744.19879709676 17 20 11
169.204414642059 -65.270599356694 2740.81040676679 17 20 11
159.87728423908 -65.3121114852104 2742.99329833916 20 23 14
154.479997874098 -64.623619050326 2748.25112460494 19 22 13
156.999802213648 -62.4825620972469 2759.60258106676 19 22 13
154.004350219889 -61.3614635558832 2766.66247709782 18 21 12
138.293317525095 -62.5578805920754 2764.01942223263 16 19 10
136.089417091442 -61.2912156019526 2771.68902836538 16 19 10
158.683012902555 -55.5545936599799 2798.00058805259 12 15 6
166.989478867506 -52.4274689161606 2813.37910449698 10 13 4
131.985721906228 -57.0718568513258 2796.39543010115 13 16 7
163.672746689651 -49.7863200468283 2829.03550531591 12 15 6
141.459249118234 -52.1223119956273 2821.68197264596 12 15 6
123.210569606746 -53.7328280541541 2817.36897644256 15 18 9
135.720647431012 -49.910196788596 2835.55567088227 17 20 11
137.747955776134 -47.9513013246305 2846.00585937581 20 23 14
121.882785203898 -49.1268420959724 2843.51278019866 20 23 14
94.5319285124633 -52.2842544453407 2832.87999506519 21 24 15
76.0841118316282 -53.8687815671147 2828.76090386124 21 24 15
66.6035551411257 -53.8885619324761 2831.09327590206 21 24 15
54.6363828821734 -54.3297608565604 2831.70577580309 20 23 14
93.7663904439696 -46.0230524966165 2868.14021844922 18 21 14
80.2062383747648 -46.7533102323408 2867.54347498108 17 20 13
21.0403039355955 -55.2080503364316 2835.43986691585 14 17 10
-9.31098359571791 -58.7205570293786 2823.58797095465 9 12 5
-14.8060412656972 -58.0170706285789 2828.94066947001 8 11 4
-37.8208826360016 -60.2492411437383 2822.36720043385 10 13 6
-40.8458424896465 -59.121990203683 2829.45548888414 10 13 6
-33.7997547346012 -56.3247483225526 2843.30051743039 12 15 8
-45.177531051491 -56.5940408221191 2844.71957791332 13 16 9
-69.2124020541258 -58.9419260936994 2837.75920665362 13 16 9
-78.9833436504903 -58.9235656381622 2840.37429800197 13 16 9
-95.5402289134266 -60.009236442449 2838.55481899623 15 14 9
-67.2092679105356 -53.7716413331615 2866.1802688914 17 16 11
-96.9575342864299 -55.3871884686046 2864.78514444015 14 17 10
-64.0882771439792 -48.497429001134 2894.89283184565 16 21 14
-79.8137468136386 -49.4427374622327 2893.64390868989 15 20 13
155.811188890398 -80.5093172654966 2702.51574560109 26 28 23
198.822410988901 -70.5622080557372 2746.18958453391 19 22 13
198.182115232661 -68.9869479218184 2755.09471651562 18 21 12
191.279786162867 -68.6042481374101 2759.05811197867 19 22 13
175.705813086902 -69.853472434298 2756.28675977593 20 23 14
171.137318988571 -69.0213073141873 2762.11759546871 20 23 14
175.280818780437 -66.5621443968191 2774.64350105658 21 24 15
158.839988844595 -67.9492385577886 2771.33641831819 19 22 13
147.118562468397 -68.4446201840588 2771.71323494655 17 20 11
154.505053813471 -65.4029238995246 2786.60101675947 17 20 11
181.13943190938 -58.8420751263044 2815.86342181102 13 16 7
161.45387945558 -60.8104967109859 2810.19600348325 12 15 6
167.403797636964 -58.0830313975394 2823.72294824902 12 15 6
156.499453741696 -58.4331053783532 2824.68348496431 12 15 6
126.197704090674 -62.2829501777882 2811.41534626278 11 14 5
119.239725303995 -61.8914805397411 2815.43270653681 14 17 8
129.306484786357 -58.4440824821897 2831.85004571803 16 19 10
122.375776014491 -58.0558130832098 2835.84113730015 19 22 13
115.438053959253 -57.6666022838947 2839.83871619578 20 23 14
92.9735508784768 -60.0262195325443 2832.73792751618 22 25 16
81.8912835851537 -60.352728292037 2833.87166186651 22 25 16
78.9902338818025 -59.2334469900416 2840.83808361486 22 25 16
90.0870877023952 -55.6679764093408 2857.63198214099 21 24 15
95.4902619172411 -53.1185905587966 2870.31092465503 19 22 15
69.5362577642111 -56.0281593234895 2861.0885696055 16 19 12
