ply
format ascii 1.0
comment KinectMotionCapture
element vertex 757
property float x
property float y
property float z
property uchar red
property uchar green
property uchar blue
end_header
-103.869386017323 521.285176277161 2664.99996185303 169 168 163
-96.2548702955246 519.336819648743 2654.99997138977 159 158 153
-88.8956636190414 518.56142282486 2651.00002288818 155 154 149
-81.4963430166245 517.394363880157 2644.99998092651 159 158 153
-74.1293951869011 516.226589679718 2638.99993896484 177 176 171
-66.6426792740822 513.884723186493 2627.00009346008 192 191 186
-59.221051633358 511.542201042175 2615.00000953674 187 186 181
-51.9442595541477 509.981453418732 2607.00011253357 165 164 159
-44.8484756052494 509.985268115997 2607.00011253357 165 164 159
-37.738062441349 509.792804718018 2605.99994659424 164 163 158
-30.6447297334671 509.795367717743 2605.99994659424 172 171 166
-23.4970785677433 508.623778820038 2599.99990463257 180 179 174
-16.3820143789053 507.45165348053 2594.00010108948 167 166 161
-9.29956045001745 506.278812885284 2588.00005912781 165 164 159
-2.25758273154497 506.866157054901 2591.00008010864 165 164 159
4.79333195835352 506.670415401459 2589.99991416931 165 164 159
11.8433581665158 506.669759750366 2589.99991416931 166 165 160
18.8714619725943 506.081700325012 2586.99989318848 167 166 161
25.9132273495197 506.079971790314 2586.99989318848 167 166 161
32.929427921772 505.686461925507 2585.00003814697 166 165 160
39.9810187518597 505.87922334671 2585.99996566772 166 165 161
47.0742844045162 506.462752819061 2588.99998664856 168 167 163
54.1837364435196 507.045745849609 2592.00000762939 170 169 165
61.2857155501843 507.432520389557 2594.00010108948 174 173 169
68.3983787894249 507.818698883057 2595.99995613098 175 174 170
75.5217149853706 508.204400539398 2598.00004959106 176 175 171
82.6238915324211 508.393943309784 2598.99997711182 174 173 169
89.8693278431892 509.365379810333 2604.00009155273 172 171 167
97.1416607499123 510.33616065979 2608.99996757507 168 167 163
104.400955140591 511.110901832581 2612.99991607666 168 167 163
111.724361777306 512.080669403076 2618.00003051758 167 166 162
118.983827531338 512.658655643463 2621.00005149841 165 164 160
126.451715826988 514.018416404724 2628.00002098084 167 166 162
133.957296609879 515.377640724182 2634.99999046326 170 169 165
141.714781522751 517.518699169159 2645.99990844727 168 169 164
149.362817406654 519.072294235229 2654.00004386902 162 163 158
157.289922237396 521.407663822174 2665.99988937378 159 160 155
165.466964244843 524.329125881195 2680.99999427795 153 154 149
173.725113272667 527.249932289124 2696.00009918213 151 153 148
182.198598980904 530.561149120331 2713.00005912781 155 157 152
191.53268635273 536.022841930389 2740.9999370575 141 143 138
223.925292491913 542.218685150146 2773.00000190735 207 209 204
228.374421596527 534.967422485352 2736.00006103516 168 170 165
234.604045748711 532.212972640991 2721.99988365173 116 118 113
241.112515330315 530.240416526794 2711.99989318848 131 132 127
247.474327683449 528.071999549866 2700.99997520447 131 132 127
254.435986280441 527.271747589111 2697.00002670288 161 162 156
261.278122663498 526.27557516098 2691.99991226196 165 166 160
268.291920423508 525.670051574707 2688.99989128113 156 155 150
275.083690881729 524.673163890839 2684.00001525879 147 146 141
281.742244958878 523.480415344238 2677.99997329712 126 125 120
288.367450237274 522.287309169769 2671.99993133545 126 125 120
295.069962739944 521.28940820694 2667.00005531311 133 132 127
301.857829093933 520.486652851105 2663.00010681152 178 179 174
308.390974998474 519.292533397675 2657.00006484985 198 199 194
315.247118473053 518.684506416321 2654.00004386902 207 208 203
322.45060801506 518.662393093109 2654.00004386902 201 203 198
330.522626638412 520.007789134979 2661.00001335144 198 203 199
-247.389584779739 526.166915893555 2729.00009155273 198 199 194
-239.005729556084 524.063587188721 2717.99993515015 191 192 187
-231.362670660019 523.502290248871 2714.99991416931 167 168 163
-224.065259099007 523.711740970612 2716.00008010864 160 161 156
-217.080846428871 524.692058563232 2720.99995613098 157 158 153
-209.914475679398 525.286257266998 2723.99997711182 160 161 156
-202.879846096039 526.265621185303 2729.00009155273 162 161 156
-195.602521300316 526.666104793549 2730.99994659424 149 148 143
-188.451543450356 527.451694011688 2734.99989509583 147 146 141
-181.278243660927 528.236925601959 2739.00008201599 150 151 145
-174.019172787666 528.828799724579 2742.00010299683 151 152 146
-167.289897799492 531.1558842659 2753.99994850159 151 152 146
-137.82025873661 533.130645751953 2763.99993896484 213 216 209
-129.545569419861 530.054569244385 2747.99990653992 126 129 122
-120.646797120571 523.891568183899 2716.00008010864 134 133 128
-111.7133051157 516.76332950592 2678.99990081787 194 193 188
-103.838346898556 513.878166675568 2664.00003433228 157 156 151
-96.4072644710541 512.921273708344 2658.99991989136 161 160 155
-89.0366211533546 512.15672492981 2654.99997138977 152 151 146
-81.5642178058624 510.61999797821 2647.0000743866 160 159 154
-74.0789100527763 508.696973323822 2637.00008392334 180 179 174
-66.520944237709 505.808711051941 2621.99997901917 192 191 186
-59.1576583683491 503.884375095367 2611.99998855591 186 185 180
-51.9083999097347 502.53826379776 2605.00001907349 165 164 159
-44.8347255587578 502.734899520874 2605.99994659424 166 165 160
-37.7409718930721 502.738058567047 2605.99994659424 164 163 158
-30.6470952928066 502.740681171417 2605.99994659424 174 173 168
-23.4808176755905 501.19948387146 2598.00004959106 181 180 175
-16.3643304258585 499.850511550903 2591.00008010864 165 164 159
-9.29309148341417 498.886942863464 2585.99996566772 164 163 158
-2.25514289923012 499.273270368576 2588.00005912781 166 165 160
4.79185162112117 499.466061592102 2588.99998664856 165 164 159
11.8442736566067 499.658316373825 2589.99991416931 165 164 159
18.8948065042496 499.657094478607 2589.99991416931 166 165 160
25.9152259677649 499.076664447784 2586.99989318848 167 166 161
32.9192318022251 498.495668172836 2584.00011062622 167 166 161
39.9841032922268 498.878717422485 2585.99996566772 165 164 160
47.0415391027927 499.068200588226 2586.99989318848 168 167 163
54.125189781189 499.450206756592 2588.99998664856 170 169 165
61.1722841858864 499.445766210556 2588.99998664856 174 173 169
68.324588239193 500.212430953979 2592.99993515015 174 173 169
75.5565837025642 501.364350318909 2598.99997711182 175 174 170
82.6938301324844 501.744210720062 2601.0000705719 174 173 169
89.9797454476357 502.894997596741 2607.00011253357 172 171 167
97.1490889787674 503.273665904999 2608.99996757507 168 167 163
104.408927261829 504.03755903244 2612.99991607666 168 167 163
111.64752393961 504.608035087585 2615.9999370575 169 168 164
119.129098951817 506.142437458038 2624.00007247925 166 166 164
126.509428024292 507.097482681274 2628.99994850159 165 165 163
133.967459201813 508.24499130249 2634.99999046326 163 163 161
141.511246562004 509.584724903107 2641.99995994568 162 162 160
149.26153421402 511.5025639534 2651.99995040894 163 163 161
157.183766365051 513.805568218231 2664.00003433228 163 163 161
165.417671203613 516.879320144653 2680.0000667572 156 158 155
173.673659563065 519.75953578949 2694.9999332428 160 162 159
182.010740041733 522.639214992523 2710.00003814697 152 154 151
191.546946763992 528.603792190552 2740.9999370575 135 137 134
229.643285274506 530.454576015472 2750.99992752075 212 214 209
235.827907919884 527.54533290863 2736.00006103516 133 135 130
241.930291056633 524.63573217392 2720.99995613098 129 131 126
248.316928744316 522.497117519379 2710.00003814697 129 130 125
255.020439624786 521.129369735718 2703.00006866455 129 130 125
262.267559766769 520.917952060699 2701.99990272522 122 123 118
269.209176301956 520.127773284912 2697.99995422363 109 108 103
275.923252105713 518.951654434204 2691.99991226196 109 108 103
282.183110713959 517.004191875458 2681.99992179871 130 129 124
288.172036409378 514.670968055725 2670.00007629395 141 140 135
294.758796691895 513.493895530701 2664.00003433228 152 151 146
301.312148571014 512.316465377808 2657.99999237061 153 154 149
307.948172092438 511.331617832184 2653.00011634827 159 160 155
314.793825149536 510.731875896454 2650.00009536743 189 190 185
321.865290403366 510.517179965973 2648.9999294281 204 206 201
329.551577568054 511.265635490417 2653.00011634827 206 211 207
338.6549949646 514.133512973785 2667.99998283386 207 212 208
-247.498080134392 518.969774246216 2730.00001907349 198 199 194
-239.110961556435 516.896188259125 2719.00010108948 190 191 186
-231.464728713036 516.342878341675 2716.00008010864 167 168 163
-224.164113402367 516.549527645111 2717.00000762939 159 160 155
-217.176511883736 517.516195774078 2721.99988365173 157 158 153
-210.006952285767 518.102169036865 2724.99990463257 159 160 155
-202.894791960716 518.877804279327 2729.00009155273 163 162 157
-195.688635110855 519.462943077087 2732.00011253357 158 157 152
-188.465505838394 520.047426223755 2734.99989509583 154 153 148
-181.291729211807 520.821809768677 2739.00008201599 148 149 143
-173.968642950058 521.215200424194 2740.9999370575 150 151 145
-167.241662740707 523.509860038757 2753.00002098084 153 154 148
-137.381851673126 523.935735225677 2755.00011444092 212 215 208
-128.94244492054 520.142138004303 2734.99989509583 137 140 133
-120.033986866474 513.875544071198 2701.99990272522 141 140 135
-111.471563577652 508.368909358978 2673.00009727478 176 175 170
-103.76825928688 506.284952163696 2661.99994087219 162 161 156
-96.4871123433113 506.102323532104 2661.00001335144 163 162 157
-89.1440212726593 505.538821220398 2657.99999237061 159 158 153
-81.6628932952881 504.023790359497 2650.00009536743 166 165 160
-74.0845650434494 501.557111740112 2637.00008392334 187 186 181
-66.5260255336761 498.709410429001 2621.99997901917 191 190 185
-59.1848380863667 497.002363204956 2612.99991607666 182 181 176
-51.9522316753864 495.865374803543 2607.00011253357 165 164 159
-44.8209531605244 495.48864364624 2605.00001907349 167 166 161
-37.6859307289124 494.921177625656 2601.99999809265 166 165 160
-30.5671188980341 494.353145360947 2598.99997711182 174 173 168
-23.4555006027222 493.594378232956 2595.00002861023 180 179 174
-16.3529552519321 492.454648017883 2588.99998664856 163 162 157
-9.28661786019802 491.504579782486 2584.00011062622 162 161 156
-2.25182995200157 491.504997014999 2584.00011062622 165 164 159
4.786666482687 491.885364055634 2585.99996566772 164 163 158
11.849757283926 492.8357899189 2591.00008010864 163 162 157
18.9035553485155 492.834627628326 2591.00008010864 164 163 158
25.9372517466545 492.452502250671 2588.99998664856 166 165 160
32.9217538237572 491.499155759811 2584.00011062622 166 165 160
39.9562381207943 491.496384143829 2584.00011062622 164 163 159
46.9905994832516 491.493105888367 2584.00011062622 166 165 161
54.0247969329357 491.489261388779 2584.00011062622 168 167 163
61.082448810339 491.675049066544 2585.00003814697 172 171 167
68.2770982384682 492.811292409897 2591.00008010864 173 172 168
75.5623504519463 494.327425956726 2598.99997711182 174 173 169
82.7001333236694 494.701832532883 2601.0000705719 175 174 170
90.0211110711098 496.026605367661 2608.00004005432 174 173 169
97.1564725041389 496.209710836411 2608.99996757507 169 168 164
104.416847229004 496.96284532547 2612.99991607666 167 166 162
111.613295972347 497.335076332092 2615.00000953674 168 167 163
119.228899478912 499.418377876282 2625.99992752075 166 166 164
126.61524116993 500.360071659088 2631.00004196167 166 166 164
134.130090475082 501.681506633759 2638.00001144409 165 165 163
141.468301415443 502.241671085358 2641.00003242493 161 161 159
149.160161614418 503.942370414734 2650.00009536743 151 153 150
157.077506184578 506.212890148163 2661.99994087219 149 151 148
165.306553244591 509.243428707123 2677.99997329712 141 143 140
173.751071095467 512.653708457947 2696.00009918213 141 143 140
182.158574461937 515.682876110077 2711.99989318848 133 135 132
191.840663552284 521.943867206573 2744.99988555908 152 154 151
236.189842224121 520.899415016174 2740.00000953674 184 186 181
242.74805188179 518.981099128723 2730.00001907349 127 129 124
249.342828989029 517.252445220947 2720.99995613098 126 127 122
255.982309579849 515.713632106781 2713.00005912781 107 108 103
262.965857982636 514.934718608856 2709.00011062622 107 108 103
269.62748169899 513.585209846497 2701.99990272522 125 124 119
276.147842407227 512.045323848724 2694.00000572205 139 138 133
282.308280467987 509.934902191162 2683.00008773804 156 155 150
287.976384162903 507.063984870911 2667.99998283386 157 156 151
294.336795806885 505.523264408112 2660.00008583069 159 158 153
300.766289234161 504.172325134277 2653.00011634827 157 158 153
307.621270418167 503.581166267395 2650.00009536743 157 158 153
314.577907323837 503.179609775543 2648.00000190735 159 160 155
321.401327848434 502.587795257568 2644.99998092651 184 186 181
328.828692436218 502.9456615448 2647.0000743866 212 217 213
337.535470724106 505.203068256378 2658.99991989136 215 220 216
-247.153177857399 510.828971862793 2726.0000705719 197 198 193
-238.952279090881 509.159803390503 2717.00000762939 189 190 185
-231.566667556763 509.176790714264 2717.00000762939 166 167 162
-224.345371127129 509.567975997925 2719.00010108948 159 160 155
-217.272117733955 510.333597660065 2723.00004959106 157 158 153
-209.945201873779 510.536551475525 2723.99997711182 158 159 154
-202.835291624069 511.301219463348 2727.9999256134 162 161 156
-195.702999830246 512.065589427948 2732.00011253357 161 160 155
-188.479378819466 512.641906738281 2734.99989509583 156 155 150
-181.172713637352 513.030409812927 2736.99998855591 146 147 141
-173.981532454491 513.793230056763 2740.9999370575 145 146 140
-167.254060506821 516.055226325989 2753.00002098084 147 148 142
-136.893421411514 514.600694179535 2744.99988555908 209 212 205
-128.244891762733 509.923875331879 2720.00002861023 143 146 139
-119.598723948002 504.68385219574 2691.99991226196 152 151 146
-111.271418631077 500.193059444427 2667.99998283386 163 162 157
-103.737100958824 498.88876080513 2661.00001335144 164 163 158
-96.4944064617157 498.896300792694 2661.00001335144 161 160 155
-89.1507565975189 498.340845108032 2657.99999237061 161 160 155
-81.6998854279518 497.034877538681 2651.00002288818 171 170 165
-74.1463676095009 494.790822267532 2638.99993896484 190 189 184
-66.5818229317665 491.98380112648 2624.00007247925 190 189 184
-59.2572838068008 490.488559007645 2615.9999370575 181 180 175
-51.9761145114899 488.992810249329 2608.00004005432 166 165 160
-44.8243618011475 488.433957099915 2605.00001907349 166 165 160
-37.6453436911106 487.312108278275 2598.99997711182 170 169 164
-30.510637909174 486.377209424973 2594.00010108948 174 173 168
-23.4301686286926 486.004263162613 2592.00000762939 180 179 174
-16.3541994988918 485.443234443665 2588.99998664856 166 165 160
-9.2909187078476 484.694212675095 2585.00003814697 164 163 158
-2.25113006308675 484.319657087326 2582.99994468689 167 166 161
4.78332908824086 484.5070540905 2584.00011062622 166 165 160
11.8415122851729 485.443949699402 2588.99998664856 165 164 159
18.8976973295212 485.63027381897 2589.99991416931 166 165 160
25.9191878139973 485.066026449203 2586.99989318848 167 166 161
32.9115204513073 484.31384563446 2582.99994468689 166 165 160
39.9592816829681 484.498590230942 2584.00011062622 165 164 160
46.9759739935398 484.307706356049 2582.99994468689 167 166 162
54.0289022028446 484.491467475891 2584.00011062622 169 168 164
61.1107125878334 484.862059354782 2585.99996566772 173 172 168
68.3349892497063 486.169636249542 2592.99993515015 174 173 169
75.5390077829361 487.101703882217 2598.00004959106 179 178 174
82.6745852828026 487.470686435699 2599.99990463257 180 179 175
89.9588689208031 488.589078187943 2605.99994659424 180 179 175
97.1638038754463 489.144504070282 2608.99996757507 173 172 168
104.424715042114 489.886879920959 2612.99991607666 169 168 164
111.57900840044 490.066289901733 2614.00008201599 169 168 164
119.147047400475 491.932362318039 2624.00007247925 169 169 167
126.528456807137 492.860555648804 2628.99994850159 173 173 171
134.140104055405 494.538009166718 2638.00001144409 173 173 171
141.532450914383 495.277643203735 2641.99995994568 170 170 168
149.340122938156 497.328877449036 2653.00011634827 157 159 156
157.325208187103 499.754399061203 2665.99988937378 153 155 152
165.380552411079 502.179384231567 2678.99990081787 136 138 135
173.506081104279 504.603743553162 2691.99991226196 139 141 138
182.104840874672 508.15212726593 2710.99996566772 142 144 141
237.499967217445 516.291975975037 2755.00011444092 213 218 214
243.299067020416 512.714147567749 2736.00006103516 112 114 109
250.277131795883 511.759579181671 2730.99994659424 130 131 126
256.661057472229 509.680211544037 2720.00002861023 150 151 146
263.664066791534 508.912265300751 2716.00008010864 152 153 148
269.945949316025 506.832242012024 2704.99992370605 142 141 137
276.474863290787 505.31417131424 2697.00002670288 142 141 136
282.433301210403 502.858996391296 2684.00001525879 152 151 146
288.320332765579 500.403463840485 2671.0000038147 158 157 152
294.246584177017 498.135089874268 2658.99991989136 162 161 156
300.673693418503 496.803194284439 2651.99995040894 155 156 151
307.41024017334 496.032983064651 2648.00000190735 154 155 150
314.00540471077 495.075106620789 2642.99988746643 167 168 163
320.694088935852 494.304269552231 2638.99993896484 165 167 162
327.857106924057 494.282335042953 2638.99993896484 183 188 184
336.415678262711 496.320158243179 2650.00009536743 194 199 195
-256.727814674377 507.67707824707 2749.00007247925 210 212 207
-247.261449694633 503.632009029388 2726.99999809265 189 190 185
-238.969355821609 501.802384853363 2717.00000762939 182 183 178
-231.583297252655 501.81919336319 2717.00000762939 164 165 160
-224.196493625641 501.835465431213 2717.00000762939 159 160 155
-217.287808656693 502.959609031677 2723.00004959106 157 158 153
-209.883362054825 502.975046634674 2723.00004959106 156 157 152
-202.775672078133 503.728747367859 2726.99999809265 155 154 149
-195.573970675468 504.297316074371 2730.00001907349 155 154 149
-188.562095165253 505.419731140137 2736.00006103516 156 155 150
-181.318402290344 505.987405776978 2739.00008201599 154 155 149
-174.248233437538 507.108807563782 2744.99988555908 148 149 143
-167.509406805038 509.338200092316 2756.99996948242 144 145 139
-160.066351294518 509.535014629364 2757.99989700317 169 170 164
-136.654213070869 506.242275238037 2740.00000953674 217 220 213
-127.877220511436 501.07878446579 2711.99989318848 148 151 144
-119.385503232479 496.468842029572 2687.00003623962 180 181 175
-111.279733479023 492.966800928116 2667.99998283386 166 165 160
-103.78385335207 491.866171360016 2661.99994087219 155 154 149
-96.392847597599 491.134583950043 2657.99999237061 163 162 157
-89.0903547406197 490.771919488907 2655.99989891052 159 158 153
-81.6443786025047 489.484846591949 2648.9999294281 176 175 170
-74.2362514138222 488.197267055511 2641.99995994568 193 192 187
-66.7137205600739 485.800325870514 2628.99994850159 188 187 182
-59.375025331974 484.326779842377 2621.00005149841 181 180 175
-52.0597621798515 482.667863368988 2611.99998855591 166 165 160
-44.7933301329613 481.008440256119 2602.9999256134 164 163 158
-37.5612750649452 479.163587093353 2592.99993515015 176 175 170
-30.4188411682844 477.872610092163 2585.99996566772 169 168 163
-23.4048217535019 478.429049253464 2588.99998664856 175 174 169
-16.349121928215 478.245735168457 2588.00005912781 167 166 161
-9.29881073534489 478.061884641647 2586.99989318848 165 164 159
-2.25304393097758 477.692782878876 2585.00003814697 166 165 160
4.78739337995648 477.877467870712 2585.99996566772 165 164 159
11.8424091488123 478.431224822998 2588.99998664856 165 164 159
18.8845358788967 478.245288133621 2588.00005912781 166 165 160
25.9111300110817 477.873980998993 2585.99996566772 163 162 157
32.9267494380474 477.502197027206 2584.00011062622 161 160 155
39.9777628481388 477.684199810028 2585.00003814697 163 162 158
46.9977147877216 477.496176958084 2584.00011062622 167 166 162
54.0747977793217 477.861911058426 2585.99996566772 169 168 164
61.1625947058201 478.227198123932 2588.00005912781 173 172 168
68.3401301503181 479.146242141724 2592.99993515015 173 172 168
75.3992944955826 479.140877723694 2592.99993515015 178 177 173
82.4899971485138 479.319781064987 2594.00010108948 181 180 176
89.7584855556488 480.421930551529 2599.99990463257 183 182 178
97.059354186058 481.523633003235 2605.99994659424 178 177 173
104.43253070116 482.809543609619 2612.99991607666 175 174 170
111.587330698967 482.986241579056 2614.00008201599 174 173 169
119.019687175751 484.271049499512 2621.00005149841 175 175 173
126.489758491516 485.555291175842 2628.00002098084 176 176 174
134.200930595398 487.577974796295 2638.99993896484 174 174 172
141.864374279976 489.23060297966 2648.00000190735 169 169 167
149.576365947723 490.8826649189 2657.00006484985 154 156 153
157.395839691162 492.718815803528 2667.00005531311 149 151 148
165.330976247787 494.73911523819 2677.99997329712 142 144 141
173.454359173775 497.128367424011 2690.99998474121 146 148 145
182.319700717926 501.364290714264 2713.99998664856 155 157 154
243.761077523232 506.228744983673 2740.9999370575 148 150 147
250.294893980026 504.364311695099 2730.99994659424 141 142 137
256.962358951569 502.869009971619 2723.00004959106 145 146 141
263.779729604721 501.742601394653 2717.00000762939 135 136 131
270.064741373062 499.692559242249 2706.00008964539 133 132 128
276.289165019989 497.64221906662 2694.9999332428 144 143 139
282.242476940155 495.222330093384 2681.99992179871 159 158 153
288.340330123901 493.171513080597 2671.0000038147 154 153 148
294.266909360886 490.935802459717 2658.99991989136 155 154 149
300.69437623024 489.622950553894 2651.99995040894 162 163 158
307.431250810623 488.863706588745 2648.00000190735 167 168 163
314.026772975922 487.919509410858 2642.99988746643 163 164 159
320.958852767944 487.528830766678 2641.00003242493 177 179 174
328.127682209015 487.50701546669 2641.00003242493 182 187 183
336.311250925064 488.961428403854 2648.9999294281 190 195 191
346.482396125793 493.184059858322 2671.99993133545 209 214 210
-260.014742612839 506.600797176361 2783.99991989136 210 212 207
-247.36961722374 496.428251266479 2727.9999256134 192 193 188
-238.986328244209 494.443625211716 2717.00000762939 185 186 181
-231.599763035774 494.460314512253 2717.00000762939 165 166 161
-224.37758743763 494.840502738953 2719.00010108948 160 159 155
-217.462971806526 495.948195457459 2724.99990463257 157 156 152
-209.898427128792 495.599508285522 2723.00004959106 161 160 156
-202.790305018425 496.342301368713 2726.99999809265 163 162 158
-195.659756660461 497.084707021713 2730.99994659424 151 150 146
-188.782557845116 498.554766178131 2739.00008201599 151 150 146
-181.530207395554 499.114245176315 2742.00010299683 149 150 145
-174.578368663788 500.583410263062 2750 145 146 141
-167.643204331398 502.234160900116 2759.0000629425 143 144 139
-160.1941883564 502.42817401886 2759.99999046326 162 163 158
-136.065766215324 496.63519859314 2727.9999256134 218 220 215
-127.226501703262 491.183340549469 2697.99995422363 146 148 143
-119.261048734188 488.643616437912 2684.00001525879 186 187 181
-111.287988722324 485.739201307297 2667.99998283386 158 159 153
-103.908531367779 485.200941562653 2664.99996185303 163 164 158
-96.3274762034416 483.569800853729 2655.99989891052 156 157 151
-88.9963656663895 483.030438423157 2653.00011634827 167 168 162
-81.5271809697151 481.580227613449 2644.99998092651 185 186 180
-74.1574913263321 480.493545532227 2638.99993896484 190 191 185
-66.6933283209801 478.495985269547 2628.00002098084 187 188 182
-59.3568123877048 477.044075727463 2619.99988555908 182 183 177
-52.043728530407 475.409537553787 2611.00006103516 163 164 158
-44.7966866195202 473.95646572113 2602.9999256134 167 168 162
-37.5930704176426 472.502917051315 2595.00002861023 173 172 167
-30.4799415171146 471.777141094208 2591.00008010864 172 171 166
-23.4246607869864 471.779137849808 2591.00008010864 173 172 167
-16.3756217807531 471.962720155716 2592.00000762939 167 166 161
-9.3102939426899 471.599489450455 2589.99991416931 164 163 158
-2.2558281198144 471.235811710358 2588.00005912781 162 161 156
4.78775333613157 470.87150812149 2585.99996566772 163 162 157
11.8295745924115 470.870912075043 2585.99996566772 165 164 159
18.8494641333818 470.323443412781 2582.99994468689 165 164 159
25.8830133825541 470.321834087372 2582.99994468689 165 164 159
32.9164750874043 470.319598913193 2582.99994468689 165 164 159
39.996225386858 470.863103866577 2585.99996566772 165 166 160
47.0194220542908 470.677822828293 2585.00003814697 164 165 159
54.0997572243214 471.038162708282 2586.99989318848 165 166 160
61.1671656370163 471.215963363647 2588.00005912781 169 170 164
68.3188885450363 471.939474344254 2592.00000762939 172 173 167
75.3467679023743 471.75207734108 2591.00008010864 170 171 166
82.4961438775063 472.292393445969 2594.00010108948 169 170 165
89.7306501865387 473.196297883987 2598.99997711182 169 170 165
97.1038341522217 474.646002054214 2607.00011253357 174 175 170
104.440279304981 475.730836391449 2612.99991607666 175 176 171
111.638300120831 476.086974143982 2615.00000953674 173 174 169
119.028508663177 477.170884609222 2621.00005149841 176 176 174
126.547232270241 478.618264198303 2628.99994850159 159 159 157
134.261682629585 480.61129450798 2640.00010490417 152 152 150
141.928389668465 482.239484786987 2648.9999294281 149 149 147
149.699941277504 484.049320220947 2658.99991989136 150 150 148
157.407388091087 485.494434833527 2667.00005531311 150 150 148
165.28132557869 487.302958965302 2677.00004577637 157 159 156
173.338070511818 489.475011825562 2688.99989128113 162 164 161
183.273524045944 496.561139822006 2727.9999256134 156 158 155
244.311958551407 499.896883964539 2746.99997901917 211 213 210
250.495910644531 497.33179807663 2733.00004005432 213 213 211
256.886065006256 495.312303304672 2721.99988365173 133 134 129
263.895332813263 494.566261768341 2717.99993515015 139 140 135
270.083606243134 492.364227771759 2706.00008964539 147 148 143
276.410907506943 490.525722503662 2696.00009918213 144 145 140
282.15679526329 487.777322530746 2680.99999427795 155 156 150
288.360178470612 485.938310623169 2671.0000038147 155 156 148
294.39777135849 483.91717672348 2660.00008583069 158 159 153
300.714880228043 482.441544532776 2651.99995040894 161 162 156
307.219922542572 481.329411268234 2645.99990844727 163 164 158
313.929170370102 480.5808365345 2641.99995994568 164 165 159
320.858895778656 480.195730924606 2640.00010490417 174 177 170
327.901095151901 479.992151260376 2638.99993896484 185 187 182
335.444867610931 480.515778064728 2641.99995994568 189 191 186
344.560146331787 483.221381902695 2657.00006484985 205 207 202
-257.511079311371 494.219541549683 2756.99996948242 209 211 206
-247.56832420826 489.397019147873 2730.00001907349 188 189 184
-239.179089665413 487.442165613174 2719.00010108948 184 185 180
-231.616154313087 487.100124359131 2717.00000762939 167 168 163
-224.476024508476 487.654089927673 2720.00002861023 161 160 156
-217.558264732361 488.745391368866 2726.0000705719 158 157 153
-210.067585110664 488.581299781799 2724.99990463257 157 156 152
-202.879190444946 489.133924245834 2727.9999256134 158 157 153
-195.74548304081 489.865392446518 2732.00011253357 155 154 150
-189.002946019173 491.672277450562 2742.00010299683 149 148 144
-181.808143854141 492.402851581573 2746.00005149841 136 137 132
-174.654498696327 493.312239646912 2750.99992752075 139 140 135
-167.533829808235 494.400501251221 2756.99996948242 145 146 141
-159.625381231308 493.157058954239 2750 157 158 153
-135.776445269585 488.167852163315 2721.99988365173 213 215 210
-127.094343304634 483.335167169571 2694.9999332428 172 174 169
-119.136489927769 480.833321809769 2680.99999427795 175 176 170
-111.421324312687 479.048281908035 2671.0000038147 157 158 152
-103.994183242321 478.338748216629 2667.00005531311 158 159 153
-96.3345915079117 476.373195648193 2655.99989891052 166 167 161
-88.9694094657898 475.662648677826 2651.99995040894 175 176 170
-81.5332233905792 474.413365125656 2644.99998092651 188 189 183
-74.0786790847778 472.804814577103 2635.99991798401 191 192 186
-66.5967538952827 470.657616853714 2624.00007247925 186 187 181
-59.2932514846325 469.406753778458 2617.00010299683 182 183 177
-52.0276613533497 468.155264854431 2609.99989509583 163 164 158
-44.800017029047 466.903239488602 2602.9999256134 166 167 161
-37.6393310725689 466.009438037872 2598.00004959106 172 171 166
-30.5175092071295 465.294510126114 2594.00010108948 171 170 165
-23.4535317867994 465.296506881714 2594.00010108948 172 171 166
-16.3768418133259 464.939206838608 2592.00000762939 166 165 160
-9.314582683146 464.760810136795 2591.00008010864 163 162 157
-2.25599622353911 464.223116636276 2588.00005912781 161 160 155
4.78811003267765 463.864237070084 2585.99996566772 162 161 156
11.8350312113762 464.042961597443 2586.99989318848 163 162 157
18.8508685678244 463.324338197708 2582.99994468689 164 163 158
25.9049832820892 463.681489229202 2585.00003814697 164 163 158
32.9571627080441 463.858664035797 2585.99996566772 164 163 158
39.9992093443871 463.855981826782 2585.99996566772 166 167 161
47.0047332346439 463.494002819061 2584.00011062622 165 166 160
54.041039198637 463.49024772644 2584.00011062622 166 167 161
61.1244328320026 463.84471654892 2585.99996566772 170 171 165
68.2975947856903 464.736759662628 2591.00008010864 173 174 168
75.3523483872414 464.731484651566 2591.00008010864 173 174 169
82.534059882164 465.443104505539 2595.00002861023 170 171 166
89.8063406348228 466.512888669968 2601.0000705719 164 165 160
97.1482247114182 467.761516571045 2608.00004005432 159 160 155
104.447983205318 468.650847673416 2612.99991607666 162 163 158
111.73190176487 469.360381364822 2617.00010299683 171 172 167
119.264326989651 470.966041088104 2625.99992752075 165 165 163
126.893475651741 472.750514745712 2635.99991798401 154 154 152
134.576663374901 474.534392356873 2645.99990844727 150 150 148
142.045930027962 475.421041250229 2651.00002288818 151 151 149
149.654552340508 476.665794849396 2657.99999237061 158 158 156
157.359778881073 478.089243173599 2665.99988937378 161 161 159
165.293335914612 480.05023598671 2677.00004577637 162 164 161
173.608511686325 482.907146215439 2693.00007820129 161 163 160
251.06343626976 491.004168987274 2739.00008201599 216 216 214
257.4702501297 489.014506340027 2727.9999256134 131 132 127
264.399170875549 488.100200891495 2723.00004959106 136 137 132
270.401775836945 485.572278499603 2709.00011062622 131 132 127
276.019811630249 482.506334781647 2691.99991226196 137 138 133
281.64991736412 479.61950302124 2676.00011825562 152 153 147
287.732094526291 477.628529071808 2664.99996185303 153 154 146
293.975055217743 475.995808839798 2655.99989891052 156 157 151
300.508469343185 474.900454282761 2650.00009536743 159 160 154
307.124525308609 473.983973264694 2644.99998092651 162 163 157
313.712596893311 473.067194223404 2640.00010490417 167 168 162
320.637196302414 472.687631845474 2638.00001144409 167 170 163
327.79860496521 472.666144371033 2638.00001144409 183 185 180
334.959149360657 472.6442694664 2638.00001144409 192 194 189
343.545258045197 474.592804908752 2648.9999294281 203 205 200
-257.342129945755 486.396998167038 2755.00011444092 208 210 205
-247.494876384735 481.824040412903 2729.00009155273 188 189 184
-239.107802510262 479.898780584335 2717.99993515015 184 185 180
-231.632381677628 479.738622903824 2717.00000762939 165 166 161
-224.491819739342 480.284303426743 2720.00002861023 160 159 155
-217.413991689682 481.00608587265 2723.99997711182 158 157 153
-210.005387663841 481.021195650101 2723.99997711182 157 156 152
-202.819257974625 481.565564870834 2726.99999809265 158 157 153
-195.687755942345 482.285976409912 2730.99994659424 157 156 152
-189.016446471214 484.24232006073 2742.00010299683 153 152 148
-181.887373328209 485.138475894928 2746.99997901917 137 138 133
-174.794018268585 486.210882663727 2753.00002098084 139 140 135
-167.667433619499 487.28284239769 2759.0000629425 145 146 141
-160.797894001007 489.237427711487 2769.99998092651 152 153 148
-135.586768388748 480.084866285324 2717.99993515015 208 210 205
-126.9621104002 475.501924753189 2691.99991226196 187 189 184
-119.145184755325 473.56790304184 2680.99999427795 167 168 162
-111.471183598042 471.986502408981 2671.99993133545 157 158 152
-104.079782962799 471.464395523071 2668.99991035461 156 157 151
-96.4141935110092 469.528585672379 2657.99999237061 172 173 167
-89.0094861388206 468.652158975601 2653.00011634827 179 180 174
-81.5083906054497 467.068523168564 2644.00005340576 189 190 184
-74.056014418602 465.484291315079 2634.99999046326 190 191 185
-66.5509030222893 463.192939758301 2621.99997901917 183 184 178
-59.1843202710152 461.430937051773 2611.99998855591 180 181 175
-51.9716963171959 460.551798343658 2607.00011253357 164 165 159
-44.8033288121223 459.848672151566 2602.9999256134 166 167 161
-37.685576826334 459.498375654221 2601.0000705719 174 173 168
-30.5668246001005 458.970904350281 2598.00004959106 171 170 165
-23.4914347529411 458.972901105881 2598.00004959106 170 169 164
-16.4033267647028 458.621025085449 2595.99995613098 166 165 160
-9.32246167212725 458.091974258423 2592.99993515015 163 162 157
-2.25790659897029 457.562386989594 2589.99991416931 160 159 154
4.788463935256 456.855654716492 2585.99996566772 160 159 154
11.8359057232738 457.031697034836 2586.99989318848 160 159 154
18.8741590827703 456.853896379471 2585.99996566772 160 159 154
25.9269420057535 457.028925418854 2586.99989318848 162 161 156
32.9468511044979 456.673473119736 2585.00003814697 162 161 156
39.9866886436939 456.670731306076 2585.00003814697 163 164 158
47.0082052052021 456.490963697433 2584.00011062622 163 164 158
54.0659353137016 456.663846969604 2585.00003814697 164 165 159
61.1525699496269 457.012891769409 2586.99989318848 169 170 164
68.2498961687088 457.3615193367 2588.99998664856 171 172 166
75.3578841686249 457.709550857544 2591.00008010864 180 181 176
82.5719237327576 458.587020635605 2595.99995613098 183 184 179
89.8129269480705 459.46404337883 2601.0000705719 185 186 181
97.1926003694534 460.870325565338 2608.99996757507 176 177 172
104.495592415333 461.746245622635 2614.00008201599 166 167 162
111.953549087048 463.15148472786 2621.99997901917 154 155 150
119.363866746426 464.202970266342 2628.00002098084 162 162 160
126.854568719864 465.430468320847 2634.99999046326 171 171 169
134.332120418549 466.480821371078 2641.00003242493 173 173 171
141.734689474106 467.177331447601 2644.99998092651 171 171 169
149.271205067635 468.226671218872 2651.00002288818 167 167 165
156.957939267159 469.628572463989 2658.99991989136 166 166 164
165.181711316109 472.442895174026 2674.99995231628 155 157 154
173.685431480408 475.786447525024 2694.00000572205 148 150 147
183.770209550858 483.014523983002 2734.99989509583 140 142 139
258.526384830475 483.565807342529 2739.00008201599 208 209 204
265.097141265869 481.958836317062 2730.00001907349 120 121 116
270.719766616821 478.762716054916 2711.99989318848 149 150 145
276.038706302643 475.213468074799 2691.99991226196 148 149 144
281.563848257065 472.193598747253 2674.99995231628 146 147 141
287.535697221756 470.056116580963 2663.00010681152 150 151 145
293.884247541428 468.624442815781 2654.99997138977 157 158 152
300.415247678757 467.545479536057 2648.9999294281 159 160 154
306.796699762344 466.289699077606 2641.99995994568 167 168 162
313.139289617538 465.033710002899 2634.99999046326 171 172 166
319.929122924805 464.483290910721 2631.99996948242 183 185 180
327.074587345123 464.462012052536 2631.99996948242 180 182 177
334.346204996109 464.61683511734 2632.99989700317 185 187 182
342.789471149445 466.359347105026 2642.99988746643 205 207 202
-259.414970874786 482.756167650223 2776.99995040894 208 210 205
-247.330591082573 474.081337451935 2726.99999809265 191 192 187
-239.036440849304 472.359627485275 2717.00000762939 187 188 183
-231.392696499825 471.854239702225 2713.99998664856 163 164 159
-224.177330732346 472.217828035355 2716.00008010864 157 156 152
-217.030137777328 472.754806280136 2719.00010108948 159 158 154
-209.634646773338 472.76970744133 2719.00010108948 159 158 154
-202.536001801491 473.479628562927 2723.00004959106 157 156 152
-195.629924535751 474.710792303085 2730.00001907349 156 155 151
-189.029827713966 476.811051368713 2742.00010299683 154 153 149
-182.032719254494 478.041380643845 2749.00007247925 140 141 136
-174.869954586029 478.923499584198 2753.99994850159 136 137 132
-167.618632316589 479.631274938583 2757.99989700317 142 143 138
-160.693272948265 481.382012367249 2767.99988746643 149 150 145
-154.653668403625 486.088931560516 2795.00007629395 219 220 215
-144.520744681358 477.751612663269 2746.99997901917 213 215 210
-135.247319936752 471.50057554245 2710.99996566772 197 199 194
-126.924112439156 468.031495809555 2690.99998474121 187 189 184
-119.109362363815 466.127187013626 2680.0000667572 162 163 157
-111.562706530094 465.091913938522 2674.00002479553 157 158 152
-104.126334190369 464.403986930847 2670.00007629395 157 158 152
-96.5300276875496 462.845772504807 2661.00001335144 178 179 173
-89.0830457210541 461.808830499649 2654.99997138977 181 182 176
-81.4834833145142 459.727734327316 2642.99988746643 190 191 185
-73.9771053195 457.820057868958 2631.99996948242 190 191 185
-66.454216837883 455.389887094498 2618.00003051758 181 182 176
-59.1206699609756 453.828930854797 2608.99996757507 180 181 175
-51.9356206059456 453.137189149857 2605.00001907349 165 166 160
-44.7893887758255 452.618837356567 2601.99999809265 167 168 162
-37.6738421618938 452.273935079575 2599.99990463257 174 173 168
-30.5690616369247 451.928526163101 2598.00004959106 171 170 165
-23.4660264104605 451.40865445137 2595.00002861023 168 167 162
-16.3855701684952 451.062202453613 2592.99993515015 165 164 159
-9.319550357759 450.889229774475 2592.00000762939 163 162 157
-2.25807190872729 450.541645288467 2589.99991416931 160 159 154
4.79622231796384 450.541615486145 2589.99991416931 160 159 154
11.8459239602089 450.367003679276 2588.99998664856 158 157 152
18.9047381281853 450.539827346802 2589.99991416931 159 158 153
25.9488876909018 450.364291667938 2588.99998664856 161 160 155
32.9747535288334 450.014233589172 2586.99989318848 162 161 156
39.9896167218685 449.663698673248 2585.00003814697 162 163 157
47.029834240675 449.660539627075 2585.00003814697 163 164 158
54.0908016264439 449.830770492554 2585.99996566772 164 165 159
61.2043254077435 450.348436832428 2588.99998664856 168 169 163
68.3339685201645 450.865596532822 2592.00000762939 170 171 165
75.421541929245 451.034247875214 2592.99993515015 172 173 168
82.5779363512993 451.550394296646 2595.99995613098 176 177 172
89.7849127650261 452.239841222763 2599.99990463257 183 184 179
97.1251502633095 453.450739383698 2607.00011253357 191 192 187
104.463182389736 454.48699593544 2612.99991607666 188 189 184
111.918956041336 455.870717763901 2621.00005149841 174 175 170
119.327068328857 456.905961036682 2627.00009346008 163 163 161
126.767411828041 457.940608263016 2632.99989700317 173 173 171
134.240046143532 458.974778652191 2638.99993896484 175 175 173
141.691282391548 459.834486246109 2644.00005340576 174 174 172
149.112954735756 460.519760847092 2648.00000190735 170 170 168
156.792059540749 461.900174617767 2655.99989891052 170 170 168
164.946481585503 464.497298002243 2671.0000038147 147 149 146
173.439875245094 467.789441347122 2690.00005722046 149 151 148
182.842493057251 473.16762804985 2720.99995613098 149 151 148
260.054439306259 478.925317525864 2755.00011444092 213 214 209
264.823943376541 474.039971828461 2726.99999809265 165 166 161
270.43879032135 470.892906188965 2709.00011062622 141 142 137
275.749772787094 467.397898435593 2688.99989128113 139 140 135
281.372368335724 464.598149061203 2673.00009727478 143 144 138
287.231117486954 462.319523096085 2660.00008583069 148 149 143
293.682545423508 461.083501577377 2653.00011634827 156 157 151
300.208449363709 460.020929574966 2647.0000743866 157 158 152
306.700944900513 458.958119153976 2641.00003242493 162 163 157
312.803417444229 457.373678684235 2631.99996948242 165 166 160
319.707095623016 457.005441188812 2630.00011444092 179 181 176
326.847463846207 456.984341144562 2630.00011444092 192 194 189
334.240913391113 457.310289144516 2631.99996948242 189 191 186
342.422544956207 458.678483963013 2640.00010490417 201 203 198
-247.801035642624 467.546164989471 2732.00011253357 190 191 186
-239.228844642639 465.337932109833 2719.00010108948 188 189 184
-231.323406100273 464.327216148376 2713.00005912781 164 165 160
-224.027723073959 464.513957500458 2713.99998664856 159 158 154
-216.725870966911 464.700311422348 2714.99991416931 161 160 156
-209.49499309063 465.057373046875 2717.00000762939 158 157 153
-202.401384711266 465.756386518478 2720.99995613098 158 157 153
-195.500299334526 466.968446969986 2727.9999256134 155 154 150
-189.04310464859 469.378381967545 2742.00010299683 152 151 147
-182.177975773811 470.931977033615 2750.99992752075 135 136 131
-175.072804093361 471.971660852432 2756.99996948242 132 133 128
-167.691275477409 472.326099872589 2759.0000629425 132 133 128
-160.530522465706 473.364919424057 2765.00010490417 123 124 119
-152.727887034416 472.519963979721 2759.99999046326 215 216 211
-143.689230084419 467.565536499023 2730.99994659424 210 212 207
-135.057419538498 463.46640586853 2707.00001716614 180 182 177
-126.838847994804 460.393875837326 2688.99989128113 180 182 177
-119.028985500336 458.519279956818 2677.99997329712 160 161 155
-111.445538699627 457.329005002975 2671.0000038147 159 160 154
-104.055806994438 456.822991371155 2667.99998283386 165 166 160
-96.4644253253937 455.28918504715 2658.99991989136 184 185 179
-89.0223681926727 454.268515110016 2653.00011634827 178 179 173
-81.3968777656555 452.048599720001 2640.00010490417 191 192 186
-73.8981142640114 450.170606374741 2628.99994850159 188 189 183
-66.4590299129486 448.292136192322 2618.00003051758 177 178 172
-59.1476112604141 446.92674279213 2609.99989509583 179 180 174
-51.939383149147 446.074575185776 2605.00001907349 167 168 162
-44.7926409542561 445.564359426498 2601.99999809265 169 170 164
-37.6765765249729 445.224791765213 2599.99990463257 173 172 167
-30.5595137178898 444.713562726974 2596.99988365173 170 169 164
-23.4586894512177 444.201827049255 2594.00010108948 164 163 158
-16.3994021713734 444.37450170517 2595.00002861023 163 162 157
-9.33101493865252 444.375455379486 2595.00002861023 161 160 155
-2.26172409020364 444.20462846756 2594.00010108948 159 158 153
4.8021269030869 444.033265113831 2592.99993515015 158 157 152
11.8650877848268 444.032609462738 2592.99993515015 155 154 149
18.9353115856647 444.202810525894 2594.00010108948 155 154 149
25.9607955813408 443.516224622726 2589.99991416931 159 158 153
32.9771488904953 443.000346422195 2586.99989318848 161 160 155
39.9770475924015 442.483991384506 2584.00011062622 162 163 157
47.0332428812981 442.65204668045 2585.00003814697 163 164 158
54.0947243571281 442.819654941559 2585.99996566772 165 166 160
61.1851066350937 443.158000707626 2588.00005912781 169 170 164
68.3125481009483 443.667054176331 2591.00008010864 170 171 165
75.3688216209412 443.661898374558 2591.00008010864 175 176 171
82.5202688574791 444.169878959656 2594.00010108948 174 175 170
89.687779545784 444.677412509918 2596.99988365173 173 174 169
97.0576107501984 446.040511131287 2605.00001907349 178 179 174
104.390732944012 447.060644626617 2611.00006103516 182 183 178
111.798860132694 448.251456022263 2618.00003051758 187 188 183
119.108475744724 448.928117752075 2621.99997901917 194 194 192
126.53574347496 449.946641921997 2628.00002098084 189 189 187
133.9952647686 450.964659452438 2634.0000629425 186 186 184
141.540601849556 452.153325080872 2641.00003242493 182 182 180
149.067237973213 453.170269727707 2647.0000743866 174 174 172
156.744137406349 454.529047012329 2654.99997138977 171 171 169
164.896383881569 457.085698843002 2670.00007629395 156 158 155
173.387631773949 460.326373577118 2688.99989128113 155 157 154
182.18332529068 464.080035686493 2710.99996566772 152 154 151
264.744818210602 466.478288173676 2726.0000705719 208 209 204
270.756542682648 464.064568281174 2711.99989318848 138 139 134
276.281148195267 460.966229438782 2694.00000572205 150 151 146
281.812310218811 458.038777112961 2677.00004577637 146 147 141
287.466257810593 455.453366041183 2661.99994087219 150 151 145
293.702036142349 453.894287347794 2653.00011634827 158 159 153
300.114870071411 452.677041292191 2645.99990844727 159 160 154
306.605011224747 451.630711555481 2640.00010490417 162 163 157
313.061624765396 450.584053993225 2634.0000629425 164 165 159
319.849461317062 450.050264596939 2631.00004196167 163 165 160
326.744347810745 449.687272310257 2628.99994850159 200 202 197
334.008544683456 449.837058782578 2630.00011444092 198 200 195
341.406792402267 450.157463550568 2631.99996948242 195 197 192
-248.089969158173 460.645645856857 2734.99989509583 188 189 184
-239.333108067513 458.135694265366 2720.00002861023 188 189 184
-231.509730219841 457.309454679489 2714.99991416931 166 167 162
-223.960548639297 456.988126039505 2713.00005912781 161 160 156
-216.740787029266 457.340031862259 2714.99991416931 162 161 157
-209.586575627327 457.860052585602 2717.99993515015 157 156 152
-202.564164996147 458.716511726379 2723.00004959106 159 158 154
-195.800557732582 460.246443748474 2732.00011253357 157 156 152
-189.125210046768 462.112843990326 2743.00003051758 151 150 146
-182.124465703964 463.304996490479 2750 131 132 127
-174.89455640316 463.991343975067 2753.99994850159 129 130 125
-167.459905147552 464.171797037125 2755.00011444092 132 133 128
-160.367608070374 465.362638235092 2762.00008392334 119 120 115
-154.288157820702 469.754368066788 2788.00010681152 216 217 212
-143.436267971992 459.318190813065 2726.0000705719 207 209 204
-134.967163205147 455.789506435394 2704.99992370605 172 174 169
-126.706331968307 452.597290277481 2686.00010871887 170 172 167
-118.948556482792 450.920939445496 2676.00011825562 160 161 155
-111.411735415459 449.918031692505 2670.00007629395 159 160 154
-103.946208953857 449.083060026169 2664.99996185303 168 169 163
-96.3987410068512 447.742104530334 2657.00006484985 185 186 180
-88.9616087079048 446.737557649612 2651.00002288818 177 178 172
-81.3101977109909 444.384396076202 2637.00008392334 191 192 186
-73.7909600138664 442.367643117905 2625 187 188 182
-66.4637833833694 441.192984580994 2618.00003051758 176 177 171
-59.1745153069496 440.017849206924 2611.00006103516 179 180 174
-51.9630499184132 439.17915225029 2605.99994659424 168 169 163
-44.7786413133144 438.34000825882 2601.0000705719 170 171 165
-37.6647971570492 438.005864620209 2598.99997711182 174 173 168
-30.5499453097582 437.502712011337 2595.99995613098 171 170 165
-23.4603751450777 437.16761469841 2594.00010108948 165 164 159
-16.4069011807442 437.506079673767 2595.99995613098 164 163 158
-9.34247486293316 437.844097614288 2598.00004959106 162 161 156
-2.26450245827436 437.675923109055 2596.99988365173 158 157 152
4.80988062918186 437.675833702087 2596.99988365173 156 155 150
11.8705201894045 437.169700860977 2594.00010108948 153 152 147
18.9439747482538 437.337130308151 2595.00002861023 154 153 148
25.9626638144255 436.49286031723 2589.99991416931 158 157 152
32.9922698438168 436.153680086136 2588.00005912781 160 159 154
39.9953946471214 435.645520687103 2585.00003814697 160 161 155
47.0366179943085 435.64236164093 2585.00003814697 162 163 157
54.0776886045933 435.638785362244 2585.00003814697 164 165 159
