ply
format ascii 1.0
comment KinectMotionCapture
element vertex 794
property float x
property float y
property float z
property uchar red
property uchar green
property uchar blue
end_header
-2.43893382139504 -153.394252061844 2790.99988937378 5 7 4
81.7170217633247 -154.041782021523 2802.99997329712 8 10 7
88.4425267577171 -152.445733547211 2773.9999294281 9 11 8
95.7708433270454 -152.058511972427 2766.99995994568 9 11 6
100.297369062901 -147.604584693909 2686.00010871887 9 12 5
108.26813429594 -148.480951786041 2701.99990272522 8 11 4
114.314258098602 -146.774411201477 2671.0000038147 8 11 4
123.423166573048 -148.969188332558 2710.99996566772 8 11 4
131.157428026199 -149.350360035896 2717.99993515015 11 14 7
136.788070201874 -147.423550486565 2683.00008773804 13 16 9
144.375622272491 -147.69446849823 2687.99996376038 14 17 10
153.062224388123 -149.009108543396 2711.99989318848 15 18 11
160.163342952728 -148.730158805847 2707.00001716614 17 20 13
167.298406362534 -148.505970835686 2703.00006866455 20 23 16
181.635811924934 -148.166954517365 2697.00002670288 22 25 18
191.862195730209 -150.414347648621 2737.99991607666 21 24 17
-132.834807038307 -162.072047591209 2809.99994277954 24 29 22
-122.851960361004 -159.07646715641 2757.99989700317 25 28 19
-115.075901150703 -158.733814954758 2752.00009346008 23 26 17
-107.840225100517 -159.1407507658 2759.0000629425 23 26 19
-99.6206179261208 -158.047795295715 2740.00000953674 22 25 16
-91.2688970565796 -156.550794839859 2713.99998664856 16 19 10
-84.1711238026619 -157.130151987076 2723.99997711182 13 16 9
-77.6945054531097 -159.093737602234 2757.99989700317 13 16 9
-69.7090327739716 -158.057525753975 2740.00000953674 13 16 9
-62.7300143241882 -159.328535199165 2762.00008392334 12 15 8
-54.9712218344212 -158.695682883263 2750.99992752075 9 12 5
-47.945111989975 -160.31239926815 2779.00004386902 8 11 4
-40.3157323598862 -160.140618681908 2776.00002288818 13 14 6
-32.9266339540482 -161.064669489861 2792.00005531311 12 15 6
-24.8881187289953 -158.411860466003 2746.00005149841 11 14 7
-17.3286497592926 -157.835572957993 2736.00006103516 11 14 7
-9.98948141932487 -159.912765026093 2772.0000743866 11 13 8
81.1316594481468 -160.535007715225 2782.99999237061 7 9 6
87.9299342632294 -159.090489149094 2757.99989700317 8 10 7
94.902902841568 -158.164963126183 2742.00010299683 10 12 7
102.982997894287 -159.085005521774 2757.99989700317 10 13 6
107.864417135715 -155.27506172657 2691.99991226196 9 12 5
113.883092999458 -153.483808040619 2661.00001335144 8 11 4
123.510785400867 -156.479701399803 2713.00005912781 8 11 4
131.250277161598 -156.879797577858 2720.00002861023 9 12 5
138.313710689545 -156.472235918045 2713.00005912781 8 11 4
145.929202437401 -156.698897480965 2717.00000762939 6 9 2
153.114423155785 -156.463965773582 2713.00005912781 7 10 3
160.809725522995 -156.747862696648 2717.99993515015 10 13 6
166.798666119576 -155.416831374168 2694.9999332428 15 18 11
174.923166632652 -156.104028224945 2707.00001716614 16 19 12
182.506322860718 -156.272009015083 2710.00003814697 14 17 10
-131.885498762131 -168.528407812119 2789.99996185303 22 24 19
-124.852791428566 -169.3175137043 2802.99997329712 26 29 22
-114.068984985352 -164.790585637093 2727.9999256134 27 30 23
-105.960950255394 -163.766950368881 2710.99996566772 25 27 22
-100.017622113228 -166.186407208443 2750.99992752075 22 25 18
-92.0732840895653 -165.403947234154 2737.99991607666 13 16 9
-85.4663997888565 -167.098134756088 2766.00003242493 8 10 5
-77.5232017040253 -166.254833340645 2752.00009346008 8 10 5
-69.7578638792038 -165.652915835381 2742.00010299683 9 11 6
-62.8644227981567 -167.225643992424 2767.99988746643 9 11 6
-55.1294535398483 -166.683718562126 2759.0000629425 10 12 7
-47.5123859941959 -166.383177042007 2753.99994850159 10 13 6
-40.3000190854073 -167.653247714043 2775.00009536743 8 9 3
-33.1615172326565 -169.889733195305 2812.00003623962 7 10 3
-25.3767911344767 -169.165626168251 2799.99995231628 7 10 3
-10.1189166307449 -169.650033116341 2808.00008773804 10 13 6
87.6404196023941 -166.070207953453 2749.00007247925 13 15 12
95.246210694313 -166.248679161072 2752.00009346008 11 13 8
102.34522074461 -165.581211447716 2740.9999370575 12 15 8
110.105022788048 -166.000887751579 2747.99990653992 9 12 5
115.463204681873 -162.977159023285 2697.99995422363 12 15 8
122.642211616039 -162.731990218163 2694.00000572205 10 13 6
131.39121234417 -164.479926228523 2723.00004959106 10 13 6
138.054773211479 -163.56985270977 2707.99994468689 11 14 7
145.226761698723 -163.324058055878 2703.9999961853 11 14 7
154.125824570656 -164.950400590897 2730.99994659424 12 15 8
160.450085997581 -163.798183202744 2711.99989318848 13 16 9
166.546270251274 -162.52501308918 2690.99998474121 26 29 22
175.564289093018 -164.090231060982 2717.00000762939 6 9 2
-133.441388607025 -178.220987319946 2822.99995422363 23 25 20
-124.314479529858 -176.20475590229 2790.99988937378 20 22 17
-116.40702933073 -175.766587257385 2783.99991989136 18 20 15
-108.185522258282 -174.759939312935 2767.99988746643 15 17 12
-99.7237041592598 -173.184752464294 2743.00003051758 12 14 9
-80.0841823220253 -179.507091641426 2842.99993515015 5 7 2
-70.6715434789658 -175.405323505402 2778.00011634827 6 8 3
-63.2485747337341 -175.849422812462 2785.00008583069 6 8 3
-55.1277510821819 -174.209594726563 2759.0000629425 7 9 4
-47.6316809654236 -174.337491393089 2760.99991798401 7 9 4
-40.5311286449432 -176.233172416687 2790.99988937378 9 10 4
-32.960020005703 -176.486924290657 2795.00007629395 8 11 4
-25.2763144671917 -176.108941435814 2789.00003433228 8 11 4
-17.7645944058895 -177.119970321655 2805.0000667572 9 12 5
-10.0357234477997 -175.85751414299 2785.00008583069 10 13 6
-2.42211553268135 -175.036817789078 2772.0000743866 8 10 5
81.5057456493378 -176.538616418839 2796.0000038147 5 7 4
88.3072018623352 -174.89430308342 2769.99998092651 13 15 12
94.0319746732712 -171.545132994652 2717.00000762939 11 13 8
103.051498532295 -174.256950616837 2759.99999046326 13 16 9
109.180130064487 -172.043859958649 2724.99990463257 10 13 6
115.716457366943 -170.714542269707 2703.9999961853 12 15 8
122.683994472027 -170.142635703087 2694.9999332428 14 17 10
130.904704332352 -171.275064349175 2713.00005912781 14 17 10
137.438848614693 -170.197680592537 2696.00009918213 13 16 9
145.276054739952 -170.761436223984 2704.99992370605 12 15 8
154.572650790215 -172.903150320053 2739.00008201599 12 15 8
160.445228219032 -171.193853020668 2711.99989318848 17 20 13
189.229756593704 -177.363678812981 2809.99994277954 18 21 14
-134.004354476929 -186.709821224213 2835.00003814697 21 23 18
-116.570562124252 -183.622509241104 2788.00010681152 12 14 9
-108.455657958984 -182.769969105721 2775.00009536743 10 12 7
-94.4213345646858 -184.950098395348 2808.00008773804 7 9 4
-78.0816972255707 -182.584539055824 2772.0000743866 5 7 2
-71.8903467059135 -186.143845319748 2825.99997520447 6 8 3
-63.4055137634277 -183.906525373459 2792.00005531311 7 9 4
-54.9061968922615 -181.010201573372 2747.99990653992 7 9 4
-48.233937472105 -184.17364358902 2796.0000038147 7 9 4
-40.7621674239635 -184.89970266819 2806.99992179871 9 10 4
-33.2773476839066 -185.888975858688 2822.00002670288 8 11 4
-25.456752628088 -185.033604502678 2809.00001525879 8 11 4
-17.9730113595724 -186.944633722305 2838.00005912781 9 12 5
-10.0642256438732 -183.980822563171 2792.99998283386 9 12 5
-2.45349272154272 -184.969127178192 2808.00008773804 10 12 7
82.2901800274849 -185.942813754082 2822.99995422363 110 112 111
89.0375971794128 -183.964028954506 2792.99998283386 12 14 11
96.2784811854362 -183.236479759216 2782.00006484985 10 12 7
101.666770875454 -179.3472468853 2723.00004959106 12 15 8
109.457120299339 -179.936602711678 2732.00011253357 9 12 5
116.868197917938 -179.867058992386 2730.99994659424 12 15 8
123.180836439133 -178.216651082039 2706.00008964539 14 17 10
132.203280925751 -180.451735854149 2740.00000953674 13 16 9
138.148173689842 -178.471624851227 2710.00003814697 13 16 9
146.56038582325 -179.718285799026 2729.00009155273 13 16 9
155.470684170723 -181.425631046295 2755.00011444092 12 15 8
159.611955285072 -177.666991949081 2697.99995422363 17 20 13
194.678351283073 -190.358757972717 2891.00003242493 12 15 8
-139.883458614349 -191.898092627525 2798.00009727478 7 9 4
-131.731152534485 -191.148206591606 2786.99994087219 9 11 6
-124.974489212036 -192.455664277077 2805.99999427795 8 10 5
-116.441287100315 -191.019415855408 2785.00008583069 7 9 4
-107.787676155567 -189.171269536018 2757.99989700317 8 10 5
-102.189250290394 -192.810148000717 2811.00010871887 9 11 6
-94.7544425725937 -193.293616175652 2818.00007820129 9 11 6
-85.8289524912834 -190.552964806557 2778.00011634827 10 12 7
-78.6987617611885 -191.653236746788 2793.99991035461 10 12 7
-70.9721744060516 -191.381394863129 2789.99996185303 11 13 8
-55.983267724514 -192.208871245384 2802.00004577637 12 14 9
-48.4565831720829 -192.690849304199 2809.00001525879 12 14 9
-40.9060157835484 -193.241134285927 2816.99991226196 10 11 5
-33.5474424064159 -195.163160562515 2845.00002861023 8 11 4
-25.6733968853951 -194.341003894806 2832.99994468689 8 11 4
-17.9027486592531 -193.930149078369 2826.99990272522 8 11 4
-10.1323509588838 -192.901626229286 2812.00003623962 8 11 4
-2.47525353915989 -194.342449307442 2832.99994468689 11 13 8
82.4623331427574 -194.053068757057 2828.9999961853 70 72 71
90.3735011816025 -194.461718201637 2835.00003814697 10 12 9
96.6213420033455 -191.509053111076 2792.00005531311 11 13 8
103.530153632164 -190.202429890633 2773.00000190735 11 14 7
110.575273633003 -189.307123422623 2759.99999046326 8 11 4
116.907119750977 -187.382817268372 2732.00011253357 11 14 7
122.949168086052 -185.252547264099 2700.99997520447 12 15 8
130.60674071312 -185.659795999527 2707.00001716614 12 15 8
140.182644128799 -188.604384660721 2750 12 15 8
148.274049162865 -189.353942871094 2760.99991798401 13 16 9
154.167667031288 -187.360048294067 2732.00011253357 13 16 9
157.122105360031 -182.142838835716 2655.99989891052 13 16 9
169.315382838249 -187.623575329781 2736.00006103516 21 24 17
-137.029096484184 -195.462062954903 2740.9999370575 9 11 6
-129.836067557335 -195.894598960876 2746.99997901917 15 17 12
-122.698836028576 -196.469515562057 2755.00011444092 10 12 7
-116.855353116989 -199.326306581497 2795.00007629395 9 11 6
-107.549481093884 -196.263641119003 2752.00009346008 10 12 7
-100.804336369038 -197.764933109283 2773.00000190735 11 13 8
-93.4398472309113 -198.196262121201 2779.00004386902 11 13 8
-87.1235653758049 -201.12356543541 2819.9999332428 10 12 7
-78.3862173557281 -198.487594723701 2782.99999237061 11 13 8
-70.5627277493477 -197.848320007324 2773.9999294281 11 13 8
-63.7191087007523 -200.13302564621 2805.99999427795 12 14 9
-56.4608238637447 -201.561599969864 2825.99997520447 12 14 9
-48.161655664444 -199.138432741165 2792.00005531311 13 15 10
-40.7593883574009 -200.209885835648 2806.99992179871 11 12 6
-33.4519483149052 -202.350959181786 2836.99989318848 10 13 6
-25.8809272199869 -203.707188367844 2855.99994659424 9 12 5
-17.7881401032209 -200.355648994446 2809.00001525879 9 12 5
-10.1464120671153 -200.855433940887 2815.99998474121 10 13 6
-2.48215696774423 -202.638804912567 2841.00008010864 11 13 8
90.3385058045387 -202.120915055275 2834.00011062622 10 12 9
97.586952149868 -201.119124889374 2819.9999332428 11 13 8
104.011930525303 -198.690786957741 2786.00001335144 12 15 8
110.731706023216 -197.118043899536 2763.99993896484 11 14 7
115.662179887295 -192.763835191727 2703.00006866455 12 15 8
122.216649353504 -191.47601723671 2684.99994277954 11 14 7
129.830330610275 -191.899493336678 2690.99998474121 11 14 7
139.311298727989 -194.889888167381 2733.00004005432 12 15 8
147.248670458794 -195.526674389839 2742.00010299683 12 15 8
154.895976185799 -195.735320448875 2744.99988555908 12 15 8
157.649174332619 -190.025523304939 2664.99996185303 17 20 13
178.255423903465 -196.716338396072 2759.0000629425 24 27 20
-128.413558006287 -201.162502169609 2717.00000762939 12 14 9
-123.540632426739 -205.38729429245 2773.9999294281 11 14 7
-116.934813559055 -207.094594836235 2796.99993133545 11 14 7
-109.421424567699 -207.320809364319 2799.99995231628 12 15 8
-100.873455405235 -205.473572015762 2775.00009536743 13 16 9
-94.4115668535233 -207.920596003532 2808.00008773804 13 16 9
-87.3984917998314 -209.478870034218 2828.9999961853 13 16 9
-78.8622125983238 -207.334518432617 2799.99995231628 12 15 8
-70.2804028987885 -204.59745824337 2763.00001144409 9 12 5
-63.8984814286232 -208.376422524452 2813.99989128113 9 12 5
-57.078130543232 -211.562797427177 2857.00011253357 10 13 6
-49.0913838148117 -210.750162601471 2845.99995613098 13 16 9
-40.3803996741772 -205.938458442688 2780.99989891052 14 15 9
-33.9459627866745 -213.196948170662 2878.99994850159 12 15 8
-25.8528105914593 -211.272656917572 2852.9999256134 12 15 8
-18.0281270295382 -210.82915365696 2846.99988365173 11 14 7
-10.1424427703023 -208.459943532944 2815.00005722046 11 14 7
-2.47158366255462 -209.496945142746 2828.9999961853 11 13 8
89.1877487301826 -207.182258367538 2798.00009727478 11 13 10
96.026286482811 -205.475836992264 2775.00009536743 10 12 7
104.680195450783 -207.619488239288 2803.99990081787 13 16 9
111.128367483616 -205.394253134727 2773.9999294281 12 15 8
117.326833307743 -203.020796179771 2742.00010299683 14 17 10
126.536384224892 -205.829903483391 2779.99997138977 13 16 9
131.514266133308 -201.827138662338 2726.0000705719 13 16 9
137.981086969376 -200.415581464767 2707.00001716614 12 15 8
146.59908413887 -202.113285660744 2730.00001907349 11 14 7
154.439106583595 -202.626094222069 2736.99998855591 11 14 7
164.032176136971 -205.285519361496 2773.00000190735 14 17 10
192.170590162277 -203.039303421974 2743.00003051758 24 27 20
-140.368476510048 -215.549454092979 2808.00008773804 11 13 8
-130.535587668419 -212.023377418518 2762.00008392334 12 14 9
-123.090751469135 -212.181642651558 2763.99993896484 11 14 7
-117.139540612698 -215.103298425674 2802.00004577637 12 15 8
-110.081717371941 -216.259092092514 2816.99991226196 12 15 8
-102.323688566685 -216.109529137611 2815.00005722046 13 16 9
-94.5761576294899 -215.959683060646 2812.99996376038 14 17 10
-86.066871881485 -213.890224695206 2786.00001335144 14 17 10
-78.3523395657539 -213.586255908012 2782.00006484985 13 16 9
-70.6847533583641 -213.358715176582 2779.00004386902 11 14 7
-62.6245439052582 -211.748957633972 2757.99989700317 10 13 6
-55.3179793059826 -212.595731019974 2769.00005340576 10 13 6
-49.2275506258011 -219.123780727386 2854.00009155273 11 14 7
-41.3081496953964 -218.434482812881 2845.00002861023 14 15 9
-33.1783145666122 -216.055735945702 2813.99989128113 13 16 9
-25.4712738096714 -215.826526284218 2811.00010871887 12 15 8
-17.8501568734646 -216.441601514816 2819.00000572205 12 15 8
88.1326049566269 -212.276831269264 2765.00010490417 17 19 16
95.953531563282 -212.887525558472 2773.00000190735 9 11 6
103.743053972721 -213.344410061836 2779.00004386902 4 7 0
112.566396594048 -215.720176696777 2809.99994277954 6 9 2
121.216125786304 -217.481464147568 2832.99994468689 5 8 1
127.487570047379 -215.020313858986 2801.00011825562 14 17 10
130.303382873535 -207.339003682137 2700.99997520447 13 16 9
138.230890035629 -208.178386092186 2711.99989318848 12 15 8
147.076979279518 -210.245624184608 2739.00008201599 11 14 7
154.828459024429 -210.623815655708 2743.99995803833 12 15 8
162.25166618824 -210.541173815727 2743.00003051758 11 14 7
173.072069883347 -214.679718017578 2796.99993133545 15 18 11
180.245399475098 -214.13591504097 2789.99996185303 16 19 12
185.090690851212 -210.982471704483 2749.00007247925 16 19 12
192.934274673462 -211.359217762947 2753.99994850159 19 22 15
-139.913260936737 -222.487568855286 2799.00002479553 12 14 9
-131.617605686188 -221.379950642586 2785.00008583069 12 14 9
-123.264200985432 -220.033526420593 2767.99988746643 12 15 8
-116.54981970787 -221.628040075302 2788.00010681152 13 16 9
-110.233820974827 -224.255710840225 2821.00009918213 13 16 9
-102.755963802338 -224.736839532852 2826.99990272522 14 17 10
-94.1354855895042 -222.59421646595 2799.99995231628 14 17 10
-86.1562564969063 -221.72324359417 2789.00003433228 15 18 11
-78.5746350884438 -221.805945038795 2789.99996185303 15 18 11
-70.7837790250778 -221.252351999283 2782.99999237061 12 15 8
-62.3042583465576 -218.15437078476 2743.99995803833 11 14 7
-54.9762435257435 -218.79269182682 2752.00009346008 9 12 5
-47.8975623846054 -220.782294869423 2776.99995040894 9 12 5
-40.8274382352829 -223.566666245461 2812.00003623962 12 13 7
-32.9530313611031 -222.216531634331 2795.00007629395 12 15 8
-25.3162570297718 -222.138166427612 2793.99991035461 13 16 9
-17.7924837917089 -223.411083221436 2809.99994277954 13 16 9
-10.0948391482234 -222.775593400002 2802.00004577637 12 15 8
-2.44431477040052 -222.45779633522 2798.00009727478 1 3 0
89.6591246128082 -223.629996180534 2812.99996376038 0 1 0
96.6764912009239 -222.115904092789 2793.99991035461 9 11 6
101.984605193138 -217.183247208595 2732.00011253357 15 18 11
108.636446297169 -215.589255094528 2711.99989318848 18 21 14
120.441384613514 -223.772704601288 2815.00005722046 11 14 7
139.958575367928 -218.272790312767 2746.00005149841 11 14 7
158.546477556229 -223.348379135132 2809.99994277954 10 13 6
161.062583327293 -216.42729640007 2723.00004959106 10 13 6
171.828046441078 -220.712825655937 2776.99995040894 14 17 10
180.36787211895 -221.898302435875 2792.00005531311 16 19 12
187.507554888725 -221.334978938103 2785.00008583069 16 19 12
191.385939717293 -217.115730047226 2732.00011253357 21 24 17
199.195802211761 -217.505678534508 2736.99998855591 21 24 17
-139.257997274399 -229.046925902367 2786.00001335144 16 18 13
-130.289226770401 -226.668059825897 2756.99996948242 11 13 8
-123.704664409161 -228.399679064751 2778.00011634827 14 17 10
-117.590293288231 -231.282114982605 2812.99996376038 14 17 10
-109.955959022045 -231.368884444237 2813.99989128113 14 17 10
-102.497480809689 -231.866478919983 2819.9999332428 14 17 10
-94.3671017885208 -230.801522731781 2806.99992179871 14 17 10
-85.8130604028702 -228.420630097389 2778.00011634827 13 16 9
-78.8813158869743 -230.315119028091 2801.00011825562 13 16 9
-70.8064064383507 -228.920266032219 2783.99991989136 14 17 10
-63.0283430218697 -228.265151381493 2776.00002288818 14 17 10
-55.2936792373657 -227.609664201736 2767.99988746643 11 14 7
-48.378586769104 -230.654284358025 2805.0000667572 11 14 7
-40.796771645546 -231.067195534706 2809.99994277954 10 11 5
-32.975297421217 -229.99969124794 2796.99993133545 10 13 6
-25.0796750187874 -227.616161108017 2767.99988746643 11 14 7
-17.7601184695959 -230.659618973732 2805.0000667572 11 14 7
-10.1772975176573 -232.304811477661 2825.00004768372 11 14 7
90.6117483973503 -233.763962984085 2842.99993515015 0 1 0
95.980666577816 -228.086784482002 2773.9999294281 7 9 4
102.876462042332 -226.602807641029 2756.00004196167 9 12 5
109.112858772278 -223.967492580414 2723.99997711182 20 23 16
115.259796380997 -221.496433019638 2694.00000572205 15 18 11
141.176268458366 -227.729514241219 2769.99998092651 9 12 5
149.589255452156 -229.039132595062 2786.00001335144 10 13 6
155.719295144081 -226.895660161972 2759.99999046326 11 14 7
163.658753037453 -227.464765310287 2766.99995994568 10 13 6
169.470235705376 -225.156500935555 2739.00008201599 13 16 9
187.904268503189 -229.416906833649 2790.99988937378 15 18 11
192.149102687836 -225.46398639679 2743.00003051758 18 21 14
197.732612490654 -223.319292068481 2717.00000762939 20 23 16
-138.902485370636 -236.044213175774 2779.00004386902 18 20 15
-130.851045250893 -235.200330615044 2769.00005340576 12 14 9
-124.233990907669 -236.989334225655 2789.99996185303 14 17 10
-110.10779440403 -239.377409219742 2818.00007820129 14 17 10
-101.184897124767 -236.493602395058 2783.99991989136 14 17 10
-93.1866690516472 -235.478207468987 2772.0000743866 14 17 10
-86.2420052289963 -237.180918455124 2792.00005531311 12 15 8
-78.6246508359909 -237.184330821037 2792.00005531311 13 16 9
-70.7017853856087 -236.16798222065 2779.99997138977 14 17 10
-63.0484744906425 -235.915914177895 2776.99995040894 14 17 10
-56.3700795173645 -239.741310477257 2822.00002670288 13 16 9
-48.4455972909927 -238.639071583748 2809.00001525879 13 16 9
-40.9693196415901 -239.745363593102 2822.00002670288 11 12 6
-33.0800525844097 -238.38759958744 2805.99999427795 10 13 6
-25.3232754766941 -237.454295158386 2795.00007629395 9 12 5
-17.8543590009212 -239.579081535339 2819.9999332428 10 13 6
-10.227314196527 -241.193890571594 2838.99998664856 11 14 7
88.2177576422691 -235.140800476074 2767.99988746643 0 1 0
95.9767624735832 -235.646679997444 2773.9999294281 15 17 12
102.984264492989 -234.368398785591 2759.0000629425 11 14 7
110.670551657677 -234.703779220581 2763.00001144409 7 10 3
116.453029215336 -231.216371059418 2721.99988365173 0 2 0
148.563131690025 -235.016986727715 2766.99995994568 10 13 6
154.302597045898 -232.292905449867 2734.99989509583 11 14 7
161.22730076313 -231.522083282471 2726.0000705719 10 13 6
170.948341488838 -234.657734632492 2763.00001144409 13 16 9
176.413297653198 -231.933027505875 2730.99994659424 14 17 10
184.463351964951 -232.690066099167 2740.00000953674 14 17 10
194.312959909439 -235.569760203362 2773.9999294281 17 20 13
200.417399406433 -233.863428235054 2753.99994850159 18 21 14
-138.696804642677 -243.265420198441 2775.00009536743 14 16 11
-131.412640213966 -243.797063827515 2780.99989891052 14 16 11
-123.828083276749 -243.802472949028 2780.99989891052 14 17 10
-116.577439010143 -244.508892297745 2789.00003433228 14 17 10
-109.712474048138 -246.179416775703 2808.00008773804 13 16 9
-101.43505781889 -244.693443179131 2790.99988937378 13 16 9
-85.7750698924065 -243.47397685051 2776.99995040894 14 17 10
-77.9455080628395 -242.688357830048 2767.99988746643 14 17 10
-71.4617595076561 -246.374025940895 2809.99994277954 14 17 10
-63.3182525634766 -244.535654783249 2789.00003433228 14 17 10
-55.848378688097 -245.151937007904 2796.0000038147 14 17 10
-41.1853492259979 -248.75096976757 2836.99989318848 16 17 11
-33.1965424120426 -246.911257505417 2815.99998474121 11 14 7
-25.2406690269709 -244.282081723213 2786.00001335144 10 13 6
-17.7586413919926 -245.948940515518 2805.0000667572 10 13 6
-10.1872570812702 -247.966229915619 2828.00006866455 12 15 8
88.6602401733398 -243.911042809486 2782.00006484985 12 14 11
94.7618559002876 -240.137174725533 2739.00008201599 14 16 11
102.345436811447 -240.39600789547 2742.00010299683 9 12 5
110.265411436558 -241.355881094933 2753.00002098084 2 5 0
117.646023631096 -241.088032722473 2750 9 12 5
134.623810648918 -244.67171728611 2790.99988937378 10 13 6
142.183974385262 -244.578212499619 2789.99996185303 10 13 6
145.604074001312 -237.734571099281 2711.99989318848 10 13 6
154.296204447746 -239.744424819946 2734.99989509583 10 13 6
161.51636838913 -239.387199282646 2730.99994659424 11 14 7
171.312510967255 -242.711111903191 2769.00005340576 14 17 10
176.664426922798 -239.723697304726 2734.99989509583 14 17 10
183.311358094215 -238.664418458939 2723.00004959106 14 17 10
194.305017590523 -243.126541376114 2773.9999294281 16 19 12
195.824712514877 -235.844075679779 2690.99998474121 17 20 13
-131.407022476196 -251.373618841171 2780.99989891052 13 16 9
-123.511113226414 -250.7463991642 2773.9999294281 13 16 9
-116.823226213455 -252.649903297424 2795.00007629395 13 16 9
-109.31707918644 -252.926021814346 2798.00009727478 13 16 9
-102.157548069954 -254.105746746063 2811.00010871887 13 16 9
-94.0191000699997 -252.844452857971 2796.99993133545 13 16 9
-86.5744203329086 -253.390818834305 2802.99997329712 11 14 7
-78.2518982887268 -251.224786043167 2779.00004386902 11 14 7
-70.9754973649979 -252.312898635864 2790.99988937378 13 16 9
-63.247412443161 -251.863807439804 2786.00001335144 14 17 10
-55.7061471045017 -252.137631177902 2789.00003433228 15 18 11
-48.665639013052 -255.123257637024 2822.00002670288 15 18 11
-41.3287319242954 -257.38537311554 2846.99988365173 15 18 11
-33.9613258838654 -260.46085357666 2881.00004196167 12 15 8
-25.5022961646318 -254.495322704315 2815.00005722046 10 13 6
-17.5996012985706 -251.332014799118 2779.99997138977 10 12 7
-10.1760094985366 -255.400955677032 2825.00004768372 10 12 7
88.7520164251328 -251.762241125107 2785.00008583069 10 12 9
94.4809913635254 -246.876686811447 2730.99994659424 9 11 6
102.303706109524 -247.776389122009 2740.9999370575 7 10 3
133.74987244606 -250.648438930511 2773.00000190735 8 11 4
139.324158430099 -247.117385268211 2733.99996757507 8 11 4
147.208482027054 -247.83430993557 2742.00010299683 8 11 4
154.74097430706 -247.91818857193 2743.00003051758 8 11 4
163.342818617821 -249.628558754921 2762.00008392334 10 13 6
170.377284288406 -248.898357152939 2753.99994850159 11 14 7
175.558909773827 -245.6374168396 2717.99993515015 13 16 9
184.986546635628 -248.340889811516 2747.99990653992 13 16 9
193.45635175705 -249.598011374474 2762.00008392334 14 17 10
-140.433967113495 -261.643439531326 2809.99994277954 14 17 10
-131.732001900673 -259.601026773453 2788.00010681152 14 17 10
-123.817317187786 -258.954882621765 2780.99989891052 12 15 8
-116.400130093098 -259.332746267319 2785.00008583069 12 15 8
-109.312243759632 -260.548323392868 2798.00009727478 12 15 8
-101.934984326363 -261.204898357391 2805.0000667572 12 15 8
-94.7544202208519 -262.512981891632 2819.00000572205 12 15 8
-87.1573984622955 -262.796461582184 2822.00002670288 13 16 9
-79.205758869648 -261.962056159973 2812.99996376038 13 16 9
-70.768915116787 -259.171634912491 2782.99999237061 12 15 8
-62.8586933016777 -257.870882749558 2769.00005340576 12 15 8
-55.7436086237431 -259.922355413437 2790.99988937378 14 17 10
-48.7496964633465 -263.277351856232 2826.99990272522 15 18 11
-41.3559228181839 -265.328258275986 2848.99997711182 14 17 10
-33.9362397789955 -268.123894929886 2878.99994850159 12 15 8
-25.6913993507624 -264.120578765869 2835.99996566772 11 14 7
-17.8330447524786 -262.352079153061 2816.99991226196 10 12 7
-10.1287299767137 -261.887043714523 2812.00003623962 11 13 10
88.0788862705231 -257.393836975098 2763.99993896484 8 10 7
95.341682434082 -256.644755601883 2756.00004196167 8 10 5
111.577443778515 -259.429126977921 2786.00001335144 8 11 4
132.297068834305 -255.40879368782 2743.00003051758 8 11 4
140.133365988731 -256.054520606995 2750 8 11 4
147.577837109566 -255.955040454865 2749.00007247925 8 11 4
155.185490846634 -256.134539842606 2750.99992752075 9 12 5
162.507802248001 -255.848228931427 2747.99990653992 10 13 6
169.503793120384 -255.096077919006 2740.00000953674 11 14 7
176.907673478127 -254.995346069336 2739.00008201599 14 17 10
187.065288424492 -258.711218833923 2779.00004386902 14 17 10
194.778725504875 -258.889019489288 2780.99989891052 14 17 10
-149.090588092804 -271.111130714417 2828.9999961853 56 58 55
-140.57756960392 -269.584387540817 2812.99996376038 16 19 12
-133.001729846001 -269.782304763794 2815.00005722046 14 17 10
-125.548034906387 -270.267397165298 2819.9999332428 11 14 7
-116.436645388603 -267.014384269714 2786.00001335144 11 14 7
-108.721286058426 -266.731977462769 2782.99999237061 11 14 7
-102.039381861687 -269.132941961288 2808.00008773804 11 14 7
-95.0190052390099 -270.958542823792 2826.99990272522 11 14 7
-87.029904127121 -270.100116729736 2818.00007820129 14 17 10
-79.6526446938515 -271.158277988434 2828.9999961853 13 16 9
-71.1471065878868 -268.190413713455 2798.00009727478 11 14 7
-63.2871240377426 -267.23501086235 2788.00010681152 11 14 7
-55.7011254131794 -267.333596944809 2789.00003433228 14 17 10
-48.6095175147057 -270.211607217789 2819.00000572205 14 17 10
-41.2524305284023 -272.418349981308 2842.00000762939 14 17 10
-33.6164385080338 -273.378610610962 2851.99999809265 12 15 8
-25.8351620286703 -273.379981517792 2851.99999809265 11 14 7
-18.0917698889971 -273.956149816513 2858.00004005432 11 13 8
-10.2147096768022 -271.847993135452 2835.99996566772 11 13 10
81.6717073321342 -268.66489648819 2802.99997329712 4 6 3
88.6165872216225 -266.552269458771 2780.99989891052 10 12 9
98.3815118670464 -272.58637547493 2844.00010108948 14 16 11
104.64571416378 -268.747866153717 2803.99990081787 9 12 5
120.06863206625 -269.025057554245 2806.99992179871 9 12 5
125.85785984993 -265.090018510818 2766.00003242493 7 10 3
132.628694176674 -263.550698757172 2750 8 11 4
140.891402959824 -264.982014894485 2765.00010490417 8 11 4
148.53747189045 -265.167087316513 2766.99995994568 9 12 5
154.727265238762 -262.860238552094 2743.00003051758 9 12 5
161.850050091743 -262.278139591217 2736.99998855591 10 13 6
169.805526733398 -263.037204742432 2744.99988555908 12 15 8
179.806128144264 -266.766399145126 2783.99991989136 13 16 9
186.518490314484 -265.512496232986 2770.99990844727 14 17 10
192.528948187828 -263.396024703979 2749.00007247925 16 19 12
203.002750873566 -267.315536737442 2789.99996185303 17 20 13
-141.520544886589 -279.117584228516 2832.00001716614 19 22 15
-131.058529019356 -273.407518863678 2773.9999294281 13 16 9
-126.388072967529 -279.820054769516 2838.99998664856 12 15 8
-117.267079651356 -276.573181152344 2805.99999427795 12 15 8
-108.91155898571 -274.804294109344 2788.00010681152 12 15 8
-101.162545382977 -274.414956569672 2783.99991989136 12 15 8
-94.6784913539886 -277.672350406647 2816.99991226196 12 15 8
-86.4699557423592 -276.000916957855 2799.99995231628 13 16 9
-78.9450630545616 -276.399105787277 2803.99990081787 12 15 8
-71.5760365128517 -277.487009763718 2815.00005722046 11 14 7
-63.8062283396721 -277.095913887024 2811.00010871887 11 14 7
-56.0579895973206 -276.704430580139 2806.99992179871 13 16 9
-48.7624295055866 -278.777062892914 2828.00006866455 14 17 10
-40.9747138619423 -278.286248445511 2822.99995422363 13 16 9
-25.8339531719685 -281.148254871368 2851.99999809265 12 15 8
-18.0782601237297 -281.543612480164 2855.99994659424 11 13 8
-10.3078726679087 -282.135754823685 2861.99998855591 12 14 11
-2.50383256934583 -282.628953456879 2867.00010299683 2 4 3
81.3765302300453 -275.313466787338 2792.99998283386 4 6 3
88.7399092316628 -274.520874023438 2785.00008583069 11 13 10
96.6473668813705 -275.403648614883 2793.99991035461 12 14 9
103.931792080402 -274.511784315109 2785.00008583069 11 14 7
111.126691102982 -273.521065711975 2775.00009536743 13 16 9
118.394926190376 -272.825717926025 2767.99988746643 11 14 7
127.262517809868 -275.678277015686 2796.99993133545 8 11 4
132.719025015831 -271.236956119537 2752.00009346008 8 11 4
141.088709235191 -272.906064987183 2769.00005340576 8 11 4
149.228453636169 -273.983418941498 2779.99997138977 9 12 5
157.202005386353 -274.666160345078 2786.99994087219 9 12 5
163.557440042496 -272.589147090912 2766.00003242493 10 13 6
172.210186719894 -274.355202913284 2783.99991989136 11 14 7
178.247943520546 -271.981984376907 2759.99999046326 13 16 9
184.019610285759 -269.411534070969 2733.99996757507 13 16 9
191.469714045525 -269.402891397476 2733.99996757507 15 18 11
200.883567333221 -272.054374217987 2760.99991798401 16 19 12
-137.316405773163 -278.321266174316 2747.99990653992 18 21 14
-133.461713790894 -286.126524209976 2825.00004768372 13 16 9
-125.447243452072 -285.423755645752 2818.00007820129 12 15 8
-118.348024785519 -286.847591400146 2832.00001716614 12 15 8
-110.273569822311 -285.941511392593 2822.99995422363 12 15 8
-100.83070397377 -281.084626913071 2775.00009536743 12 15 8
-92.5230532884598 -278.860867023468 2753.00002098084 12 15 8
-86.2805396318436 -283.018231391907 2793.99991035461 11 14 7
-78.6316096782684 -282.920956611633 2792.99998283386 11 14 7
-71.4963302016258 -284.849226474762 2812.00003623962 12 15 8
-64.2798244953156 -286.878496408463 2832.00001716614 12 15 8
-56.7342825233936 -287.793129682541 2841.00008010864 13 16 9
-49.2428615689278 -289.315164089203 2855.99994659424 14 17 10
-40.9437231719494 -285.77184677124 2821.00009918213 13 16 9
-33.0593138933182 -284.152776002884 2805.0000667572 13 16 9
-25.7874205708504 -288.408905267715 2846.99988365173 13 16 9
-18.0584006011486 -289.017796516418 2852.9999256134 13 15 10
-10.3181814774871 -290.234118700027 2865.00000953674 12 14 11
-2.51681124791503 -291.956603527069 2881.99996948242 12 14 11
80.9938833117485 -281.602680683136 2779.99997138977 2 4 1
88.6719524860382 -281.902462244034 2782.99999237061 9 11 8
95.2245965600014 -278.859227895737 2753.00002098084 11 13 8
102.919287979603 -279.360890388489 2757.99989700317 10 13 6
110.64089089632 -279.862225055695 2763.00001144409 12 15 8
119.030863046646 -281.882464885712 2782.99999237061 9 12 5
126.892507076263 -282.484263181686 2789.00003433228 9 12 5
134.207680821419 -281.870305538177 2782.99999237061 9 12 5
141.285836696625 -280.850887298584 2773.00000190735 8 11 4
151.314824819565 -285.502761602402 2819.00000572205 8 11 4
165.382727980614 -283.259600400925 2796.99993133545 8 11 4
170.222789049149 -278.694450855255 2752.00009346008 9 12 5
177.529245615005 -278.382420539856 2749.00007247925 11 14 7
191.39076769352 -276.74475312233 2733.00004005432 13 16 9
199.564665555954 -277.748167514801 2743.00003051758 15 18 11
-145.85517346859 -287.875980138779 2767.99988746643 21 23 20
-133.124575018883 -293.089836835861 2818.00007820129 13 16 9
-126.776576042175 -296.216458082199 2848.00004959106 13 16 9
-119.219809770584 -296.742528676987 2852.9999256134 13 16 9
-110.932230949402 -295.396059751511 2839.99991416931 13 16 9
-102.133803069592 -292.384922504425 2811.00010871887 13 16 9
-93.6275497078896 -289.789348840714 2786.00001335144 13 16 9
-85.7205018401146 -288.753628730774 2776.00002288818 9 12 5
-78.7403732538223 -290.942072868347 2796.99993133545 10 13 6
-71.2640136480331 -291.569918394089 2802.99997329712 12 15 8
-64.2539709806442 -294.485867023468 2831.00008964539 13 16 9
-57.0909380912781 -297.401517629623 2858.99996757507 13 16 9
-48.7749353051186 -294.283419847488 2828.9999961853 13 16 9
-40.230568498373 -288.356274366379 2772.0000743866 13 16 9
-32.9162664711475 -290.542602539063 2792.99998283386 13 16 9
-25.469146668911 -292.520523071289 2812.00003623962 13 16 9
-18.0068798363209 -295.954465866089 2845.00002861023 13 15 10
-10.3428829461336 -298.763871192932 2871.99997901917 12 14 11
82.1261182427406 -293.229043483734 2819.00000572205 2 4 1
95.6695824861526 -287.707358598709 2766.00003242493 12 14 9
102.9889062047 -287.078350782394 2759.99999046326 11 14 7
110.755622386932 -287.697166204453 2766.00003242493 13 16 9
119.196161627769 -289.875745773315 2786.99994087219 10 13 6
127.386793494225 -291.221767663956 2799.99995231628 10 13 6
135.165616869926 -291.527360677719 2802.99997329712 9 12 5
143.062189221382 -292.04061627388 2808.00008773804 9 12 5
148.677468299866 -288.081377744675 2769.99998092651 7 10 3
156.566619873047 -288.697928190231 2776.00002288818 7 10 3
162.53674030304 -285.882264375687 2749.00007247925 7 10 3
170.647576451302 -286.914110183716 2759.0000629425 9 12 5
178.618520498276 -287.633568048477 2766.00003242493 11 14 7
183.531120419502 -283.569306135178 2726.99999809265 11 14 7
191.45168364048 -284.288138151169 2733.99996757507 13 16 9
201.082959771156 -287.398129701614 2763.99993896484 14 17 10
206.801250576973 -284.89288687706 2740.00000953674 14 16 11
-147.692143917084 -299.146085977554 2802.99997329712 24 26 23
-138.602048158646 -296.05820775032 2773.9999294281 15 18 11
-130.897745490074 -295.744776725769 2770.99990844727 10 13 6
-125.256851315498 -300.340563058853 2813.99989128113 11 14 7
-119.004957377911 -303.975611925125 2848.00004959106 11 14 7
-110.653288662434 -302.380383014679 2832.99994468689 11 14 7
-103.581972420216 -304.307043552399 2851.0000705719 11 14 7
-94.194158911705 -299.188613891602 2802.99997329712 11 14 7
-85.994116961956 -297.271877527237 2785.00008583069 11 14 7
-78.5112231969833 -297.702968120575 2789.00003433228 11 14 7
-70.9299445152283 -297.813504934311 2789.99996185303 11 14 7
-63.6379718780518 -299.311339855194 2803.99990081787 12 15 8
-56.5489381551743 -302.30325460434 2832.00001716614 13 16 9
-48.5311225056648 -300.491213798523 2815.00005722046 14 17 10
-40.5187979340553 -298.038333654404 2792.00005531311 13 16 9
-32.855685800314 -297.613173723221 2788.00010681152 14 17 10
-25.5222097039223 -300.817102193832 2818.00007820129 14 17 10
-17.8540796041489 -301.138460636139 2821.00009918213 12 14 9
82.296796143055 -301.544189453125 2825.00004768372 0 2 0
89.9693965911865 -301.433116197586 2823.99988174438 14 16 13
95.9069058299065 -295.984745025635 2773.00000190735 12 14 9
102.424077689648 -292.991071939468 2744.99988555908 15 18 11
111.470818519592 -297.148376703262 2783.99991989136 15 18 11
120.515987277031 -300.771474838257 2818.00007820129 10 13 6
127.744436264038 -299.69796538353 2808.00008773804 13 16 9
135.44824719429 -299.79807138443 2809.00001525879 11 14 7
141.98525249958 -297.443121671677 2786.99994087219 10 13 6
148.777484893799 -295.835047960281 2772.0000743866 9 12 5
155.261784791946 -293.799728155136 2753.00002098084 9 12 5
163.060858845711 -294.325351715088 2757.99989700317 8 11 4
172.680199146271 -297.945410013199 2792.00005531311 9 12 5
183.320268988609 -290.671437978745 2723.99997711182 11 14 7
192.212596535683 -292.90297627449 2744.99988555908 13 16 9
200.272962450981 -293.74697804451 2753.00002098084 13 16 9
208.602532744408 -294.910579919815 2763.99993896484 16 18 13
-151.899725198746 -315.530717372894 2882.99989700317 22 24 21
-139.344468712807 -305.25016784668 2789.00003433228 16 19 12
-132.072031497955 -306.023269891739 2796.0000038147 13 16 9
-126.274213194847 -310.517370700836 2836.99989318848 11 14 7
-117.828965187073 -308.662921190262 2819.9999332428 11 14 7
-110.413320362568 -309.434980154037 2826.99990272522 11 14 7
-102.632112801075 -309.221595525742 2825.00004768372 11 14 7
-94.7605967521667 -308.679342269897 2819.9999332428 11 14 7
-86.7307484149933 -307.479977607727 2809.00001525879 11 14 7
-78.1975761055946 -304.090887308121 2778.00011634827 11 14 7
-70.9008947014809 -305.298835039139 2789.00003433228 11 14 7
-63.9751255512238 -308.586299419403 2819.00000572205 11 14 7
-56.0668334364891 -307.385265827179 2808.00008773804 13 16 9
-48.2528023421764 -306.402772665024 2799.00002479553 13 16 9
-40.8359654247761 -308.047086000443 2813.99989128113 14 17 10
-33.1839546561241 -308.26798081398 2815.99998474121 14 17 10
-25.5208946764469 -308.488428592682 2818.00007820129 14 17 10
-17.6822859793901 -305.862247943878 2793.99991035461 13 15 10
89.4550904631615 -307.368874549866 2808.00008773804 16 18 15
95.6253409385681 -302.657276391983 2765.00010490417 10 12 7
103.724740445614 -304.293990135193 2779.99997138977 16 19 12
111.184887588024 -303.960114717484 2776.99995040894 13 16 9
119.39799785614 -305.596023797989 2792.00005531311 11 14 7
127.965375781059 -307.888150215149 2812.99996376038 13 16 9
135.29671728611 -307.115256786346 2805.99999427795 11 14 7
142.946004867554 -307.108193635941 2805.99999427795 10 13 6
151.614427566528 -309.1801404953 2825.00004768372 9 12 5
159.765496850014 -310.047715902328 2832.99994468689 9 12 5
160.274028778076 -296.68790102005 2710.99996566772 8 11 4
170.321419835091 -301.385343074799 2753.99994850159 9 12 5
176.79288983345 -299.62557554245 2737.99991607666 10 13 6
182.840034365654 -297.318458557129 2717.00000762939 11 14 7
190.732628107071 -298.075050115585 2723.99997711182 12 15 8
199.972048401833 -300.800800323486 2749.00007247925 13 16 9
208.139404654503 -301.775366067886 2757.99989700317 14 16 11
-142.184972763062 -319.233745336533 2845.99995613098 15 18 11
-133.387729525566 -316.773176193237 2823.99988174438 9 12 5
-111.071512103081 -319.035917520523 2844.00010108948 11 14 7
-102.917388081551 -317.807555198669 2832.99994468689 11 14 7
-94.7556495666504 -316.354393959045 2819.9999332428 11 14 7
-86.6644605994225 -314.900815486908 2806.99992179871 11 14 7
-79.0097564458847 -314.905166625977 2806.99992179871 10 13 6
-71.9394087791443 -317.489475011826 2829.99992370605 10 13 6
-56.0838580131531 -315.140247344971 2809.00001525879 11 14 7
-47.8537902235985 -311.440736055374 2776.00002288818 11 14 7
-40.8338271081448 -315.706342458725 2813.99989128113 11 14 7
-33.5121490061283 -319.074064493179 2844.00010108948 11 14 7
-25.5920067429543 -317.056208848953 2825.99997520447 10 13 6
-17.7636258304119 -314.925640821457 2806.99992179871 13 15 10
-10.1828565821052 -317.282468080521 2828.00006866455 11 13 10
82.4339315295219 -317.483901977539 2829.99992370605 1 3 0
89.5141363143921 -315.235704183578 2809.99994277954 14 16 13
95.6549495458603 -310.294806957245 2766.00003242493 13 15 10
102.786622941494 -309.05556678772 2755.00011444092 13 16 9
111.179113388062 -311.517894268036 2776.99995040894 10 13 6
119.904935359955 -314.540565013886 2803.99990081787 17 20 13
127.230942249298 -313.748896121979 2796.99993133545 13 16 9
135.675430297852 -315.648943185806 2813.99989128113 13 16 9
142.582029104233 -313.959151506424 2799.00002479553 12 15 8
151.82127058506 -317.316472530365 2828.9999961853 10 13 6
157.276064157486 -312.821865081787 2789.00003433228 10 13 6
167.359843850136 -317.524254322052 2831.00008964539 10 13 6
168.210059404373 -305.065989494324 2720.00002861023 9 12 5
175.750777125359 -305.281400680542 2721.99988365173 10 13 6
183.234468102455 -305.384278297424 2723.00004959106 10 13 6
191.56314432621 -306.832611560822 2736.00006103516 12 15 8
199.30724799633 -307.271122932434 2740.00000953674 12 15 8
208.053424954414 -309.167087078094 2756.99996948242 15 17 12
-152.67413854599 -332.94403553009 2898.00000190735 15 17 14
-141.328200697899 -325.024545192719 2828.9999961853 15 18 11
-133.333444595337 -324.342489242554 2822.99995422363 9 12 5
-111.65139824152 -328.498423099518 2858.99996757507 10 13 6
-95.6241935491562 -327.015817165375 2845.99995613098 10 13 6
-86.7833495140076 -322.999089956284 2811.00010871887 11 14 7
-79.2025625705719 -323.348224163055 2813.99989128113 10 13 6
-72.9523226618767 -329.787164926529 2869.99988555908 9 12 5
-63.5599121451378 -321.862161159515 2801.00011825562 9 12 5
-56.0209639370441 -322.439908981323 2805.99999427795 10 13 6
-48.3855977654457 -322.557657957077 2806.99992179871 10 13 6
-40.9622304141521 -324.398636817932 2822.99995422363 11 14 7
-33.0626033246517 -322.447121143341 2805.99999427795 10 13 6
-25.3461394459009 -321.644335985184 2799.00002479553 9 12 5
-17.9208740592003 -325.437664985657 2832.00001716614 13 15 10
89.4138067960739 -322.537750005722 2806.99992179871 5 7 4
95.649853348732 -317.821711301804 2766.00003242493 17 19 14
103.676535189152 -319.31009888649 2779.00004386902 14 17 10
112.093977630138 -321.717172861099 2799.99995231628 14 17 10
118.957884609699 -319.642871618271 2782.00006484985 15 18 11
125.9506046772 -318.142682313919 2769.00005340576 13 16 9
134.173706173897 -319.744229316711 2782.99999237061 13 16 9
142.472624778748 -321.345329284668 2796.99993133545 13 16 9
149.237439036369 -319.499373435974 2780.99989891052 11 14 7
158.790305256844 -323.512196540833 2815.99998474121 11 14 7
162.385508418083 -315.576821565628 2746.99997901917 10 13 6
169.994592666626 -315.79777598381 2749.00007247925 9 12 5
175.612509250641 -312.457293272018 2720.00002861023 8 11 4
183.15763771534 -312.677592039108 2721.99988365173 9 12 5
191.063106060028 -313.471883535385 2729.00009155273 11 14 7
199.224203824997 -314.610332250595 2739.00008201599 12 15 8
206.533521413803 -314.370006322861 2736.99998855591 13 15 10
212.032958865166 -311.487644910812 2711.99989318848 13 15 12
-144.068077206612 -339.18958902359 2884.0000629425 14 16 11
-133.609652519226 -332.72847533226 2828.9999961853 9 12 5
-124.51858073473 -329.089462757111 2798.00009727478 10 13 6
-118.060909211636 -332.389324903488 2825.99997520447 10 13 6
-112.582571804523 -339.099913835526 2882.99989700317 10 13 6
-104.758888483047 -339.223504066467 2884.0000629425 10 13 6
-94.476692378521 -330.760031938553 2812.00003623962 10 13 6
-87.1799513697624 -332.17653632164 2823.99988174438 10 13 6
-80.436609685421 -336.180448532104 2858.00004005432 10 13 6
-71.8299821019173 -332.420527935028 2825.99997520447 9 12 5
-63.5110661387444 -329.248249530792 2799.00002479553 9 12 5
-56.0179129242897 -330.074906349182 2805.99999427795 9 12 5
-41.0470552742481 -332.785844802856 2828.9999961853 11 14 7
-32.8133776783943 -327.612012624741 2785.00008583069 11 14 7
-25.3085326403379 -328.789949417114 2795.00007629395 11 13 8
-18.0148091167212 -334.908127784729 2846.99988365173 15 17 12
96.3708236813545 -327.817589044571 2786.99994087219 18 20 15
103.857442736626 -327.459216117859 2783.99991989136 11 14 7
112.648352980614 -330.981910228729 2813.99989128113 14 17 10
118.865944445133 -326.976597309113 2779.99997138977 13 16 9
125.761896371841 -325.205683708191 2765.00010490417 14 17 10
133.00946354866 -324.492931365967 2759.0000629425 14 17 10
140.886008739471 -325.308799743652 2766.00003242493 14 17 10
149.122133851051 -326.829880475998 2779.00004386902 12 15 8
156.80830180645 -327.056795358658 2780.99989891052 11 14 7
164.209261536598 -326.695322990417 2778.00011634827 10 13 6
169.614538550377 -322.570383548737 2743.00003051758 9 12 5
176.700681447983 -321.855485439301 2736.99998855591 8 11 4
184.157207608223 -321.845799684525 2736.99998855591 8 11 4
190.982967615128 -320.77744603157 2727.9999256134 11 14 7
200.304642319679 -323.824226856232 2753.99994850159 12 15 8
207.352638244629 -323.107898235321 2747.99990653992 11 13 8
213.819950819016 -321.568220853806 2734.99989509583 15 17 14
-152.025476098061 -347.267001867294 2885.99991798401 8 10 7
-144.010230898857 -346.914172172546 2882.99989700317 12 14 9
-134.499609470367 -342.71028637886 2848.00004959106 12 14 9
-124.956741929054 -337.904065847397 2808.00008773804 9 11 6
-118.639245629311 -341.761648654938 2839.99991416931 9 11 6
-112.420156598091 -346.461266279221 2878.99994850159 10 12 7
-104.498840868473 -346.226662397385 2877.00009346008 9 11 6
-95.546543598175 -342.260897159576 2844.00010108948 9 11 6
-86.0020965337753 -335.285902023315 2786.00001335144 8 10 5
-80.0663083791733 -342.391043901443 2845.00002861023 9 11 6
-73.1222257018089 -346.246510744095 2877.00009346008 11 13 8
-64.1428381204605 -340.232789516449 2826.99990272522 10 12 7
-55.9549145400524 -337.347745895386 2802.99997329712 7 9 4
-48.7766824662685 -340.600222349167 2829.99992370605 6 8 3
-40.595006197691 -336.751401424408 2798.00009727478 10 13 6
-33.023614436388 -337.355226278305 2802.99997329712 13 16 9
-25.6511904299259 -340.967535972595 2832.99994468689 13 16 9
-18.0517695844173 -343.375861644745 2852.9999256134 16 18 13
89.5314067602158 -338.292807340622 2811.00010871887 0 1 0
96.6075211763382 -336.241692304611 2793.99991035461 14 17 10
104.746982455254 -337.920904159546 2808.00008773804 15 18 11
111.321188509464 -334.665685892105 2780.99989891052 10 13 4
119.842767715454 -337.30673789978 2802.99997329712 15 18 9
125.891417264938 -333.088129758835 2767.99988746643 16 19 12
133.484229445457 -333.201259374619 2769.00005340576 17 20 13
140.165239572525 -331.148087978363 2752.00009346008 17 20 13
147.879853844643 -331.621438264847 2756.00004196167 15 18 11
156.348705291748 -333.65860581398 2773.00000190735 13 16 9
164.200335741043 -334.251403808594 2778.00011634827 13 16 9
170.965626835823 -332.67804980278 2765.00010490417 11 14 7
180.306270718575 -336.037307977676 2792.99998283386 8 11 4
185.156464576721 -331.094473600388 2752.00009346008 9 12 5
200.948432087898 -332.396864891052 2763.00001144409 10 13 6
209.90689098835 -334.671467542648 2782.00006484985 15 16 10
217.482775449753 -334.659904241562 2782.00006484985 19 20 15
-150.96352994442 -352.655053138733 2865.9999370575 0 1 0
-142.75349676609 -351.678907871246 2858.00004005432 9 11 6
-134.303197264671 -349.963992834091 2844.00010108948 13 15 10
-126.329183578491 -349.356085062027 2838.99998664856 10 12 7
-118.757903575897 -349.855214357376 2842.99993515015 10 12 7
-111.125342547894 -350.230932235718 2845.99995613098 10 12 7
-104.384005069733 -353.682786226273 2874.00007247925 9 11 6
-94.1973999142647 -345.073908567429 2803.99990081787 8 10 5
-85.1638168096542 -339.541077613831 2759.0000629425 8 10 5
-76.9662484526634 -336.592048406601 2734.99989509583 8 10 5
