ply
format ascii 1.0
comment KinectMotionCapture
element vertex 786
property float x
property float y
property float z
property uchar red
property uchar green
property uchar blue
end_header
123.09187919692 1079.27890860502 2746.38512619111 46 48 37
142.023233872197 1071.90466377087 2769.76899425751 43 43 35
121.889711657071 1077.52418663052 2763.42525949187 43 43 35
137.612802377078 1071.24186161998 2784.16595854878 33 33 25
140.871153037353 1069.10634339069 2795.41610354068 30 30 22
165.991793450339 1059.75172674387 2822.86599621414 40 40 32
153.536490095626 1065.25258621291 2743.73231876753 32 35 26
69.5668744161178 1090.85927005547 2697.21668073652 43 46 35
119.628140888133 1072.19093490771 2753.70608758764 34 34 26
136.952128266561 1065.43449858204 2775.76096467788 27 27 19
135.164855263147 1064.97467824514 2783.27202739087 28 28 20
134.230232304392 1064.23877209392 2791.39377284353 32 32 24
99.7410653609756 1074.49261145677 2774.53097010005 36 36 28
141.484485637773 1063.15109018042 2726.25361482733 21 24 17
134.645413186401 1064.33457291815 2730.03584016239 29 32 23
145.140138644168 1059.84003924803 2747.20201684449 27 30 21
122.599766780589 1066.16369470547 2738.89284523195 32 35 26
92.2441762432364 1073.96071830565 2733.87581017143 30 30 22
104.310888381788 1067.92843160699 2761.04421029306 42 42 34
122.954318954308 1063.065751666 2703.57354647358 35 41 31
128.391377970423 1060.24054528695 2717.0132032634 26 29 20
154.474279519174 1050.72118549571 2746.36572400445 28 31 22
146.848516554368 1052.16171951228 2749.4742432643 28 29 21
127.623554636641 1057.35580336568 2743.7080837094 24 25 17
103.355071839935 1064.16760257882 2734.20898573029 22 23 15
94.3440313099386 1063.96110577718 2754.52389038906 42 43 37
175.486664134779 1038.88409492036 2745.67080477689 26 32 20
138.310574982916 1049.83657190266 2725.7049220585 26 29 18
149.587913332903 1045.18255065312 2743.53477192378 24 27 16
128.50830176154 1049.90786633222 2745.34756573601 23 23 15
152.126671118547 1039.3294578546 2790.05712769473 48 49 41
193.5799805094 1026.03664770126 2760.77709112055 26 29 18
172.884196994154 1031.64051622353 2753.5767566822 24 27 16
137.287067227802 1041.97220738831 2734.96885230283 23 25 14
127.143877926994 1044.18758789311 2736.21162536102 20 21 13
131.047483216187 1041.94116479197 2748.25432397714 26 26 18
166.517976813182 1029.70061769339 2784.27437119868 40 41 33
173.075234537149 1026.64547342392 2798.05288599151 41 42 34
145.548424383607 1035.19874046951 2715.01312058886 34 34 24
153.459968526393 1031.69709486332 2730.34662028579 26 26 16
140.066259068492 1034.92788656415 2728.99915546729 19 19 9
132.400281205896 1036.34719021096 2732.15074655451 21 21 11
122.245657839742 1038.54738295232 2733.40711855342 24 24 16
155.104554240587 1027.23272050571 2767.63260925488 25 24 19
168.23214957329 1022.14096626045 2786.52364196553 26 27 19
175.6245499346 1018.86181785282 2800.92286480532 27 28 20
131.698934699558 1032.34889276882 2705.09792721259 29 27 15
134.658125355184 1030.43135611412 2716.61292492999 29 25 14
128.616408331938 1031.33130933307 2721.06251723661 26 22 11
124.218348294988 1031.71814838703 2726.78959054306 27 24 15
139.640513846419 1025.93578053096 2747.75521929175 26 23 16
126.193267901994 1029.14619569639 2746.46392863882 23 22 17
148.377699494704 1021.28839796704 2772.3572250985 23 24 16
136.661589713774 1023.5805513614 2709.96802604296 39 29 17
132.253584150561 1023.97059017825 2715.70450248046 34 26 15
128.671525549978 1024.10622275778 2722.0756496648 33 26 16
128.392176349815 1023.22458236404 2730.98548520557 32 28 17
136.392510416291 1019.79661255637 2746.21958810287 25 22 15
157.696452305562 1012.28753477522 2771.51877388032 23 20 15
140.136972499351 1016.74047910475 2767.04246254373 25 25 17
65.6744366899265 1037.66806252217 2728.78164799924 20 21 13
105.487670529116 1024.52116714097 2767.70847011571 24 25 17
131.336716752767 1018.96278111446 2697.51703553684 46 33 24
138.352091855707 1015.84803894542 2712.26635086138 66 52 39
132.308291018498 1016.74160442274 2716.7186186895 39 23 10
129.547946221397 1016.63092546963 2723.7271059745 105 91 80
121.033555241045 1018.27879568201 2726.27049247322 57 47 37
148.005885056622 1009.10658758571 2756.10573608795 28 21 13
149.474669726589 1007.72525699646 2766.18732148162 28 24 15
159.269761825779 1003.81864195463 2782.54444099704 20 20 10
113.428320901839 1016.81413281604 2756.71131742348 20 20 10
149.901025109878 1004.82238392841 2793.11629174365 20 20 10
138.119704579806 1007.4735225143 2793.08752983901 20 20 12
132.168003694495 1008.35695154994 2797.44983921506 21 21 13
126.212707120192 1009.24087981022 2801.81598322024 23 23 15
100.066827598851 1016.21162164917 2791.3235198136 28 28 20
130.946519711132 1012.78536170191 2688.89848595071 50 38 26
127.311464801856 1012.93712335838 2695.3195375405 98 82 69
135.952683222618 1009.36698934813 2711.35582960874 102 83 69
134.002249385691 1009.01661708622 2719.01239922169 49 30 16
133.71096884574 1008.16732152369 2727.92930220731 138 120 106
126.853624499256 1009.30540194351 2731.73638224709 70 56 43
124.942388785969 1008.95038297942 2739.35471432436 29 19 10
136.28753305778 1004.60566872868 2757.07117862557 29 22 14
125.314270653579 1006.98745038995 2757.69672321019 20 16 7
140.919433810217 1001.38179916215 2778.45451399123 20 20 10
159.121342457222 995.014489793092 2800.99699880719 20 20 10
154.879249534781 995.389142717108 2806.57133340999 19 19 9
135.570882826499 1000.27125359549 2800.93376767253 19 19 9
145.56746211118 996.388299956069 2817.08731028929 19 19 11
116.943458195197 1004.03871134454 2804.7041403822 23 23 15
105.914850021657 1006.42853165832 2805.38345602459 27 27 19
113.417908117934 1002.41211197434 2828.2838940607 38 38 30
137.8916796927 1004.36684167949 2686.0799116389 166 153 145
137.512484091406 1003.54378419576 2695.08023760348 113 95 81
121.654321261971 1007.37550870904 2691.84012801184 105 83 69
128.64590866991 1004.34284255324 2706.60093407025 110 83 66
134.056088114834 1001.79434528197 2720.02638518633 120 93 76
132.121249945974 1001.45220854528 2727.6662508633 150 127 111
127.731084330327 1001.84654389301 2733.38437694375 85 66 51
130.775348288238 1000.02342381442 2744.80094088564 36 22 11
124.755749671453 1000.90791035909 2749.23085525538 31 21 11
122.050196487075 1000.8057149163 2756.18367979986 29 22 12
131.827286934115 996.996616961445 2772.54392439712 20 20 10
143.341092133952 992.68440685266 2790.08843964754 18 18 8
130.709491922589 995.540890759072 2789.45642092745 18 18 8
130.60128504549 994.685380936793 2798.19244752442 17 17 7
126.320631233404 995.067266864625 2803.80366678387 17 17 7
111.109999915086 998.675817667394 2801.37044312409 18 18 10
94.1671323478026 1002.78712583701 2797.74922971199 20 20 12
92.378999876312 1002.42879430034 2805.24580804713 19 19 11
93.9940661661112 1001.07282338875 2815.17872332258 20 20 12
146.568378535771 984.762674344414 2861.73887729889 23 23 15
55.4233497378442 1007.99826419603 2831.20110881322 27 27 19
120.893181147136 1002.17257651923 2673.52686068698 156 142 133
117.217390687743 1002.3389544822 2679.98654083849 130 111 97
113.549382780014 1002.50442333762 2686.43828932486 108 85 69
129.517361959663 996.844112201276 2708.26078645998 129 98 80
137.388540897311 993.600767411479 2723.59619265445 134 103 85
136.283242547566 993.024705434227 2731.8641342363 155 129 112
136.020868152859 992.202914371081 2740.7479299974 91 70 53
132.479872945804 992.352888938957 2747.07618088533 54 38 25
129.774166875146 992.258142842057 2754.02805623807 52 40 28
120.444670235799 994.114884922128 2755.9327363751 37 29 18
118.578607781876 993.774974108758 2763.50431560195 21 21 11
110.061355981346 995.389900623922 2766.05507415947 20 20 10
116.563491791663 992.599929838669 2779.84913330225 17 17 7
113.910798150209 992.499208308653 2786.74924969553 17 17 7
111.269668933113 992.397336781237 2793.63771457158 17 17 7
95.1835928164591 996.222883840494 2790.62483926834 17 17 9
64.7166673463842 1004.2331491588 2777.18471281873 18 18 10
70.465244391559 1001.67884700965 2790.27498807374 17 17 9
100.82302348177 991.977002863845 2821.07777628459 17 17 9
96.5428943902871 992.361889021284 2826.6880310561 21 21 13
133.952404848139 980.656318057066 2862.12078379156 22 22 14
69.1835272849168 996.869269794635 2841.85414790192 25 25 17
102.759116164084 1001.12346318771 2650.59590298634 187 170 160
112.82705874058 997.233972871012 2668.09645623515 122 102 91
119.713100120007 994.293453790165 2682.94845176269 99 71 57
126.657198970426 991.34586455582 2697.74350248691 136 104 89
134.477567530168 988.151087932435 2713.12218578397 165 130 111
138.261255450938 986.149996619569 2725.24770418847 183 148 129
134.692752158663 986.308038587138 2731.60207865352 164 133 115
136.073702939444 985.020867931747 2741.75696760047 128 101 84
133.358215462601 984.934608102174 2748.71730176755 96 77 63
133.964379299153 983.882172095837 2758.18996260724 75 59 46
122.156612496296 986.44825038373 2758.20003411731 35 28 18
121.1255138033 985.876292291109 2766.39334994879 30 26 17
121.780756935372 984.818127772436 2775.81845883612 26 22 13
146.684642541236 976.734194219492 2803.29578583093 19 15 4
98.0578029594579 989.964193243594 2775.94287830118 18 14 3
105.449225584579 986.962452555172 2790.30173346572 22 15 5
96.0783710975708 988.811245362874 2792.24899529784 25 16 9
61.3991469735162 997.955958452406 2775.73885052312 24 15 8
86.5726394960653 989.839746759704 2802.9532245591 20 13 7
101.723332171524 984.629781812685 2822.68658182706 16 13 8
113.571991969207 980.383873639855 2839.88844427259 14 13 8
111.03617793476 980.277734652819 2846.67329818609 17 17 9
119.596279022997 976.994597402949 2861.33047580912 19 19 11
110.272432353311 978.839233193149 2863.2316725891 20 20 12
129.193710922158 972.609268267127 2885.03951298973 23 23 15
95.8586454779526 981.311751154609 2870.09411668377 25 25 17
116.254840420221 990.696464334065 2652.90566187659 180 162 150
114.153887836917 990.40551996675 2660.7029154129 165 137 123
116.128757704737 988.929400733994 2671.71320760361 119 90 76
122.208152092229 986.264442353083 2685.90824060776 131 95 79
134.868874829214 981.696219169479 2705.18550704533 171 134 116
139.437200559927 979.490568696016 2717.9793494198 186 148 129
137.494237952104 979.18011996372 2725.62259931155 186 147 130
133.10193029856 979.581152951451 2731.34186255903 160 127 110
132.008279627038 979.029450945285 2739.59463743113 144 115 99
128.457441407288 979.190291337936 2745.93071877002 96 74 60
125.742075790143 979.111623124628 2752.88980989105 44 25 10
116.403413325828 980.941674378566 2754.80787456221 33 22 16
125.334859626975 977.516176774143 2770.53425101527 33 24 19
129.33253810744 975.518182652562 2782.44681586712 35 28 20
107.481697254759 980.938812251176 2775.0036437549 17 11 0
96.4365183037388 983.25270581732 2775.71063636444 28 20 7
101.30678309288 981.010937099202 2788.20998705119 28 14 1
103.700597073475 979.484185150862 2798.81174503803 35 17 7
93.485127255049 981.559840445367 2800.14694504377 30 11 7
85.7811800508195 982.916588331162 2803.34548596269 23 8 5
110.244552941493 975.120496541978 2829.80045854897 17 16 14
108.532497188473 974.783401984477 2837.2186906038 4 9 5
117.894741272296 971.306720822255 2852.52484339779 13 14 8
100.038991426211 975.554017201832 2848.37278942567 14 14 6
136.816666718405 964.329824674722 2882.94456913838 15 15 7
97.5566729025701 974.629124030035 2863.72766460738 17 17 9
92.4788142723716 975.254467618778 2868.67762778239 20 20 12
82.2387485370126 977.335523403658 2870.03645370712 25 25 17
84.9098663729957 975.777704840718 2880.36743649833 23 23 13
12.4021464871622 994.546265138315 2847.56978579103 28 28 18
-4.9626644891072 998.599373865813 2844.37617027366 38 38 28
120.037750152985 983.127834257533 2647.43399817478 168 152 139
120.349093123751 982.14824124586 2657.18865432965 172 150 137
123.117915329476 980.463983924281 2668.8582121484 136 104 89
124.301719226676 979.243003913463 2679.19908791675 139 106 89
131.214204774767 976.378464196592 2694.01359427709 180 143 125
139.816531202448 973.038094313314 2710.05420978978 185 146 129
140.307273689872 972.036062048505 2719.63403608441 191 150 132
138.366173709308 971.735580109427 2727.27396327208 182 143 126
131.511050877807 972.844000958483 2731.08355882823 179 143 127
130.413289188569 972.305626484677 2739.33810835624 154 123 105
125.207639891277 972.94301126849 2744.4131898694 82 59 43
122.484509740234 972.872869907842 2751.37873102227 60 38 24
117.285045073356 973.509651927201 2756.44776019432 36 21 14
121.230274186314 971.546692856144 2768.40722987828 28 15 9
117.719011037638 971.707838338738 2774.7043053364 38 27 21
106.699008803823 973.999216204551 2775.38962490425 21 11 0
102.34895807326 974.397811508204 2781.06728669118 30 16 3
103.876496710076 973.135018423317 2791.07334657784 73 51 37
104.594052598473 972.106102821366 2800.43191715788 77 50 39
100.281134678526 972.500665601316 2806.07330152018 46 18 14
101.829074058402 970.430025937126 2824.68029628733 18 17 15
112.843137402284 965.72111570268 2849.86457912417 12 15 8
130.78535594465 959.893575258834 2871.16825312383 14 14 6
102.687531563074 966.968899361257 2859.76482397014 14 14 6
71.9158842539236 974.775630614162 2846.65737305733 16 16 8
71.0720839639043 974.209191182078 2854.66388315026 18 18 10
84.8735187248071 969.562559551258 2872.81999441951 22 22 14
78.9278553350692 970.428644186498 2877.17920981 17 17 7
56.5584400276249 975.862637829988 2870.24901459731 23 23 13
42.7729798855392 978.900454052383 2869.31908569078 27 27 17
15.9275909279968 985.556210303862 2859.56780022721 30 30 20
19.4357164393892 983.786418000999 2870.5158609674 36 36 26
113.642089836839 977.586819654866 2643.26765488462 123 106 96
117.978185726613 975.473424149515 2656.27846968013 150 128 115
122.361071744592 973.354130005039 2669.24369300293 140 108 93
130.850255749045 970.072721892441 2685.38794609048 159 126 109
136.963879815946 967.477572131439 2699.53867083343 176 139 121
139.052940817277 966.034704103677 2710.43065502694 176 137 120
138.72386256664 965.283285320173 2719.37062555283 183 142 124
135.959023077554 965.225668287887 2726.3753957627 177 138 121
131.563016109717 965.631577257042 2732.09794965803 172 136 120
129.641678478334 965.33880556682 2739.7171129694 152 121 103
126.085179745165 965.510017406763 2746.05762022841 75 49 34
122.536421046506 965.680325499108 2752.39023725024 64 41 27
121.483923881211 965.149381723231 2760.59907802492 47 25 14
119.61953313132 964.849961693187 2768.16267486287 61 39 28
116.104317774793 965.016335958407 2774.46256426803 59 37 24
109.256558513541 966.118285442741 2778.26580415496 63 37 22
102.401083762738 967.22133856269 2782.07620467821 80 53 36
100.572275562856 966.917904537446 2789.60506078473 79 43 27
100.441101740871 966.142952007974 2798.35198756478 103 63 51
99.4904431098185 965.600408212063 2806.46141564741 123 89 80
96.8695709727956 965.526220927908 2813.32601106643 48 21 12
101.881258534534 963.330912680962 2825.67772217004 18 14 5
127.308621591666 955.471290010334 2852.60207526688 11 14 7
135.862467137876 952.315252597254 2867.24667943524 13 14 6
101.849519278329 960.964692452031 2851.565360808 14 14 6
104.449091264384 959.461299376681 2861.95934562254 13 13 5
71.969153812593 967.659987232342 2847.6561645824 14 14 6
64.2585890853886 969.001942623039 2850.86346312377 16 16 8
73.7426158009593 965.60154638139 2866.03740908621 19 19 11
82.430285423829 962.43082016365 2880.55129496707 21 21 11
67.8470249095611 965.670301259207 2878.96687832588 24 24 14
23.7955831876473 976.214914493439 2865.88860442978 24 24 14
113.695465901823 970.180151687551 2644.30935395398 101 83 73
118.031273151463 968.098399860869 2657.31577845152 121 93 79
128.083728717616 964.412240470337 2674.80165830845 134 103 85
135.774259478444 961.402718683583 2690.28189187524 179 143 127
140.271332975392 959.301062503708 2703.13078061797 170 133 115
139.92057815862 958.567885197156 2712.08958021215 173 134 117
137.957755838766 958.290662855715 2719.74764024547 170 128 112
136.010688278577 958.01121850118 2727.39038398212 174 135 118
133.257765093007 957.959870076678 2734.38273247094 163 127 111
130.516705808983 957.906849112398 2741.36354713079 153 120 103
128.612938739308 957.622299855976 2748.96404734252 67 41 24
122.587967725922 958.488180870342 2753.40204647076 55 32 16
122.36469628798 957.739404008873 2762.23655879261 53 27 14
118.008358917224 958.142801723613 2767.91975351192 95 67 55
115.32263140134 958.083277061385 2774.84658415177 89 60 46
108.473055236074 959.179558712692 2778.65246595449 95 62 45
100.778788091534 960.50866823889 2781.84547936852 98 61 43
100.624049756528 959.752031323503 2790.61276117659 103 60 44
101.333958522697 958.76039152202 2799.97375395701 127 81 68
103.756592594347 957.300840941783 2810.53662299255 155 117 108
105.369627080093 956.069845239384 2820.45308459811 44 16 5
121.408370976144 950.876403507223 2840.71906106999 20 14 2
118.87292598366 950.799643440997 2847.49920632771 11 14 3
81.4737620047068 960.288655123719 2829.38838690213 9 15 5
95.9335721448431 955.547626940546 2848.32158277416 14 14 6
91.6835704335366 955.939919140042 2853.90082600201 13 13 5
87.437477607879 956.332013406524 2859.47621690305 15 15 7
76.32862844088 958.59814910522 2860.25349357022 17 17 9
83.2587648935492 955.942876352169 2873.60229559581 20 20 12
91.1055030912351 953.046476824334 2887.49378413045 16 16 6
22.9639648261859 970.823599590748 2849.09007524609 18 18 8
55.9675167917284 960.329216090657 2888.71865907621 29 29 19
124.548248315996 958.919903141319 2663.536853807 116 88 74
132.995752649499 955.733617905062 2679.70843630436 159 128 110
139.88565691354 952.99115988499 2694.5273225921 164 128 112
143.578356273681 951.146071719644 2706.72013678529 163 126 110
140.787822588973 951.106894768302 2713.74803411732 165 128 112
138.827052311127 950.839543334606 2721.40293536873 168 129 114
132.783447258905 951.704661155756 2725.85921333063 161 122 107
134.130746738494 950.526094566538 2736.03180472556 156 119 103
130.56791050382 950.707966181177 2742.37669186521 153 120 103
129.489689515215 950.205975710308 2750.60679749088 94 65 49
120.156978971858 951.979741033402 2752.52693301055 90 63 46
119.927781957892 951.247396892788 2761.36490076802 158 126 111
118.059506968931 950.968751809107 2768.92928418479 161 125 109
115.373753041214 950.9167784863 2775.85502496731 148 111 95
108.524293963943 952.007207462982 2779.66165552267 148 102 87
101.667141194206 953.098678358584 2783.47543419123 105 56 41
102.353460137491 952.128128896742 2792.85639702951 170 118 104
103.066988982453 951.154267132098 2802.2108295901 181 132 118
105.493614398332 949.717787872184 2812.76666307274 91 53 42
105.420869203188 948.966958839246 2821.45200392035 31 4 0
95.2105523874094 950.975860461405 2822.79195308191 19 15 3
96.0098716949314 949.992185915851 2832.06264476969 14 18 4
95.985885598048 949.236094556225 2840.70034488153 15 16 8
89.1648169680477 950.324431724495 2844.47875462944 15 15 7
95.1532122572942 947.947054162551 2857.30473744619 14 14 6
90.9153469993385 948.340103115585 2862.87215499061 14 14 6
83.2478382479662 949.659529656717 2866.04002806562 16 16 8
92.7742842236103 946.343654284878 2881.15935892809 18 18 10
93.7444153779228 945.340863913833 2890.2632572376 21 21 11
10.055700003341 967.102914376829 2841.20275970837 17 17 7
72.5132836887861 948.833068596038 2900.91089762378 21 21 11
134.759474654139 949.580825852581 2663.27939823858 129 109 100
136.720955559342 948.224685977225 2674.28525297047 127 100 83
134.667639941774 947.979333936628 2682.02846376961 165 136 118
138.313390520799 946.169177073756 2694.26273596523 163 130 113
142.815942442492 944.130090764296 2707.09727459367 170 134 118
141.65497250851 943.651328348165 2715.406118049 162 125 109
139.695769150288 943.39405299307 2723.05763624406 162 123 108
132.834524808787 944.480142813657 2726.8762732244 169 130 115
130.895262534397 944.220294599268 2734.50836989591 161 124 108
125.677746386244 944.857347354567 2739.59528444107 153 117 101
122.936888304464 944.819514982779 2746.57365443678 110 78 63
116.898411939211 945.680788896906 2751.02574550647 115 86 70
116.661442007043 944.964874488676 2759.86900357935 154 121 104
113.954170861565 944.922984856372 2766.81462091214 156 119 103
111.258781645164 944.879774224591 2773.74863455686 161 122 105
106.069814150537 945.513404874974 2778.80770565265 125 76 62
105.066260507377 945.015459329143 2786.96272982035 75 23 10
108.277220179769 943.382374037024 2798.1856753951 177 123 111
109.004272072487 942.425146782374 2807.52422079605 166 116 105
107.23023895831 942.145694114402 2814.9954778406 44 10 0
93.6448667583738 945.046304270936 2813.88713764629 35 11 1
73.247001553995 949.772115881433 2807.93765166702 14 12 0
87.574456221263 945.168777240595 2826.98192802596 12 18 6
96.0370533571684 942.150672303486 2841.69675685493 16 17 9
104.561637272862 939.125106760814 2856.3511345695 16 16 8
93.5357287654468 940.599099260603 2865.66492210278 14 14 6
79.0078492159374 943.740550837499 2864.04000006494 14 14 6
46.3720269650501 951.700017300745 2849.92697175203 16 16 8
30.8564125840451 955.086832564205 2847.82971103984 19 19 9
104.298788973082 934.826555935796 2906.84267529155 22 22 12
25.6675669144348 954.982207632921 2861.49990660445 18 18 8
46.5262423683921 948.715172681634 2884.22351866915 18 18 8
136.423752039095 941.804149578595 2665.61029202727 97 75 64
136.772735116417 940.911566927418 2675.31471090663 156 129 112
137.958982380731 939.795184433661 2685.63770090797 157 128 110
139.17675312543 938.674873835231 2695.93030604144 158 125 108
144.49470313822 936.446351543011 2709.40005018487 159 123 109
143.337208806009 935.98025508944 2717.70323245053 163 125 112
139.746580263628 936.175465122179 2724.0740841922 166 126 114
132.885325997167 937.255659311317 2727.89360239993 166 126 114
130.124500958231 937.22789210153 2734.89031225272 152 115 99
126.552070834867 937.420689996738 2741.24344920816 142 105 89
124.63839414426 937.167994826435 2748.84908179995 131 95 79
120.25844411124 937.580737925703 2754.5543429982 142 106 90
115.882741727166 937.9931094099 2760.25577898479 154 118 102
110.679855249614 938.627905080979 2765.32849964684 139 102 86
107.976534958665 938.593137397211 2772.2688032598 121 79 65
106.120399015772 938.333588045249 2779.81864792555 179 129 118
105.953756705051 937.624919250415 2788.59066089022 158 106 95
106.649817503671 936.689512400944 2797.95709370137 167 120 112
106.532024172088 935.975039229069 2806.68145679203 117 77 69
103.90922084264 935.93099259743 2813.54351513839 28 5 0
83.5583558940609 940.601980883818 2807.55579791568 26 13 4
65.6778892872829 944.607200823307 2803.46406684443 13 16 9
54.5287648524964 946.819150188842 2804.28934616427 12 19 12
93.5361056395294 935.741510085329 2840.87644049104 16 17 11
97.7921281708181 933.886792631788 2852.51128965242 16 16 8
88.4200266706885 935.639505520493 2854.47399035708 16 16 8
89.3050156902668 934.682535120141 2863.65566389335 14 14 6
73.0917021720914 937.515746057784 2869.41793564643 14 14 6
73.1554266356214 936.781443024704 2877.96531757003 13 13 3
130.833287721607 935.993005422306 2662.10154939723 97 73 63
132.784304069167 934.685608745115 2673.11025352416 158 131 114
135.580550067896 933.156166548955 2684.72969750313 156 127 109
136.79228407216 932.057491942151 2695.02509941898 154 121 106
140.476428675764 930.300579196507 2707.21337632335 156 120 106
138.493461616343 930.06687975398 2714.88500771541 160 122 109
135.708713909385 930.049853292881 2721.90388565321 161 123 110
131.296831299379 930.46890874719 2727.64026125113 164 124 112
128.531960900522 930.449317466741 2734.63977980734 148 109 94
124.132049858885 930.866817783719 2740.36415946752 142 105 89
122.212517855034 930.625180313322 2747.97397214871 141 104 86
119.481448055264 930.601386899116 2754.94054728389 145 108 90
113.445196069677 931.456247636888 2759.39137737635 146 111 92
107.405183766896 932.311595460301 2763.84553168633 146 109 91
104.694266559712 932.285320460414 2770.79246177645 163 121 107
103.665391093761 931.816205534302 2778.9687075775 186 138 128
102.655969138305 931.344710190826 2787.1256497377 159 109 100
99.9883300860431 931.313451042462 2794.03034063518 156 113 104
100.69600364994 930.394873593527 2803.3824165787 59 25 16
102.273838329379 929.251638337832 2813.32086115658 23 6 0
103.882712443833 928.104562074893 2823.22871297385 21 12 3
81.8157664567924 933.174268075242 2816.05200280924 15 18 11
78.3412616490056 933.36079471758 2822.30882536714 9 16 9
67.1531480941683 934.84615454165 2831.78200482478 17 17 9
66.2558454497351 934.362398742054 2839.82976078377 16 16 8
65.3778458902341 933.876458395105 2847.85833352722 14 14 6
85.9766241437838 927.79909062488 2870.81233246937 14 14 6
60.2395524287376 933.793470747325 2861.47513202082 14 14 6
27.5128280515586 941.5919000126 2847.47650993262 18 18 8
11.0799422819996 945.144269465678 2844.84839727239 20 20 10
133.303044208007 927.999248886836 2665.08158421658 146 123 107
133.643783604341 927.144443061531 2674.78860579466 157 128 110
136.441703239075 925.641031004743 2686.4025405851 152 123 105
134.407619740232 925.424272052725 2694.12242756005 146 114 99
138.085739400661 923.697013571877 2706.31230443467 147 113 101
136.096767140939 923.474508662553 2713.98824453228 152 114 103
133.306125654868 923.465773215749 2721.01174967158 152 114 103
128.888311620118 923.887935173452 2726.75355612211 151 111 101
126.939030200865 923.660308665373 2734.39083959846 144 105 90
123.358772563155 923.863882168334 2740.75015676124 145 106 91
122.262543428126 923.415890609192 2748.98982588495 144 105 88
118.704160866256 923.616706411263 2755.32782836103 144 106 87
112.665813476312 924.468777966981 2759.78081361889 149 111 90
106.624084060165 925.321203874105 2764.23744274777 164 123 105
101.411873683388 925.956231469608 2769.31938790125 164 117 101
100.375205937913 925.501013057144 2777.50131765241 181 133 119
96.0101150868256 925.916600426546 2783.19140308146 183 135 125
91.6490617498646 926.331855709618 2788.87752828151 88 50 39
88.9739138051371 926.309032217423 2795.7884288339 34 6 0
85.4678633980033 926.503958345783 2802.07533519792 26 16 6
108.156174057906 919.901653364414 2827.28271101532 17 13 4
113.192406457152 917.892776659007 2839.58249423202 16 19 12
100.455087415315 920.492261965308 2839.09377799626 6 11 5
115.750284750822 915.837964529114 2858.60151258519 16 17 11
77.4334379161323 925.044124348045 2840.02652402344 16 16 8
91.9384184747649 920.602801268235 2858.87056871877 15 15 7
101.475741660814 916.768624433286 2882.55783467071 14 14 6
9.40410807802827 938.346547099705 2844.68306932987 27 27 17
133.041159469552 921.489829672959 2656.38435020025 142 123 106
136.578405888745 919.80950703375 2668.707517031 153 130 112
137.734548786209 918.760016318108 2679.05051453806 152 123 105
135.682555283887 918.555952688893 2686.78631004805 148 119 101
132.834614086726 918.562283635049 2693.86448784121 143 111 96
133.253567457958 917.715839062822 2703.49260599644 143 109 97
132.884330899472 917.078987982886 2712.45552125913 147 109 98
130.903387331385 916.865554598739 2720.1221479798 147 109 98
125.660014034604 917.504274900161 2725.2344925932 145 105 95
123.703068949115 917.287803088053 2732.8780753862 144 104 92
119.291402427893 917.711384938485 2738.6132295634 145 106 91
117.36011889592 917.491691117721 2746.2314684239 143 105 86
114.617282257992 917.484536088837 2753.20726905724 145 107 86
109.39867681906 918.119957101753 2758.29550645505 144 103 81
104.180368461701 918.755399631642 2763.38344566627 133 91 69
99.795381993252 919.175559068668 2769.09261198787 120 73 55
97.9198120483775 918.949123471219 2776.65686070643 115 68 52
94.3858324509579 919.152006217687 2782.96998734259 97 54 38
90.0211847587982 919.569942403841 2788.65962339618 80 51 35
89.023705409105 919.123064695279 2796.80106789663 41 22 7
82.9893562319901 919.971847639987 2801.25090676731 24 20 8
88.7772655470225 917.789279896815 2814.24718231405 10 10 0
93.7688644528039 915.817578274624 2826.5857927885 19 19 11
117.476015524869 909.065337688709 2852.22085259198 14 11 6
91.9851107538143 914.899130044654 2842.66293953077 14 14 6
99.647001940061 912.261554912673 2856.69972974764 14 14 6
81.7356276265318 916.149372383631 2852.65604251967 14 14 6
96.3062457307204 911.761279134285 2871.42704081627 14 14 6
133.092588650522 914.128990044178 2657.42120914579 145 127 107
133.405609058288 913.314403178807 2667.15014958655 141 119 98
135.361586614378 912.077674373666 2678.14348247945 145 116 98
133.303590065786 911.884569130799 2685.88361945841 144 115 97
131.261663089041 911.68936605633 2693.60844701556 140 108 93
130.862839619706 911.071989553294 2702.59786418413 139 105 93
132.934422933609 909.820509899001 2713.47857901961 142 104 93
131.771031865004 909.406977383314 2721.78018574662 143 105 94
127.349011596492 909.834282209992 2727.52507109367 140 100 90
122.931202141771 910.260879290206 2733.265879645 141 101 89
116.87090675539 911.109454006098 2737.74151426116 143 104 89
113.283075090736 911.323948067176 2744.10673849094 145 104 86
110.530495794222 911.325687202655 2751.09089917466 147 106 86
106.960503065218 911.537886451529 2757.43841040788 148 106 82
101.736417221456 912.173526605942 2762.53205753969 124 79 56
96.5126077391965 912.809131920596 2767.62543538974 124 76 56
93.7941043262569 912.806752155985 2774.57636698897 108 61 43
91.0875275135812 912.802809885079 2781.51568623559 108 65 48
86.7149541569057 913.223940111668 2787.21238267142 74 47 28
87.391473117461 912.364013266485 2796.58672706299 50 33 15
86.4099432523933 911.928202913528 2804.7110355811 23 21 6
93.0500311530933 909.565184220754 2818.30466508402 15 16 2
78.5790990268649 912.548614411951 2816.64654890483 21 18 9
75.0968094938522 912.750818718301 2822.90844681608 19 12 6
80.1276119752519 910.806181897353 2835.20446523659 16 13 6
81.7953840876675 909.715294931783 2845.04586355959 14 14 6
101.435457505917 904.104682273504 2867.46529937205 15 15 7
108.343806812437 901.709954807872 2880.79756571814 16 16 8
93.8506325878952 904.697086539281 2879.16065134335 17 17 9
132.056717431888 907.76626900995 2648.05430174328 110 99 81
132.339828834293 906.974158805843 2657.80928238579 133 117 94
131.038646056127 906.591265110525 2666.24318991306 133 113 88
133.796576806077 905.172207359677 2677.88436672766 136 108 87
130.924706172116 905.197004824103 2684.98357746197 139 108 88
131.311924057645 904.391416530656 2694.63717088348 136 105 87
128.471751577669 904.412041032629 2701.70552164433 134 102 87
129.721687092718 903.392653102865 2711.95093251701 132 98 86
127.732687757879 903.201051271865 2719.62233203913 129 95 83
125.75946282576 903.007401857931 2727.27836997803 127 91 79
122.98070799056 903.020106783415 2734.28690261964 128 92 78
117.743677827372 903.657142899663 2739.39319732944 132 95 79
112.507010137011 904.294015382798 2744.49915628327 142 104 85
108.92523391083 904.512758409891 2750.8577393778 145 107 88
104.522200500987 904.939674581446 2756.58382793658 147 109 86
99.292293038145 905.575694830486 2761.68319984437 145 108 82
96.5618589487023 905.582308158182 2768.64464960662 139 99 73
93.0083996857309 905.797422413298 2774.975649869 138 101 75
90.2998821122667 905.80139075357 2781.91572713489 139 103 77
85.9254186145289 906.224882140225 2787.61395153032 120 92 68
85.7591657761434 905.594284903392 2796.37437664301 78 56 33
83.9308333819786 905.383018139892 2803.88913798638 35 24 6
80.4291126491083 905.592140650636 2810.16964670074 30 24 10
70.1623735010366 907.491986616128 2811.58174245077 20 20 10
65.8123514433831 907.913045427994 2817.25605566837 19 18 13
65.7189224125401 907.274152125494 2825.94539181852 8 8 0
75.0252478697462 904.298974004707 2841.23295070487 28 28 18
86.9606118042152 900.67870387962 2858.25624563062 24 24 16
112.6738324337 893.647409378459 2884.77431139066 15 16 8
93.0415957767003 897.88051883988 2879.55461326795 19 20 12
125.691530098917 902.01058621098 2643.88976403801 95 84 66
125.958869691321 901.238862567989 2653.65739319617 121 105 82
123.83586510941 901.074827585232 2661.45778754147 123 106 80
124.960224212431 900.092440366237 2671.82242895876 138 110 89
123.68658037138 899.719048092145 2680.22758560846 133 102 82
124.056156769138 898.933964124752 2689.89566675768 128 97 79
126.080600116498 897.735766142019 2700.815655111 130 98 83
126.508892704217 896.943280065919 2710.42652424404 121 89 76
125.329492740451 896.557784016226 2718.73954642118 117 85 72
122.530896884034 896.580715133964 2725.76627006341 120 86 74
120.565657049379 896.396260678598 2733.41301967162 127 91 75
115.322783470027 897.033738606169 2738.52505168053 132 97 78
110.080272902008 897.670993863914 2743.63675612433 143 106 87
107.319794751354 897.689001701522 2750.62635597991 147 109 90
103.742141048652 897.912060462798 2756.98020748406 152 115 89
100.17258632532 898.134157187863 2763.32615877051 151 114 87
95.7779077930554 898.562319878578 2769.04376657735 144 107 78
93.0574377460029 898.575343027851 2775.99437452938 145 108 81
89.5118215544262 898.794552896184 2782.31664333409 144 109 81
86.8131813735209 898.805118888099 2789.24593707312 127 97 71
84.1264901284706 898.81400162031 2796.16361412726 100 74 49
81.4516164982599 898.821630429702 2803.06974144441 49 32 14
74.5655030370447 899.870625620414 2806.91889424035 38 26 10
70.2115080362793 900.294249193814 2812.59677357856 24 20 9
71.8011837478487 899.254557705744 2822.50781827086 22 22 14
81.926804426486 896.11868780702 2838.42280222523 23 23 13
68.2552870331943 898.839865530914 2837.42652551656 13 13 3
75.0489389565012 896.532849813301 2850.85938645967 15 15 7
75.0469836108154 895.898936070744 2859.45715191145 23 23 15
41.599092982858 903.4593226469 2844.79259401685 17 18 10
115.557935808947 896.465049235641 2646.27006932281 90 75 56
123.080775565644 893.900712395679 2661.85102439492 110 93 75
122.587049008917 893.34266494033 2670.92557508287 116 90 73
120.497685637575 893.184636486342 2678.69201328842 118 91 72
117.612326220711 893.226289414586 2685.80212735336 120 91 75
119.620801856272 892.05394085945 2696.73381350444 119 90 74
117.586566580343 891.888739795689 2704.44623096291 119 87 72
116.385915745302 891.518764922245 2712.77839938829 118 87 69
114.385334412451 891.349144337741 2720.45805118701 114 81 64
113.222076337521 890.974573450392 2728.75376733768 126 89 70
111.255104815071 890.800715815248 2736.40067033207 132 96 74
108.478783871219 890.828268898461 2743.40459153237 146 109 83
109.023172141219 890.03948642196 2752.89962854629 151 114 88
103.790953955565 890.675090348409 2758.00135656829 156 115 87
100.221397591754 890.902022724054 2764.34659477671 156 115 85
94.9936856859384 891.537117531155 2769.44392324384 156 115 85
93.9410591587002 891.148671786092 2777.63149348813 158 114 85
91.2343796979167 891.167622360286 2784.56753111332 154 113 83
89.3783959754799 890.980126762386 2792.10623726654 143 106 77
83.3344675893488 891.817556958557 2796.56726636465 135 100 72
79.8150559008644 892.038639551723 2802.86357476449 81 55 32
71.235599171068 893.494054457064 2805.49967948259 64 42 21
65.1808687352298 894.333141267371 2809.97119032891 44 28 12
61.6680875687705 894.553623853187 2816.26100320319 41 28 12
64.9667003349239 893.120891738782 2827.36729584791 25 19 7
64.8945423890974 892.510819269282 2836.03091194768 28 24 13
39.2169717179001 898.108844859994 2826.69354495168 16 12 1
28.858948414431 899.987588882676 2828.19940607537 14 11 2
107.012985191551 890.492056780991 2649.96982432488 102 86 71
113.751153022443 888.16600053331 2664.8778431337 119 96 80
114.069479099224 887.424174030934 2674.59042317483 120 94 77
107.921575832717 888.272294190984 2679.1531208942 110 83 66
109.906746260998 887.126517089039 2690.10436005344 113 86 69
109.480185962901 886.575157247967 2699.11122522719 122 93 77
113.165149383163 885.021511722094 2711.2689840702 117 86 68
109.517677913694 885.263468829468 2717.68903463956 117 84 65
106.699809864386 885.304102439401 2724.73227943361 127 91 69
105.540686110194 884.941865559404 2733.02206718177 132 96 72
105.226517458292 884.37632392759 2741.91975969387 146 109 80
107.417323476835 883.20475416764 2752.67027397372 156 117 88
103.010503821137 883.63909293926 2758.39936311554 165 121 92
100.269931958179 883.669982136718 2765.36729187381 165 121 92
94.2090920164644 884.506373024464 2769.84493016396 165 122 90
93.154579027662 884.131243139426 2778.03274345617 165 120 89
90.4459588060904 884.158104324796 2784.96953910064 160 117 85
87.7492205135968 884.18364451069 2791.89473105703 152 111 81
83.3828998212187 884.613008720045 2797.58400152573 143 104 73
78.1779999841583 885.24505079693 2802.65912846355 103 72 44
70.4396010711621 886.486494119101 2805.90892240271 88 60 36
65.2295561199345 887.119243788206 2810.98905393313 63 41 20
59.1713667413445 887.955759243056 2815.46437960595 55 34 15
58.2118527069557 887.56955080065 2823.55915709603 31 22 7
49.6009448832044 889.018067314139 2826.22785063665 24 18 6
16.2005102712244 896.39479823125 2811.54331244286 26 20 8
53.7387117148516 886.80656787226 2846.53499326828 26 22 11
110.070798249721 881.031964525127 2672.42105371252 104 85 71
104.724783439338 881.681855355451 2677.63367186695 117 95 81
100.192749164165 882.134763992189 2683.48401851698 113 90 74
102.189651509693 881.011095426255 2694.42034007699 107 81 64
104.221631342873 879.883194730033 2705.32211683824 119 88 68
101.372274187618 879.935346051902 2712.3949284672 121 88 69
100.177784702383 879.590599694893 2720.71724981743 132 98 73
101.472807056245 878.649617399257 2730.90630047418 137 103 76
104.449757633256 877.308502918527 2742.31846738152 150 115 85
106.638622776001 876.160870267146 2753.06770892753 158 123 91
103.887905418508 876.200586475185 2760.04440768354 170 130 104
98.6560120350957 876.83550079806 2765.14591509523 169 129 103
93.4244386073546 877.470256847785 2770.2471281789 173 131 106
92.3679156720007 877.108294521445 2778.43499121832 171 130 102
91.3309514630112 876.744056451261 2786.60343066529 167 126 98
87.7973772042031 876.976713286646 2792.91209203888 169 130 101
81.7494250885149 877.808589986645 2797.37759972224 165 126 97
75.6981536453383 878.640931071532 2801.84667275298 147 113 86
68.798681578321 879.674168592036 2805.71108197674 113 81 56
63.5847707971071 880.307051797478 2810.79503259688 84 58 35
54.9773677391738 881.743804464864 2813.46198454455 71 46 24
47.2051149896919 882.981318934158 2816.74597652653 37 25 9
32.6029794936988 885.831803419722 2815.23779655029 23 15 2
33.3351577565772 885.057499861491 2824.54421534744 29 21 10
97.1648381755878 876.742074414263 2663.19866844272 121 105 92
100.716173665457 875.26337214427 2675.47770737351 100 81 67
94.5471533994651 876.10796271086 2680.0618962579 115 93 79
98.161224027383 874.621233742243 2692.27982461176 115 92 76
96.9135530464769 874.296341806088 2700.65202149863 120 91 73
98.143671505873 873.38465251751 2710.90119318839 119 88 68
98.5838798061494 872.663962527825 2720.4896184125 132 100 75
100.698231357339 871.549252060397 2731.30798717202 138 107 79
104.498184290914 870.039384517736 2743.34475151966 151 117 89
105.032417123689 869.307077117047 2752.84152604133 159 126 95
103.936043974539 868.963052716349 2761.06630971457 167 133 108
98.7041113050178 869.597618178903 2766.16790769934 167 132 110
95.9714564307763 869.642841209022 2773.12585623657 175 139 117
92.4159193443264 869.883220189231 2779.45518569305 175 139 115
88.8682503823572 870.122620305239 2785.77650881931 175 139 115
83.6512406954557 870.755363457544 2790.8635573984 181 145 121
81.7973977342592 870.598556616576 2798.39560195918 178 142 118
77.4314986604998 871.03263111124 2804.08409541824 165 133 110
73.069682607481 871.466321851826 2809.76825325404 160 129 108
65.3260364135835 872.691738499236 2813.02562655623 139 111 90
57.5710386780202 873.918527220015 2816.29406931526 125 98 79
45.5529105579959 876.139503349961 2816.56403867123 67 53 40
36.0608665188851 877.768124540102 2818.66384694702 36 26 14
63.2826124863302 870.842397264055 2846.50247843403 16 8 0
88.0879115779454 870.234772407247 2676.00778576602 132 118 107
90.8706938330681 868.970854059572 2687.60135513258 112 93 79
89.6054096485237 868.661037751771 2695.98881401974 119 93 76
90.817839513202 867.772689231497 2706.25210099018 126 99 80
93.7044704559851 866.495620137828 2717.74449074924 132 101 80
96.6302166421311 865.213678915045 2729.19875859197 138 108 84
102.896093243962 863.155575205103 2743.11925698722 151 121 93
107.561918981548 861.477093169116 2755.73802730671 161 131 103
109.787509002837 860.372477575057 2766.44444260315 165 136 118
107.062159771832 860.424563497859 2773.39412219611 168 139 123
106.847684980872 859.893982744946 2782.18765002792 177 148 130
103.317039806146 860.136367029979 2788.49162722291 181 152 134
100.631463757379 860.183615817671 2795.40252638441 188 157 137
95.4415412672618 860.812531416638 2800.46324268738 188 157 137
93.6149379923879 860.662832962419 2807.9675250625 186 155 135
86.7480513476502 861.680758495653 2811.80183958527 179 150 132
79.0293105628903 862.894779784803 2815.03616567699 177 150 133
70.4528498863488 864.305459394603 2817.67624496906 166 140 123
62.7095772421189 865.522514345609 2820.93448318599 157 131 116
54.9549944963612 866.741054083448 2824.20373305008 134 120 109
49.7459764189276 867.372966672878 2829.28296859966 125 115 105
42.8287483865928 868.397356475562 2833.16631744829 120 111 102
83.1149699137641 862.788111335685 2691.96598235642 112 94 80
87.589246285551 861.165089587713 2704.76676702143 124 102 89
94.5745574077597 858.967151801539 2719.41043303586 135 113 99
100.794986500069 856.951940870896 2733.36938410386 129 108 91
111.196073559685 853.979403454882 2750.40359471788 153 132 115
117.535377384113 851.949560288373 2764.24666405767 149 128 111
121.441980786778 850.484862772998 2776.17084680261 213 196 188
121.236672394014 849.968989064267 2784.9530985708 237 222 215
119.388995115641 849.832279905586 2792.47605008873 255 241 234
114.217673880489 850.458850520803 2797.51864165812 251 236 229
109.04680069098 851.085187746267 2802.56082280646 255 246 237
102.198840369991 852.09511223924 2806.37786360221 255 244 235
100.387450405719 851.953946425687 2813.86543997246 255 238 230
94.3788619272157 852.772061320701 2818.29423081296 253 236 228
89.211261481565 853.398103902454 2823.33320562648 253 236 228
79.8114744317386 854.987733097706 2825.34716434793 249 235 226
73.7865163103573 855.807970615134 2829.79189676313 247 230 222
64.3564565082273 857.401475140654 2831.835344003 223 212 206
58.3165748657195 858.223594005045 2836.29461763303 213 206 198
59.1067510740442 857.497350612307 2845.53634034151 172 167 161
71.0541512903244 854.247597448915 2862.49292081637 162 157 151
90.5209024793137 853.701385752793 2698.70765545529 107 90 80
95.0124233935856 852.108079153452 2711.48726199069 101 83 73
107.76400337611 848.639020848319 2730.51184975131 129 111 99
118.95452909391 845.534158587119 2748.19860297975 126 108 98
127.747397986334 842.982004414507 2763.93350907041 131 114 104
133.29799031662 841.172375911712 2777.11032363433 188 171 161
134.753971935472 840.296076222144 2787.12997930061 253 242 238
132.917400995844 840.168581321758 2794.64054019663 255 250 248
130.263847008199 840.227360990026 2801.51793671895 255 251 249
127.622261060955 840.284690865464 2808.38366307897 255 250 248
124.155953405121 840.52932985951 2814.62375676361 255 252 247
116.504007964726 841.718537200408 2817.79542158168 255 247 242
109.681398421168 842.719735793298 2821.58824052291 255 248 243
101.166361156032 844.100912509142 2824.17168597429 255 245 241
95.1698319575551 844.91455869897 2828.58916224413 255 245 241
89.1697313181248 845.728655125679 2833.01011846281 255 245 241
84.0144188685481 846.353089641452 2838.03712878604 255 244 240
74.6076978278971 847.930030146333 2840.05984844577 251 243 240
65.1819296406688 849.50931287786 2842.10113602355 248 243 239
56.5914669439689 850.899998167813 2844.75807468036 247 244 239
53.9786373894544 850.954410468945 2851.59567673352 235 231 228
57.3841718723482 849.667473973552 2862.57424600411 201 200 196
136.345218904576 836.022246440632 2735.16906601277 130 119 115
140.125562970153 834.631890990009 2747.20797626319 202 191 187
141.484859121769 833.788890879736 2757.31872036442 255 252 250
147.814914527365 831.834809188869 2771.15977600781 252 244 242
150.899006813996 830.61304455929 2782.44790975778 255 248 249
149.059786001283 830.496426099541 2789.95983232577 255 252 253
145.578062917969 830.748269716629 2796.21383107564 253 251 252
142.93568201907 830.813601631102 2803.07916413653 252 252 252
139.47234461549 831.06317337204 2809.31557925894 255 255 255
136.851987602471 831.125728825753 2816.15945263527 253 253 253
130.05965837528 832.117567033942 2819.9235862355 253 253 255
122.421330578088 833.296743050005 2823.08321115799 255 255 255
113.93113738212 834.663937512101 2825.64405265242 255 255 255
107.953597221297 835.472300359512 2830.04345340286 255 255 255
101.127893105069 836.468228065117 2833.84012433534 255 254 255
97.6807765343271 836.71569594351 2840.06074288091 255 255 253
88.302836450894 838.275386352507 2842.05743218131 255 254 255
79.7564371925872 839.649489575359 2844.67306601469 246 244 245
66.0812919358653 842.153824523503 2843.7124410956 252 252 250
54.0760327449279 844.286507183441 2843.98234330906 247 247 247
46.3207838506796 845.480305023934 2847.25591151007 250 250 250
43.702611086025 845.5431748067 2854.09756943779 254 255 255
182.655230911402 819.568347333576 2753.96315837204 204 201 196
181.583973500767 819.287922444451 2762.15326392363 225 217 214
178.897871197964 819.367257647605 2769.05994330497 255 249 247
179.501066894268 818.719368159205 2778.47575975312 255 253 251
176.02553968493 818.976078657363 2784.72322442765 255 252 253
172.557944914311 819.231743214661 2790.96262882086 255 253 255
169.923866119234 819.304107246261 2797.81867842609 255 253 255
165.647775585973 819.739479276263 2803.41779890167 253 251 255
162.204651053124 819.991882064795 2809.63338607504 255 255 255
155.446210956916 820.974186746081 2813.36561416034 247 247 249
152.011633449078 821.225394108651 2819.57289069497 250 251 253
146.915699436398 821.84198921601 2824.54209601371 254 255 255
141.820212930853 822.45840997033 2829.51088272057 253 254 255
134.208979099224 823.626032663474 2832.64531051081 248 249 251
124.905394295844 825.162891477615 2834.57187626068 253 254 255
118.1103095562 826.149533992243 2838.33951404675 253 254 255
108.774625916916 827.690262468201 2840.29738248086 252 252 254
103.651928432678 828.31011359875 2845.2926830837 252 252 252
93.4393645516067 830.039255542237 2846.67621197264 253 251 254
85.7549395930399 831.215869264585 2849.88199076371 255 255 255
71.2414226418816 833.876860243204 2848.31381831999 254 255 255
54.9772890256062 836.914268790705 2845.59424327389 244 245 247
42.9435725205871 839.028720481454 2845.89509855019 242 243 245
34.31155938034 840.402589523921 2848.59578284571 252 255 255
32.5438811839689 840.288051157905 2856.03601725913 235 239 238
211.881698777293 807.56320982085 2750.80434542731 231 233 232
211.622526724361 807.118697347339 2759.6295374469 252 254 253
208.140611443703 807.382299990425 2765.88198907267 248 248 248
199.785930211155 808.712715428292 2768.3137011079 251 251 251
195.493357295228 809.153539585542 2773.9280451691 255 253 254
194.474803295001 808.879784510988 2782.06516750137 255 253 254
196.753294238937 807.888501476955 2792.70230089672 255 253 254
194.96066837305 807.787663581024 2800.16528379127 255 253 255
189.068121105459 808.580535248817 2804.48257493189 255 255 255
183.997141431253 809.194338278262 2809.42741289154 255 254 255
178.926630522759 809.807964274687 2814.37181152531 255 255 255
175.514410550987 810.061719277799 2820.55651015595 255 255 255
168.786844395781 811.034765645045 2824.25944833621 255 255 255
162.884611053061 811.828281746159 2828.58592480366 254 254 254
156.144312625694 812.802756312139 2832.30129523123 254 254 254
