ply
format ascii 1.0
comment KinectMotionCapture
element vertex 761
property float x
property float y
property float z
property uchar red
property uchar green
property uchar blue
end_header
-52.1872131444345 766.900714681592 2871.66919765834 233 232 238
-64.4928349046747 768.789319818643 2872.27377673657 232 230 235
-73.3204214089622 770.056874227568 2875.18438153009 239 237 240
-80.405205302327 771.013462118556 2879.2441369186 247 247 247
315.037114537006 709.229166341772 2691.2434347488 111 111 109
318.489172037717 708.296116799985 2703.54041095549 194 194 194
317.314094287174 708.207029838884 2711.80566981914 234 234 234
316.158727842589 708.115235117071 2720.05141742845 240 240 242
315.02338775773 708.02054890354 2728.27804376972 248 247 252
310.770897830156 708.492408885022 2733.84799774968 252 251 255
304.950564483195 709.248402523416 2738.09902995623 239 238 243
301.490954203892 709.576181853551 2744.31984709961 237 236 241
298.039827953963 709.902406848457 2750.53280704846 231 230 235
293.012887692169 710.513901295666 2755.43425442801 228 227 232
287.192545472308 711.268539769621 2759.68549573819 218 217 222
281.368680010647 712.023281629137 2763.93988255724 216 215 220
276.339389201425 712.634069930148 2768.84376843323 204 203 208
269.71123924733 713.53284294426 2772.45896242529 199 198 203
263.075632137653 714.432333213928 2776.08111763104 198 197 202
256.433032274711 715.332279211559 2779.71048722974 196 195 200
251.394186414455 715.94303373322 2784.62386640523 195 194 199
247.970745334153 716.26301007566 2790.8099202775 206 205 210
244.555763793601 716.581788983136 2796.98808852409 203 202 207
238.71497541236 717.336174516937 2801.25967055922 199 198 203
232.057361110543 718.236611109233 2804.90353936602 198 197 202
226.207946593567 718.991553385069 2809.18360499522 195 194 199
220.354986499197 719.746719799876 2813.46682046555 184 183 188
213.679795365256 720.648651567317 2817.12826018224 188 187 192
209.460413144805 721.110794726568 2822.66677386169 192 191 196
203.599527073808 721.866298641666 2826.95814790358 196 195 200
201.035022206009 722.03291031411 2833.73117981037 223 222 227
194.348255137606 722.935488886363 2837.40368116164 233 232 237
190.14067788954 723.395436215353 2842.93079687175 232 232 234
182.614635007711 724.446706067419 2845.99782568859 237 237 239
179.240851255795 724.758109492452 2852.13617401514 246 246 248
174.206115044744 725.365279548554 2857.04600203066 245 244 249
168.335417742772 726.120899917508 2861.34710155812 198 197 202
162.461088213575 726.876932255501 2865.65140921006 149 148 153
156.583631761099 727.633286785121 2869.95911216526 180 179 184
150.702839866049 728.38982592497 2874.27009997893 210 209 215
144.818435925336 729.146892427304 2878.5842588214 202 201 207
138.930884341275 729.904224764534 2882.90184187196 203 202 208
133.039888867723 730.661991258755 2887.22278058748 218 217 223
126.295375708022 731.570375422702 2890.95176659713 215 216 221
115.283556010263 733.23240890368 2891.72197761095 224 225 230
104.245207762309 734.897550854626 2892.51807243677 226 227 232
88.0449222790456 737.472024802984 2889.80351678232 226 227 232
73.5105217833123 739.750051327867 2888.3126839861 224 225 230
54.635266831756 742.790540340742 2883.9344699388 225 226 231
37.4220272681893 745.535128723476 2880.78374050347 227 228 233
21.8821581622466 747.982339058198 2878.84910044783 227 228 233
5.43081857652528 750.58740092638 2876.37932434718 226 227 232
-9.33533484917781 752.893759058092 2875.11443823724 227 228 233
-23.2743282348808 755.052776389262 2874.4668562036 228 229 234
-38.1230039289333 757.369432864381 2873.28205599338 226 227 231
-51.2670241343085 759.385036084539 2873.2834975425 226 227 231
-61.8201702744465 760.945120902213 2875.03021621879 227 228 232
-70.6419999223447 762.201053372928 2877.93648424422 235 236 238
-75.0834403815133 762.689939118263 2883.69189033678 236 237 239
328.675289877615 700.057801088668 2694.64306482628 126 127 122
332.126540439535 699.154737431454 2706.93674827646 152 152 150
325.527034701843 700.049204798943 2710.5237966689 238 238 238
323.590513061992 700.110450157168 2718.10571435999 255 255 255
320.889717227484 700.308454958722 2725.00944532071 243 243 245
321.330088828259 699.946982473333 2734.54461619475 246 245 250
315.524528858593 700.698931846199 2738.78157595993 243 242 247
308.929314942668 701.590794252434 2742.36474752204 239 238 243
301.538767512431 702.623390591578 2745.29998728952 236 235 240
298.877273683642 702.814671686032 2752.16568453854 229 228 233
294.644115301619 703.285319926479 2757.71695894478 223 222 227
288.033416807171 704.17771915804 2761.31542757972 220 219 224
280.619669550444 705.211648045628 2764.27350816778 214 213 218
274.790494275886 705.963920905716 2768.53387046855 202 201 206
268.957919783022 706.716386415977 2772.79757976974 198 197 202
262.320236896853 707.610654269391 2776.42256812307 196 195 200
254.871766049323 708.647545365499 2779.41469193697 195 194 199
250.634336348971 709.116504295993 2784.97011966274 193 192 197
246.401477484282 709.584579117981 2790.52147699397 202 201 206
242.982198213568 709.909220054925 2796.70270870275 199 198 203
238.760121217024 710.375522869331 2802.24362138147 197 196 201
231.289172257612 711.413773467943 2805.25786535889 195 194 199
225.437468316546 712.166245865128 2809.54023162505 190 189 194
218.765534616426 713.062577724547 2813.19926432576 188 187 192
213.724473837821 713.671724469413 2818.11508057662 196 195 200
209.504876057328 714.136548400623 2823.65341209345 199 198 203
203.643908464801 714.889350026788 2827.94526648455 202 201 206
201.079245864152 715.063942375538 2834.71727548193 226 225 230
195.219134296708 715.81629531109 2839.00800830175 232 231 236
191.842259948541 716.133631424577 2845.1485487873 239 239 241
184.320054148924 717.176279853407 2848.21304156736 246 246 248
178.45207876506 717.929139359448 2852.51184624423 249 249 251
171.746043654872 718.828014216571 2856.20402845331 178 177 182
166.705930639337 719.435685197833 2861.11912167865 144 143 148
162.504711578125 719.896953854096 2866.63972832363 172 171 176
157.467512603175 720.504080567761 2871.5520083061 196 195 200
153.273371812709 720.964266951138 2877.06608392505 205 204 209
145.706404065835 722.011614833434 2880.17433140328 198 197 203
138.974396359503 722.913174260724 2883.89190800597 204 203 209
133.083426195814 723.66816602939 2888.21323169165 204 203 209
125.488910025552 724.718691984049 2891.34836544383 210 211 216
115.327230707731 726.214212231386 2892.71589439392 220 221 226
104.288968670922 727.860591227227 2893.51467676737 223 224 229
88.9447529131746 730.251705964092 2891.39404094954 223 224 229
75.2702841784356 732.351311538581 2890.49256305879 221 222 227
55.5395013399433 735.497134666979 2885.53142319626 221 222 227
37.46690193553 738.35278846947 2881.80072604831 223 224 229
22.7908148287996 740.618497841729 2880.4520727791 223 224 229
7.20744678231311 743.038746016603 2878.56495065189 223 224 229
-5.81989731409571 745.015653084851 2878.45591253238 225 226 231
-20.6200912138645 747.296641239479 2877.22857878793 226 227 232
-34.5914886865137 749.432748936071 2876.61622268364 224 225 229
-49.4741222712758 751.724011985253 2875.46923414014 222 223 227
-60.0230801151271 753.267234436696 2877.21428602667 227 228 232
-69.7176963166237 754.662624818139 2879.55006070795 231 232 234
-75.036249867003 755.304925902444 2884.73653118639 233 234 236
327.334635990465 693.84256248888 2675.6379723717 120 121 116
333.024291287391 692.572877283931 2690.01380128812 128 128 126
339.541433656354 691.16045555024 2705.00626686583 231 231 231
339.921267987093 690.826782088293 2714.5974434604 245 245 245
334.117272037647 691.577485890592 2718.83269638318 247 247 249
329.866803225321 692.055623580213 2724.40005336529 250 249 254
325.620549831769 692.532830105441 2729.96302415794 246 245 250
323.725369073874 692.598947457944 2737.5031696635 250 249 255
317.925360028594 693.347602420226 2741.73510419115 237 236 241
311.335701088342 694.233398370302 2745.31365619988 230 229 234
304.738984542077 695.119776161715 2748.8994683618 227 226 231
299.714889160061 695.73132474841 2753.79808273188 231 230 235
296.275107698208 696.066511103888 2759.99811481129 221 220 225
288.87424883097 697.091208226577 2762.94476148888 207 206 211
279.870717249074 698.393638497015 2764.60801839059 216 215 220
271.64606745362 699.559472745176 2766.93493231454 205 204 209
267.404820877573 700.032509951913 2772.49354748685 199 198 203
261.564834423631 700.782784509836 2776.76494079675 194 193 198
254.917785684545 701.672572070485 2780.3998917658 191 190 195
249.069237409108 702.423336293784 2784.67971471869 191 190 195
244.024719816827 703.034334076775 2789.598690054 194 193 198
239.790034345221 703.505069931384 2795.15113009145 189 188 193
234.748561037527 704.11521218332 2800.06720885428 191 190 195
228.894388932297 704.865623940847 2804.35266844758 188 187 192
223.036736102419 705.616133723972 2808.64123212177 183 182 187
217.993037106222 706.225848933391 2813.55958414289 185 184 189
212.949871728484 706.835260996417 2818.4774510779 190 189 194
207.90721817212 707.444431629748 2823.39484544991 203 202 207
204.511137072226 707.769968004467 2829.55324652883 206 205 210
201.123391488587 708.094217679611 2835.70356049051 229 228 233
196.916932842537 708.559567060732 2841.22876699134 244 243 248
191.886169292865 709.166531143877 2846.1346805381 232 232 234
184.363866123173 710.201231056178 2849.20044479536 191 191 193
178.495852811948 710.951264839894 2853.49970477519 140 140 142
174.293481197779 711.415509297442 2859.02101610016 141 141 143
168.422685166985 712.16565801187 2863.32302237495 168 167 172
163.386867461039 712.772669563456 2868.23394775779 199 198 203
157.511101528186 713.52322197561 2872.54049171044 191 190 195
153.316808414902 713.986140127717 2878.05431483398 198 197 202
145.749871926431 715.025405340167 2881.16372588722 198 197 202
138.171754503418 716.065962149421 2884.28404887631 191 190 195
129.734553683151 717.252459073603 2886.81897517548 200 199 205
122.132330649226 718.295877871655 2889.96281239186 201 202 207
114.518968659406 719.340641943262 2893.11751192525 213 214 219
104.332736041628 720.82292315926 2894.51137938821 217 218 223
86.4212152697474 723.618715396028 2890.62923844826 218 219 224
69.3101055409171 726.275538280686 2887.39006427956 216 217 222
52.1452552061832 728.939018084969 2884.20327143715 216 217 222
37.5116964151321 731.169927604965 2882.81786816676 219 220 225
23.6995954938921 733.259404430308 2882.05455809648 217 218 223
7.25272112219821 735.793966359107 2879.59076783255 217 218 223
-4.90694183239926 737.599554273604 2880.06233972636 220 221 226
-18.8356640765841 739.703379256781 2879.41271570228 220 221 226
-31.0599964581608 741.516929835715 2879.94766625674 223 224 228
-46.8079888386082 743.92539376935 2878.22542239046 217 218 222
-58.2260016113016 745.599655947263 2879.39718173626 224 225 229
-69.670800729654 747.27735393849 2880.59503250756 230 231 233
-76.7472705472505 748.216382436707 2884.64912716651 232 233 235
329.717858741397 687.162811301675 2650.16951364662 121 120 116
350.586143612391 683.308019427253 2678.19503005774 119 120 115
352.419610916854 682.740273451911 2689.21147991344 129 129 127
348.907810051567 683.094504729208 2695.48021349398 157 157 155
346.174917973873 683.314718170759 2702.41253407136 195 195 195
347.316806030922 682.868611434096 2712.68084479908 255 255 255
346.1666525597 682.817555650349 2720.91539465153 241 241 243
339.60151204118 683.697135315981 2724.47051826915 244 243 248
334.585856032542 684.309978738625 2729.36056084052 251 250 255
330.351097026965 684.788494710545 2734.91226184234 241 240 245
328.467212857994 684.863920274939 2742.43981391844 245 244 250
320.326075137706 686.011324676324 2744.68652304052 231 230 235
314.528052334874 686.756675900118 2748.91663564918 226 225 230
305.5746924036 688.040987471504 2750.53274929596 224 223 228
300.552318966329 688.652318979704 2755.42968583356 232 231 236
294.738551877065 689.398462606529 2759.67565347656 226 225 230
288.127441723678 690.280122438995 2763.27611817341 204 203 208
278.325878261934 691.705123640588 2764.29646943908 215 214 219
270.097202310926 692.86073312321 2766.62889261089 204 203 208
265.052162665624 693.473094033462 2771.54818488296 198 197 202
260.007742750105 694.085023003969 2776.4669255947 193 192 197
254.963835194468 694.696651508066 2781.38520193431 189 188 193
248.309462502883 695.581583424306 2785.02814335857 189 188 193
242.455392664207 696.330095287061 2789.31378220329 189 188 193
237.407305785004 696.941307160076 2794.23627025087 184 183 188
230.737167306824 697.827342071827 2797.89470431203 184 183 188
225.686321120659 698.438430048717 2802.81995070401 180 179 184
220.636094664275 699.049086085862 2807.74464553566 177 176 181
215.586400749335 699.659557050043 2812.66883889948 189 188 193
211.356461285354 700.131155777732 2818.21677639093 195 194 199
207.130778141777 700.601995091208 2823.76026169239 209 208 213
204.555423197264 700.794151807079 2830.54029233949 214 213 218
199.517705938849 701.402228391007 2835.4529465947 221 220 225
192.826814524578 702.289051506482 2839.13187213201 224 223 228
186.128885685855 703.176571856739 2842.81802072684 169 169 171
181.085028468211 703.785009698302 2847.7367186586 129 129 131
176.041768644757 704.39313635353 2852.65486936231 123 123 125
170.998998307084 705.001142332471 2857.5725518353 170 170 172
165.120151777805 705.749547443215 2861.88247223596 180 179 184
160.915119570306 706.216531994803 2867.40635842674 189 188 193
156.714300089041 706.682880565568 2872.92581747378 189 188 193
150.833369922284 707.431299438709 2877.23814276517 189 188 193
144.1047776394 708.321578033531 2880.953995104 188 187 192
137.369125596473 709.212674616546 2884.67707483261 189 188 193
130.62603604102 710.104662885276 2888.40707048836 195 194 200
121.325667317435 711.424241955572 2890.36221863271 197 198 203
112.00667470637 712.746037887244 2892.33587076348 209 210 215
101.814764789579 714.212877358536 2893.73765815141 213 214 219
87.3211817745414 716.39718701404 2892.22014430583 214 215 220
66.7810258886887 719.588995050529 2886.63868013502 214 215 220
50.4703077746855 722.072013493774 2884.0473027991 215 216 221
35.8331077363192 724.273779699958 2882.66982271016 216 217 222
22.8808648005163 726.192923604715 2882.4947453983 213 214 219
6.43235343629556 728.692782357156 2880.03770980646 213 214 219
-6.59620862673904 730.621357556174 2879.93736241697 218 219 224
-19.6592480353606 732.554115303854 2879.87029552045 218 219 224
-31.8855072683792 734.346398209273 2880.40996497774 220 221 225
-45.015215487243 736.287488613072 2880.4082074744 213 214 218
-58.1795302186792 738.232954755566 2880.43983017536 214 215 219
-71.3781982722077 740.182692711336 2880.50493486086 226 227 229
-86.3692626614592 742.428420484531 2879.47234980302 231 232 234
-102.283539995834 744.825296486551 2877.91694204537 138 140 139
352.743650901687 676.897755230397 2642.99183915525 125 125 123
363.565204238597 674.82847503596 2662.30883815285 131 131 129
367.621218366505 673.907356662556 2675.42156023884 136 136 134
361.807729128591 674.657075398129 2679.66638572984 182 182 182
362.108791474529 674.372723572591 2689.32849435346 192 192 192
360.904203288457 674.343613131252 2697.61419301241 240 240 242
358.182149944996 674.570951689146 2704.53469747738 238 238 240
352.389976044126 675.316142216268 2708.75936363282 239 239 241
350.45677311929 675.410463491174 2716.33309718481 251 251 253
346.216241207338 675.893612210128 2721.88950820801 244 243 248
340.427362526785 676.63720794584 2726.11113787044 237 236 241
334.634898444223 677.380737996916 2730.33599975623 241 240 245
331.180028944425 677.730904480885 2736.54913826591 246 245 251
326.168929810396 678.342347873508 2741.43486271726 240 239 245
319.589951341883 679.216536804608 2745.00452437199 207 206 211
313.00391472885 680.091366613759 2748.58143798907 212 211 216
306.410402394198 680.966621174875 2752.16537448808 216 215 220
298.229811778986 682.107028568771 2754.45229507268 219 218 223
290.826121031021 683.116279049525 2757.40403685663 220 219 224
284.205299743993 683.993783923571 2761.01509679577 203 202 207
276.781292258409 685.004888026004 2763.98673943603 206 205 210
268.548401814113 686.150250555134 2766.32452431524 198 197 202
264.299069117781 686.629542333464 2771.89058254357 192 191 196
258.450714645445 687.375636625421 2776.17056541893 188 187 192
254.206447414049 687.853641164317 2781.73178381912 187 186 191
245.938875357597 689.002019578718 2784.10356230536 188 187 192
240.886194471708 689.614046474578 2789.03049180948 176 176 178
233.406126487588 690.629787133821 2792.05745591443 173 173 175
226.726087461017 691.511762972626 2795.72632129571 176 176 178
221.66544268633 692.123909310813 2800.6611414056 175 175 177
218.235711619778 692.465068782016 2806.85064831201 178 178 180
213.997117776075 692.940602073363 2812.40626036167 195 195 197
210.581955055345 693.279525229219 2818.58129336975 213 213 215
206.354310158945 693.753311380917 2824.12662902135 217 217 219
201.308108574235 694.362693424291 2829.04751539165 223 223 225
193.787926772281 695.381322258984 2832.11354839765 187 187 189
186.256606552939 696.401237330518 2835.19045191152 139 139 141
182.029162973793 696.874185577317 2840.7353736521 127 127 129
178.63694442293 697.20925971686 2846.88852948525 147 147 149
174.420281096406 697.680613066219 2852.42298200076 160 160 162
170.208018833851 698.151352622708 2857.953154913 175 175 177
164.327387107412 698.897316150819 2862.26554674767 186 186 188
158.443440658469 699.643520645891 2866.58119453597 185 184 189
152.556157151429 700.390086861332 2870.90010261019 187 186 191
146.665349325572 701.136874535764 2875.22213981155 182 181 186
141.615547245447 701.745236258132 2880.14675233002 186 185 190
137.412534859549 702.214265963347 2885.66833053527 192 191 196
129.821428264015 703.240184868078 2888.80371544058 186 185 190
119.669332249182 704.686083581261 2890.16906207021 193 194 199
109.494405599555 706.134742521071 2891.5566718974 204 205 210
99.2967764051045 707.586086570905 2892.96642882912 208 209 214
84.7975963536585 709.741499470889 2891.45874385127 210 211 216
64.2520141383427 712.885696113539 2885.88970504905 211 212 217
48.7955457815166 715.193709441363 2883.89315791546 213 214 219
35.8778344388142 717.084381840095 2883.68799829734 211 212 217
23.7894371629443 718.838043239836 2884.09681487687 208 209 214
8.20852785476678 721.16128561416 2882.22125075913 209 210 215
-7.41829782592429 723.490080601515 2880.39046160429 216 217 222
-21.3523112840472 725.540793056533 2879.75394184234 217 218 223
-34.4533948047849 727.454110681359 2879.72752655322 216 217 221
-44.0958949822727 728.802124581962 2882.01855147542 213 214 218
-55.5076957427492 730.437863588082 2883.18983590922 210 211 215
-68.7002756408339 732.362656816263 2883.25258178621 220 221 223
-96.8701085418426 736.723979376377 2873.73869571721 228 229 231
-125.139938558501 741.097554348848 2864.3222973611 170 172 171
365.14227918892 668.442705236494 2626.26115772238 135 135 135
374.325731090815 666.697669316227 2644.32307386297 126 126 126
384.33835364977 664.817658454058 2662.9984698389 133 133 133
386.102749011043 664.308979472478 2674.07477907937 131 131 131
384.866785400387 664.298992428258 2682.38846972701 184 184 184
377.564248050437 665.294652314451 2685.24211121734 208 208 208
371.012984445241 666.164875596047 2688.78483772436 226 227 229
367.513403402179 666.529347097975 2695.04026118206 243 244 246
364.788426315227 666.765558789115 2701.96201968033 246 247 251
362.075694948781 666.99985986174 2708.87223822769 245 246 250
356.292919774753 667.741270901638 2713.08812991499 243 244 248
352.051572216032 668.227706762458 2718.64486504937 245 246 250
347.040224159438 668.840832662867 2723.53058801059 244 245 249
341.253027880747 669.5815627079 2727.75097057092 240 241 245
334.68397180762 670.450431914374 2731.31156539334 244 245 249
328.888003275692 671.191442277743 2735.54061749989 233 234 238
325.435257454618 671.546235450862 2741.75096334256 218 219 223
318.070017317227 672.544328956765 2744.66617209781 206 205 210
311.479653969481 673.414233156623 2748.24777238733 203 202 207
303.306129867901 674.543489128385 2750.52932399476 214 213 218
295.907525611627 675.544491397425 2753.47723389936 206 205 210
287.705947727378 676.676458430678 2755.78624263398 202 201 206
281.076930106096 677.549584488765 2759.4057509993 205 204 209
275.2366032831 678.29294363409 2763.67850439567 198 197 202
268.595155856305 679.166929040745 2767.31022873026 197 196 201
261.146845020432 680.172310611501 2770.30685074431 192 191 196
254.489203107531 681.047557957795 2773.95480777087 174 173 178
248.62782195881 681.792156083582 2778.24828530316 186 185 190
243.56856894155 682.405365313987 2783.18156628235 167 166 171
238.509850619764 683.018153324572 2788.11437855713 169 169 171
232.642251775027 683.762604826423 2792.41371418243 174 174 176
225.960347106782 684.639318720233 2796.08554772864 174 174 176
220.897532341707 685.251915526667 2801.02245609205 181 181 183
217.465480592663 685.598687789066 2807.2131000604 191 191 193
213.224989310376 686.077100841977 2812.77050850911 212 212 214
208.169685823619 686.687984137686 2817.70021131826 214 214 216
203.115000451121 687.298612603791 2822.62933799451 231 231 233
195.592168634315 688.309791629868 2825.69910358289 211 211 213
188.883113572208 689.188231204168 2829.39730497474 131 131 133
182.993784676928 689.933227239677 2833.71847622162 114 114 116
179.587084460453 690.27556519322 2839.88460113227 140 140 140
177.01947643604 690.482077181603 2846.65481727019 165 165 165
170.30128365841 691.361007015136 2850.36235793052 172 172 172
166.913677413729 691.700525088358 2856.509939022 176 176 178
160.188897708243 692.57993149585 2860.22395016165 181 181 183
155.133546062479 693.1891107668 2865.15395264752 182 182 184
150.918966871795 693.662442193127 2870.68604322642 181 181 183
144.182054200782 694.543037378659 2874.41158903732 179 178 183
139.97076925412 695.015763568795 2879.94083567885 180 179 184
134.071270183006 695.760934346771 2884.27174239182 181 180 185
129.864875786094 696.23292606775 2889.79624119937 183 182 187
122.262789583038 697.252032459588 2892.94353590369 183 184 188
112.945618117149 698.546722060008 2894.91904807231 192 193 197
100.194277062145 700.393069185175 2894.55523155517 195 196 200
85.6971945021865 702.518733249788 2893.04986060216 207 208 212
64.296188895387 705.752152345021 2886.90017351591 202 203 207
47.9801990285895 708.165957317091 2884.32426082926 212 213 217
31.6144237282456 710.585802658811 2881.79689305008 206 207 211
19.5165710751781 712.319191406249 2882.2180952481 201 202 206
8.25362350991155 713.917471983938 2883.24710259797 205 206 210
-5.63809546168992 715.93602173085 2882.57333741989 219 220 224
-21.3067180228195 718.237770962198 2880.78805053612 214 215 219
-36.1498772938429 720.405648243339 2879.62009977817 213 214 218
-45.7962483146073 721.740659301887 2881.91655247735 204 205 209
-57.211659702324 723.357865522815 2883.09416145494 203 204 208
-69.5306833605334 725.118782576754 2883.73092105889 213 214 216
-98.5806990517073 729.550748376919 2873.66371915428 217 218 220
-125.092161209808 733.573713504546 2865.38687413854 204 206 205
393.243894789637 657.402859848852 2624.07700779281 244 244 244
397.864397967444 656.450437734822 2638.05038206249 238 238 238
401.037722761927 655.735081328409 2650.59230685855 159 159 161
398.245320776588 655.991514757889 2657.57836835554 173 173 175
394.711739181357 656.368423305628 2663.86537883222 209 209 211
392.696519962625 656.498486563868 2671.51561096893 225 225 227
392.210779156803 656.38022435567 2680.51723162071 232 232 234
388.713474628835 656.751190281743 2686.76943459221 238 238 240
382.941905955988 657.490834751144 2690.97445915653 241 240 245
375.641244413359 658.477838657742 2693.82717945047 244 245 249
370.623488229561 659.093954250986 2698.71882390144 249 250 255
365.606128021977 659.709725081004 2703.61012609802 246 247 252
362.894949161122 659.951909164859 2710.51763787876 243 244 249
357.113678680511 660.690430986135 2714.73212456652 229 230 234
352.874110340028 661.179401045159 2720.28705619949 234 235 239
347.089849400645 661.917533266536 2724.50457003971 236 237 241
340.526086441251 662.780827741412 2728.06107050683 236 237 241
333.95480362756 663.64472943836 2731.62461071127 228 229 233
327.376486620465 664.508974149806 2735.19542311836 197 198 200
321.57281149684 665.24778477279 2739.43211526306 191 192 194
315.765927108167 665.986633123758 2743.67232652122 202 201 206
308.383523271349 666.978457844508 2746.60550560743 204 203 208
301.77792778042 667.844503353047 2750.2028019532 210 209 214
293.585330758758 668.96495969241 2752.50459383404 199 198 203
285.377749671284 670.086951198398 2754.82103821679 197 196 201
279.536657821244 670.828048034479 2759.09488566464 184 183 188
273.692020932319 671.569309972816 2763.37189114448 175 174 179
267.046687760516 672.438347069426 2767.00854328136 172 171 176
259.594347794819 673.436157846788 2770.01028524085 171 170 175
252.130913544412 674.435072390887 2773.02288085281 172 171 176
247.066959689073 675.049169080758 2777.96069866758 167 166 171
242.003626102024 675.662774794169 2782.89797311288 163 162 167
237.748134613884 676.147101779482 2788.46906506913 162 162 164
231.878601761949 676.889130458569 2792.77101712631 168 168 170
227.62821771739 677.372223881199 2798.33721963561 181 181 183
221.755968614155 678.114064267484 2802.64189680008 189 189 191
219.14091031872 678.33599312872 2809.45695315149 209 209 211
210.818638155711 679.467902667506 2811.88582158677 215 215 217
204.938213413336 680.210079135002 2816.19822976712 225 225 227
195.771031732057 681.475114775503 2818.02952054669 215 215 217
189.053477572125 682.349495508225 2821.73676156333 166 166 168
183.978559419301 682.962084949511 2826.68568985827 111 111 113
181.384472851045 683.180190614781 2833.48048604126 126 126 128
179.631198819262 683.265038010897 2840.87694777776 155 155 155
176.232888418266 683.611494513711 2847.03447059982 166 166 166
169.512472966548 684.485292456503 2850.7446390576 168 168 168
166.123029546236 684.830395260205 2856.89355691291 174 174 176
160.232626438393 685.572106525339 2861.21628035637 178 178 180
155.177189219813 686.181355552928 2866.14635750731 174 174 176
150.122327598337 686.790355110876 2871.07589995332 176 176 178
143.383423646632 687.665776196944 2874.80418786503 180 179 184
137.481693486746 688.408502635183 2879.13800919647 180 179 184
129.884314352041 689.419054834687 2882.28189401822 180 179 184
127.36415193399 689.62695665382 2889.00479055127 182 181 186
119.756229622057 690.638720050685 2892.15896588943 182 183 187
113.841151768289 691.382834333691 2896.50583655536 189 190 194
101.091901717725 693.204799604493 2896.14354726733 193 194 198
84.8852817629595 695.570496904323 2893.46613893419 205 206 210
65.1982050892577 698.482836693013 2888.49610693957 203 204 208
47.1650737440976 701.132267352646 2884.7563592738 209 210 214
29.9360819774619 703.652990945448 2881.65435912716 202 203 207
18.6980075857353 705.2294427464 2882.66189333168 200 201 205
10.8949832077738 706.264799388683 2886.00632083417 207 208 212
-1.2561123478334 707.983153790918 2886.48227824915 217 218 222
-19.522443580144 710.66096749376 2882.97024435925 213 214 218
-36.1040938894819 713.072469108109 2880.65847685448 212 213 217
-47.4964592642744 714.667958957274 2881.81641047082 203 204 208
-58.0404685387683 716.129593364162 2883.56860703217 202 203 207
-69.4841521186893 717.731552688497 2884.77654419922 210 211 213
-94.138965413797 721.40259119052 2877.54219049522 214 215 217
-113.593015219739 724.256288810814 2873.76633598074 201 203 202
404.08903928084 649.378996947322 2596.0723699267 235 235 235
420.411901898665 646.590258723744 2621.36877329229 235 233 234
422.020921674067 646.153177808535 2632.58879062347 235 235 235
418.462170256086 646.541089228376 2638.89950672852 240 240 240
417.892420939527 646.452333583188 2647.9805258582 244 244 244
415.10458347405 646.717285819599 2654.96045780156 239 239 239
410.830735768942 647.218715035266 2660.54758789243 200 200 202
405.809939186021 647.838752048718 2665.44167192048 217 217 219
400.036327973528 648.577959424688 2669.64845151708 232 232 234
396.524287316253 648.957033769614 2675.91408926206 238 238 240
393.777252981798 649.214529300882 2682.85494303288 241 241 243
391.042245219265 649.469977972228 2689.78415676501 242 241 246
386.036925700714 650.08564613391 2694.66351755372 241 240 245
378.743768344847 651.063566320475 2697.51012864913 230 231 236
372.203999499413 651.921372303234 2701.04327596113 229 230 235
366.423656303389 652.658054091676 2705.25745163963 246 247 252
362.176851445757 653.151487596169 2710.81857170382 246 247 252
357.934587151447 653.643863901988 2716.375677017 220 221 225
352.924084591368 654.257413933565 2721.26049770128 232 233 237
347.91405348954 654.870491748553 2726.14492001395 231 232 236
340.575495095311 655.851010109594 2729.03623100254 224 225 229
334.003963665743 656.709576985313 2732.60080657048 211 212 214
325.864866993454 657.814797244539 2734.85172369951 185 186 188
320.839333285571 658.428060344552 2739.75151294412 186 187 189
315.030261699218 659.164589798176 2743.99423885392 200 199 204
310.003799076036 659.777262376805 2748.89503780395 205 204 209
300.24997975357 661.133678746123 2749.8781152418 205 204 209
292.053334779268 662.243972036643 2752.18542889363 192 191 196
283.049708320935 663.480264282362 2753.85821733823 191 190 195
277.20256075069 664.219470941004 2758.13835757317 171 170 175
268.964876772664 665.333699504671 2760.48584193072 169 168 173
262.307455869982 666.19896629535 2764.13471677064 165 164 169
254.843327393818 667.190184472541 2767.14913927871 163 162 167
249.772759428461 667.805409820206 2772.09335818737 169 168 173
244.702768137225 668.420267624802 2777.03705877281 157 156 161
240.438767551434 668.908615758402 2782.61600606486 155 154 159
236.179380856969 669.396015386819 2788.19084972525 175 175 177
232.733554833843 669.756023036494 2794.39321556693 184 184 186
228.485056838916 670.241578220709 2799.95751919576 196 196 198
221.801255400795 671.107694006337 2803.63246481626 208 208 210
217.555677128454 671.592363431599 2809.19366219021 225 225 227
208.41240011262 672.841648242671 2811.00354324932 228 228 230
200.069288952106 673.965157697659 2813.4543466459 175 175 177
190.890178349814 675.218324282495 2815.29889941963 120 120 122
185.80673335354 675.83222454319 2820.25610125763 127 127 129
183.198328686052 676.060331899254 2827.06363727929 134 134 136
180.602128057345 676.286723835835 2833.85930804829 147 147 149
176.360708670231 676.76939474687 2839.41667096725 153 153 153
171.293213530371 677.38063561764 2844.35842741872 160 160 160
166.226251470461 677.991632378733 2849.29969059321 168 168 168
162.828957686658 678.343032039874 2855.45547330274 167 167 167
157.767078580707 678.953152138549 2860.39181859914 166 166 168
153.544031450781 679.432976215204 2865.931358356 178 178 180
149.325449699062 679.912119422331 2871.46656455851 175 175 177
142.584806580129 680.782380556942 2875.19767996955 169 169 171
136.68089328904 681.522623716623 2879.53369836805 170 170 172
127.389557027503 682.787507369204 2881.4882989449 173 173 175
123.167385268792 683.266808309623 2887.02704676451 178 177 182
115.549843359764 684.271646711497 2890.19179801603 178 179 183
111.328988797404 684.750591653997 2895.72962829852 178 179 183
98.5740065949057 686.5491613036 2895.37648898469 185 186 190
83.2175684602179 688.748458083254 2893.29634077815 202 203 207
64.3845567187369 691.483057559711 2888.92138893868 205 206 210
44.6305529087869 694.357838892699 2884.02336770307 200 201 205
26.5346091148291 696.974604469023 2880.35115945453 193 194 198
17.8791618763054 698.133668913648 2883.10652433981 201 202 206
7.47828073754198 699.561325123756 2884.72195235121 214 215 219
-2.07826215680473 700.858240072437 2886.93483498135 210 211 215
-19.4769735872726 703.36214772604 2884.00385435829 210 211 215
-36.0582615058744 705.738576172349 2881.69691079309 207 208 212
-50.9429726363262 707.852545992643 2880.57818914497 200 201 205
-62.3697296840691 709.43351447208 2881.77208261106 200 201 205
-72.0687903762416 710.748147140476 2884.124206692 204 205 207
-98.4865637109222 714.63073622362 2875.77541264969 205 206 208
-120.592440743531 717.848345895019 2870.32800993513 193 195 194
424.712315932832 639.263272265199 2606.84537375756 243 243 243
430.694357662099 638.166921041982 2622.32248709731 238 238 238
430.819804889153 637.985967335479 2632.14370193321 237 235 236
430.972754932259 637.801015742572 2641.93819695207 243 243 243
425.950303668146 638.423207326154 2646.83360565847 240 242 241
423.163830712833 638.696583955134 2653.81127534351 246 247 249
418.894940977085 639.200644463351 2659.39275535163 243 244 246
414.630254118377 639.703703381523 2664.9702098753 232 233 235
409.618832567958 640.322558523165 2669.85515903762 229 230 232
403.854787699972 641.057952243132 2674.0533406114 222 223 227
398.087240013333 641.79325682961 2678.25501370977 215 216 220
394.586678182645 642.175909474214 2684.50838609714 234 235 240
391.094440942002 642.55702788345 2690.75405664483 247 248 253
386.08878074771 643.172797961548 2695.6337406664 243 244 249
378.795345323862 644.142792411426 2698.48179930784 235 236 241
372.255295974685 644.995267592929 2702.0160130543 206 207 212
364.941365269344 645.966902297472 2704.88418138432 206 207 212
359.153375729386 646.701481650086 2709.10626073447 233 234 239
355.673418291291 647.0783983979 2715.34035826044 216 217 221
351.429126510596 647.573343122735 2720.89875944437 212 213 217
346.414928727655 648.186946214083 2725.78724169736 211 212 214
338.295967747348 649.279898193023 2728.01997703306 209 210 212
331.718384110352 650.133861882445 2731.59124288137 195 196 198
325.133701427206 650.988294699737 2735.16982669254 180 182 181
318.54158446258 651.843264982461 2738.75537557598 185 187 186
313.510462441458 652.45693773402 2743.66065355192 196 195 200
307.693893859719 653.191286955231 2747.91114632636 201 200 205
300.297971001475 654.168363660851 2750.8599297509 197 196 201
288.94138937317 655.754418947812 2750.56647684245 183 182 187
280.721823676331 656.856397682572 2752.89777999831 180 179 184
272.48727391368 657.959911583956 2755.24373565607 161 160 165
265.829090958224 658.820262093245 2758.89409384989 163 162 167
259.16389291391 659.681189083907 2762.55167076896 161 160 165
253.290868053621 660.419897019147 2766.85724340455 157 156 161
249.819341961199 660.789677072744 2773.08402327991 164 163 168
244.749159881277 661.404499960459 2778.02791848204 155 154 159
239.679574657036 662.019070698552 2782.97125826525 165 164 169
236.225340403923 662.385727339824 2789.18132872754 185 185 187
231.160798309026 662.999131591893 2794.11983301489 191 191 193
226.908026278276 663.487951190163 2799.68756050352 209 209 211
216.967579365983 664.846784092689 2800.85560473437 225 225 227
211.080075245466 665.584945577779 2805.1759740965 210 210 212
201.921022044671 666.822787373111 2807.00287457123 169 169 171
195.200306571831 667.687293025839 2810.71505219283 131 131 133
186.009541497581 668.92848394961 2812.57294802697 125 125 127
183.382886432605 669.167029756318 2819.39706416469 135 135 137
180.768476846548 669.403972857009 2826.20925724006 130 130 132
178.166293096356 669.639138821523 2833.00957253964 146 146 148
173.090293448639 670.251569758292 2837.95959820189 158 158 158
169.676217467914 670.610746089355 2844.13089649263 163 163 163
165.437773461356 671.09545962828 2849.68500291521 167 167 167
159.535003810179 671.833422698315 2854.02056050061 161 161 161
154.465280289277 672.444531710138 2858.96454925608 164 164 164
151.072725286103 672.800477298497 2865.11461655834 175 175 177
146.848208878594 673.283081229302 2870.65520446833 170 170 172
140.101747935091 674.148650661106 2874.3927904968 165 165 167
134.192201644387 674.886937314792 2878.73502955991 168 168 170
124.894868681863 676.139086123462 2880.69712931187 172 172 174
118.970996264222 676.878942937774 2885.05336236175 173 173 175
109.643818951982 678.134559256801 2887.04458549764 173 174 178
104.5573719315 678.747009936727 2892.00498263745 172 173 177
94.3485546127722 680.135252531228 2893.43517590951 180 181 185
82.4057494462878 681.785290809127 2893.71473282432 201 202 206
65.2864517982827 684.217708087463 2890.51685643102 204 205 209
47.2538004132268 686.786585792352 2886.7885378493 196 197 201
27.4407771192036 689.62287075326 2881.95481358082 192 193 197
17.9239813768137 690.901506955923 2884.13092829218 204 205 209
5.79236614461642 692.574404241449 2884.59459784203 216 217 221
-2.90044207229734 693.727315329059 2887.38831003662 208 209 213
-17.6931730733298 695.800336154858 2886.18396516179 210 211 215
-35.1414124807459 698.272747547975 2883.30682168554 205 206 210
-52.6433074597574 700.751805140791 2880.48197667965 199 200 204
-64.9486415635407 702.446202706484 2881.114636063 200 201 205
-74.6533192917722 703.748098599089 2883.47422043369 201 202 204
-102.834292343903 707.831549190049 2874.01246605513 201 202 204
-132.876927949816 712.192419139156 2863.52454901749 191 193 192
-149.78565427453 714.574391290491 2861.5419372728 164 166 163
432.004213195922 631.434951830743 2595.09345920982 144 148 147
440.119347807673 630.0524207855 2612.74540499024 131 133 132
436.537286425897 630.456067032003 2619.07694263341 241 241 241
437.387642264158 630.183474310292 2629.60876602641 238 238 238
436.051428646992 630.244609410259 2638.01183243263 240 240 240
435.476220407133 630.189800367227 2647.09325506087 243 243 245
431.208253381369 630.697459589256 2652.67328691601 238 239 241
427.689830908901 631.090606449348 2658.94318198621 245 246 248
422.685138095778 631.709733734442 2663.82140919025 242 243 245
416.931538089029 632.442172624457 2668.009317743 240 241 245
411.925601251503 633.06033633089 2672.88892269816 230 231 235
404.661042539426 634.021206311555 2675.7096549305 221 222 226
400.405014882054 634.524457876082 2681.27882010818 205 206 211
394.639283907753 635.25642112721 2685.47884519026 210 211 216
391.146667616455 635.643012453839 2691.72408324606 232 233 238
386.140656117133 636.258885788346 2696.60410085746 239 240 245
378.846975051678 637.22089144485 2699.45358416482 237 238 243
370.77745873822 638.299767283968 2701.63930066273 217 218 223
362.692865387891 639.379895166057 2703.83980382973 187 188 193
356.898556846467 640.112630569928 2708.06809273458 210 211 215
353.412416766168 640.495751870066 2714.30741268552 214 215 219
349.934340984113 640.877338855746 2720.53861359811 200 201 205
344.915911667313 641.491593336827 2725.43120155166 185 186 188
336.016639622283 642.691601232735 2727.00606517426 167 169 168
328.654784876683 643.658427259962 2729.92253350511 169 171 170
320.501661156104 644.74406913632 2732.19027337688 181 183 180
313.897646413855 645.595114190925 2735.78821707638 180 182 179
308.070597096828 646.328484891118 2740.04926200087 176 176 178
301.454046256181 647.180402694198 2743.65952523956 178 177 182
294.042380792128 648.151385276193 2746.62484201319 169 168 173
284.250186923215 649.48007553671 2747.6504616917 160 159 164
276.81055324931 650.453699423556 2750.64316092745 153 152 157
267.772204683697 651.667184313601 2752.35379985507 152 151 156
261.898026459977 652.404019670618 2756.66113240584 146 145 150
256.020491535106 653.141042317845 2760.97177052906 150 149 154
251.738725472771 653.637880767652 2766.56710433691 156 155 160
247.461426404165 654.133861237789 2772.15812916297 163 162 167
242.385163294176 654.749568673621 2777.10793218203 176 175 180
238.114906199669 655.244071702766 2782.69218258884 193 192 197
233.849261919472 655.737744300157 2788.2723129823 207 207 207
225.541642732626 656.836906933395 2790.69147077398 218 218 218
218.030314391528 657.81608991146 2793.75454224285 207 207 207
208.881582702423 659.039775312069 2795.57328561285 176 176 176
202.97456725941 659.777624974536 2799.9130760939 137 137 137
196.247140860176 660.637859396174 2803.63221120871 120 120 120
191.150533035121 661.253831822371 2808.60217766511 117 117 117
185.233724388664 661.992149478996 2812.95162377261 129 129 129
182.604932927644 662.239102310426 2819.7766188286 134 134 134
179.16351168813 662.607399991109 2825.97338539207 148 148 148
176.557257011378 662.851216858655 2832.77646458221 162 162 162
171.477282009743 663.464148951952 2837.73036375895 151 151 151
168.05916041232 663.829201460491 2843.90481091041 148 148 148
162.984247644574 664.441200534638 2848.85382111389 147 147 147
156.24102209622 665.301539687613 2852.58862953808 165 165 165
151.163475957452 665.913575895888 2857.54024922951 166 166 166
146.924965442479 666.400643534404 2863.09441160303 150 150 152
143.530916390368 666.762084665755 2869.24515027911 154 154 156
137.618800786104 667.498041625048 2873.59028503638 164 164 166
131.703368843813 668.234416661444 2877.93865117472 166 166 168
123.246322363367 669.348125292919 2880.5037047437 166 166 168
115.622464320996 670.337720422957 2883.67698095791 163 163 165
106.287881801268 671.580812355704 2885.67774651512 159 160 164
98.6380479317086 672.573446276193 2888.87636797783 161 162 166
89.2697520012327 673.820493475916 2890.91002686355 166 167 171
78.1708804457804 675.323625075573 2891.78982944559 201 202 206
61.8997845959122 677.592545044152 2889.19075027672 195 196 200
44.7194384376917 679.994741501794 2886.05796258062 190 191 195
25.7623002109497 682.658599763213 2881.81672569663 195 196 200
15.378634386265 684.051947699009 2883.42012939462 212 213 217
2.37584794384338 685.832105258605 2883.31578465312 201 202 206
-6.32451481391616 686.975177420879 2886.11845280732 202 203 207
-17.6477827546448 688.505595280362 2887.21705141984 210 211 215
-34.2246070747425 690.81170089743 2884.91606911879 200 201 205
-49.9779374064309 692.994974121306 2883.23274684755 196 197 201
-65.7773517282973 695.183834126992 2881.59402309391 198 199 203
-78.1146777519606 696.860787091768 2882.26136707302 192 193 195
-109.818413696481 701.393961591853 2870.56332421238 189 190 192
-144.28008637161 706.330901935113 2857.29321108458 186 188 187
434.236030296543 624.337391249034 2578.33889432804 91 93 92
442.98824054405 622.906949622708 2596.78254290711 189 191 190
448.156704916456 622.011965465936 2611.62054146492 191 192 194
447.511864177907 621.983979166681 2620.7671458039 199 200 202
443.948826973221 622.390711214243 2627.07933607795 241 242 246
442.605866672419 622.466626521842 2635.48657969053 238 239 243
439.804043449959 622.759569975019 2642.47660044969 240 241 245
437.755577182608 622.940233018452 2650.15236877101 232 233 237
432.006526113718 623.670978034867 2654.336010515 239 240 244
427.744509833874 624.180114848317 2659.9102526461 229 230 234
422.739455086432 624.799346729809 2664.78882379696 231 232 237
417.734725141232 625.417889007726 2669.6671743375 240 241 245
413.481312701676 625.924538956472 2675.23290244353 229 230 234
406.973254189038 626.76519729962 2678.73709533994 223 224 228
400.457979708076 627.606339510538 2682.24872012612 208 209 214
393.935144471186 628.447917193346 2685.76745065016 199 200 205
389.681282113688 628.952677890124 2691.33390476197 219 220 225
383.149705675999 629.794342032226 2694.86164049097 227 228 233
376.610588663945 630.636557039665 2698.39644486213 237 238 243
367.77044861892 631.818496018638 2699.91526011262 235 236 241
359.677642547285 632.889057893886 2702.12499464292 183 184 189
353.106999986345 633.733700970284 2705.69108332462 190 191 195
351.15159482089 633.895745868355 2713.27685450782 202 203 207
348.439830776836 634.169493077191 2720.18028236804 184 185 189
341.094217890831 635.127254269592 2723.08196207084 176 177 179
333.737469818485 636.085947478551 2725.99456142665 165 167 166
324.813217943208 637.275246804752 2727.59581311187 172 174 173
317.430287919993 638.236297163408 2730.53406314624 180 182 179
307.689884624755 639.544259949923 2731.51097968909 174 176 173
300.278901357379 640.507962333357 2734.47669504151 167 167 169
293.642715155551 641.356871384844 2738.10690117628 168 168 170
286.211438024657 642.322247599832 2741.09252124359 158 157 162
279.559057336723 643.172418590959 2744.73896007032 152 151 156
274.483009223312 643.790162831983 2749.68824855568 145 144 149
265.438702945898 644.991012862654 2751.40667100589 151 150 155
259.558425946312 645.726022438909 2755.72032958085 152 151 156
254.472460847547 646.343837496982 2760.67945531253 156 155 160
251.785744817355 646.609178780117 2767.55925251685 167 166 171
246.706735581365 647.225645190551 2772.5116703035 175 174 179
241.628367872242 647.841617944544 2777.4635240067 192 191 196
235.74525730154 648.575333610321 2781.78018759907 207 206 211
229.051390142892 649.427563351554 2785.46718098014 216 216 216
219.113441147229 650.754650967485 2786.63743668235 217 217 217
209.964210057149 651.965295208133 2788.45894128465 163 163 163
201.609057320463 653.059023286179 2790.92576597688 124 124 124
195.684400771232 653.796384324373 2795.28314655564 109 109 109
190.57350556684 654.414334808232 2800.26700823487 127 127 127
187.101159494632 654.792532837843 2806.4933581891 127 127 127
183.63695952393 655.169540053353 2812.71145710393 124 124 124
181.004120010451 655.424963997691 2819.53921990906 137 137 137
175.909282032373 656.04012361829 2824.50754901356 154 154 154
173.295045389382 656.293025468736 2831.31721165767 145 145 145
171.521673161516 656.423276898667 2838.72692050361 151 151 151
169.764604349843 656.5514010172 2846.12109207395 149 149 149
163.028419723528 657.405722262173 2849.84979820265 153 153 153
154.61633596366 658.504078702838 2852.37281001452 171 171 171
147.025729335106 659.482169829338 2855.51476736996 157 157 157
143.615474760194 659.851020087543 2861.68050330403 148 148 150
140.213742423748 660.218782944267 2867.83827508878 153 153 155
134.293870413112 660.953064124635 2872.19135975163 161 161 163
127.526465014647 661.810436711618 2875.95061758159 159 159 161
121.598049210046 662.545559097665 2880.31206202831 158 158 160
113.970310847892 663.52756467444 2883.49031319009 163 163 165
105.481771294844 664.634321237313 2886.08800520042 155 156 158
96.9780571842192 665.742826925712 2888.70016940876 157 158 162
87.6059293996527 666.976971267918 2890.73954041895 162 163 167
76.5035271077776 668.461841817098 2891.62588589173 201 202 206
60.2287964976425 670.696251490859 2889.03551670003 191 192 196
43.9043224326072 672.936755211023 2886.493642797 189 190 194
26.6686665029732 675.308125326414 2883.42033464147 196 197 201
16.2868508280152 676.68515456972 2885.02397516706 214 215 219
2.42093241510233 678.566238697185 2884.34490701132 197 198 202
-8.01402754858449 679.949731747208 2886.00036525342 201 202 206
-18.4716060998018 681.336017260756 2887.67787136241 209 210 214
-34.1789770702148 683.481371604357 2885.95417731797 199 200 204
-48.185964169742 685.379885868301 2885.41261628686 196 197 201
-64.8561748086087 687.662559925288 2883.2078311552 196 197 201
-80.6991327422035 689.824699277944 2881.61663399453 188 189 191
-121.196782563162 695.54771754436 2864.30511251892 184 186 185
-157.444636098188 700.653565957148 2849.94958237327 173 175 172
458.26924634063 614.004346957737 2582.92407904227 239 241 236
455.371998348554 614.320996047005 2590.00535432564 241 243 240
453.214220699791 614.529664052043 2597.78519350153 191 193 192
454.720257339193 614.205223114213 2609.09082646966 224 226 225
455.529868454075 613.982288376284 2619.65577054698 204 205 207
451.97006184878 614.394510038108 2625.96394142549 213 214 218
446.947340333093 615.018976506602 2630.8592822687 240 241 245
444.874343248568 615.214479883698 2638.55687881728 235 236 240
442.817376988287 615.407477532157 2646.23926470799 238 239 244
438.552235571934 615.920795361524 2651.81565435152 233 234 239
432.804970746838 616.648648558425 2655.99828758067 234 235 240
428.544334674172 617.160395947583 2661.5704354617 225 226 231
