ply
format ascii 1.0
comment KinectMotionCapture
element vertex 793
property float x
property float y
property float z
property uchar red
property uchar green
property uchar blue
end_header
114.172041416168 42.7252724766731 2667.00005531311 10 13 6
119.629219174385 42.0835316181183 2627.00009346008 13 16 9
128.19804251194 42.547095566988 2655.99989891052 13 16 9
136.159673333168 42.7702963352203 2670.00007629395 12 15 8
145.164161920547 43.2817563414574 2701.99990272522 14 17 10
150.729715824127 42.7679903805256 2670.00007629395 16 19 12
157.658770680428 42.6706448197365 2664.00003433228 18 21 14
164.554417133331 42.5732471048832 2657.99999237061 18 21 14
171.545967459679 42.5078421831131 2654.00004386902 17 20 13
181.748509407043 43.2111509144306 2697.99995422363 16 19 12
188.825905323029 43.1456118822098 2694.00000572205 16 19 12
195.298224687576 42.9519042372704 2681.99992179871 19 22 15
203.895092010498 43.2225726544857 2698.99988174438 22 25 18
213.210016489029 43.6212755739689 2723.99997711182 25 28 21
-137.140288949013 36.4385955035686 2742.00010299683 21 23 18
-128.664672374725 36.1604057252407 2720.99995613098 27 30 23
-121.506191790104 36.2409837543964 2726.99999809265 21 24 15
-113.728888332844 36.1354574561119 2719.00010108948 20 23 14
-105.525583028793 35.8703918755054 2698.99988174438 19 22 13
-96.7400521039963 35.3527516126633 2660.00008583069 19 22 13
-90.4544442892075 35.7388071715832 2688.99989128113 19 22 13
-83.2683220505714 35.8058474957943 2694.00000572205 19 22 13
-74.927419424057 35.3411957621574 2658.99991989136 16 19 10
-67.489854991436 35.2486371994019 2651.99995040894 14 17 8
-60.6582090258598 35.4883186519146 2670.00007629395 13 16 7
-53.5681061446667 35.6216207146645 2680.0000667572 13 16 7
-46.699296683073 35.9675474464893 2706.00008964539 13 16 7
-38.9474220573902 35.6355421245098 2680.99999427795 15 16 8
-32.0043228566647 36.0611267387867 2713.00005912781 14 15 9
-24.7050058096647 36.2208262085915 2724.99990463257 13 14 8
-17.0422904193401 35.7557460665703 2690.00005722046 11 12 6
-9.49855055660009 35.0247658789158 2634.99999046326 10 11 5
-2.35828780569136 35.8622074127197 2697.99995422363 12 15 8
5.03507629036903 36.0482893884182 2711.99989318848 11 14 7
12.4681815505028 36.1279845237732 2717.99993515015 2 4 0
20.2047638595104 36.6994328796864 2760.99991798401 7 9 4
27.8947409242392 36.8986539542675 2776.00002288818 3 5 0
35.5003885924816 36.9250252842903 2778.00011634827 2 4 0
42.5894781947136 36.4994145929813 2746.00005149841 9 11 6
50.1055642962456 36.5123897790909 2746.99997901917 10 12 7
57.1445785462856 36.2196117639542 2724.99990463257 12 14 9
64.371332526207 36.0995754599571 2716.00008010864 9 11 6
71.2579414248466 35.8332879841328 2696.00009918213 8 10 5
79.4056057929993 36.1916422843933 2723.00004959106 11 14 7
87.5727981328964 36.4967696368694 2746.00005149841 11 14 7
92.714712023735 35.5923846364021 2677.99997329712 12 15 8
99.6886640787125 35.4721210896969 2668.99991035461 12 15 8
107.735335826874 35.7239432632923 2687.99996376038 11 14 7
114.215701818466 35.4573987424374 2667.99998283386 11 14 7
118.400558829308 34.5529094338417 2599.99990463257 13 16 9
126.364812254906 34.7913019359112 2618.00003051758 14 17 10
137.384578585625 35.8003899455071 2694.00000572205 13 16 9
145.165234804153 35.9057523310184 2701.99990272522 14 17 10
151.18245780468 35.5858467519283 2677.99997329712 16 19 12
157.778277993202 35.4253575205803 2665.99988937378 16 19 12
163.936525583267 35.1851098239422 2648.00000190735 17 20 13
172.775343060493 35.5161800980568 2673.00009727478 17 20 13
179.661527276039 35.4352928698063 2667.00005531311 16 19 12
188.897371292114 35.8060896396637 2694.9999332428 17 20 13
197.192922234535 35.9775349497795 2707.99994468689 21 24 17
205.256372690201 36.0957868397236 2717.00000762939 23 26 19
214.072570204735 36.3335385918617 2734.99989509583 28 31 24
-134.940445423126 28.4883845597506 2697.99995422363 25 30 24
-128.570899367332 28.7108309566975 2719.00010108948 21 26 19
-120.660334825516 28.5953376442194 2707.99994468689 21 24 15
-113.394945859909 28.6276452243328 2710.99996566772 21 24 15
-104.196891188622 28.1424690037966 2664.99996185303 20 23 14
-96.5587794780731 28.0374065041542 2654.99997138977 18 21 12
-89.4794687628746 28.0907098203897 2660.00008583069 16 19 10
-82.7742889523506 28.2812584191561 2677.99997329712 19 22 13
-75.885958969593 28.4400954842567 2693.00007820129 18 21 12
-68.2282820343971 28.3137522637844 2680.99999427795 15 18 9
-60.204204171896 27.9867108911276 2650.00009536743 14 17 8
-53.0887171626091 28.0503816902637 2655.99989891052 12 15 6
-46.2508760392666 28.3041186630726 2680.0000667572 12 15 6
-38.8023853302002 28.2092951238155 2671.0000038147 14 15 7
-31.6270217299461 28.3151008188725 2680.99999427795 13 14 6
-24.6688947081566 28.737710788846 2720.99995613098 13 14 6
-17.124755308032 28.5477172583342 2703.00006866455 12 13 7
-9.84466820955276 28.8435108959675 2730.99994659424 11 12 6
-2.36442103050649 28.5689439624548 2704.99992370605 16 19 12
5.09823253378272 29.0019605308771 2746.00005149841 8 11 4
12.5370668247342 28.8646128028631 2733.00004005432 7 10 3
20.4317439347506 29.4876508414745 2792.00005531311 12 14 9
34.7977466881275 28.7586152553558 2723.00004959106 94 96 91
42.7293255925179 29.0963687002659 2755.00011444092 0 1 0
49.8140268027782 28.8426466286182 2730.99994659424 14 16 11
57.2497844696045 28.8317985832691 2730.00001907349 7 9 4
64.4191280007362 28.7047363817692 2717.99993515015 12 14 9
72.2627490758896 28.8733430206776 2733.99996757507 11 13 8
80.630861222744 29.2003154754639 2765.00010490417 15 17 12
87.6690074801445 29.0308967232704 2749.00007247925 12 15 8
92.4729183316231 28.2066967338324 2671.0000038147 11 14 7
99.1290137171745 28.0266590416431 2654.00004386902 11 14 7
108.016543090343 28.4590646624565 2694.9999332428 13 16 9
114.644475281239 28.2789524644613 2677.99997329712 13 16 9
119.76745724678 27.7714673429728 2630.00011444092 16 19 12
126.993045210838 27.7813691645861 2631.00004196167 16 19 12
138.456329703331 28.6676269024611 2714.99991416931 15 18 11
145.327270030975 28.561282902956 2704.99992370605 14 17 10
150.844618678093 28.2120667397976 2671.99993133545 15 18 11
158.19351375103 28.2218083739281 2673.00009727478 15 18 11
165.918618440628 28.2948557287455 2680.0000667572 16 19 12
172.323882579803 28.1461570411921 2665.99988937378 17 20 13
180.605679750443 28.3035878092051 2680.99999427795 17 20 13
189.108774065971 28.4820888191462 2697.99995422363 18 21 14
197.995111346245 28.7027657032013 2719.00010108948 22 25 18
205.635324120522 28.7333782762289 2721.99988365173 23 26 19
-136.691600084305 21.3967952877283 2733.00004005432 21 26 20
-126.538172364235 20.9510531276464 2676.00011825562 14 19 12
-120.527222752571 21.1785919964314 2704.99992370605 21 24 15
-112.349778413773 21.030293777585 2686.00010871887 21 24 15
-104.353755712509 20.8976175636053 2668.99991035461 20 23 14
-96.4137613773346 20.757082849741 2651.00002288818 19 22 13
-89.0425816178322 20.7261294126511 2647.0000743866 17 20 11
-83.1146761775017 21.0553370416164 2688.99989128113 17 20 11
-76.168105006218 21.1652778089046 2703.00006866455 17 20 11
-68.5594379901886 21.0950933396816 2694.00000572205 15 18 9
-60.9769187867641 21.0170466452837 2684.00001525879 15 18 9
-53.1289428472519 20.8136811852455 2657.99999237061 14 17 8
-46.3028736412525 21.0096463561058 2683.00008773804 14 17 8
-38.67182508111 20.8453722298145 2661.99994087219 14 15 7
-31.7569300532341 21.0804343223572 2691.99991226196 14 15 7
-24.8412657529116 21.4564260095358 2740.00000953674 14 15 7
-17.3212345689535 21.4095246046782 2733.99996757507 13 14 6
-9.7906431183219 21.2686266750097 2716.00008010864 13 14 8
-2.39764782600105 21.4800834655762 2743.00003051758 11 14 7
5.0536971539259 21.3156286627054 2721.99988365173 4 7 0
12.6105230301619 21.5270277112722 2749.00007247925 16 19 12
20.0586225837469 21.4643161743879 2740.9999370575 14 17 10
42.2797426581383 21.346477791667 2726.0000705719 3 5 0
49.8872175812721 21.4167665690184 2734.99989509583 19 21 16
56.6628649830818 21.1581457406282 2701.99990272522 11 13 8
64.3483251333237 21.2597027420998 2714.99991416931 14 16 11
71.6023072600365 21.2124492973089 2709.00011062622 11 13 8
79.7855630517006 21.4235652238131 2736.00006103516 12 15 8
87.8607630729675 21.5720031410456 2755.00011444092 12 15 8
92.5772115588188 20.9374092519283 2674.00002479553 11 14 7
99.2788746953011 20.8117477595806 2657.99999237061 11 14 7
107.055112719536 20.9131259471178 2671.0000038147 13 16 9
115.458399057388 21.116254851222 2697.00002670288 14 17 10
122.227124869823 21.0140012204647 2684.00001525879 15 18 11
129.213973879814 20.9587011486292 2677.00004577637 16 19 12
138.864949345589 21.3183090090752 2723.00004959106 15 18 11
145.435407757759 21.1924854665995 2707.00001716614 14 17 10
151.861518621445 21.0588164627552 2690.00005722046 15 18 11
159.496232867241 21.0973434150219 2694.9999332428 16 19 12
166.848033666611 21.0967045277357 2694.9999332428 17 20 13
175.427302718163 21.2447699159384 2713.99998664856 17 20 13
181.886464357376 21.1344845592976 2700.00004768372 16 19 12
190.301194787025 21.2511718273163 2714.99991416931 17 20 13
197.777554392815 21.2582461535931 2716.00008010864 21 24 17
207.449376583099 21.4922688901424 2746.00005149841 16 19 12
217.518761754036 21.7497237026691 2779.00004386902 28 31 24
-136.491999030113 13.9151513576508 2729.00009155273 19 24 18
-128.193601965904 13.8237085193396 2710.99996566772 23 28 21
-119.814701378345 13.7118464335799 2688.99989128113 23 26 17
-112.935729324818 13.7682380154729 2700.00004768372 22 25 16
-105.448856949806 13.7532223016024 2697.00002670288 20 23 14
-96.8141332268715 13.5750016197562 2661.99994087219 19 22 13
-89.6820053458214 13.5956415906549 2665.99988937378 19 22 13
-83.0840393900871 13.7080596759915 2687.99996376038 18 21 12
-76.0556310415268 13.7643618509173 2698.99988174438 18 21 12
-68.5087665915489 13.7288514524698 2691.99991226196 16 19 10
-60.9771236777306 13.6882215738297 2684.00001525879 16 19 10
-53.6688044667244 13.6934714391828 2684.99994277954 14 17 8
-46.3547930121422 13.6987008154392 2686.00010871887 13 16 7
-39.1077734529972 13.7294130399823 2691.99991226196 13 14 6
-31.851414591074 13.7703064829111 2700.00004768372 13 14 6
-24.6600229293108 13.8723831623793 2720.00002861023 13 14 6
-17.1312279999256 13.7908346951008 2703.9999961853 13 14 6
-9.79788415133953 13.8622727245092 2717.99993515015 14 15 7
-2.36793654039502 13.8163883239031 2709.00011062622 12 15 8
5.11312577873468 14.0458913519979 2753.99994850159 10 13 6
12.5371674075723 13.9387650415301 2733.00004005432 14 17 10
20.0220998376608 13.9540228992701 2736.00006103516 0 2 0
49.5590604841709 13.8567574322224 2717.00000762939 0 2 0
56.7050017416477 13.7903187423944 2703.9999961853 13 15 10
63.661202788353 13.6983636766672 2686.00010871887 14 16 11
71.8668550252914 13.8664832338691 2719.00010108948 11 13 8
87.0637595653534 13.9221679419279 2730.00001907349 11 14 7
94.5163145661354 13.9219323173165 2730.00001907349 13 16 9
99.1298034787178 13.534115627408 2654.00004386902 13 16 9
107.135638594627 13.6307384818792 2673.00009727478 14 17 10
115.587212145329 13.7681337073445 2700.00004768372 14 17 10
123.320452868938 13.8086182996631 2707.99994468689 14 17 10
131.000310182571 13.8388853520155 2713.99998664856 16 19 12
138.610407710075 13.8589348644018 2717.99993515015 15 18 11
146.026849746704 13.85856885463 2717.99993515015 14 17 10
152.144253253937 13.7409176677465 2694.9999332428 14 17 10
159.319192171097 13.725221157074 2691.99991226196 16 19 12
166.724771261215 13.7299057096243 2693.00007820129 17 20 13
174.716845154762 13.7804532423615 2703.00006866455 17 20 13
182.560697197914 13.8156870380044 2710.00003814697 16 19 12
189.74107503891 13.7999206781387 2707.00001716614 17 20 13
198.069468140602 13.865701854229 2720.00002861023 21 24 17
208.583205938339 14.0741905197501 2760.99991798401 20 23 16
219.398006796837 14.2877418547869 2802.99997329712 18 21 14
-137.242466211319 6.50030095130205 2743.99995803833 23 28 22
-128.382995724678 6.43176073208451 2714.99991416931 15 20 13
-120.305076241493 6.39637466520071 2700.00004768372 25 28 19
-114.358104765415 6.47706259042025 2733.99996757507 23 26 17
-105.800949037075 6.41086045652628 2706.00008964539 20 23 14
-97.8326499462128 6.37307623401284 2690.00005722046 19 22 13
-90.4895216226578 6.37318985536695 2690.00005722046 18 21 12
-83.5478380322456 6.40409486368299 2703.00006866455 19 22 13
-76.1684998869896 6.40419078990817 2703.00006866455 19 22 13
-68.4071034193039 6.36873906478286 2687.99996376038 17 20 11
-60.9318017959595 6.35460112243891 2681.99992179871 15 18 9
-53.7288710474968 6.36888667941093 2687.99996376038 13 16 7
-46.2858490645885 6.35473011061549 2681.99992179871 12 15 6
-39.1078516840935 6.37847697362304 2691.99991226196 12 13 5
-31.8042896687984 6.38799788430333 2696.00009918213 12 13 5
-24.3608877062798 6.36670645326376 2687.00003623962 13 14 6
-17.1756092458963 6.4235981553793 2710.99996566772 13 14 6
-9.76185407489538 6.4165061339736 2707.99994468689 13 14 6
-2.41426844149828 6.54446519911289 2762.00008392334 14 17 10
5.05001097917557 6.44494639709592 2720.00002861023 13 16 9
12.5784771516919 6.49706367403269 2742.00010299683 10 13 6
49.6868342161179 6.45422423258424 2723.99997711182 3 5 0
56.6212236881256 6.39729481190443 2700.00004768372 17 19 14
64.2538517713547 6.42328476533294 2710.99996566772 10 12 7
72.3163336515427 6.4824353903532 2736.00006103516 8 10 5
87.3828530311584 6.49171974509954 2740.00000953674 11 14 7
95.1396822929382 6.51056366041303 2747.99990653992 12 15 8
101.557821035385 6.44173938781023 2719.00010108948 14 17 10
108.218014240265 6.39659957960248 2700.00004768372 14 15 9
115.801483392715 6.40831096097827 2704.99992370605 13 16 9
123.639464378357 6.43185712397099 2714.99991416931 12 15 8
131.676331162453 6.46250043064356 2727.9999256134 15 18 11
138.304680585861 6.42443681135774 2711.99989318848 15 18 11
145.651042461395 6.42189895734191 2710.99996566772 13 16 9
151.975184679031 6.37671491131186 2691.99991226196 14 17 10
158.195033669472 6.33152481168509 2673.00009727478 14 17 10
165.486872196198 6.33133295923471 2673.00009727478 15 18 11
173.165857791901 6.34534424170852 2678.99990081787 16 19 12
181.213706731796 6.37118797749281 2690.00005722046 17 20 13
190.582573413849 6.43965415656567 2719.00010108948 19 22 15
199.089288711548 6.47494988515973 2733.99996757507 23 26 19
207.223758101463 6.49602664634585 2743.00003051758 17 20 13
-137.792721390724 -0.995033304207027 2755.00011444092 21 26 20
-128.761351108551 -0.983499921858311 2723.00004959106 9 14 7
-121.641851961613 -0.986051047220826 2730.00001907349 23 26 17
-114.316329360008 -0.987156177870929 2733.00004005432 21 24 15
-105.566419661045 -0.975256727542728 2700.00004768372 20 23 14
-98.1236472725868 -0.974552880506963 2697.99995422363 19 22 13
-90.994156897068 -0.977098825387657 2704.99992370605 18 21 12
-84.0733349323273 -0.98253320902586 2720.00002861023 19 22 13
-76.3376206159592 -0.978574506007135 2709.00011062622 18 21 12
-68.661630153656 -0.974614231381565 2697.99995422363 15 18 9
-61.1590184271336 -0.972458685282618 2691.99991226196 13 16 7
-54.1686415672302 -0.97897183150053 2710.00003814697 12 15 6
-46.5620085597038 -0.974646187387407 2697.99995422363 12 15 6
-38.6575199663639 -0.96128776203841 2661.00001335144 13 15 4
-31.6391438245773 -0.968880485743284 2681.99992179871 12 13 5
-24.3608988821507 -0.970692024566233 2687.00003623962 12 15 6
-17.0742478221655 -0.973585876636207 2694.9999332428 13 16 7
-9.90965869277716 -0.993096269667149 2749.00007247925 13 16 9
-2.41776602342725 -0.999238807708025 2766.00003242493 12 17 10
5.12799108400941 -0.997793511487544 2762.00008392334 9 14 7
12.6885790377855 -0.999236828647554 2766.00003242493 14 19 13
49.7050993144512 -0.984396552667022 2724.99990463257 0 2 0
57.0196993649006 -0.982219236902893 2719.00010108948 9 14 8
64.1116872429848 -0.977150746621192 2704.99992370605 18 20 15
71.7877373099327 -0.981111777946353 2716.00008010864 15 18 11
80.5733799934387 -0.998075702227652 2763.00001144409 10 11 5
86.6493880748749 -0.981443910859525 2717.00000762939 10 11 5
95.5551937222481 -0.996959628537297 2759.99999046326 10 11 3
102.902516722679 -0.995135400444269 2755.00011444092 12 13 5
109.220087528229 -0.984279671683908 2724.99990463257 14 15 7
116.14403128624 -0.979924690909684 2713.00005912781 16 17 9
123.867221176624 -0.982430996373296 2720.00002861023 13 16 7
131.676390767097 -0.985297141596675 2727.9999256134 12 15 6
138.202771544456 -0.978771480731666 2710.00003814697 11 14 5
144.307985901833 -0.970077875535935 2686.00010871887 14 17 8
151.241362094879 -0.967522908467799 2678.99990081787 16 19 10
158.31346809864 -0.966050254646689 2674.99995231628 17 20 11
165.239289402962 -0.963854196015745 2668.99991035461 17 20 11
172.713473439217 -0.964907114394009 2671.99993133545 17 20 11
181.079089641571 -0.970653083641082 2687.99996376038 17 20 11
189.881712198257 -0.978202908299863 2709.00011062622 19 22 13
197.778642177582 -0.980695709586143 2716.00008010864 24 27 20
207.148313522339 -0.990047585219145 2742.00010299683 25 27 22
218.380972743034 -1.00734061561525 2789.99996185303 26 28 23
-136.892318725586 -8.46077874302864 2736.99998855591 18 23 17
-128.335654735565 -8.38988553732634 2713.99998664856 27 32 25
-112.977735698223 -8.35007429122925 2700.99997520447 21 24 15
-105.058036744595 -8.30696523189545 2687.00003623962 20 23 14
-98.4145253896713 -8.36586393415928 2706.00008964539 20 23 14
-91.7341411113739 -8.43093730509281 2726.99999809265 18 21 12
-84.5678225159645 -8.45890212804079 2736.00006103516 19 22 13
-76.5066146850586 -8.39410163462162 2714.99991416931 18 21 12
-69.145105779171 -8.40040016919374 2717.00000762939 13 16 7
-61.7950931191444 -8.4097795188427 2720.00002861023 12 15 6
-54.7482632100582 -8.4686167538166 2739.00008201599 13 16 7
-47.0797009766102 -8.43468587845564 2727.9999256134 14 17 8
-39.2531082034111 -8.3543648943305 2701.99990272522 13 14 6
-31.7452885210514 -8.3204098045826 2690.99998474121 12 13 5
-24.6781930327415 -8.41630436480045 2721.99988365173 14 15 7
-17.156595364213 -8.37305001914501 2707.99994468689 16 19 10
-9.8519716411829 -8.45037121325731 2733.00004005432 14 17 10
-2.41951225325465 -8.5585992783308 2767.99988746643 1 6 0
5.16140600666404 -8.59570130705833 2779.99997138977 10 15 8
51.0001257061958 -8.64490680396557 2796.0000038147 0 2 0
57.0825599133968 -8.41602217406034 2721.99988365173 2 7 1
64.3012374639511 -8.3881001919508 2713.00005912781 12 14 9
79.4068425893784 -8.41879192739725 2723.00004959106 12 13 7
88.6903554201126 -8.59797932207584 2780.99989891052 11 12 6
95.3127667307854 -8.5112676024437 2753.00002098084 11 12 4
102.75299847126 -8.50492808967829 2750.99992752075 11 12 4
109.580725431442 -8.45220685005188 2733.99996757507 11 12 4
116.614826023579 -8.42111371457577 2723.99997711182 12 13 5
123.730503022671 -8.3992863073945 2717.00000762939 17 18 10
130.855709314346 -8.3805387839675 2710.99996566772 16 19 10
138.04966211319 -8.36796406656504 2707.00001716614 15 18 9
143.985494971275 -8.28428380191326 2680.0000667572 15 18 9
151.692867279053 -8.30569211393595 2687.00003623962 14 17 8
159.201070666313 -8.31472314894199 2690.00005722046 16 19 10
166.415452957153 -8.30828957259655 2687.99996376038 17 20 11
173.48900437355 -8.29566456377506 2684.00001525879 19 22 13
182.089403271675 -8.35411250591278 2703.00006866455 19 22 13
189.180612564087 -8.34146607667208 2698.99988174438 20 23 14
196.904629468918 -8.35662242025137 2703.9999961853 22 25 18
206.619307398796 -8.45211651176214 2734.99989509583 28 30 25
215.719506144524 -8.51668976247311 2756.00004196167 28 30 25
-138.792604207993 -16.1542017012835 2775.00009536743 24 29 22
-128.004372119904 -15.7587379217148 2707.00001716614 22 27 20
-111.931778490543 -15.5789740383625 2676.00011825562 21 24 15
-105.370588600636 -15.6899075955153 2694.9999332428 19 22 13
-98.559781908989 -15.7775394618511 2710.00003814697 19 22 13
-91.4311707019806 -15.8243961632252 2717.99993515015 19 22 13
-84.3203514814377 -15.8828776329756 2727.9999256134 18 21 12
-76.534628868103 -15.8132500946522 2716.00008010864 17 20 11
-68.9922571182251 -15.7843548804522 2710.99996566772 14 17 8
-62.0448589324951 -15.9009955823421 2730.99994659424 13 16 7
-54.8480749130249 -15.9768611192703 2743.99995803833 14 17 8
-47.1313670277596 -15.9013196825981 2730.99994659424 14 17 8
-39.4128188490868 -15.7966427505016 2713.00005912781 14 15 7
-32.0401415228844 -15.8142186701298 2716.00008010864 15 16 8
-24.6418733149767 -15.8259477466345 2717.99993515015 17 18 10
-17.3022728413343 -15.901705250144 2730.99994659424 16 19 10
-9.89160221070051 -15.9774404019117 2743.99995803833 13 16 9
-2.40814359858632 -16.0415098071098 2755.00011444092 17 22 15
5.12797525152564 -16.082264482975 2762.00008392334 0 2 0
51.31009593606 -16.378715634346 2812.99996376038 0 2 0
57.4179627001286 -15.9418676048517 2737.99991607666 0 5 0
64.6803081035614 -15.8892832696438 2729.00009155273 9 11 6
72.6333111524582 -15.9997045993805 2747.99990653992 4 7 0
79.727441072464 -15.9179661422968 2733.99996757507 13 14 8
86.9042426347733 -15.8653203397989 2724.99990463257 13 14 8
94.100795686245 -15.8242974430323 2717.99993515015 12 13 5
102.304555475712 -15.9462690353394 2739.00008201599 12 13 5
109.259828925133 -15.8702731132507 2726.0000705719 11 12 4
117.299534380436 -15.9514434635639 2740.00000953674 11 12 4
123.684681952 -15.8113688230515 2716.00008010864 15 18 9
129.600435495377 -15.6305283308029 2684.99994277954 16 19 10
135.703474283218 -15.4904276132584 2661.00001335144 16 19 10
144.200086593628 -15.6239047646523 2684.00001525879 15 18 9
151.41025185585 -15.6118310987949 2681.99992179871 14 17 8
159.733340144157 -15.7103296369314 2698.99988174438 15 18 9
167.467564344406 -15.7447792589664 2704.99992370605 17 20 11
174.910649657249 -15.7501026988029 2706.00008964539 20 23 14
182.156383991241 -15.7379433512688 2703.9999961853 20 23 14
189.110100269318 -15.702486038208 2697.99995422363 20 23 14
197.195485234261 -15.7601274549961 2707.99994468689 22 25 18
211.961969733238 -15.7589502632618 2707.99994468689 20 22 17
-140.192523598671 -23.96952919662 2802.99997329712 11 16 9
-132.779821753502 -24.0128766745329 2808.00008773804 16 21 14
-122.220262885094 -23.4575662761927 2743.00003051758 23 26 17
-113.646320998669 -23.2357289642096 2717.00000762939 20 23 14
-106.07398301363 -23.201996460557 2713.00005912781 18 21 12
-98.4503105282784 -23.1511238962412 2707.00001716614 18 21 12
-91.0944566130638 -23.1600906699896 2707.99994468689 18 21 12
-84.0727686882019 -23.2631023973227 2720.00002861023 16 19 10
-76.3652697205544 -23.1779217720032 2710.00003814697 16 19 10
-69.0683424472809 -23.2124514877796 2713.99998664856 17 20 11
-61.7947280406952 -23.2640542089939 2720.00002861023 17 20 11
-54.8278875648975 -23.4610307961702 2743.00003051758 15 18 9
-47.0103845000267 -23.2987403869629 2723.99997711182 15 18 9
-39.3109880387783 -23.1449753046036 2706.00008964539 19 20 12
-31.9220535457134 -23.145129904151 2706.00008964539 19 20 12
-24.6961787343025 -23.2992116361856 2723.99997711182 17 18 10
-17.1755012124777 -23.1881123036146 2710.99996566772 8 11 2
-9.84109845012426 -23.3506839722395 2730.00001907349 8 11 4
-2.41075665690005 -23.5902033746243 2757.99989700317 10 13 6
5.12981275096536 -23.6329659819603 2763.00001144409 7 10 3
12.4591281637549 -23.2309196144342 2716.00008010864 11 16 9
58.151725679636 -23.7175319343805 2773.00000190735 0 1 0
65.8888146281242 -23.7771309912205 2779.99997138977 14 17 10
72.9237943887711 -23.5972199589014 2759.0000629425 12 15 8
79.5813426375389 -23.3403015881777 2729.00009155273 13 14 8
87.286613881588 -23.4083607792854 2736.99998855591 13 14 8
94.5851430296898 -23.3652051538229 2732.00011253357 14 15 7
101.071611046791 -23.1424178928137 2706.00008964539 14 15 7
116.699762642384 -23.3125165104866 2726.0000705719 13 14 6
123.911939561367 -23.2692360877991 2720.99995613098 11 14 5
129.744783043861 -22.9864828288555 2687.99996376038 12 15 6
136.518940329552 -22.8918474167585 2677.00004577637 13 16 7
143.071323633194 -22.7715279906988 2663.00010681152 14 17 8
151.579052209854 -22.9590144008398 2684.99994277954 15 18 9
159.140959382057 -22.9925494641066 2688.99989128113 17 20 11
168.33370923996 -23.2483651489019 2719.00010108948 18 21 12
174.780741333961 -23.119380697608 2703.9999961853 20 23 14
182.088360190392 -23.110069334507 2703.00006866455 20 23 14
189.039334654808 -23.0579823255539 2697.00002670288 20 23 14
197.194784879684 -23.1512058526278 2707.99994468689 23 26 17
204.956129193306 -23.1931041926146 2713.00005912781 25 30 23
213.135287165642 -23.2777073979378 2723.00004959106 25 30 24
-128.239691257477 -30.5959023535252 2711.99989318848 22 25 18
-119.947254657745 -30.3709711879492 2691.99991226196 22 25 16
-113.687574863434 -30.6649766862392 2717.99993515015 19 22 13
-106.308050453663 -30.6768883019686 2719.00010108948 17 20 11
-98.4498113393784 -30.5420812219381 2707.00001716614 18 21 12
-91.2285447120667 -30.5990371853113 2711.99989318848 18 21 12
-84.3505337834358 -30.7913534343243 2729.00009155273 17 20 11
-76.7030268907547 -30.7128317654133 2721.99988365173 17 20 11
-68.9662098884583 -30.5778533220291 2710.00003814697 17 20 11
-61.6808235645294 -30.6346453726292 2714.99991416931 17 20 11
-54.5077957212925 -30.7703819125891 2726.99999809265 17 20 11
-47.0101498067379 -30.7368244975805 2723.99997711182 17 20 11
-39.441529661417 -30.6355189532042 2714.99991416931 17 20 13
-31.9100953638554 -30.5228866636753 2704.99992370605 15 18 11
-24.4150068610907 -30.3876437246799 2693.00007820129 9 12 5
-9.75092966109514 -30.5232480168343 2704.99992370605 9 12 5
5.1205032505095 -31.1213247478008 2757.99989700317 20 23 16
57.7739700675011 -31.0862082988024 2755.00011444092 5 8 1
64.4901320338249 -30.7022165507078 2720.99995613098 4 7 0
71.9190463423729 -30.7018235325813 2720.99995613098 11 14 7
79.4059708714485 -30.7239536195993 2723.00004959106 10 13 6
87.2542932629585 -30.8701582252979 2736.00006103516 10 13 6
95.3117161989212 -31.0614407062531 2753.00002098084 12 13 7
101.183161139488 -30.5644441395998 2709.00011062622 14 15 9
108.457282185555 -30.5299945175648 2706.00008964539 14 15 9
116.057030856609 -30.5857639759779 2710.99996566772 14 15 9
123.273760080338 -30.5399522185326 2707.00001716614 11 14 5
131.626591086388 -30.7648628950119 2726.99999809265 11 14 5
138.048157095909 -30.5384676903486 2707.00001716614 11 14 5
143.124341964722 -30.0525799393654 2664.00003433228 14 17 8
150.449246168137 -30.0630293786526 2664.99996185303 15 18 9
160.146281123161 -30.5246543139219 2706.00008964539 18 21 12
166.104108095169 -30.2642863243818 2683.00008773804 18 21 12
174.456670880318 -30.4438043385744 2698.99988174438 19 22 13
181.413799524307 -30.3751286119223 2693.00007820129 19 22 13
190.089777112007 -30.5883884429932 2711.99989318848 20 23 14
199.305564165115 -30.8692716062069 2736.99998855591 24 27 18
206.994846463203 -30.9019722044468 2740.00000953674 19 24 17
214.308321475983 -30.8782421052456 2737.99991607666 25 32 24
222.258046269417 -30.9446975588799 2743.99995803833 23 30 22
-128.191590309143 -37.9857458174229 2710.99996566772 28 29 21
-121.283188462257 -38.1407588720322 2721.99988365173 21 24 15
-114.314265549183 -38.2957309484482 2733.00004005432 17 20 11
-106.072768568993 -38.0162633955479 2713.00005912781 19 22 13
-98.7401232123375 -38.0450114607811 2714.99991416931 19 22 13
-91.9679999351501 -38.3119396865368 2733.99996757507 18 21 12
-84.813617169857 -38.4526997804642 2743.99995803833 20 23 14
-77.1815851330757 -38.383211940527 2739.00008201599 19 22 13
-69.5765241980553 -38.3136682212353 2733.99996757507 16 19 10
-61.7258623242378 -38.0759015679359 2717.00000762939 16 19 10
-54.2875789105892 -38.0623005330563 2716.00008010864 18 21 12
-46.8200147151947 -38.0206219851971 2713.00005912781 19 22 13
-40.1095263659954 -38.693618029356 2760.99991798401 12 15 8
-32.2048030793667 -38.2594279944897 2730.00001907349 13 16 9
-24.1519324481487 -37.3346768319607 2664.00003433228 12 15 8
-17.0042458921671 -37.6151129603386 2684.00001525879 11 14 7
-9.60307102650404 -37.3349152505398 2664.00003433228 9 10 4
-2.38975090906024 -38.3159853518009 2733.99996757507 7 8 2
57.5219430029392 -38.4405367076397 2743.00003051758 6 7 1
64.8452341556549 -38.3420027792454 2736.00006103516 15 16 10
71.4692547917366 -37.8930754959583 2703.9999961853 13 16 9
79.8137113451958 -38.3549816906452 2736.99998855591 13 16 9
87.7001956105232 -38.5365597903728 2750 12 15 8
93.9262732863426 -38.0174294114113 2713.00005912781 11 14 7
102.116271853447 -38.3110009133816 2733.99996757507 11 14 7
108.576811850071 -37.9599370062351 2709.00011062622 14 17 10
116.01347476244 -37.9731543362141 2710.00003814697 15 18 11
123.910516500473 -38.1264351308346 2720.99995613098 14 17 8
132.349759340286 -38.4197756648064 2742.00010299683 13 16 7
139.322191476822 -38.2787026464939 2732.00011253357 12 15 6
146.024584770203 -38.0815416574478 2717.99993515015 11 14 5
150.391817092896 -37.323921918869 2664.00003433228 11 14 5
159.02079641819 -37.6450717449188 2687.00003623962 16 19 10
167.341247200966 -37.8680899739265 2703.00006866455 17 20 11
174.132391810417 -37.7408117055893 2694.00000572205 20 23 14
193.94363462925 -38.7608855962753 2766.99995994568 21 24 15
201.197579503059 -38.7034825980663 2763.00001144409 22 25 16
208.882167935371 -38.7300774455071 2765.00010490417 23 28 21
-135.338455438614 -45.3018955886364 2706.00008964539 22 23 15
-128.237873315811 -45.4034544527531 2711.99989318848 28 29 21
-121.906034648418 -45.806311070919 2736.00006103516 20 23 14
-115.735493600369 -46.3263355195522 2766.99995994568 16 19 10
-106.932073831558 -45.7915104925632 2734.99989509583 19 22 13
-98.9575609564781 -45.5579832196236 2720.99995613098 18 21 12
-91.9672921299934 -45.7764565944672 2733.99996757507 17 20 11
-84.6584066748619 -45.8609275519848 2739.00008201599 16 19 10
-77.1527886390686 -45.8448678255081 2737.99991607666 18 21 12
-69.6014240384102 -45.7952618598938 2734.99989509583 21 24 15
-61.702661216259 -45.4776845872402 2716.00008010864 20 23 14
-54.1472397744656 -45.3609675168991 2709.00011062622 15 18 9
-46.7161051928997 -45.3279055655003 2707.00001716614 13 16 7
-40.0075204670429 -46.1152791976929 2753.99994850159 13 16 9
-32.3343127965927 -45.8979047834873 2740.9999370575 13 16 9
-24.7500948607922 -45.7139611244202 2730.00001907349 12 15 8
-16.9090796262026 -44.6926839649677 2668.99991035461 11 14 7
5.1612751558423 -46.551551669836 2779.99997138977 14 15 9
57.9828433692455 -46.2984926998615 2765.00010490417 0 1 0
64.6551176905632 -45.6784218549728 2727.9999256134 6 7 1
72.9223862290382 -46.1969040334225 2759.0000629425 9 12 5
79.9297317862511 -45.8948574960232 2740.9999370575 13 16 9
88.1140902638435 -46.2625063955784 2763.00001144409 13 16 9
95.1026380062103 -45.993834733963 2746.99997901917 12 15 8
102.488964796066 -45.9427610039711 2743.99995803833 12 15 8
110.018834471703 -45.9586046636105 2744.99988555908 12 15 8
116.697527468204 -45.6395410001278 2726.0000705719 14 17 10
123.955093324184 -45.5715544521809 2721.99988365173 13 16 7
131.238579750061 -45.5202497541904 2719.00010108948 13 16 7
139.729082584381 -45.8706766366959 2740.00000953674 12 15 6
145.916000008583 -45.46769708395 2716.00008010864 12 15 6
151.519730687141 -44.9307486414909 2684.00001525879 12 15 6
157.835975289345 -44.6448735892773 2667.00005531311 16 19 10
164.677888154984 -44.5263497531414 2660.00008583069 17 20 11
173.937156796455 -45.0438410043716 2690.99998474121 19 22 13
185.385778546333 -46.0633970797062 2752.00009346008 21 24 15
194.222509860992 -46.3798269629478 2770.99990844727 22 25 16
201.560139656067 -46.3279746472836 2767.99988746643 22 25 16
210.542574524879 -46.6442778706551 2786.99994087219 25 31 21
217.749312520027 -46.5588308870792 2782.00006484985 26 32 22
-138.438075780869 -53.8960546255112 2767.99988746643 31 33 22
-126.960009336472 -52.2812269628048 2684.99994277954 29 31 20
-122.172266244888 -53.3923506736755 2742.00010299683 18 21 12
-114.856079220772 -53.4714050590992 2746.00005149841 16 19 10
-107.048384845257 -53.3167086541653 2737.99991607666 18 21 12
-99.68401491642 -53.3761531114578 2740.9999370575 17 20 11
-92.0673683285713 -53.2992109656334 2736.99998855591 17 20 11
-83.9158296585083 -52.871648222208 2714.99991416931 22 25 16
-76.7012313008308 -53.0087612569332 2721.99988365173 20 23 14
-69.3972036242485 -53.1068667769432 2726.99999809265 16 19 10
-62.2018799185753 -53.3217340707779 2737.99991607666 14 17 8
-54.2466752231121 -52.8549179434776 2713.99998664856 14 17 8
-47.0780692994595 -53.1280674040318 2727.9999256134 14 17 8
-39.702083915472 -53.2258786261082 2733.00004005432 13 15 10
-32.7350944280624 -54.0442056953907 2775.00009536743 12 14 9
-25.1487642526627 -54.025012999773 2773.9999294281 11 13 8
-17.4600966274738 -53.6746680736542 2756.00004196167 10 13 6
-9.87325981259346 -53.3437207341194 2739.00008201599 12 13 7
-2.41593201644719 -53.8306646049023 2763.99993896484 10 11 5
5.13894809409976 -53.9085566997528 2767.99988746643 13 14 8
57.4161075055599 -53.3221140503883 2737.99991607666 14 15 7
65.4129385948181 -53.7499524652958 2759.99999046326 16 17 9
72.8159993886948 -53.65189909935 2755.00011444092 11 12 6
81.0954123735428 -54.1574619710445 2780.99989891052 11 14 7
86.7738872766495 -52.9881939291954 2720.99995613098 11 14 7
95.5518186092377 -53.7467636168003 2759.99999046326 12 15 8
102.861523628235 -53.6289438605309 2753.99994850159 12 14 9
110.578946769238 -53.7252612411976 2759.0000629425 12 14 9
118.066318333149 -53.7046566605568 2757.99989700317 12 15 8
123.316429555416 -52.7298636734486 2707.99994468689 13 16 7
132.202729582787 -53.3322431147099 2739.00008201599 13 16 7
138.452917337418 -52.863597869873 2714.99991416931 12 15 6
145.699754357338 -52.8037957847118 2711.99989318848 13 16 7
152.026429772377 -52.4324178695679 2693.00007820129 13 16 7
157.775357365608 -51.9052222371101 2665.99988937378 15 18 9
165.543124079704 -52.0594045519829 2674.00002479553 16 19 10
172.125771641731 -51.8436133861542 2663.00010681152 19 22 13
181.274920701981 -52.386999130249 2690.99998474121 21 24 15
190.996617078781 -53.0470870435238 2724.99990463257 22 25 16
200.684532523155 -53.6486618220806 2756.00004196167 23 26 17
208.878740668297 -53.8218878209591 2765.00010490417 16 19 10
218.216985464096 -54.2675368487835 2788.00010681152 16 19 10
-139.086797833443 -61.7406405508518 2780.99989891052 34 34 24
-129.512041807175 -60.8096979558468 2739.00008201599 21 23 12
-121.45808339119 -60.5224743485451 2726.0000705719 19 22 13
-114.896684885025 -60.9900467097759 2746.99997901917 17 20 11
-106.226235628128 -60.3252090513706 2717.00000762939 19 22 13
-100.446671247482 -61.3255128264427 2762.00008392334 17 20 11
-92.1000242233276 -60.7937052845955 2737.99991607666 17 20 11
-84.1003879904747 -60.4172311723232 2720.99995613098 22 25 16
-76.7004117369652 -60.4403428733349 2721.99988365173 19 22 13
-70.0326710939407 -61.1073188483715 2752.00009346008 13 16 7
-62.0876327157021 -60.6861598789692 2733.00004005432 12 15 6
-54.6258687973022 -60.6868267059326 2733.00004005432 15 18 9
-46.8014553189278 -60.221079736948 2711.99989318848 17 20 11
-39.9195626378059 -61.0209740698338 2747.99990653992 13 15 10
-33.053245395422 -62.220498919487 2802.00004577637 11 13 8
-25.2300892025232 -61.7989152669907 2782.99999237061 10 12 7
-17.3268690705299 -60.7332736253738 2734.99989509583 10 12 7
-9.92722250521183 -61.1553341150284 2753.99994850159 12 13 7
-2.41590617224574 -61.3774731755257 2763.99993896484 11 12 6
5.10361976921558 -61.0443688929081 2749.00007247925 14 15 9
57.499386370182 -60.8864463865757 2742.00010299683 16 17 9
65.4122456908226 -61.2854436039925 2759.99999046326 17 18 10
73.0002298951149 -61.3290704786778 2762.00008392334 7 8 2
79.3157815933228 -60.3956207633018 2720.00002861023 9 12 5
88.1123542785645 -61.3494515419006 2763.00001144409 10 13 6
94.7199389338493 -60.748927295208 2736.00006103516 11 13 8
102.449610829353 -60.9032399952412 2743.00003051758 10 15 9
110.41747033596 -61.168484389782 2755.00011444092 10 15 9
118.022277951241 -61.2116008996964 2756.99996948242 10 15 8
123.816058039665 -60.3665709495544 2719.00010108948 12 15 8
129.788026213646 -59.6991069614887 2688.99989128113 12 15 6
139.063403010368 -60.5412423610687 2726.99999809265 12 15 6
146.020591259003 -60.3398494422436 2717.99993515015 14 17 8
152.871608734131 -60.1161904633045 2707.99994468689 15 18 9
159.72663462162 -59.9146597087383 2698.99988174438 14 17 8
166.408106684685 -59.6686750650406 2687.99996376038 15 18 9
173.933774232864 -59.7333833575249 2690.99998474121 18 21 12
181.340411305428 -59.7536228597164 2691.99991226196 20 23 14
187.139719724655 -59.2632777988911 2670.00007629395 22 25 16
198.352336883545 -60.4597218334675 2723.99997711182 23 26 17
208.272218704224 -61.1899197101593 2756.99996948242 24 25 17
216.64933860302 -61.4317357540131 2767.99988746643 22 23 15
-138.434991240501 -69.0077617764473 2767.99988746643 25 25 15
-128.706678748131 -67.8626149892807 2721.99988365173 31 33 22
-121.813088655472 -68.1633651256561 2733.99996757507 17 20 11
-113.975152373314 -67.9404586553574 2724.99990463257 17 20 11
-107.749730348587 -68.7147676944733 2756.00004196167 19 22 13
-99.3181020021439 -68.0927410721779 2730.99994659424 16 19 10
-92.7380323410034 -68.7422305345535 2756.99996948242 17 20 11
-84.3157321214676 -68.020261824131 2727.9999256134 14 17 8
-77.2067010402679 -68.3204978704453 2740.00000953674 15 18 9
-69.9300244450569 -68.5209035873413 2747.99990653992 18 21 12
-62.5866800546646 -68.6962977051735 2755.00011444092 17 20 11
-54.4852949678898 -67.9739117622375 2726.0000705719 13 16 7
-46.8354150652885 -67.6753297448158 2713.99998664856 11 14 5
-39.3961258232594 -67.625992000103 2711.99989318848 11 13 8
-32.7107608318329 -69.1475570201874 2773.00000190735 12 14 9
-24.6949102729559 -67.9260417819023 2723.99997711182 12 14 9
-17.3329971730709 -68.2255476713181 2736.00006103516 11 13 8
-9.90908220410347 -68.5499012470245 2749.00007247925 12 13 7
-2.40801088511944 -68.6995983123779 2755.00011444092 15 14 9
5.14811463654041 -69.1484287381172 2773.00000190735 9 10 4
56.9954216480255 -67.7741765975952 2717.99993515015 31 32 24
65.1507526636124 -68.5463845729828 2749.00007247925 15 16 8
73.290079832077 -69.1439434885979 2773.00000190735 9 10 4
80.7145088911057 -69.0182968974113 2767.99988746643 10 13 6
87.5691771507263 -68.4686899185181 2746.00005149841 10 13 6
94.6495682001114 -68.1683346629143 2733.99996757507 10 12 7
102.037541568279 -68.1172236800194 2732.00011253357 9 14 8
109.81497168541 -68.3153495192528 2740.00000953674 9 14 8
117.464371025562 -68.413645029068 2743.99995803833 10 15 8
124.634236097336 -68.2376027107239 2736.99998855591 12 15 8
131.282716989517 -67.8121671080589 2720.00002861023 12 15 6
140.234634280205 -68.5583874583244 2750 12 15 6
148.490116000175 -68.9055994153023 2763.99993896484 14 17 8
154.958501458168 -68.4300437569618 2744.99988555908 14 17 8
160.139039158821 -67.4558728933334 2706.00008964539 14 17 8
166.839495301247 -67.1796277165413 2694.9999332428 15 18 9
175.418347120285 -67.6511228084564 2713.99998664856 18 21 12
182.685524225235 -67.5990507006645 2711.99989318848 20 23 14
189.870998263359 -67.5219744443893 2709.00011062622 21 24 15
198.932558298111 -68.0928528308868 2732.00011253357 22 25 16
206.834509968758 -68.2398974895477 2737.99991607666 21 22 14
213.516116142273 -67.9880902171135 2727.9999256134 28 29 21
-128.752261400223 -75.3203481435776 2723.00004959106 26 28 17
-121.321372687817 -75.3220841288567 2723.00004959106 16 19 10
-114.851966500282 -75.9599432349205 2746.00005149841 17 20 11
-108.608417212963 -76.8467038869858 2778.00011634827 18 21 12
-101.789705455303 -77.4291008710861 2799.00002479553 15 18 9
-92.8713455796242 -76.3792395591736 2760.99991798401 16 19 10
-85.0872918963432 -76.1591792106628 2753.00002098084 16 19 10
-77.3183777928352 -75.9113356471062 2743.99995803833 16 19 10
-69.7764158248901 -75.8570432662964 2742.00010299683 17 20 11
-62.381386756897 -75.9686380624771 2746.00005149841 16 19 10
-54.824348539114 -75.886458158493 2743.00003051758 13 16 7
-46.7485003173351 -74.9465450644493 2709.00011062622 12 15 8
-39.2067581415176 -74.6704861521721 2698.99988174438 11 14 7
-31.9907627999783 -75.0306472182274 2711.99989318848 12 14 9
-24.7852355241776 -75.6397098302841 2733.99996757507 12 15 8
-17.2630790621042 -75.3910094499588 2724.99990463257 12 15 8
-9.98103991150856 -76.6085237264633 2769.00005340576 12 13 7
-2.42458540014923 -76.7469480633736 2773.9999294281 14 15 9
5.13319345191121 -76.4979273080826 2765.00010490417 14 15 9
58.2528188824654 -76.8544673919678 2778.00011634827 49 50 42
65.1735886931419 -76.078973710537 2750 3 4 0
72.2054913640022 -75.5800381302834 2732.00011253357 19 20 14
82.2588875889778 -78.041099011898 2821.00009918213 7 8 2
87.982565164566 -76.3247236609459 2759.0000629425 13 16 9
95.5137833952904 -76.3234496116638 2759.0000629425 9 11 6
102.03617811203 -75.5751579999924 2732.00011253357 6 11 5
109.532967209816 -75.60133934021 2733.00004005432 6 11 5
117.034748196602 -75.6274238228798 2733.99996757507 7 12 5
123.812936246395 -75.2108246088028 2719.00010108948 12 15 6
132.198020815849 -75.7622569799423 2739.00008201599 11 14 5
141.864582896233 -76.9497379660606 2782.00006484985 11 14 5
149.2939889431 -76.8647491931915 2779.00004386902 12 15 6
155.295163393021 -76.0881900787354 2750.99992752075 13 16 7
160.669520497322 -75.0903263688087 2714.99991416931 15 18 9
167.951628565788 -75.0327482819557 2713.00005912781 16 19 10
175.997748970985 -75.3069445490837 2723.00004959106 18 21 12
184.29984152317 -75.6639987230301 2736.00006103516 19 22 13
190.709590911865 -75.2466097474098 2720.99995613098 20 23 14
206.378608942032 -75.5453780293465 2732.00011253357 22 23 15
212.495878338814 -75.0724524259567 2714.99991416931 19 19 11
222.245335578918 -75.8713781833649 2743.99995803833 26 26 18
-137.130871415138 -83.3282098174095 2742.00010299683 31 34 25
-129.270479083061 -83.0871164798737 2733.99996757507 17 20 11
-121.809683740139 -83.0890312790871 2733.99996757507 15 18 11
-115.477658808231 -83.9114189147949 2760.99991798401 14 17 10
-109.349630773067 -85.0072503089905 2796.99993133545 13 16 9
-101.097255945206 -84.4921842217445 2779.99997138977 12 15 8
-92.8363502025604 -83.8858187198639 2759.99999046326 14 17 10
-84.62243527174 -83.2185223698616 2737.99991607666 15 18 11
-77.0918279886246 -83.158977329731 2736.00006103516 15 18 11
-69.2664384841919 -82.7345699071884 2721.99988365173 15 18 11
-61.9942806661129 -82.9483643174171 2729.00009155273 14 17 10
-54.5637123286724 -82.9796567559242 2730.00001907349 13 16 9
-47.230988740921 -83.1932052969933 2736.99998855591 12 15 8
-39.365965873003 -82.3731869459152 2710.00003814697 13 14 6
-32.4385315179825 -83.5895910859108 2750 13 16 9
-24.7848685830832 -83.1036940217018 2733.99996757507 12 15 6
-17.649257555604 -84.6846327185631 2786.00001335144 10 13 4
-9.85112972557545 -83.0738320946693 2733.00004005432 13 16 7
-2.41056457161903 -83.8338360190392 2757.99989700317 14 17 8
5.25378715246916 -86.0223695635796 2829.99992370605 9 12 3
65.3148218989372 -83.7686732411385 2756.00004196167 10 13 4
72.8123039007187 -83.7372243404388 2755.00011444092 11 14 5
81.6453397274017 -85.1037725806236 2799.99995231628 14 17 8
90.4367119073868 -86.196631193161 2835.99996566772 10 13 6
96.9663634896278 -85.1314216852188 2801.00011825562 10 13 6
103.005722165108 -83.8229805231094 2757.99989700317 11 14 7
109.65159535408 -83.1527188420296 2736.00006103516 10 13 6
116.176910698414 -82.4823752045631 2713.99998664856 9 12 5
126.042380928993 -84.1216444969177 2767.99988746643 10 13 4
133.49923491478 -84.0588882565498 2766.00003242493 11 14 5
139.567822217941 -83.1754952669144 2736.99998855591 11 14 5
147.089242935181 -83.2037031650543 2737.99991607666 14 17 8
155.010670423508 -83.4445208311081 2746.00005149841 15 18 9
161.90992295742 -83.1382423639297 2736.00006103516 12 15 6
168.196812272072 -82.5584083795547 2717.00000762939 14 17 8
177.481785416603 -83.436980843544 2746.00005149841 16 19 10
184.431880712509 -83.1911712884903 2737.99991607666 19 22 13
191.898331046104 -83.1883475184441 2737.99991607666 19 22 13
200.164958834648 -83.5196152329445 2749.00007247925 19 22 13
206.300124526024 -82.9697176814079 2730.99994659424 20 22 11
215.15391767025 -83.5134238004684 2749.00007247925 16 17 9
-138.478949666023 -91.7062386870384 2769.00005340576 28 31 22
-130.119517445564 -91.1454483866692 2752.00009346008 17 20 11
-122.297815978527 -90.9156948328018 2744.99988555908 13 16 9
-115.935869514942 -91.8119475245476 2772.0000743866 13 16 9
-108.917824923992 -92.2775194048882 2786.00001335144 12 15 8
-100.222870707512 -91.2856087088585 2756.00004196167 12 15 8
-90.8167064189911 -89.4323289394379 2700.00004768372 15 18 11
-84.7756117582321 -90.8581018447876 2743.00003051758 13 16 9
-77.4005204439163 -90.9919440746307 2746.99997901917 13 16 9
-69.4180056452751 -90.3638154268265 2727.9999256134 13 16 9
-61.9251355528831 -90.2986750006676 2726.0000705719 13 16 9
-54.5828193426132 -90.465284883976 2730.99994659424 13 16 9
-47.1957176923752 -90.5986279249191 2734.99989509583 13 16 9
-39.6849028766155 -90.4999896883965 2732.00011253357 15 16 8
-32.24927932024 -90.5668511986732 2733.99996757507 13 16 7
-24.8116645962 -90.6666964292526 2736.99998855591 12 15 6
-17.3512324690819 -90.7333120703697 2739.00008201599 13 16 7
-10.0347967818379 -92.224232852459 2783.99991989136 13 16 9
-2.46209278702736 -93.3175161480904 2816.99991226196 14 17 10
5.33352931961417 -95.1725766062737 2872.99990653992 10 13 6
72.5732743740082 -90.9596383571625 2746.00005149841 5 8 1
80.3318917751312 -91.2564769387245 2755.00011444092 13 16 9
88.4900763630867 -91.9175297021866 2775.00009536743 13 16 9
95.2339023351669 -91.1210253834724 2750.99992752075 12 15 8
103.190824389458 -91.5168449282646 2763.00001144409 12 15 8
110.6116771698 -91.4157032966614 2759.99999046326 12 15 8
117.245197296143 -90.7182544469833 2739.00008201599 12 15 8
123.718082904816 -89.9875909090042 2717.00000762939 12 15 6
133.110985159874 -91.3433581590652 2757.99989700317 13 16 7
139.004707336426 -90.2813076972961 2726.0000705719 13 16 7
145.743906497955 -89.8484140634537 2713.00005912781 15 18 9
154.105022549629 -90.4089212417603 2730.00001907349 16 19 10
161.729857325554 -90.5056744813919 2733.00004005432 17 20 11
168.25607419014 -90.0062248110771 2717.99993515015 17 20 11
177.026554942131 -90.6987860798836 2739.00008201599 17 20 11
186.180308461189 -91.523639857769 2763.99993896484 18 21 12
193.857714533806 -91.5867537260056 2766.00003242493 18 21 12
201.035588979721 -91.417983174324 2760.99991798401 19 22 13
206.674605607986 -90.5869230628014 2736.00006103516 24 25 17
214.211374521255 -90.6166061758995 2736.99998855591 22 23 17
-138.576567173004 -99.3350744247437 2770.99990844727 22 25 18
-130.400940775871 -98.8714620471001 2757.99989700317 16 19 10
-122.340261936188 -98.4435379505157 2746.00005149841 15 18 11
-114.971928298473 -98.5532253980637 2749.00007247925 15 18 11
-107.743129134178 -98.806194961071 2756.00004196167 12 15 8
-100.221127271652 -98.8080650568008 2756.00004196167 11 14 7
-92.5305187702179 -98.6305400729179 2750.99992752075 12 15 8
-85.1450115442276 -98.7755656242371 2755.00011444092 12 15 8
-77.7654647827148 -98.9563018083572 2759.99999046326 12 15 8
-69.9002742767334 -98.4915420413017 2746.99997901917 13 16 9
-61.878614127636 -97.6680815219879 2723.99997711182 14 17 10
-54.6418204903603 -98.0276986956596 2733.99996757507 16 19 12
-47.2811721265316 -98.2437506318092 2740.00000953674 17 20 13
-39.7277846932411 -98.0652645230293 2734.99989509583 15 16 8
-32.44923427701 -98.6396223306656 2750.99992752075 13 16 7
-24.9381400644779 -98.6401364207268 2750.99992752075 13 16 7
-17.3952728509903 -98.4612479805946 2746.00005149841 14 17 8
-9.94451157748699 -98.9276245236397 2759.0000629425 12 15 8
-2.46816757135093 -101.258397102356 2823.99988174438 10 13 6
