ply
format ascii 1.0
comment KinectMotionCapture
element vertex 793
property float x
property float y
property float z
property uchar red
property uchar green
property uchar blue
end_header
152.411565184593 -89.4154161214828 2700.00004768372 16 19 10
157.942548394203 -88.3862599730492 2668.99991035461 17 20 11
167.637035250664 -89.6750763058662 2707.99994468689 17 20 11
176.057070493698 -90.2020707726479 2723.99997711182 17 20 11
183.014452457428 -89.9673402309418 2717.00000762939 17 20 11
188.250854611397 -88.9378264546394 2686.00010871887 19 22 13
198.341518640518 -90.192899107933 2723.99997711182 19 22 13
207.20337331295 -90.8186882734299 2743.00003051758 25 26 18
218.124628067017 -92.2720059752464 2786.99994087219 24 25 17
-135.926067829132 -97.4351242184639 2717.99993515015 20 23 16
-128.793388605118 -97.6525992155075 2723.99997711182 18 21 12
-123.097643256187 -99.0529805421829 2763.00001144409 15 18 11
-115.599274635315 -99.0909859538078 2763.99993896484 13 16 9
-100.002937018871 -98.5929518938065 2750 11 14 7
-92.3287123441696 -98.4154269099236 2744.99988555908 12 15 8
-85.6085941195488 -99.3133634328842 2769.99998092651 13 16 9
-77.5400549173355 -98.6694768071175 2752.00009346008 13 16 9
-69.7730481624603 -98.3122736215591 2742.00010299683 14 17 10
-62.9462674260139 -99.3532463908196 2770.99990844727 14 17 10
-54.9815818667412 -98.637230694294 2750.99992752075 16 19 12
-47.5054979324341 -98.7098664045334 2753.00002098084 16 19 12
-40.0328263640404 -98.8182350993156 2756.00004196167 16 17 9
-32.3784612119198 -98.4244868159294 2744.99988555908 15 18 9
-24.8293597251177 -98.2098653912544 2739.00008201599 15 18 9
-17.2559078782797 -97.6724028587341 2723.99997711182 13 16 7
-9.83277522027493 -97.8160724043846 2727.9999256134 12 15 8
-2.46030185371637 -100.935690104961 2815.00005722046 3 6 0
65.0045499205589 -98.3489155769348 2743.00003051758 16 19 10
72.6248547434807 -98.5269248485565 2747.99990653992 18 21 14
80.301322042942 -98.7406671047211 2753.99994850159 12 15 8
87.5318944454193 -98.4164699912071 2744.99988555908 13 16 9
94.9899256229401 -98.3789637684822 2743.99995803833 14 17 10
102.964952588081 -98.8432541489601 2756.99996948242 14 17 10
110.409379005432 -98.7696275115013 2755.00011444092 14 17 10
117.157556116581 -98.1222614645958 2736.99998855591 14 17 10
123.761482536793 -97.4389463663101 2717.99993515015 14 17 8
131.081655621529 -97.3649621009827 2716.00008010864 13 16 7
137.982487678528 -97.0040634274483 2706.00008964539 13 16 7
144.935593008995 -96.7147424817085 2697.99995422363 15 18 9
151.788011193275 -96.3894724845886 2688.99989128113 17 20 11
158.886641263962 -96.2433367967606 2684.99994277954 18 21 12
168.376997113228 -97.4949672818184 2720.00002861023 17 20 11
175.537034869194 -97.348541021347 2716.00008010864 17 20 11
182.000949978828 -96.8435779213905 2701.99990272522 18 21 12
190.350204706192 -97.3420739173889 2716.00008010864 20 23 14
196.954756975174 -96.9444215297699 2704.99992370605 23 26 17
207.048773765564 -98.2310399413109 2740.9999370575 21 22 14
-136.323615908623 -105.161301791668 2726.0000705719 18 21 14
-128.790974617004 -105.08669167757 2723.99997711182 14 17 10
-122.070670127869 -105.706386268139 2740.00000953674 22 25 18
-116.098985075951 -107.097543776035 2776.00002288818 21 24 17
-108.249314129353 -106.829650700092 2769.00005340576 18 21 14
-100.546523928642 -106.677375733852 2765.00010490417 13 16 9
-94.0423533320427 -107.875287532806 2796.0000038147 11 14 7
-86.3796025514603 -107.838451862335 2795.00007629395 10 13 6
-77.5385946035385 -106.180980801582 2752.00009346008 10 13 6
-70.7641020417213 -107.301346957684 2780.99989891052 11 14 7
-63.0586594343185 -107.109740376472 2776.00002288818 12 15 8
-55.2603490650654 -106.686465442181 2765.00010490417 15 18 11
-47.2112596035004 -105.568513274193 2736.00006103516 16 19 12
-39.6253541111946 -105.260670185089 2727.9999256134 15 16 8
-32.1065597236156 -105.029858648777 2721.99988365173 15 18 9
-24.8198267072439 -105.647787451744 2737.99991607666 14 17 8
-17.3759385943413 -105.841130018234 2743.00003051758 12 15 8
-9.92990750819445 -106.304436922073 2755.00011444092 11 14 7
-2.44190124794841 -107.809402048588 2793.99991035461 6 9 2
65.4535889625549 -106.569118797779 2762.00008392334 16 19 12
73.0991885066032 -106.722094118595 2766.00003242493 5 8 1
87.944783270359 -106.410287320614 2757.99989700317 14 17 10
94.0534994006157 -104.826658964157 2717.00000762939 14 17 10
108.483701944351 -104.436911642551 2707.00001716614 14 17 10
116.513289511204 -105.013430118561 2721.99988365173 13 16 9
123.577043414116 -104.702480137348 2713.99998664856 16 19 10
130.210503935814 -104.082778096199 2697.99995422363 16 19 10
137.113064527512 -103.733003139496 2688.99989128113 16 19 10
143.8048183918 -103.267394006252 2677.00004577637 17 20 11
152.9141664505 -104.498952627182 2709.00011062622 17 20 11
162.256643176079 -105.768866837025 2742.00010299683 15 18 9
169.42623257637 -105.572827160358 2736.99998855591 15 18 9
175.469174981117 -104.720957577229 2714.99991416931 16 19 10
184.220373630524 -105.488941073418 2734.99989509583 18 21 12
190.346702933311 -104.752577841282 2716.00008010864 21 24 15
198.116093873978 -104.941725730896 2720.99995613098 26 29 20
207.724839448929 -106.056325137615 2750 31 32 26
-139.671415090561 -115.367762744427 2792.99998283386 21 24 17
-129.781275987625 -113.387830555439 2744.99988555908 15 18 11
-121.578171849251 -112.729497253895 2729.00009155273 22 25 18
-114.967487752438 -113.558121025562 2749.00007247925 21 24 17
-107.738941907883 -113.849587738514 2756.00004196167 19 22 15
-100.362688302994 -114.016987383366 2759.99999046326 17 20 13
-93.7041118741035 -115.093089640141 2786.00001335144 14 17 10
-86.5632966160774 -115.714639425278 2801.00011825562 11 14 7
-77.875129878521 -114.18779194355 2763.99993896484 10 13 6
-70.2283382415771 -114.024095237255 2759.99999046326 9 12 5
-63.1028264760971 -114.769130945206 2778.00011634827 9 12 5
-54.9394637346268 -113.572254776955 2749.00007247925 12 15 8
-46.7271506786346 -111.879423260689 2707.99994468689 12 15 8
-39.1888022422791 -111.467182636261 2697.99995422363 14 15 7
-32.058734446764 -112.294226884842 2717.99993515015 13 16 9
-24.9281022697687 -113.616906106472 2750 13 16 9
-17.5656229257584 -114.567615091801 2773.00000190735 11 14 7
-10.0414371117949 -115.104995667934 2786.00001335144 11 14 7
-2.45146569795907 -115.890115499496 2805.0000667572 9 11 6
74.3397995829582 -116.213135421276 2812.99996376038 20 22 17
81.7560404539108 -115.839682519436 2803.99990081787 9 11 6
86.9864150881767 -112.698212265968 2727.9999256134 12 14 9
94.155453145504 -112.36584931612 2720.00002861023 14 17 10
99.9733209609985 -110.587485134602 2677.00004577637 14 17 10
108.601748943329 -111.948542296886 2710.00003814697 14 17 10
116.040125489235 -111.98752373457 2710.99996566772 14 17 10
125.259250402451 -113.637343049049 2750.99992752075 14 17 10
131.848782300949 -112.849868834019 2732.00011253357 16 19 12
136.294528841972 -110.410049557686 2673.00009727478 17 20 13
144.23169195652 -110.902808606625 2684.99994277954 16 19 12
153.24978530407 -112.138867378235 2714.99991416931 15 18 11
162.19425201416 -113.209515810013 2740.9999370575 13 16 9
169.856175780296 -113.330014050007 2743.99995803833 13 16 9
176.822900772095 -112.996086478233 2736.00006103516 14 17 10
183.745265007019 -112.662009894848 2727.9999256134 15 18 11
193.006098270416 -113.731928169727 2753.99994850159 17 20 13
200.587719678879 -113.769248127937 2755.00011444092 19 22 15
-140.368521213531 -123.605571687222 2806.99992179871 9 12 5
-131.385967135429 -122.375585138798 2779.00004386902 21 24 17
-120.729133486748 -119.339838624001 2710.00003814697 18 21 14
-113.877683877945 -119.914904236794 2723.00004959106 21 24 17
-107.150249183178 -120.710030198097 2740.9999370575 21 24 17
-98.8333001732826 -119.699403643608 2717.99993515015 20 23 16
-94.1393375396729 -123.268783092499 2799.00002479553 19 22 15
-86.2214937806129 -122.874408960342 2789.99996185303 19 22 15
-77.5917172431946 -121.290735900402 2753.99994850159 18 21 14
-70.226825773716 -121.556624770164 2759.99999046326 16 19 12
-62.1020160615444 -120.412990450859 2733.99996757507 15 18 11
-54.3387345969677 -119.753643870354 2719.00010108948 13 16 9
-46.8296781182289 -119.53454464674 2713.99998664856 13 16 9
-39.3767729401588 -119.40336227417 2710.99996566772 12 13 5
-32.1052148938179 -119.888640940189 2721.99988365173 12 15 8
-25.0725988298655 -121.827259659767 2766.00003242493 10 13 6
-17.5969153642654 -122.35626578331 2778.00011634827 8 11 4
-10.1637607440352 -124.206438660622 2819.9999332428 10 12 7
-2.49510980211198 -125.748157501221 2855.00001907349 12 14 9
74.2589235305786 -123.758159577847 2809.99994277954 3 5 2
81.4627259969711 -123.051755130291 2793.99991035461 10 12 7
89.1846716403961 -123.181983828545 2796.99993133545 10 12 7
94.4995880126953 -120.229259133339 2730.00001907349 11 13 8
107.998326420784 -118.683412671089 2694.9999332428 15 18 11
117.5357401371 -120.926856994629 2746.00005149841 15 18 11
125.575304031372 -121.452614665031 2757.99989700317 13 16 9
130.398169159889 -118.983790278435 2701.99990272522 16 19 12
137.974232435226 -119.156986474991 2706.00008964539 17 20 13
144.819527864456 -118.713557720184 2696.00009918213 15 18 11
151.327431201935 -118.049822747707 2680.99999427795 14 17 10
160.00147163868 -119.059152901173 2703.9999961853 10 13 6
169.914498925209 -120.860777795315 2744.99988555908 11 14 7
176.883786916733 -120.504796504974 2736.99998855591 11 14 7
185.290560126305 -121.117264032364 2750.99992752075 12 15 8
193.142205476761 -121.333293616772 2756.00004196167 13 16 9
201.238766312599 -121.681228280067 2763.99993896484 14 16 11
209.378197789192 -122.02899903059 2772.0000743866 16 16 14
-140.365362167358 -131.264597177505 2806.99992179871 19 21 16
-131.524831056595 -130.098670721054 2782.00006484985 13 16 9
-121.127337217331 -127.155423164368 2719.00010108948 17 20 13
-113.456904888153 -126.877576112747 2713.00005912781 20 23 16
-106.796018779278 -127.768725156784 2732.00011253357 22 25 18
-100.940033793449 -129.828929901123 2776.00002288818 20 23 16
-92.9600447416306 -129.269972443581 2763.99993896484 19 22 15
-85.2924212813377 -129.08498942852 2759.99999046326 19 22 15
-77.8998583555222 -129.32077050209 2765.00010490417 19 22 15
-69.4873407483101 -127.732276916504 2730.99994659424 17 20 13
-62.0324537158012 -127.733841538429 2730.99994659424 16 19 12
-54.2775355279446 -127.03363597393 2716.00008010864 15 18 11
-46.7423349618912 -126.707419753075 2709.00011062622 15 18 11
-39.7825613617897 -128.111615777016 2739.00008201599 14 15 7
-32.5290821492672 -129.001170396805 2757.99989700317 12 15 8
-17.7738703787327 -131.247505545616 2805.99999427795 8 11 4
-10.1923616603017 -132.276862859726 2828.00006866455 9 11 6
73.4644383192062 -130.02347946167 2779.99997138977 0 1 0
80.6153491139412 -129.320085048676 2765.00010490417 10 12 7
88.4173959493637 -129.692271351814 2773.00000190735 10 12 7
95.8127751946449 -129.456251859665 2767.99988746643 10 12 7
102.694988250732 -128.612101078033 2750 11 14 7
109.518632292747 -127.814576029778 2733.00004005432 13 16 9
117.661476135254 -128.560185432434 2749.00007247925 14 17 10
125.845640897751 -129.258826375008 2763.99993896484 15 18 11
132.32558965683 -128.22699546814 2742.00010299683 14 17 10
138.531982898712 -127.054765820503 2717.00000762939 12 15 8
147.072270512581 -128.033429384232 2737.99991607666 9 12 5
151.775553822517 -125.738680362701 2688.99989128113 10 13 6
160.589575767517 -126.90407037735 2713.99998664856 9 12 5
170.158296823502 -128.53679060936 2749.00007247925 13 16 9
176.298215985298 -127.550914883614 2727.9999256134 10 13 6
184.612885117531 -128.154575824738 2740.9999370575 15 18 11
192.57727265358 -128.477528691292 2747.99990653992 19 22 15
200.215041637421 -128.566548228264 2750 17 19 14
207.787364721298 -128.608629107475 2750.99992752075 10 12 9
-141.262084245682 -139.813959598541 2825.00004768372 16 18 13
-131.001636385918 -137.144714593887 2770.99990844727 16 18 13
-122.728139162064 -136.355936527252 2755.00011444092 16 19 12
-114.499628543854 -135.517463088036 2737.99991607666 18 21 14
-107.301607728004 -135.866671800613 2744.99988555908 19 22 15
-100.683078169823 -137.057170271873 2769.00005340576 19 22 15
-92.7223935723305 -136.465594172478 2756.99996948242 20 23 16
-85.1358622312546 -136.368811130524 2755.00011444092 20 23 16
-77.6162445545197 -136.370837688446 2755.00011444092 20 23 16
-69.6892067790031 -135.58067381382 2739.00008201599 20 23 16
-61.5993924438953 -134.245783090591 2711.99989318848 20 23 16
-54.1962869465351 -134.247228503227 2711.99989318848 20 23 16
-47.051765024662 -134.991005063057 2726.99999809265 19 22 15
-39.9123094975948 -136.031612753868 2747.99990653992 15 16 10
-32.7052026987076 -137.270092964172 2773.00000190735 10 13 6
-10.2605894207954 -140.934899449348 2846.99988365173 9 11 8
72.5906267762184 -135.976031422615 2746.99997901917 0 1 0
80.7591825723648 -137.112617492676 2769.99998092651 9 11 8
88.1282985210419 -136.813506484032 2763.99993896484 9 11 8
95.6027805805206 -136.712238192558 2762.00008392334 10 12 7
101.833634078503 -134.977400302887 2726.99999809265 10 12 7
110.197216272354 -136.113181710243 2750 11 13 8
118.215046823025 -136.704310774803 2762.00008392334 13 16 9
125.250741839409 -136.156871914864 2750.99992752075 13 16 9
131.98459148407 -135.361805558205 2734.99989509583 13 16 9
140.466123819351 -136.348307132721 2755.00011444092 11 14 7
146.746501326561 -135.206490755081 2732.00011253357 10 13 6
153.803840279579 -134.856373071671 2724.99990463257 12 15 8
161.295801401138 -134.902030229568 2726.0000705719 13 16 9
168.359249830246 -134.601086378098 2720.00002861023 18 21 14
176.746398210526 -135.33915579319 2734.99989509583 10 13 6
183.396220207214 -134.740993380547 2723.00004959106 17 20 13
191.52158498764 -135.231271386147 2733.00004005432 23 26 19
199.919149279594 -135.869771242142 2746.00005149841 16 18 13
-142.158567905426 -148.460954427719 2842.99993515015 23 25 22
-123.571395874023 -144.864588975906 2773.9999294281 18 21 14
-108.432464301586 -144.87062394619 2773.9999294281 17 20 13
-100.898683071136 -144.925594329834 2775.00009536743 17 20 13
-93.0226966738701 -144.458070397377 2766.00003242493 20 23 16
-84.9791839718819 -143.624782562256 2750 19 22 15
-77.6142627000809 -143.888041377068 2755.00011444092 19 22 15
-69.5602148771286 -142.79317855835 2733.99996757507 20 23 16
-61.3479688763618 -141.071334481239 2700.99997520447 20 23 16
-54.1948974132538 -141.64736866951 2711.99989318848 19 22 15
-47.1368357539177 -142.693310976028 2732.00011253357 18 21 14
-39.8386716842651 -143.26898753643 2743.00003051758 12 13 7
-32.5038731098175 -143.948927521706 2756.00004196167 8 11 4
-25.3064315766096 -145.830020308495 2792.00005531311 7 10 3
-17.9186649620533 -147.763162851334 2828.9999961853 10 12 7
72.720892727375 -143.732607364655 2752.00009346008 3 5 4
81.3110545277596 -145.663037896156 2789.00003433228 8 10 7
88.5086581110954 -144.981861114502 2776.00002288818 8 10 7
95.3580662608147 -143.882721662521 2755.00011444092 7 9 4
102.167122066021 -142.887845635414 2736.00006103516 7 9 4
116.671286523342 -142.359912395477 2726.0000705719 8 10 5
123.927257955074 -142.14788377285 2721.99988365173 9 11 6
131.064400076866 -141.831263899803 2716.00008010864 15 17 12
138.780072331429 -142.141059041023 2721.99988365173 17 19 14
146.581664681435 -142.502933740616 2729.00009155273 17 19 14
154.307961463928 -142.760127782822 2733.99996757507 16 18 13
161.942586302757 -142.912700772285 2736.99998855591 18 20 15
170.273780822754 -143.639430403709 2750.99992752075 15 17 12
173.769369721413 -140.397846698761 2688.99989128113 19 21 16
181.90997838974 -141.019821166992 2700.99997520447 26 28 23
190.605834126472 -142.007052898407 2720.00002861023 22 24 19
201.734215021133 -144.664630293846 2770.99990844727 55 57 52
-133.216693997383 -154.846549034119 2818.00007820129 27 29 24
-124.459020793438 -153.531268239021 2793.99991035461 22 25 18
-115.288197994232 -151.501357555389 2756.99996948242 21 24 17
-109.445832669735 -153.867363929749 2799.99995231628 17 20 13
-101.98675096035 -154.145032167435 2805.0000667572 16 19 12
-93.2219997048378 -152.334228157997 2772.0000743866 19 22 15
-85.0078016519547 -151.182606816292 2750.99992752075 18 21 14
-77.6403546333313 -151.459619402885 2756.00004196167 18 21 14
-69.7618797421455 -150.692254304886 2742.00010299683 19 22 15
-61.8232823908329 -149.59491789341 2721.99988365173 18 21 14
-54.5131638646126 -149.926260113716 2727.9999256134 15 18 11
-47.3081022500992 -150.697097182274 2742.00010299683 14 17 10
-39.9392619729042 -151.137977838516 2750 10 11 5
-32.2907119989395 -150.479435920715 2737.99991607666 8 11 4
-25.2966843545437 -153.393104672432 2790.99988937378 8 11 4
-17.5191536545753 -152.019694447517 2766.00003242493 9 11 6
-10.2059915661812 -155.647456645966 2832.00001716614 9 11 8
-2.49922997318208 -157.186508178711 2859.99989509583 9 11 8
89.239589869976 -153.819620609283 2799.00002479553 8 10 7
96.0131287574768 -152.443185448647 2773.9999294281 7 9 4
102.463126182556 -150.791868567467 2743.99995803833 7 9 4
111.113078892231 -152.38256752491 2773.00000190735 7 9 4
115.726597607136 -148.587793111801 2703.9999961853 7 9 4
130.916148424149 -149.075627326965 2713.00005912781 12 14 9
138.674437999725 -149.456605315208 2720.00002861023 14 16 11
146.577790379524 -149.947255849838 2729.00009155273 14 16 11
154.642522335052 -150.547564029694 2740.00000953674 14 16 11
162.115827202797 -150.54327249527 2740.00000953674 20 22 17
169.774144887924 -150.703623890877 2743.00003051758 16 18 13
172.795504331589 -146.908134222031 2674.00002479553 22 24 19
180.490911006927 -147.233009338379 2680.0000667572 26 28 23
192.282646894455 -150.74397623539 2743.99995803833 17 19 14
-123.297393321991 -159.65324640274 2767.99988746643 23 26 19
-115.828573703766 -159.772038459778 2769.99998092651 24 27 20
-108.895562589169 -160.698130726814 2786.00001335144 22 25 18
-102.020241320133 -161.854788661003 2805.99999427795 16 19 12
-92.5467982888222 -158.742740750313 2752.00009346008 15 18 11
-85.6543183326721 -159.898966550827 2772.0000743866 16 19 12
-78.0325531959534 -159.785956144333 2769.99998092651 17 20 13
-70.2687427401543 -159.326612949371 2762.00008392334 15 18 11
-62.7072975039482 -159.270837903023 2760.99991798401 13 16 9
-55.4907582700253 -160.195529460907 2776.99995040894 8 11 4
-47.7898344397545 -159.793213009834 2769.99998092651 7 10 3
-40.1559807360172 -159.506052732468 2765.00010490417 12 13 7
-32.6553881168365 -159.737855195999 2769.00005340576 12 15 8
-25.1147020608187 -159.854054450989 2770.99990844727 12 15 8
-17.6326613873243 -160.604611039162 2783.99991989136 8 10 5
-10.0831780582666 -161.412671208382 2798.00009727478 9 11 8
-2.47993529774249 -163.720399141312 2838.00005912781 0 2 1
81.6564112901688 -161.573335528374 2801.00011825562 12 14 11
88.854506611824 -160.763308405876 2786.99994087219 11 13 10
103.543095290661 -159.950226545334 2773.00000190735 9 11 6
110.989764332771 -159.774109721184 2769.99998092651 9 11 6
118.248395621777 -159.367069602013 2763.00001144409 9 11 6
124.785490334034 -158.094674348831 2740.9999370575 7 9 4
138.82352411747 -157.048970460892 2723.00004959106 5 7 2
146.358877420425 -157.16028213501 2724.99990463257 6 8 3
154.35603260994 -157.732740044594 2734.99989509583 10 12 7
161.638036370277 -157.555267214775 2732.00011253357 10 12 7
168.160289525986 -156.685546040535 2717.00000762939 14 16 11
174.212366342545 -155.469700694084 2696.00009918213 13 15 10
183.785900473595 -157.367646694183 2729.00009155273 18 20 15
188.143119215965 -154.825195670128 2684.99994277954 9 11 6
-131.743684411049 -168.34719479084 2786.99994087219 26 28 23
-123.427428305149 -167.384520173073 2770.99990844727 25 27 22
-115.783371031284 -167.267292737961 2769.00005340576 24 26 21
-108.032487332821 -166.96859896183 2763.99993896484 24 26 21
-99.1814136505127 -164.796993136406 2727.9999256134 23 25 20
-92.4431979656219 -166.068464517593 2749.00007247925 20 22 17
-85.4355022311211 -167.037725448608 2765.00010490417 14 16 11
-78.0865997076035 -167.463079094887 2772.0000743866 13 15 10
-71.4878141880035 -169.761002063751 2809.99994277954 8 10 5
-63.8182908296585 -169.763028621674 2809.99994277954 8 10 5
-55.9886656701565 -169.281542301178 2802.00004577637 9 11 6
-47.8229261934757 -167.470663785934 2772.0000743866 10 12 7
-40.1983596384525 -167.230322957039 2767.99988746643 9 10 5
-32.7133871614933 -167.59392619133 2773.9999294281 10 11 6
-25.3858547657728 -169.226050376892 2801.00011825562 11 12 7
-17.562473192811 -167.535021901131 2773.00000190735 12 13 7
-10.1657630875707 -170.435443520546 2821.00009918213 12 13 8
-2.51044449396431 -173.577293753624 2872.99990653992 12 13 8
82.0912793278694 -170.120313763618 2815.99998474121 9 11 8
88.9475345611572 -168.547064065933 2789.99996185303 12 14 11
96.9766974449158 -169.269189238548 2802.00004577637 14 16 11
100.776992738247 -163.044035434723 2698.99988174438 12 14 9
110.505692660809 -166.604965925217 2757.99989700317 12 15 8
118.886880576611 -167.809695005417 2778.00011634827 10 13 6
127.604350447655 -169.316172599792 2802.99997329712 10 13 6
131.246447563171 -164.298713207245 2720.00002861023 10 13 6
138.819485902786 -164.475902915001 2723.00004959106 10 13 6
145.817548036575 -163.988456130028 2714.99991416931 9 12 5
153.448611497879 -164.225623011589 2719.00010108948 11 14 7
160.509258508682 -163.858592510223 2713.00005912781 9 12 5
166.979506611824 -162.947788834572 2697.99995422363 23 26 19
174.918115139008 -163.486301898956 2707.00001716614 17 20 13
-129.281684756279 -172.665387392044 2734.99989509583 20 22 17
-123.735457658768 -175.384044647217 2778.00011634827 25 27 22
-116.156160831451 -175.387784838676 2778.00011634827 25 27 22
-107.286587357521 -173.307806253433 2744.99988555908 22 24 19
-99.2510840296745 -172.363981604576 2730.00001907349 18 20 15
-93.4155434370041 -175.397619605064 2778.00011634827 13 15 10
-85.0929915904999 -173.885062336922 2753.99994850159 6 8 3
-78.7602514028549 -176.53951048851 2796.0000038147 6 8 3
-71.6382563114166 -177.804663777351 2815.99998474121 6 8 3
-64.3840953707695 -179.00650203228 2835.00003814697 6 8 3
-47.2693964838982 -173.011496663094 2740.00000953674 6 8 3
-40.1680767536163 -174.654588103294 2766.00003242493 9 10 5
-25.221936404705 -175.73007941246 2782.99999237061 10 11 6
-17.6125969737768 -175.604492425919 2780.99989891052 11 12 6
-10.0357234477997 -175.85751414299 2785.00008583069 11 12 7
89.0723168849945 -176.409631967545 2793.99991035461 10 12 9
96.1431190371513 -175.396546721458 2778.00011634827 12 14 9
102.939486503601 -174.067541956902 2756.99996948242 12 15 8
108.779467642307 -171.412512660027 2714.99991416931 14 17 10
118.498109281063 -174.818247556686 2769.00005340576 13 16 9
126.644492149353 -175.635188817978 2782.00006484985 15 18 11
132.255718111992 -173.042729496956 2740.9999370575 15 18 11
138.25449347496 -171.207740902901 2711.99989318848 13 16 9
144.792705774307 -170.193299651146 2696.00009918213 12 15 8
151.750937104225 -169.746816158295 2688.99989128113 13 16 9
159.143701195717 -169.805124402046 2690.00005722046 18 21 14
168.150365352631 -171.50442302227 2717.00000762939 18 21 14
173.42671751976 -169.416159391403 2684.00001525879 15 18 11
186.266735196114 -174.586459994316 2766.00003242493 16 19 12
-129.986584186554 -181.111812591553 2750 21 23 18
-123.330660164356 -182.367280125618 2769.00005340576 21 23 18
-115.650705993176 -182.173550128937 2766.00003242493 20 22 17
-108.299322426319 -182.506501674652 2770.99990844727 16 18 13
-101.211063563824 -183.366134762764 2783.99991989136 13 15 10
-93.0762961506844 -182.315468788147 2767.99988746643 9 11 6
-86.8205055594444 -185.084775090218 2809.99994277954 5 7 2
-78.1943649053574 -182.848006486893 2776.00002288818 5 7 2
-71.5850740671158 -185.35341322422 2813.99989128113 7 9 4
-63.4963512420654 -184.170007705688 2796.0000038147 8 10 5
-56.0250990092754 -184.698909521103 2803.99990081787 7 9 4
-48.3374446630478 -184.568881988525 2802.00004577637 7 9 4
-40.936429053545 -185.69016456604 2819.00000572205 9 10 5
-32.9707525670528 -184.176310896873 2796.0000038147 9 10 5
-25.5292523652315 -185.560569167137 2816.99991226196 9 10 5
-17.9920103400946 -187.142252922058 2841.00008010864 10 11 5
-10.1002594456077 -184.639543294907 2802.99997329712 10 11 6
80.8326825499535 -182.649463415146 2773.00000190735 7 9 6
88.6231735348701 -183.107763528824 2779.99997138977 10 12 9
96.0708335042 -182.841286063194 2776.00002288818 11 13 8
103.27222943306 -182.179391384125 2766.00003242493 10 13 6
110.899448394775 -182.307630777359 2767.99988746643 12 15 8
118.194788694382 -181.908771395683 2762.00008392334 12 15 8
125.092729926109 -180.982753634453 2747.99990653992 13 16 9
131.865546107292 -179.990723729134 2733.00004005432 13 16 9
140.849962830544 -181.96202814579 2763.00001144409 12 15 8
145.486280322075 -178.401187062263 2709.00011062622 11 14 7
149.940326809883 -174.972012639046 2657.00006484985 14 17 10
161.090940237045 -179.313272237778 2723.00004959106 17 20 13
169.259011745453 -180.098161101341 2734.99989509583 18 21 14
178.331851959229 -181.738808751106 2759.99999046326 22 25 18
187.068998813629 -182.918235659599 2778.00011634827 17 20 13
-129.935041069984 -188.541948795319 2749.00007247925 20 22 17
-121.767729520798 -187.517374753952 2733.99996757507 10 12 7
-116.148613393307 -190.539300441742 2778.00011634827 7 9 4
-108.764722943306 -190.886035561562 2782.99999237061 6 8 3
-102.261953055859 -192.947313189507 2812.99996376038 7 9 4
-95.7631841301918 -195.351392030716 2848.00004959106 7 9 4
-87.2501581907272 -193.708255887032 2823.99988174438 8 10 5
-78.0790895223618 -190.144166350365 2772.0000743866 8 10 5
-70.7177966833115 -190.695449709892 2779.99997138977 11 13 8
-63.3579790592194 -191.383689641953 2789.99996185303 12 14 9
-56.4428009092808 -193.786606192589 2825.00004768372 12 14 9
-49.5261140167713 -196.943908929825 2871.00005149841 12 14 9
-41.6030287742615 -196.533858776093 2865.00000953674 11 12 7
-33.6653627455235 -195.849150419235 2855.00001907349 9 10 5
-25.8908923715353 -195.987388491631 2857.00011253357 9 10 5
-17.8774166852236 -193.655759096146 2822.99995422363 9 10 4
80.9174403548241 -190.417572855949 2776.00002288818 8 10 7
87.8870338201523 -189.111441373825 2756.99996948242 11 13 10
97.1058309078217 -192.469328641891 2805.99999427795 11 13 8
103.268809616566 -189.722299575806 2766.00003242493 9 12 5
111.336477100849 -190.610334277153 2779.00004386902 10 13 6
118.66157501936 -190.194919705391 2773.00000190735 9 12 5
124.815486371517 -188.064619898796 2742.00010299683 10 13 6
131.909430027008 -187.511593103409 2733.99996757507 11 14 7
139.418005943298 -187.575623393059 2734.99989509583 11 14 7
147.468507289886 -188.325226306915 2746.00005149841 11 14 7
152.249038219452 -185.028314590454 2697.99995422363 13 16 9
170.614942908287 -189.063668251038 2756.99996948242 17 20 13
191.372498869896 -194.880411028862 2842.00000762939 20 23 16
199.540436267853 -195.285350084305 2848.00004959106 23 26 19
-131.34853541851 -198.176592588425 2779.00004386902 7 9 4
-124.346695840359 -199.108123779297 2792.00005531311 8 10 5
-116.77173525095 -199.183657765388 2792.99998283386 6 8 3
-110.128790140152 -200.97054541111 2818.00007820129 6 8 3
-102.658286690712 -201.40215754509 2823.99988174438 8 10 5
-95.2891483902931 -202.118828892708 2834.00011062622 9 11 6
-87.1544703841209 -201.194897294044 2821.00009918213 9 11 6
-77.9073908925056 -197.275131940842 2766.00003242493 9 11 6
-70.5372914671898 -197.77700304985 2773.00000190735 11 13 8
-63.5601505637169 -199.63376224041 2799.00002479553 12 14 9
-55.4019324481487 -197.781428694725 2773.00000190735 12 14 9
-49.3173971772194 -203.917190432549 2858.99996757507 12 14 9
-41.7467914521694 -205.060005187988 2875 13 14 9
-33.9825600385666 -205.560609698296 2881.99996948242 11 12 7
-25.8356183767319 -203.350558876991 2851.0000705719 10 11 6
-18.0351100862026 -203.137367963791 2848.00004959106 11 12 6
-10.110380128026 -200.142160058022 2805.99999427795 12 13 8
80.8854997158051 -197.916015982628 2775.00009536743 8 10 7
87.4058455228806 -195.559486746788 2742.00010299683 11 13 10
97.3101109266281 -200.548589229584 2812.00003623962 11 13 8
102.55590826273 -195.909395813942 2746.99997901917 9 12 5
110.771775245667 -197.189375758171 2765.00010490417 11 14 7
118.48633736372 -197.470620274544 2769.00005340576 11 14 7
122.262172400951 -191.547349095345 2686.00010871887 11 14 7
131.567180156708 -194.466710090637 2726.99999809265 12 15 8
140.636622905731 -196.743935346603 2759.0000629425 11 14 7
145.530238747597 -193.244814872742 2710.00003814697 12 15 8
161.849215626717 -195.088118314743 2736.00006103516 19 22 15
166.772454977036 -192.158997058868 2694.9999332428 18 21 14
-132.856294512749 -208.122119307518 2811.00010871887 7 9 4
-124.743096530437 -207.386389374733 2801.00011825562 11 14 7
-118.356265127659 -209.612026810646 2831.00008964539 10 13 6
-110.71103811264 -209.76422727108 2832.99994468689 9 12 5
-93.8399732112885 -206.66179060936 2790.99988937378 12 15 8
-86.4407867193222 -207.183420658112 2798.00009727478 10 13 6
-77.2286430001259 -203.039735555649 2742.00010299683 10 13 6
-70.7636922597885 -206.004396080971 2782.00006484985 9 12 5
-63.8076514005661 -208.080232143402 2809.99994277954 9 12 5
-56.438822299242 -209.193170070648 2825.00004768372 10 13 6
-48.7118996679783 -209.121018648148 2823.99988174438 11 14 7
-41.0628467798233 -209.418907761574 2828.00006866455 14 15 10
-32.6843373477459 -205.273345112801 2772.0000743866 13 14 9
-25.4269149154425 -207.792192697525 2805.99999427795 12 13 8
-17.9837998002768 -210.310786962509 2839.99991416931 12 13 7
-10.3406077250838 -212.532863020897 2869.99988555908 13 14 9
80.3579464554787 -204.149410128593 2756.99996948242 8 10 7
88.0402326583862 -204.516589641571 2762.00008392334 11 13 10
95.3688025474548 -204.068973660469 2756.00004196167 10 12 7
103.298895061016 -204.879865050316 2766.99995994568 10 13 6
110.367223620415 -203.987464308739 2755.00011444092 14 17 10
115.144602954388 -199.244692921638 2690.99998474121 14 17 10
123.213663697243 -200.425013899803 2707.00001716614 11 14 7
131.851986050606 -202.34540104866 2733.00004005432 12 15 8
139.714121818542 -202.932804822922 2740.9999370575 11 14 7
145.471394062042 -200.558573007584 2709.00011062622 10 13 6
151.561379432678 -198.850467801094 2686.00010871887 12 15 8
158.708393573761 -198.622807860374 2683.00008773804 17 20 13
185.905396938324 -204.378440976143 2760.99991798401 25 28 21
-139.618635177612 -214.398011565208 2792.99998283386 11 13 8
-133.371263742447 -216.629236936569 2822.00002670288 10 12 7
-125.540107488632 -216.403797268867 2819.00000572205 11 14 7
-117.097735404968 -215.026542544365 2801.00011825562 10 13 6
-108.870312571526 -213.879242539406 2786.00001335144 11 14 7
-101.087801158428 -213.499307632446 2780.99989891052 12 15 8
-92.6933810114861 -211.660459637642 2756.99996948242 13 16 9
-86.2213298678398 -214.27409350872 2790.99988937378 11 14 7
-78.324168920517 -213.50947022438 2780.99989891052 11 14 7
-70.8882361650467 -213.97291123867 2786.99994087219 10 13 6
-63.9869347214699 -216.355547308922 2818.00007820129 9 12 5
-57.1958720684052 -219.812765717506 2862.99991607666 10 13 6
-48.968818038702 -217.972114682198 2838.99998664856 11 14 7
-40.7709255814552 -215.593680739403 2808.00008773804 14 15 10
-32.7302813529968 -213.138148188591 2776.00002288818 13 14 9
-25.4169050604105 -215.36585688591 2805.0000667572 13 14 9
-17.9451387375593 -217.593297362328 2834.00011062622 13 14 8
-10.2573577314615 -218.591943383217 2846.99988365173 13 14 9
88.8019651174545 -213.889047503471 2786.00001335144 9 11 8
103.855051100254 -213.574722409248 2782.00006484985 10 13 6
109.802305698395 -210.423141717911 2740.9999370575 11 14 7
117.236919701099 -210.3421241045 2740.00000953674 10 13 6
122.389875352383 -206.422567367554 2688.99989128113 13 16 9
129.531487822533 -206.110775470734 2684.99994277954 13 16 9
138.230890035629 -208.178386092186 2711.99989318848 12 15 8
145.412355661392 -207.866057753563 2707.99994468689 11 14 7
151.10445022583 -205.55779337883 2677.99997329712 12 15 8
159.234955906868 -206.626623868942 2691.99991226196 11 14 7
166.203647851944 -206.160083413124 2686.00010871887 15 18 11
169.198110699654 -201.011449098587 2618.99995803833 16 19 12
184.619382023811 -210.4452252388 2742.00010299683 17 20 13
-142.012715339661 -225.826069712639 2841.00008010864 14 16 11
-134.500429034233 -226.228833198547 2845.99995613098 12 14 9
-125.312671065331 -223.690152168274 2813.99989128113 10 13 6
-117.009662091732 -222.502455115318 2799.00002479553 11 14 7
-108.592621982098 -220.916911959648 2779.00004386902 13 16 9
-101.302042603493 -221.556976437569 2786.99994087219 13 16 9
-93.7992855906487 -221.799224615097 2789.99996185303 13 16 9
-85.4457542300224 -219.894766807556 2766.00003242493 12 15 8
-78.1240314245224 -220.533937215805 2773.9999294281 12 15 8
-70.4785659909248 -220.298320055008 2770.99990844727 10 13 6
-64.0298873186111 -224.196538329124 2819.9999332428 10 13 6
-56.754183024168 -225.868478417397 2841.00008010864 10 13 6
-49.0186810493469 -225.950047373772 2842.00000762939 10 13 6
-40.9871451556683 -224.441215395927 2822.99995422363 13 14 9
-33.1298820674419 -223.409101366997 2809.99994277954 13 14 9
-25.5699642002583 -224.364325404167 2822.00002670288 14 15 10
-17.7861526608467 -223.331585526466 2809.00001525879 14 15 9
-10.1777017116547 -224.604234099388 2825.00004768372 14 15 10
89.5316302776337 -223.312005400658 2809.00001525879 8 10 7
97.6453348994255 -224.341839551926 2822.00002670288 12 14 9
105.082958936691 -223.781421780586 2815.00005722046 10 13 6
112.321756780148 -222.90275990963 2803.99990081787 10 13 6
120.91202288866 -224.647119641304 2825.99997520447 10 13 6
125.844225287437 -219.793319702148 2765.00010490417 13 16 9
132.56573677063 -218.436971306801 2747.99990653992 12 15 8
139.550819993019 -217.63688325882 2737.99991607666 11 14 7
143.527537584305 -212.464809417725 2673.00009727478 10 13 6
153.355628252029 -216.035902500153 2717.99993515015 10 13 6
159.228965640068 -213.963359594345 2691.99991226196 10 13 6
165.702387690544 -212.844431400299 2677.99997329712 13 16 9
170.936018228531 -210.294723510742 2645.99990844727 15 18 11
200.287491083145 -218.697711825371 2752.00009346008 22 24 19
-134.069830179214 -233.24528336525 2836.99989318848 10 12 7
-125.886633992195 -232.428312301636 2826.99990272522 11 14 7
-116.67063832283 -229.473292827606 2790.99988937378 13 16 9
-108.783721923828 -228.902265429497 2783.99991989136 14 17 10
-102.024972438812 -230.797588825226 2806.99992179871 14 17 10
-94.9049964547157 -232.117101550102 2822.99995422363 13 16 9
-85.7512727379799 -228.256180882454 2776.00002288818 14 17 10
-77.585868537426 -226.532727479935 2755.00011444092 14 17 10
-72.3069757223129 -233.771666884422 2842.99993515015 13 16 9
-64.4814446568489 -233.527734875679 2839.99991416931 12 15 8
-56.2924817204475 -231.721132993698 2818.00007820129 11 14 7
-48.6200451850891 -231.805488467216 2819.00000572205 11 14 7
-40.6080335378647 -229.998201131821 2796.99993133545 11 12 7
-33.4704592823982 -233.453378081322 2838.99998664856 12 13 8
-25.5055241286755 -231.481045484543 2815.00005722046 13 14 9
-17.8044382482767 -231.235235929489 2812.00003623962 13 14 8
95.5308675765991 -227.017879486084 2760.99991798401 12 14 9
102.540507912636 -225.862801074982 2746.99997901917 11 14 7
113.03836107254 -232.025057077408 2822.00002670288 11 14 7
120.864488184452 -232.267051935196 2825.00004768372 10 13 6
125.702753663063 -227.082416415215 2762.00008392334 9 12 5
133.573591709137 -227.652788162231 2769.00005340576 9 12 5
140.717566013336 -226.989597082138 2760.99991798401 9 12 5
147.441536188126 -225.75069963932 2746.00005149841 10 13 6
153.970286250114 -224.347203969955 2729.00009155273 11 14 7
159.991666674614 -222.367972135544 2704.99992370605 11 14 7
164.829760789871 -218.991205096245 2664.00003433228 14 17 10
174.869954586029 -222.519233822823 2707.00001716614 14 17 10
184.470698237419 -225.224763154984 2740.00000953674 14 17 10
-140.451952815056 -238.67729306221 2809.99994277954 16 18 13
-133.26108455658 -239.532291889191 2819.9999332428 11 13 8
-126.19324028492 -240.726813673973 2834.00011062622 12 15 8
-117.418326437473 -238.608241081238 2809.00001525879 13 16 9
-109.951496124268 -239.037618041039 2813.99989128113 13 16 9
-103.002160787582 -240.740984678268 2834.00011062622 13 16 9
-94.8675274848938 -239.725649356842 2822.00002670288 13 16 9
-85.9640017151833 -236.41636967659 2782.99999237061 14 17 10
-78.3712044358253 -236.419767141342 2782.99999237061 14 17 10
-71.74451649189 -239.651039242744 2821.00009918213 14 17 10
-64.4107013940811 -241.013124585152 2836.99989318848 14 17 10
-55.5910430848598 -236.428081989288 2782.99999237061 12 15 8
-48.0316802859306 -236.600160598755 2785.00008583069 12 15 8
-41.0273931920528 -240.085184574127 2825.99997520447 10 11 6
-33.0093167722225 -237.877860665321 2799.99995231628 11 12 7
-25.2598542720079 -236.85958981514 2788.00010681152 12 13 8
-17.9240051656961 -240.513622760773 2831.00008964539 12 13 7
-10.3606041520834 -244.337305426598 2875.99992752075 11 12 7
103.09624671936 -234.623238444328 2762.00008392334 11 14 7
111.671917140484 -236.827418208122 2788.00010681152 11 14 7
118.035972118378 -234.359294176102 2759.0000629425 10 13 6
125.470131635666 -234.184414148331 2756.99996948242 8 11 4
133.182287216187 -234.518870711327 2760.99991798401 9 12 5
140.049383044243 -233.409062027931 2747.99990653992 9 12 5
148.294672369957 -234.592318534851 2762.00008392334 10 13 6
155.48737347126 -234.076514840126 2756.00004196167 11 14 7
160.280987620354 -230.163171887398 2710.00003814697 13 16 9
167.359843850136 -229.731857776642 2704.99992370605 15 18 11
175.250560045242 -230.404362082481 2713.00005912781 13 16 9
184.934601187706 -233.284518122673 2746.99997901917 13 16 9
-139.096647500992 -243.966713547707 2782.99999237061 13 15 10
-131.223633885384 -243.44639480114 2776.99995040894 17 19 14
-125.16388297081 -246.43249809742 2811.00010871887 14 17 10
-118.709184229374 -248.98000061512 2839.99991416931 12 15 8
-110.806465148926 -248.634189367294 2835.99996566772 11 14 7
-102.2709608078 -246.709913015366 2813.99989128113 11 14 7
-94.2920818924904 -245.925068855286 2805.0000667572 11 14 7
-86.4854902029037 -245.490506291389 2799.99995231628 13 16 9
-78.0863091349602 -243.126749992371 2773.00000190735 13 16 9
-71.3091716170311 -245.847955346107 2803.99990081787 15 18 11
-63.2728487253189 -244.360283017159 2786.99994087219 15 18 11
-56.2079139053822 -246.730163693428 2813.99989128113 14 17 10
-48.1676161289215 -244.891107082367 2792.99998283386 14 17 10
-40.8659726381302 -246.822014451027 2815.00005722046 14 15 9
-33.2436971366405 -247.261971235275 2819.9999332428 12 13 8
-25.4218671470881 -246.03570997715 2805.99999427795 11 12 6
-17.9169159382582 -248.1409907341 2829.99992370605 11 12 6
-10.2160749956965 -248.667672276497 2835.99996566772 12 13 8
87.6404196023941 -241.105437278748 2750 10 12 7
95.3154116868973 -241.53995513916 2755.00011444092 12 14 9
104.808889329433 -246.182337403297 2808.00008773804 10 13 6
111.947633326054 -245.038032531738 2795.00007629395 10 13 6
117.902711033821 -241.614043712616 2756.00004196167 8 11 4
122.779943048954 -236.524239182472 2697.99995422363 10 13 6
130.572065711021 -237.307906150818 2707.00001716614 10 13 6
139.941662549973 -240.721076726913 2746.00005149841 10 13 6
147.751644253731 -241.241008043289 2752.00009346008 10 13 6
155.537337064743 -241.672903299332 2756.99996948242 10 13 6
161.989510059357 -240.08846282959 2739.00008201599 12 15 8
170.26075720787 -241.221010684967 2752.00009346008 14 17 10
178.860619664192 -242.703825235367 2769.00005340576 13 16 9
185.667529702187 -241.732075810432 2757.99989700317 12 15 8
191.503211855888 -239.620760083199 2733.99996757507 17 20 13
-140.490114688873 -254.079401493073 2811.00010871887 13 15 10
-131.407022476196 -251.373618841171 2780.99989891052 16 18 13
-125.113993883133 -254.000514745712 2809.99994277954 14 15 9
-118.787690997124 -256.898373365402 2842.00000762939 14 15 9
-110.489167273045 -255.637884140015 2828.00006866455 14 15 9
-101.394362747669 -252.207398414612 2789.99996185303 14 15 9
-93.817412853241 -252.302050590515 2790.99988937378 14 15 9
-86.3273292779922 -252.667605876923 2795.00007629395 14 15 9
-77.9703110456467 -250.320792198181 2769.00005340576 15 16 10
-71.0263550281525 -252.49370932579 2792.99998283386 15 16 10
-63.905768096447 -254.48551774025 2815.00005722046 15 16 10
-55.8060146868229 -252.589643001556 2793.99991035461 15 16 10
-48.3034923672676 -253.224760293961 2801.00011825562 16 17 11
-41.0819500684738 -255.848467350006 2829.99992370605 14 15 9
-33.0300703644753 -253.318756818771 2802.00004577637 13 14 8
-25.4841763526201 -254.314482212067 2812.99996376038 12 13 7
-17.9351326078177 -256.123602390289 2832.99994468689 12 13 7
-10.2228363975883 -256.576240062714 2838.00005912781 12 13 8
87.6047760248184 -248.507857322693 2749.00007247925 9 12 5
96.452958881855 -252.02938914299 2788.00010681152 10 13 6
105.028316378593 -254.375338554382 2813.99989128113 8 11 4
112.183123826981 -253.195464611053 2801.00011825562 7 10 3
116.058185696602 -245.235830545425 2713.00005912781 9 12 5
122.137613594532 -242.609292268753 2684.00001525879 8 11 4
129.794761538506 -243.236556649208 2690.99998474121 8 11 4
139.88471031189 -248.111635446548 2744.99988555908 9 12 5
146.24211192131 -246.207371354103 2723.99997711182 10 13 6
154.120430350304 -246.923983097076 2732.00011253357 11 14 7
162.692278623581 -248.634368181229 2750.99992752075 11 14 7
169.944226741791 -248.265728354454 2746.99997901917 12 15 8
178.142562508583 -249.252393841743 2757.99989700317 13 16 9
186.534821987152 -250.419437885284 2770.99990844727 14 17 10
192.825973033905 -248.784691095352 2753.00002098084 15 18 11
-140.933737158775 -262.574553489685 2819.9999332428 13 15 10
-132.298991084099 -260.718375444412 2799.99995231628 11 13 8
-124.885872006416 -261.189669370651 2805.0000667572 14 15 9
-117.77937412262 -262.405633926392 2818.00007820129 14 15 9
-109.585717320442 -261.200159788132 2805.0000667572 14 15 9
-101.389870047569 -259.80806350708 2789.99996185303 14 15 9
-93.0401608347893 -257.763713598251 2767.99988746643 14 15 9
-86.0764235258102 -259.537100791931 2786.99994087219 13 14 8
-79.1494473814964 -261.775821447372 2811.00010871887 14 15 9
-71.9386488199234 -263.455480337143 2828.9999961853 15 16 10
-64.0845373272896 -262.899786233902 2822.99995422363 14 15 9
-56.4226806163788 -263.08873295784 2825.00004768372 15 16 10
-48.5600121319294 -262.252956628799 2815.99998474121 16 17 11
-40.484968572855 -259.740442037582 2789.00003433228 14 15 7
-25.5555156618357 -262.723594903946 2821.00009918213 12 13 5
-17.8646985441446 -262.817740440369 2822.00002670288 12 13 7
-10.2007696405053 -263.749688863754 2832.00001716614 12 12 10
81.0343697667122 -258.980751037598 2780.99989891052 7 10 3
89.0986174345016 -260.373800992966 2796.0000038147 8 11 4
95.5492481589317 -257.203489542007 2762.00008392334 8 11 4
105.658151209354 -263.624370098114 2831.00008964539 6 9 2
111.577443778515 -259.429126977921 2786.00001335144 6 9 2
113.700337707996 -247.504979372025 2657.99999237061 7 10 3
122.041217982769 -249.734491109848 2681.99992179871 8 11 4
132.393524050713 -255.594998598099 2744.99988555908 8 11 4
137.024939060211 -250.374764204025 2688.99989128113 9 12 5
146.020993590355 -253.254890441895 2720.00002861023 10 13 6
155.411139130592 -256.506979465485 2755.00011444092 10 13 6
162.330389022827 -255.56892156601 2744.99988555908 10 13 6
167.276740074158 -251.744449138641 2703.9999961853 12 15 8
173.355296254158 -249.874949455261 2684.00001525879 13 16 9
186.122909188271 -257.407903671265 2765.00010490417 13 16 9
191.276773810387 -254.234403371811 2730.99994659424 16 19 12
-132.340267300606 -268.440574407578 2801.00011825562 12 14 9
-123.900778591633 -266.721338033676 2782.99999237061 14 15 9
-116.144090890884 -266.343474388123 2779.00004386902 14 15 9
-108.643144369125 -266.540288925171 2780.99989891052 14 15 9
-100.367799401283 -264.72407579422 2762.00008392334 14 15 9
-94.2459478974342 -268.754065036774 2803.99990081787 14 15 9
-86.8137180805206 -269.429177045822 2811.00010871887 13 14 8
-79.3710872530937 -270.199775695801 2819.00000572205 14 15 9
-72.2150728106499 -272.216111421585 2839.99991416931 15 16 10
-64.5129084587097 -272.411018610001 2842.00000762939 14 15 9
-56.3002750277519 -270.209193229675 2819.00000572205 15 16 10
-48.5922768712044 -270.11576294899 2818.00007820129 16 17 11
-41.5717661380768 -274.527132511139 2864.00008201599 14 15 7
-33.1803224980831 -269.831985235214 2815.00005722046 13 14 6
-25.4365839064121 -269.162356853485 2808.00008773804 13 14 6
-17.8005788475275 -269.546777009964 2812.00003623962 12 13 7
-10.2291172370315 -272.23140001297 2839.99991416931 12 12 10
81.0598284006119 -266.652077436447 2782.00006484985 12 15 8
88.0430191755295 -264.827013015747 2763.00001144409 12 15 8
97.2399562597275 -269.423454999924 2811.00010871887 11 14 7
103.78734767437 -266.543447971344 2780.99989891052 10 13 6
128.223955631256 -270.073652267456 2818.00007820129 8 11 4
134.557828307152 -267.384171485901 2789.99996185303 8 11 4
142.063364386559 -267.186194658279 2788.00010681152 8 11 4
148.054331541061 -264.304608106613 2757.99989700317 8 11 4
155.178532004356 -263.626873493195 2750.99992752075 9 12 5
163.860604166985 -265.536218881607 2770.99990844727 10 13 6
167.021840810776 -258.725136518478 2700.00004768372 11 14 7
173.21839928627 -256.992638111115 2681.99992179871 12 15 8
184.364557266235 -262.446343898773 2739.00008201599 13 16 9
188.676968216896 -258.12616944313 2694.00000572205 16 19 12
195.94494998455 -258.021771907806 2693.00007820129 17 20 13
205.093830823898 -260.312229394913 2717.00000762939 22 24 21
-141.020834445953 -278.132021427155 2822.00002670288 19 21 16
-131.956189870834 -275.280177593231 2792.99998283386 13 15 10
-122.826598584652 -271.935045719147 2759.0000629425 13 14 8
-116.055123507977 -273.714780807495 2776.99995040894 13 14 8
-108.247458934784 -273.128628730774 2770.99990844727 13 14 8
-101.089879870415 -274.217844009399 2782.00006484985 13 14 8
-93.9054638147354 -275.405257940292 2793.99991035461 13 14 8
-86.3773077726364 -275.705188512802 2796.99993133545 13 14 8
-79.0295302867889 -276.69483423233 2806.99992179871 14 15 9
-71.7286020517349 -278.078466653824 2821.00009918213 14 15 9
-63.9878138899803 -277.884513139725 2819.00000572205 13 14 8
-56.2377274036407 -277.591615915298 2815.99998474121 14 15 9
-48.745185136795 -278.678447008133 2826.99990272522 15 16 10
-41.2214621901512 -279.962092638016 2839.99991416931 15 16 8
-33.6266495287418 -281.245410442352 2852.9999256134 14 15 7
-25.2632889896631 -274.937748908997 2789.00003433228 13 14 6
-17.685804516077 -275.431662797928 2793.99991035461 12 13 7
-10.1746125146747 -278.488308191299 2825.00004768372 12 12 10
81.9592475891113 -277.284920215607 2812.99996376038 14 17 10
89.632086455822 -277.280867099762 2812.99996376038 13 16 9
96.7511385679245 -275.699347257614 2796.99993133545 12 15 8
104.41692918539 -275.793164968491 2798.00009727478 12 15 8
111.126691102982 -273.521065711975 2775.00009536743 11 14 7
118.266619741917 -272.530049085617 2765.00010490417 11 14 7
127.126008272171 -275.382578372955 2793.99991035461 8 11 4
135.757282376289 -277.446240186691 2815.00005722046 8 11 4
143.636345863342 -277.833968400955 2819.00000572205 8 11 4
150.409400463104 -276.15162730217 2802.00004577637 8 11 4
159.181714057922 -265.296429395676 2691.99991226196 9 12 5
169.921487569809 -270.708978176117 2746.99997901917 10 13 6
177.472934126854 -270.799458026886 2747.99990653992 12 15 8
184.759989380836 -270.495474338531 2744.99988555908 12 15 8
192.380130290985 -270.683884620667 2746.99997901917 15 18 11
195.645019412041 -264.959871768951 2688.99989128113 17 20 13
206.36773109436 -269.384622573853 2733.99996757507 19 21 18
