ply
format ascii 1.0
comment KinectMotionCapture
element vertex 774
property float x
property float y
property float z
property uchar red
property uchar green
property uchar blue
end_header
126.79760158062 393.502980470657 2631.99996948242 158 160 159
134.119257330894 393.942981958389 2634.99999046326 162 164 163
141.778513789177 395.27952671051 2644.00005340576 166 168 167
149.204567074776 395.868062973022 2648.00000190735 168 170 169
156.770035624504 396.755158901215 2654.00004386902 167 169 168
164.429411292076 397.791177034378 2661.00001335144 170 172 171
172.190859913826 398.976236581802 2668.99991035461 170 172 171
179.793566465378 399.712353944778 2674.00002479553 174 176 175
187.632754445076 400.896370410919 2681.99992179871 164 166 165
195.732936263084 402.528375387192 2693.00007820129 169 171 170
205.626577138901 407.59751200676 2726.99999809265 165 170 166
-239.36952650547 398.955702781677 2719.00010108948 204 209 205
-230.265513062477 396.035641431808 2698.99988174438 185 187 184
-221.930354833603 394.288927316666 2687.00003623962 184 186 183
-213.819459080696 392.835080623627 2677.00004577637 173 175 172
-206.379503011703 392.55478978157 2674.99995231628 168 170 167
-199.098587036133 392.567545175552 2674.99995231628 168 169 164
-192.032113671303 393.020123243332 2677.99997329712 160 162 157
-184.948608279228 393.47231388092 2680.99999427795 154 156 151
-177.914425730705 394.070893526077 2684.99994277954 152 154 149
-171.175569295883 395.402908325195 2694.00000572205 137 139 134
-165.116861462593 398.495823144913 2714.99991416931 107 109 104
-159.175604581833 402.175694704056 2740.00000953674 91 93 88
-129.417970776558 402.506321668625 2742.00010299683 5 10 4
-120.658539235592 398.257315158844 2713.00005912781 12 15 8
-111.931435763836 393.567264080048 2680.99999427795 21 24 17
-104.197837412357 391.959488391876 2670.00007629395 27 30 23
-96.6690182685852 390.938401222229 2663.00010681152 62 65 58
-89.3122926354408 390.504062175751 2660.00008583069 168 171 164
-81.9715857505798 390.069127082825 2657.00006484985 139 141 136
-74.590690433979 389.340192079544 2651.99995040894 152 154 149
-67.3637762665749 389.344811439514 2651.99995040894 149 151 146
-60.0685961544514 388.908535242081 2648.9999294281 139 141 136
-52.7496449649334 388.178110122681 2644.00005340576 169 171 166
-45.4233065247536 387.153655290604 2637.00008392334 147 149 144
-38.1059534847736 385.835021734238 2628.00002098084 142 143 137
-30.8963991701603 385.250002145767 2624.00007247925 154 155 149
-23.6904323101044 384.370893239975 2618.00003051758 150 151 145
-16.5487080812454 384.225398302078 2617.00010299683 142 143 138
-9.39797796308994 383.492112159729 2611.99998855591 146 147 142
-2.27708835154772 383.198857307434 2609.99989509583 150 151 146
4.83661331236362 383.198767900467 2609.99989509583 148 149 144
11.9548756629229 383.345067501068 2611.00006103516 143 143 141
19.0712455660105 383.344054222107 2611.00006103516 144 144 142
26.1975675821304 383.489340543747 2611.99998855591 146 146 144
33.329252153635 383.634239435196 2612.99991607666 146 146 144
40.5127070844173 384.219139814377 2617.00010299683 145 145 143
47.6085804402828 383.922606706619 2615.00000953674 145 145 143
54.7352433204651 383.919268846512 2615.00000953674 145 145 143
61.7907419800758 383.475035429001 2611.99998855591 145 145 143
68.8824206590652 383.323937654495 2611.00006103516 145 145 143
75.9392976760864 383.025586605072 2608.99996757507 146 146 144
83.1123217940331 383.314073085785 2611.00006103516 146 146 144
90.2959555387497 383.602052927017 2612.99991607666 143 143 141
97.5274443626404 384.036391973495 2615.9999370575 140 140 138
104.734919965267 384.323418140411 2618.00003051758 140 140 138
112.12383210659 385.197222232819 2624.00007247925 150 150 148
119.408696889877 385.630130767822 2627.00009346008 149 151 150
126.853972673416 386.502921581268 2632.99989700317 151 153 152
134.331539273262 387.375295162201 2638.99993896484 154 156 155
141.894921660423 388.393938541412 2645.99990844727 157 159 158
149.270534515381 388.824939727783 2648.9999294281 165 167 166
156.839177012444 389.695823192596 2654.99997138977 164 166 165
164.501771330833 390.713036060333 2661.99994087219 171 173 172
172.201871871948 391.729682683945 2668.99991035461 174 176 175
179.670572280884 392.158836126328 2671.99993133545 167 169 168
187.57475912571 393.468081951141 2680.99999427795 161 163 162
195.672675967216 395.070344209671 2691.99991226196 174 176 175
205.111712217331 399.166822433472 2720.00002861023 164 169 165
-237.711489200592 388.837337493896 2700.00004768372 203 208 204
-230.62102496624 389.283746480942 2703.00006866455 183 185 182
-222.357094287872 387.713432312012 2691.99991226196 184 186 183
-214.1522616148 386.142551898956 2680.99999427795 173 175 172
-206.469520926476 385.435461997986 2676.00011825562 169 171 168
-199.185490608215 385.448068380356 2676.00011825562 170 171 166
-192.044138908386 385.748296976089 2677.99997329712 160 162 157
-185.029238462448 386.336207389832 2681.99992179871 154 156 151
-178.058192133904 387.067854404449 2687.00003623962 150 152 147
-171.186402440071 388.087213039398 2694.00000572205 134 136 131
-165.066510438919 390.978932380676 2713.99998664856 118 120 115
-159.243792295456 394.878774881363 2740.9999370575 66 68 63
-128.907039761543 393.474608659744 2730.99994659424 10 15 9
-120.710752904415 391.033202409744 2713.99998664856 19 22 15
-111.729867756367 385.565519332886 2676.00011825562 16 19 12
-103.463008999825 381.970286369324 2651.00002288818 22 25 18
-96.3122174143791 382.264852523804 2653.00011634827 18 21 14
-89.1165807843208 382.414907217026 2654.00004386902 49 52 45
-81.8534716963768 382.276266813278 2653.00011634827 153 155 150
-74.5111256837845 381.704896688461 2648.9999294281 159 161 156
-67.3173367977142 381.853580474854 2650.00009536743 133 135 130
-60.0044503808022 381.281226873398 2645.99990844727 148 150 145
-52.71315574646 380.708485841751 2641.99995994568 149 151 146
-45.4090237617493 379.847079515457 2635.99991798401 147 149 144
-38.1374321877956 378.985166549683 2630.00011444092 141 142 136
-30.9455059468746 378.69918346405 2628.00002098084 153 154 148
-23.7372200936079 377.980411052704 2622.99990653992 147 148 142
-16.5687520056963 377.549380064011 2619.99988555908 139 140 135
-9.4021875411272 376.541525125504 2612.99991607666 144 145 140
-2.2781090810895 376.253694295883 2611.00006103516 150 151 146
4.83878143131733 376.253604888916 2611.00006103516 146 147 142
11.9648100808263 376.541256904602 2612.99991607666 140 140 138
19.087091088295 376.540273427963 2612.99991607666 142 142 140
26.2293629348278 376.827031373978 2615.00000953674 144 144 142
33.3696827292442 376.969218254089 2615.9999370575 143 143 141
40.5462980270386 377.399116754532 2618.99995803833 143 143 141
47.6480834186077 377.108097076416 2617.00010299683 143 143 141
54.8225119709969 377.39297747612 2618.99995803833 143 143 141
61.9130320847034 377.10103392601 2617.00010299683 143 143 141
69.045178592205 377.096831798553 2617.00010299683 143 143 141
76.0897472500801 376.659899950027 2614.00008201599 144 144 142
83.2768529653549 376.942932605743 2615.9999370575 145 145 143
90.5091315507889 377.369672060013 2618.99995803833 141 141 139
97.7201387286186 377.65184044838 2621.00005149841 139 139 137
105.06172478199 378.365755081177 2625.99992752075 141 141 139
112.430170178413 379.079252481461 2631.00004196167 151 151 149
119.780004024506 379.648149013519 2634.99999046326 147 149 146
127.103015780449 380.07253408432 2638.00001144409 149 151 148
134.594649076462 380.928695201874 2644.00005340576 151 153 150
142.011225223541 381.496161222458 2648.00000190735 154 156 153
149.449065327644 382.063239812851 2651.99995040894 159 161 158
156.967297196388 382.77393579483 2657.00006484985 161 163 160
164.573982357979 383.628189563751 2663.00010681152 158 160 157
172.27728664875 384.625971317291 2670.00007629395 161 163 160
179.950878024101 385.479271411896 2676.00011825562 171 173 170
187.796458601952 386.620134115219 2684.00001525879 162 164 161
195.757627487183 387.904644012451 2693.00007820129 170 172 169
204.370409250259 390.340834856033 2710.00003814697 180 185 181
-230.720415711403 382.084965705872 2703.9999961853 181 183 180
-222.288101911545 380.26174902916 2690.99998474121 185 187 184
-213.925763964653 378.437936306 2677.99997329712 174 176 173
-206.327900290489 377.885520458221 2674.00002479553 172 174 171
-199.1977840662 378.180593252182 2676.00011825562 160 161 156
-192.19945371151 378.757864236832 2680.0000667572 159 161 156
-185.178712010384 379.334807395935 2684.00001525879 160 162 157
-178.069263696671 379.770010709763 2687.00003623962 150 152 147
-171.133518218994 380.628883838654 2693.00007820129 133 135 130
-164.772719144821 382.90074467659 2709.00011062622 92 94 89
-159.137591719627 387.151181697845 2739.00008201599 113 115 110
-128.77357006073 385.632276535034 2727.9999256134 16 21 15
-120.584957301617 383.236944675446 2710.99996566772 10 13 6
-111.611694097519 377.872377634048 2673.00009727478 23 26 17
-103.508606553078 374.91038441658 2651.99995040894 21 24 15
-96.2820202112198 374.916672706604 2651.99995040894 16 19 12
-88.8871848583221 374.215662479401 2647.0000743866 26 29 22
-81.7044079303741 374.362468719482 2648.00000190735 31 34 27
-74.4596272706985 374.226033687592 2647.0000743866 106 109 102
-67.296214401722 374.513238668442 2648.9999294281 134 136 131
-60.0082837045193 374.093145132065 2645.99990844727 161 163 158
-52.7364797890186 373.672544956207 2642.99988746643 139 141 136
-45.4636141657829 373.110175132751 2638.99993896484 144 146 141
-38.2123850286007 372.547328472137 2634.99999046326 136 137 131
-31.0181453824043 372.408151626587 2634.0000629425 146 147 141
-23.8111447542906 371.985763311386 2631.00004196167 138 139 133
-16.6204106062651 371.562838554382 2628.00002098084 136 137 132
-9.4207813963294 370.149821043015 2618.00003051758 142 143 138
-2.28261761367321 369.867414236069 2615.9999370575 147 148 143
4.8483582213521 369.867324829102 2615.9999370575 142 143 138
11.9930533692241 370.29093503952 2618.99995803833 134 134 132
19.1321447491646 370.289921760559 2618.99995803833 137 137 135
26.271166279912 370.288521051407 2618.99995803833 142 142 140
33.4228500723839 370.427995920181 2619.99988555908 141 141 139
40.5953414738178 370.708435773849 2621.99997901917 141 141 139
47.7057546377182 370.422840118408 2619.99988555908 140 140 138
54.8888258635998 370.702385902405 2621.99997901917 140 140 138
62.0116218924522 370.557278394699 2621.00005149841 141 141 139
69.128729403019 370.411723852158 2619.99988555908 141 141 139
76.1819332838058 369.983017444611 2617.00010299683 143 143 141
83.3776593208313 370.260715484619 2618.99995803833 144 144 142
90.6185656785965 370.679289102554 2621.99997901917 144 144 142
97.9127734899521 371.238857507706 2625.99992752075 139 139 137
105.18841445446 371.656537055969 2628.99994850159 143 143 141
112.522751092911 372.215151786804 2632.99989700317 150 150 148
119.923956692219 372.914671897888 2638.00001144409 146 148 145
127.351954579353 373.613744974136 2642.99988746643 148 150 147
134.806752204895 374.312311410904 2648.00000190735 149 151 148
142.181053757668 374.727755784988 2651.00002288818 151 153 150
149.458467960358 374.859988689423 2651.99995040894 158 160 157
156.858950853348 375.274479389191 2654.99997138977 161 163 160
164.337024092674 375.82990527153 2658.99991989136 159 161 158
171.836331486702 376.384884119034 2663.00010681152 168 170 167
179.625794291496 377.504706382751 2671.0000038147 161 163 160
187.598168849945 378.906667232513 2680.99999427795 157 159 156
195.624336600304 380.30818104744 2690.99998474121 179 181 178
203.704237937927 381.709158420563 2700.99997520447 168 173 169
-230.990290641785 375.156730413437 2707.00001716614 181 183 180
-222.466722130775 373.230010271072 2693.00007820129 186 188 185
-214.178368449211 371.579974889755 2680.99999427795 175 177 174
-206.417590379715 370.761036872864 2674.99995231628 173 175 172
-199.135437607765 370.773255825043 2674.99995231628 158 159 154
-192.067742347717 371.200889348984 2677.99997329712 157 159 154
-185.121044516563 371.905446052551 2683.00008773804 161 163 158
-178.080186247826 372.471004724503 2687.00003623962 156 158 153
-171.144053339958 373.313367366791 2693.00007820129 144 146 141
-164.661228656769 375.264406204224 2707.00001716614 90 92 87
-158.101558685303 377.21511721611 2720.99995613098 166 168 163
-137.662023305893 382.233262062073 2756.99996948242 38 43 37
-127.931848168373 375.725299119949 2710.00003814697 13 18 11
-118.768684566021 370.187103748322 2670.00007629395 26 29 22
-111.910969018936 371.580719947815 2680.0000667572 19 22 13
-103.905417025089 369.091719388962 2661.99994087219 22 25 16
-96.4332893490791 368.266016244888 2655.99989891052 18 21 14
-88.6576920747757 366.053313016891 2640.00010490417 22 25 18
-81.3083946704865 365.365296602249 2634.99999046326 21 24 17
-74.1267204284668 365.370154380798 2634.99999046326 27 30 23
-67.0209899544716 365.790545940399 2638.00001144409 143 145 140
-59.785258024931 365.517169237137 2635.99991798401 162 164 159
-52.5801666080952 365.382015705109 2634.99999046326 141 143 138
-45.4147942364216 365.523785352707 2635.99991798401 134 136 131
-38.2147952914238 365.387737751007 2634.99999046326 134 135 129
-31.0436561703682 365.528553724289 2635.99991798401 144 145 139
-23.8216985017061 364.97563123703 2631.99996948242 137 138 132
-16.6341122239828 364.699572324753 2630.00011444092 138 139 134
-9.42857563495636 363.313645124435 2619.99988555908 144 145 140
-2.28363461792469 362.898021936417 2617.00010299683 148 149 144
4.85237175598741 363.036602735519 2618.00003051758 142 143 138
11.9983898475766 363.313436508179 2619.99988555908 135 135 133
19.1333554685116 363.17378282547 2618.99995803833 138 138 136
26.2627955526114 363.03374171257 2618.00003051758 143 143 141
33.437717705965 363.447815179825 2621.00005149841 142 142 140
40.5979044735432 363.584160804749 2621.99997901917 141 141 139
47.7087609469891 363.304048776627 2619.99988555908 140 140 138
54.8713468015194 363.439500331879 2621.00005149841 140 140 138
61.9682036340237 363.158524036407 2618.99995803833 141 141 139
69.1858604550362 363.570421934128 2621.99997901917 142 142 140
76.303169131279 363.427251577377 2621.00005149841 142 142 140
83.5102498531342 363.699585199356 2622.99990653992 142 142 140
90.6933769583702 363.832771778107 2624.00007247925 137 137 135
97.993478178978 364.381551742554 2628.00002098084 139 139 137
105.315029621124 364.92982506752 2631.99996948242 143 143 141
112.615264952183 365.339010953903 2634.99999046326 143 143 141
119.97689306736 365.88642001152 2638.99993896484 143 145 142
127.408087253571 366.572022438049 2644.00005340576 145 147 144
134.866043925285 367.257088422775 2648.9999294281 146 148 145
142.136231064796 367.38720536232 2650.00009536743 147 149 146
149.411350488663 367.516875267029 2651.00002288818 155 157 154
156.750470399857 367.784738540649 2653.00011634827 159 161 158
164.161741733551 368.190795183182 2655.99989891052 155 157 154
171.588748693466 368.596404790878 2658.99991989136 164 166 163
179.300531744957 369.556039571762 2665.99988937378 163 165 162
187.259763479233 370.931088924408 2676.00011825562 172 174 171
195.418164134026 372.582823038101 2687.99996376038 170 172 169
203.792035579681 374.511212110519 2701.99990272522 37 42 38
-232.198670506477 369.705617427826 2720.99995613098 194 196 193
-222.397327423096 365.778654813766 2691.99991226196 183 185 182
-214.031368494034 364.025175571442 2678.99990081787 179 181 178
-206.352785229683 363.358199596405 2674.00002479553 169 171 168
-199.072971940041 363.370269536972 2674.00002479553 166 167 162
-192.079290747643 363.925486803055 2677.99997329712 160 162 157
-185.063198208809 364.480316638947 2681.99992179871 156 158 153
-178.024679422379 365.034848451614 2686.00010871887 154 156 151
-170.963764190674 365.588992834091 2690.00005722046 147 149 144
-164.123728871346 366.686314344406 2697.99995422363 99 101 96
-156.367927789688 365.744560956955 2690.99998474121 143 145 140
-137.121185660362 373.246848583221 2746.00005149841 168 173 167
-125.720828771591 361.973077058792 2663.00010681152 20 25 18
-118.775993585587 362.932026386261 2670.00007629395 16 19 12
-112.502500414848 366.201400756836 2694.00000572205 18 21 12
-104.302160441875 363.217502832413 2671.99993133545 20 23 14
-96.1850732564926 360.097110271454 2648.9999294281 20 23 14
-88.46165984869 358.063697814941 2634.0000629425 19 22 15
-80.6653946638107 355.350136756897 2614.00008201599 16 19 12
-74.0469172596931 357.801795005798 2631.99996948242 20 23 16
-66.8473020195961 357.670217752457 2631.00004196167 82 85 78
-59.6982501447201 357.8100502491 2631.99996948242 134 137 130
-52.5036193430424 357.677578926086 2631.00004196167 133 135 130
-45.3659258782864 357.952445745468 2632.99989700317 130 132 127
-38.1881631910801 357.955038547516 2632.99989700317 130 133 126
-31.0102552175522 357.957154512405 2632.99989700317 134 137 130
-23.8231830298901 357.822954654694 2631.99996948242 129 132 125
-16.6288204491138 357.416301965714 2628.99994850159 136 138 133
-9.43995919078588 356.601417064667 2622.99990653992 141 143 138
-2.28639482520521 356.19392991066 2619.99988555908 142 144 139
4.86008869484067 356.46578669548 2621.99997901917 137 139 134
12.0174596086144 356.737196445465 2624.00007247925 133 135 132
19.1710777580738 356.736212968826 2624.00007247925 136 138 135
26.3045616447926 356.462895870209 2621.99997901917 138 140 137
33.4653109312058 356.596946716309 2622.99990653992 135 137 134
40.6159125268459 356.594651937485 2622.99990653992 139 141 138
47.7663576602936 356.591939926147 2622.99990653992 137 139 136
54.8956952989101 356.452792882919 2621.99997901917 137 139 136
62.0430372655392 356.449216604233 2621.99997901917 139 141 138
69.2165344953537 356.581121683121 2622.99990653992 140 142 139
76.366126537323 356.576681137085 2622.99990653992 140 142 139
83.610936999321 356.979578733444 2625.99992752075 141 143 140
90.6989872455597 356.702357530594 2624.00007247925 132 134 131
97.9622378945351 357.104420661926 2627.00009346008 143 145 142
105.121448636055 357.098162174225 2627.00009346008 150 152 149
112.451232969761 357.635259628296 2631.00004196167 140 142 139
119.802415370941 358.171910047531 2634.99999046326 139 141 138
127.367690205574 359.251707792282 2642.99988746643 143 145 142
134.823396801949 359.923422336578 2648.00000190735 146 148 145
142.091289162636 360.050946474075 2648.9999294281 153 155 152
149.30771291256 360.042065382004 2648.9999294281 155 157 154
156.641840934753 360.304683446884 2651.00002288818 153 155 152
164.048090577126 360.702753067017 2654.00004386902 167 169 166
171.341016888618 360.828548669815 2654.99997138977 173 175 172
178.975090384483 361.633449792862 2661.00001335144 160 162 159
186.851143836975 362.845599651337 2670.00007629395 178 180 177
194.920971989632 364.329010248184 2680.99999427795 89 91 88
202.974572777748 365.676075220108 2690.99998474121 35 40 36
-233.663022518158 364.576667547226 2737.99991607666 196 198 195
-223.071336746216 359.529972076416 2700.00004768372 184 186 183
-214.443430304527 357.412159442902 2684.00001525879 179 181 178
-206.442102789879 356.225907802582 2674.99995231628 170 172 169
-198.786899447441 355.571925640106 2670.00007629395 167 168 163
-191.732048988342 355.982929468155 2673.00009727478 161 163 158
-184.729188680649 356.526702642441 2677.00004577637 156 158 153
-177.703872323036 357.07014799118 2680.99999427795 150 152 147
-170.65617442131 357.613235712051 2684.99994277954 141 143 138
-163.95103931427 358.955055475235 2694.9999332428 105 107 102
-135.731190443039 362.054407596588 2717.99993515015 210 215 209
-125.492364168167 354.069769382477 2657.99999237061 20 25 18
-118.560738861561 355.009585618973 2664.99996185303 17 20 13
-111.548773944378 355.815768241882 2671.0000038147 18 21 12
-104.347556829453 356.088757514954 2673.00009727478 19 22 13
-95.3920632600784 349.966734647751 2627.00009346008 20 23 14
-87.2579291462898 346.108824014664 2598.00004959106 20 23 14
-80.8863416314125 349.178016185761 2621.00005149841 25 28 21
-73.7700909376144 349.315941333771 2621.99997901917 14 17 10
-66.8005645275116 350.252777338028 2628.99994850159 21 24 17
-59.6338510513306 350.256621837616 2628.99994850159 6 9 2
-52.4469614028931 350.126802921295 2628.00002098084 113 116 109
-45.2997870743275 350.262999534607 2628.99994850159 128 131 124
-38.1324887275696 350.26553273201 2628.99994850159 129 132 125
-30.9532657265663 350.134402513504 2628.00002098084 121 124 117
-23.779384791851 350.002825260162 2627.00009346008 113 116 109
-16.5918879210949 349.471122026443 2622.99990653992 131 133 128
-9.43334121257067 349.205493927002 2621.00005149841 127 129 124
-2.28566280566156 348.93935918808 2618.99995803833 141 143 138
4.85853338614106 349.205762147903 2621.00005149841 137 139 134
12.0136151090264 349.471658468246 2622.99990653992 132 134 131
19.172253087163 349.603980779648 2624.00007247925 135 137 134
26.3061728328466 349.336117506027 2621.99997901917 136 138 135
33.4290862083435 349.067807197571 2619.99988555908 134 136 133
40.5719429254532 349.065542221069 2619.99988555908 138 140 137
47.7328673005104 349.196165800095 2621.00005149841 136 138 135
54.8781231045723 349.193036556244 2621.00005149841 135 137 134
62.0231665670872 349.189460277557 2621.00005149841 136 138 135
69.194383919239 349.318742752075 2621.99997901917 138 140 137
76.3707831501961 349.447548389435 2622.99990653992 142 144 141
83.6478844285011 349.975615739822 2627.00009346008 132 134 131
90.6699374318123 349.437415599823 2622.99990653992 140 142 139
97.8936105966568 349.698215723038 2625 146 148 145
104.967758059502 349.425613880157 2622.99990653992 141 143 140
112.329818308353 350.08516907692 2628.00002098084 137 139 136
119.673244655132 350.61103105545 2631.99996948242 135 137 132
127.279013395309 351.802498102188 2641.00003242493 148 150 145
134.678781032562 352.32749581337 2644.99998092651 148 150 145
141.885250806808 352.319210767746 2644.99998092651 151 153 148
149.091228842735 352.310538291931 2644.99998092651 148 150 145
156.533032655716 352.834224700928 2648.9999294281 145 147 142
164.057910442352 353.490680456162 2654.00004386902 167 169 164
171.544834971428 354.013442993164 2657.99999237061 163 165 160
179.052993655205 354.535847902298 2661.99994087219 21 23 18
186.652287840843 355.191022157669 2667.00005531311 26 28 23
194.42355632782 356.112033128738 2674.00002479553 26 28 23
202.684849500656 357.831627130508 2687.00003623962 16 21 17
-235.298052430153 359.615057706833 2756.99996948242 201 203 200
-223.166823387146 352.32350230217 2700.99997520447 188 190 187
-214.535728096962 350.248962640762 2684.99994277954 178 180 177
-206.454083323479 348.956555128098 2674.99995231628 172 174 171
-198.79849255085 348.316013813019 2670.00007629395 162 163 158
-191.599771380425 348.457723855972 2671.0000038147 162 164 159
-184.532970190048 348.860025405884 2674.00002479553 164 166 161
-177.581712603569 349.522829055786 2678.99990081787 158 160 155
-170.602649450302 350.185394287109 2684.00001525879 139 141 136
-163.960725069046 351.630330085754 2694.9999332428 104 106 101
-135.139986872673 353.100806474686 2706.00008964539 227 232 226
-127.671763300896 352.847516536713 2703.9999961853 23 28 21
-119.813553988934 351.419478654861 2693.00007820129 18 21 12
-111.847795546055 349.468857049942 2677.99997329712 18 21 12
-104.002431035042 347.648292779922 2664.00003433228 18 21 12
-97.5403189659119 350.525259971619 2686.00010871887 19 22 13
-87.5654593110085 340.221136808395 2607.00011253357 20 23 14
-80.2122205495834 339.182078838348 2598.99997711182 9 12 5
-73.4368786215782 340.622216463089 2609.99989509583 31 34 27
-66.8045878410339 343.106061220169 2628.99994850159 14 17 10
-59.8642863333225 344.414919614792 2638.99993896484 25 28 21
-52.5299534201622 343.504726886749 2631.99996948242 40 43 36
-45.2852882444859 342.985600233078 2628.00002098084 105 108 101
-38.1057783961296 342.8575694561 2627.00009346008 111 114 107
-30.9198014438152 342.598646879196 2625 123 126 119
-23.7627141177654 342.600256204605 2625 126 129 122
-16.5739115327597 341.948866844177 2619.99988555908 133 135 130
-9.42671205848455 341.819167137146 2618.99995803833 145 147 142
-2.2858006414026 341.819494962692 2618.99995803833 138 140 135
4.85882628709078 342.080473899841 2621.00005149841 134 136 131
12.0097612962127 342.210471630096 2621.99997901917 130 132 129
19.1587973386049 342.20951795578 2621.99997901917 132 134 131
26.2876935303211 341.947168111801 2619.99988555908 133 135 132
33.418346196413 341.814875602722 2618.99995803833 131 133 130
40.5434221029282 341.682136058807 2618.00003051758 136 138 135
47.7357432246208 342.071026563644 2621.00005149841 134 136 133
54.881427437067 342.067986726761 2621.00005149841 133 135 132
62.0505660772324 342.194944620132 2621.99997901917 135 137 134
69.1985413432121 342.1910405159 2621.99997901917 137 139 136
76.3753652572632 342.317163944244 2622.99990653992 138 140 137
83.5892036557198 342.573434114456 2625 125 127 124
90.6408056616783 342.176765203476 2621.99997901917 144 146 143
97.899466753006 342.562675476074 2625 147 149 146
104.974031448364 342.29564666748 2622.99990653992 138 140 137
112.293772399426 342.811197042465 2627.00009346008 138 140 137
119.589447975159 343.195825815201 2630.00011444092 137 139 134
127.141997218132 344.232469797134 2638.00001144409 136 138 133
134.483098983765 344.616234302521 2641.00003242493 136 138 133
141.840025782585 344.999551773071 2644.00005340576 154 156 151
148.987293243408 344.86049413681 2642.99988746643 137 139 134
156.483188271523 345.503926277161 2648.00000190735 143 145 140
163.943916559219 346.016496419907 2651.99995040894 56 58 53
171.877637505531 347.441881895065 2663.00010681152 32 34 29
179.332539439201 347.823053598404 2665.99988937378 38 40 35
187.293112277985 349.117070436478 2676.00011825562 32 34 29
194.289460778236 348.584145307541 2671.99993133545 24 26 21
203.601852059364 352.094948291779 2698.99988174438 33 38 34
-223.262101411819 345.110446214676 2701.99990272522 191 193 190
-214.547947049141 342.951476573944 2684.99994277954 179 181 178
-206.311523914337 341.430574655533 2673.00009727478 172 174 171
-198.735401034355 340.931117534637 2668.99991035461 164 165 160
-191.467300057411 340.94226360321 2668.99991035461 160 162 157
-184.336543083191 341.208457946777 2671.0000038147 160 162 157
-177.326813340187 341.729760169983 2674.99995231628 156 158 153
-170.421823859215 342.506229877472 2680.99999427795 153 155 150
-163.726851344109 343.793392181396 2690.99998474121 109 111 106
-138.244390487671 353.666096925735 2767.99988746643 68 73 67
-128.293067216873 347.157508134842 2717.00000762939 17 22 15
-119.954071938992 344.481498003006 2696.00009918213 19 22 13
-111.937910318375 342.443823814392 2680.0000667572 19 22 11
-104.086630046368 340.661197900772 2665.99988937378 18 21 10
-96.7834293842316 340.539306402206 2664.99996185303 17 20 11
-73.0472877621651 331.737011671066 2595.99995613098 22 25 16
-66.4527714252472 334.169119596481 2615.00000953674 12 15 8
-59.8678328096867 337.239742279053 2638.99993896484 14 17 10
-52.5929480791092 336.731910705566 2634.99999046326 14 17 10
-45.2707372605801 335.712462663651 2627.00009346008 4 7 0
-38.0790308117867 335.459321737289 2625 95 98 91
-30.886298045516 335.077971220016 2621.99997901917 122 125 118
-23.7279161810875 334.951788187027 2621.00005149841 105 108 101
-16.5559202432632 334.441810846329 2617.00010299683 130 132 127
-9.41647309809923 334.314733743668 2615.9999370575 120 122 117
-2.28069955483079 333.931714296341 2612.99991607666 135 137 132
4.84984600916505 334.315001964569 2615.9999370575 133 135 130
11.9875725358725 334.442317485809 2617.00010299683 129 131 128
19.1160906106234 334.313571453094 2615.9999370575 130 132 129
26.229053735733 334.056705236435 2614.00008201599 132 134 131
33.3692915737629 334.182739257813 2615.00000953674 132 134 131
40.5148528516293 334.308356046677 2615.9999370575 132 134 131
47.702144831419 334.689110517502 2618.99995803833 133 135 132
54.842796176672 334.686100482941 2618.99995803833 134 136 133
61.9832426309586 334.682673215866 2618.99995803833 136 138 135
69.1498443484306 334.806591272354 2619.99988555908 136 138 135
76.2925297021866 334.802329540253 2619.99988555908 128 130 127
83.530455827713 335.181027650833 2622.99990653992 125 127 124
90.6115844845772 334.92037653923 2621.00005149841 144 146 143
97.8306382894516 335.170418024063 2622.99990653992 132 134 131
104.980207979679 335.164487361908 2622.99990653992 126 128 125
112.300381064415 335.669279098511 2627.00009346008 125 127 124
119.5964589715 336.045861244202 2630.00011444092 123 125 120
127.004846930504 336.677551269531 2634.99999046326 132 134 129
134.389102458954 337.181031703949 2638.99993896484 139 141 136
141.79465174675 337.684094905853 2642.99988746643 128 130 125
148.939624428749 337.547957897186 2641.99995994568 54 56 51
156.374081969261 338.050216436386 2645.99990844727 21 23 18
163.335204124451 337.529957294464 2641.99995994568 25 27 22
171.758487820625 339.947640895844 2661.00001335144 20 22 17
179.410174489021 340.70411324501 2667.00005531311 9 11 6
186.253979802132 339.927196502686 2661.00001335144 47 49 44
196.554854512215 345.281451940537 2703.00006866455 49 51 46
-222.944036126137 337.265759706497 2697.99995422363 193 195 192
-214.320212602615 335.277765989304 2681.99992179871 179 181 178
-206.477478146553 334.41436290741 2674.99995231628 171 173 170
-199.118927121162 334.300726652145 2674.00002479553 165 166 161
-191.836804151535 334.311604499817 2674.00002479553 159 161 156
-184.416010975838 334.072142839432 2671.99993133545 158 160 155
-177.270591259003 334.332317113876 2674.00002479553 153 155 150
-170.367941260338 335.092335939407 2680.0000667572 151 153 148
-163.492828607559 335.977077484131 2687.00003623962 130 132 127
-158.496960997581 340.987712144852 2726.99999809265 188 190 185
-136.554151773453 341.888219118118 2733.99996757507 7 12 6
-127.9226988554 338.769435882568 2709.00011062622 11 16 9
-119.827501475811 336.775690317154 2693.00007820129 18 21 12
-111.860848963261 334.906458854675 2677.99997329712 19 22 11
-103.858388960361 332.6615691185 2660.00008583069 20 23 12
-95.1910242438316 327.789902687073 2621.00005149841 18 21 12
-89.9943709373474 335.048884153366 2678.99990081787 17 20 11
-66.5582939982414 327.55833864212 2618.99995803833 23 26 17
-60.0528307259083 331.064015626907 2647.0000743866 5 8 1
-52.6958219707012 330.191791057587 2640.00010490417 22 25 18
-45.1872125267982 327.943295240402 2621.99997901917 14 17 10
-38.0087122321129 327.695488929749 2619.99988555908 4 7 0
-30.8527611196041 327.572464942932 2618.99995803833 73 76 69
-23.7293038517237 327.824205160141 2621.00005149841 137 140 133
-16.5758673101664 327.700257301331 2619.99988555908 108 110 105
-9.41342487931252 327.075630426407 2615.00000953674 120 122 117
-2.27908743545413 326.575696468353 2611.00006103516 133 135 130
4.83900541439652 326.450526714325 2609.99989509583 131 133 128
11.9699500501156 326.82529091835 2612.99991607666 129 131 128
19.0952867269516 326.824396848679 2612.99991607666 130 132 129
26.2105166912079 326.698005199432 2611.99998855591 133 135 132
33.3712361752987 327.071458101273 2615.00000953674 133 135 132
40.4862500727177 326.944291591644 2614.00008201599 132 134 131
47.6685017347336 327.31693983078 2617.00010299683 134 136 133
54.7831729054451 327.188909053802 2615.9999370575 136 138 135
61.9158484041691 327.18551158905 2615.9999370575 135 137 134
69.0746903419495 327.306807041168 2617.00010299683 134 136 133
76.2387290596962 327.427685260773 2618.00003051758 123 125 122
83.4397748112679 327.673196792603 2619.99988555908 129 131 128
90.547688305378 327.543169260025 2618.99995803833 144 146 143
97.7244228124619 327.662825584412 2619.99988555908 125 127 124
104.986272752285 328.032165765762 2622.99990653992 125 127 124
112.349607050419 328.651249408722 2628.00002098084 122 124 121
119.694299995899 329.144805669785 2631.99996948242 139 141 136
127.01216340065 329.512923955917 2634.99999046326 145 147 142
134.294971823692 329.755634069443 2637.00008392334 154 156 151
141.749128699303 330.372989177704 2641.99995994568 36 38 33
148.891776800156 330.239683389664 2641.00003242493 7 9 4
156.205713748932 330.481082201004 2642.99988746643 14 16 11
163.03539276123 329.721868038177 2637.00008392334 6 8 3
172.026455402374 333.213359117508 2664.99996185303 15 17 12
178.680345416069 332.078188657761 2655.99989891052 20 22 17
187.314480543137 334.568470716476 2676.00011825562 54 56 51
196.129634976387 337.183237075806 2697.00002670288 19 21 16
-223.20419549942 330.297738313675 2700.99997520447 197 202 198
-214.491873979568 328.230738639832 2684.00001525879 178 183 179
-206.566080451012 327.26389169693 2676.00011825562 176 178 175
-199.353352189064 327.397346496582 2677.00004577637 173 174 168
-192.206203937531 327.6526927948 2678.99990081787 167 169 164
-184.771403670311 327.418476343155 2677.00004577637 162 164 159
-177.214190363884 326.939225196838 2673.00009727478 164 168 167
-170.186743140221 327.438086271286 2677.00004577637 162 166 165
-163.319453597069 328.303605318069 2684.00001525879 138 142 141
-156.762138009071 329.902648925781 2697.00002670288 98 102 101
-135.71272790432 332.373708486557 2717.00000762939 6 9 2
-127.26879119873 329.689741134644 2694.9999332428 19 22 13
-118.988819420338 327.127635478973 2674.00002479553 18 21 10
-110.5722412467 323.830991983414 2647.0000743866 19 21 10
-102.57576406002 321.390181779861 2627.00009346008 22 24 13
-95.4143553972244 321.395754814148 2627.00009346008 23 25 14
-88.1854072213173 321.15626335144 2625 23 25 14
-81.0287669301033 321.161031723022 2625 18 19 11
-75.926162302494 330.096900463104 2697.99995422363 17 18 10
-53.6170788109303 328.639715909958 2686.00010871887 14 15 7
-45.2759824693203 321.423709392548 2627.00009346008 19 20 12
-37.8222987055779 318.97896528244 2607.00011253357 13 16 9
-30.7956282049418 319.837391376495 2614.00008201599 12 15 8
-23.7125586718321 320.450723171234 2618.99995803833 16 19 12
-16.5704935789108 320.451885461807 2618.99995803833 17 20 13
-9.40676592290401 319.718450307846 2612.99991607666 28 31 24
-2.27747252210975 319.229364395142 2608.99996757507 132 135 128
4.83742961660028 319.229304790497 2608.99996757507 136 139 132
11.9660552591085 319.595873355865 2611.99998855591 137 140 133
19.0890748053789 319.594979286194 2611.99998855591 135 137 132
26.2120198458433 319.593697786331 2611.99998855591 139 141 136
33.3603955805302 319.836765527725 2614.00008201599 139 142 135
40.4730774462223 319.712281227112 2612.99991607666 140 142 137
47.6348027586937 319.954484701157 2615.00000953674 139 141 136
54.7444261610508 319.829225540161 2614.00008201599 142 145 138
61.8720538914204 319.825917482376 2614.00008201599 150 153 146
69.0258517861366 319.944560527802 2615.00000953674 144 146 141
76.1848390102386 320.062786340714 2615.9999370575 138 140 135
83.4126770496368 320.425271987915 2618.99995803833 150 153 146
90.4837027192116 320.175677537918 2617.00010299683 144 146 141
97.6926758885384 320.415049791336 2618.99995803833 123 125 122
104.91219162941 320.654034614563 2621.00005149841 128 130 125
112.398743629456 321.626633405685 2628.99994850159 124 126 121
119.883015751839 322.476446628571 2635.99991798401 126 128 123
127.163946628571 322.714179754257 2638.00001144409 0 2 0
134.506270289421 323.073834180832 2641.00003242493 14 17 10
142.186358571053 324.167042970657 2650.00009536743 4 7 0
149.633079767227 324.648201465607 2654.00004386902 22 24 19
156.450897455215 323.783427476883 2647.0000743866 14 17 10
164.095610380173 324.630737304688 2654.00004386902 16 19 12
171.519666910172 324.988424777985 2657.00006484985 7 9 4
178.353920578957 324.244856834412 2651.00002288818 14 16 11
186.274886131287 325.457870960236 2661.00001335144 18 21 14
195.267796516418 328.382670879364 2684.99994277954 18 20 15
203.636214137077 330.083906650543 2698.99988174438 27 32 26
-223.877385258675 323.910146951675 2709.00011062622 200 205 201
-214.983001351357 321.650058031082 2690.00005722046 181 186 182
-207.040444016457 320.704728364944 2681.99992179871 180 185 181
-199.662089347839 320.596128702164 2680.99999427795 165 166 160
-192.288428544998 320.48711180687 2680.0000667572 161 163 158
-184.712469577789 320.018976926804 2676.00011825562 158 160 157
-177.223905920982 319.670021533966 2673.00009727478 157 161 160
-170.132532715797 320.038259029388 2676.00011825562 151 157 157
-163.328438997269 321.004152297974 2684.00001525879 136 142 142
-156.596392393112 322.208881378174 2694.00000572205 72 78 76
-141.913592815399 322.225242853165 2694.00000572205 150 152 147
-135.570421814919 324.625074863434 2713.99998664856 3 6 0
-126.236915588379 319.728195667267 2673.00009727478 25 27 16
-118.995442986488 319.854527711868 2674.00002479553 18 21 10
-110.453091561794 316.272348165512 2644.00005340576 19 21 10
-102.932937443256 315.321296453476 2635.99991798401 21 23 12
-95.7829356193542 315.446436405182 2637.00008392334 22 24 13
-89.433416724205 318.442165851593 2661.99994087219 21 23 12
-81.4654976129532 315.695524215698 2638.99993896484 20 21 13
-74.9735608696938 318.690568208694 2664.00003433228 20 21 13
-66.8708458542824 314.746707677841 2631.00004196167 16 17 9
-45.7266643643379 317.388087511063 2653.00011634827 13 14 6
-38.346741348505 316.1940574646 2642.99988746643 20 23 16
-30.7502374053001 312.248051166534 2609.99989509583 10 13 6
-23.7772762775421 314.163744449615 2625.99992752075 13 16 9
-16.6093930602074 314.045250415802 2625 24 27 20
-9.41089633852243 312.729954719543 2614.00008201599 18 21 14
-2.28196592070162 312.73028254509 2614.00008201599 1 4 0
4.84141102060676 312.37131357193 2611.00006103516 4 7 0
11.9713125750422 312.610119581223 2612.99991607666 22 25 18
19.0901514142752 312.489598989487 2611.99998855591 41 44 37
26.2034647166729 312.368720769882 2611.00006103516 67 70 63
33.3495140075684 312.606334686279 2612.99991607666 68 71 64
40.4598712921143 312.484622001648 2611.99998855591 46 49 42
47.6010516285896 312.601774930954 2612.99991607666 35 38 31
54.7056198120117 312.479287385941 2611.99998855591 26 29 22
61.8281960487366 312.4760389328 2611.99998855591 27 30 23
69.0297335386276 312.831312417984 2615.00000953674 27 30 23
76.1891156435013 312.946885824203 2615.9999370575 8 11 4
83.2899510860443 312.822818756104 2615.00000953674 10 13 6
90.3158858418465 312.459111213684 2611.99998855591 8 11 4
97.5116342306137 312.693178653717 2614.00008201599 4 7 0
104.677893221378 312.807202339172 2615.00000953674 5 8 1
112.233988940716 313.997387886047 2625 17 20 13
119.935177266598 315.426379442215 2637.00008392334 14 15 7
127.797722816467 317.094147205353 2651.00002288818 17 18 10
135.074004530907 317.206531763077 2651.99995040894 26 27 19
142.40887761116 317.438125610352 2654.00004386902 15 16 8
149.24667775631 316.592901945114 2647.0000743866 12 13 5
156.282216310501 316.225707530975 2644.00005340576 16 17 9
163.609981536865 316.456168889999 2645.99990844727 15 16 8
171.529069542885 317.762613296509 2657.00006484985 22 23 15
178.632795810699 317.513883113861 2654.99997138977 20 21 13
185.654997825623 317.145258188248 2651.99995040894 31 32 24
192.878365516663 317.135035991669 2651.99995040894 26 29 20
202.138230204582 320.35306096077 2678.99990081787 31 33 28
-224.302470684052 317.12731719017 2713.99998664856 203 208 204
-215.394020080566 314.918696880341 2694.9999332428 148 153 149
-207.360297441483 313.878178596497 2686.00010871887 143 148 144
-199.747234582901 313.421487808228 2681.99992179871 170 172 167
-192.155212163925 312.964379787445 2677.99997329712 169 171 168
-184.584319591522 312.506943941116 2674.00002479553 170 174 173
-177.167132496834 312.282800674438 2671.99993133545 169 173 172
-169.950976967812 312.408983707428 2673.00009727478 165 169 170
-163.093850016594 313.236027956009 2680.0000667572 142 146 145
-156.314224004745 314.29648399353 2688.99989128113 87 91 90
-141.921311616898 314.897000789642 2694.00000572205 25 27 22
-134.278982877731 314.203083515167 2687.99996376038 19 22 15
-127.188384532928 314.794629812241 2693.00007820129 15 18 9
-119.714014232159 314.450651407242 2690.00005722046 21 23 12
-111.545346677303 312.118977308273 2670.00007629395 19 21 10
-103.055730462074 308.50088596344 2638.99993896484 19 21 10
-95.8971679210663 308.623194694519 2640.00010490417 19 21 10
-89.0687555074692 309.914171695709 2651.00002288818 18 20 9
-82.1182876825333 310.970991849899 2660.00008583069 17 18 10
-73.9926248788834 307.351112365723 2628.99994850159 18 19 11
-66.6457787156105 306.536614894867 2621.99997901917 19 20 12
-58.9284151792526 303.617298603058 2596.99988365173 18 19 11
-52.1457344293594 305.374026298523 2611.99998855591 15 16 8
-45.4878769814968 308.533310890198 2638.99993896484 14 15 7
-38.2763184607029 308.418691158295 2638.00001144409 12 15 8
-30.4691642522812 302.341043949127 2585.99996566772 10 13 6
-23.742375895381 306.551456451416 2621.99997901917 8 11 4
-16.6356228291988 307.370960712433 2628.99994850159 22 25 18
-9.41141881048679 305.617958307266 2614.00008201599 14 17 10
-2.2777272388339 305.033713579178 2608.99996757507 20 23 16
4.84538823366165 305.501282215118 2612.99991607666 16 19 12
11.9536491110921 305.033147335052 2608.99996757507 5 8 1
19.0546661615372 304.798513650894 2607.00011253357 7 10 3
26.1246263980865 304.329603910446 2602.9999256134 7 10 3
33.3130657672882 305.146366357803 2609.99989509583 1 4 0
40.5085831880569 305.728912353516 2615.00000953674 10 13 6
47.6765595376492 305.960357189178 2617.00010299683 8 11 4
54.729588329792 305.489867925644 2612.99991607666 6 9 2
61.8789605796337 305.603593587875 2614.00008201599 10 13 6
69.1391304135323 306.184530258179 2618.99995803833 11 14 7
76.3098150491714 306.29751086235 2619.99988555908 12 15 8
83.2308381795883 305.474758148193 2612.99991607666 12 15 8
90.2171209454536 305.002450942993 2608.99996757507 16 19 12
97.5542813539505 305.698722600937 2615.00000953674 17 20 13
104.283303022385 304.52424287796 2605.00001907349 16 19 12
111.384980380535 304.518401622772 2605.00001907349 15 18 11
119.987212121487 308.369725942612 2638.00001144409 14 15 7
127.756491303444 309.765756130219 2650.00009536743 17 18 10
134.826675057411 309.407979249954 2647.0000743866 22 23 15
141.933664679527 309.166759252548 2644.99998092651 11 12 4
148.634523153305 308.106929063797 2635.99991798401 11 12 4
155.581340193748 307.631254196167 2631.99996948242 17 18 10
163.062289357185 308.207094669342 2637.00008392334 38 39 31
170.505329966545 308.665692806244 2641.00003242493 60 61 53
178.776979446411 310.526341199875 2657.00006484985 24 25 17
185.244917869568 309.231102466583 2645.99990844727 27 28 20
193.39781999588 310.740292072296 2658.99991989136 31 34 25
200.715348124504 310.846716165543 2660.00008583069 33 35 30
-225.719198584557 311.685800552368 2730.99994659424 203 208 204
-215.405240654945 307.588428258896 2694.9999332428 176 181 177
-207.448348402977 306.686282157898 2687.00003623962 179 184 180
-199.683204293251 306.011974811554 2680.99999427795 174 176 173
-191.87830388546 305.223196744919 2674.00002479553 171 173 170
-184.248879551888 304.662227630615 2668.99991035461 172 174 171
-176.911249756813 304.557502269745 2667.99998283386 171 173 170
-169.705614447594 304.680734872818 2668.99991035461 168 170 169
-162.798210978508 305.374443531036 2674.99995231628 163 165 164
-156.031876802444 306.410253047943 2684.00001525879 97 99 96
-143.298655748367 310.535967350006 2720.00002861023 44 46 41
-134.436026215553 307.232409715652 2690.99998474121 17 20 13
-127.053514122963 307.125210762024 2690.00005722046 18 21 12
-119.764946401119 307.245910167694 2690.99998474121 22 24 13
-110.966436564922 303.255885839462 2655.99989891052 19 21 10
-102.826967835426 300.635427236557 2632.99989700317 19 21 10
-95.4664200544357 300.069838762283 2628.00002098084 19 21 10
-88.3679613471031 300.303101539612 2630.00011444092 19 21 10
-81.16564899683 300.193458795547 2628.99994850159 17 18 10
-73.9403367042542 299.969226121902 2627.00009346008 17 18 10
-66.4714500308037 298.602759838104 2615.00000953674 16 17 9
-59.3627579510212 298.720300197601 2615.9999370575 16 17 9
-51.7692193388939 296.09689116478 2592.99993515015 16 17 9
-44.6801781654358 295.985341072083 2592.00000762939 17 18 10
-37.7705320715904 297.243624925613 2602.9999256134 13 16 9
-30.7889580726624 298.387408256531 2612.99991607666 5 8 1
-23.5987771302462 297.589540481567 2605.99994659424 19 22 15
-16.6112165898085 299.760311841965 2625 18 21 14
-9.50914714485407 301.588118076324 2641.00003242493 10 13 6
-2.28134356439114 298.390984535217 2612.99991607666 10 13 6
4.83823427930474 297.934144735336 2608.99996757507 15 18 11
11.9726276025176 298.390477895737 2612.99991607666 15 18 11
19.1214866936207 298.732191324234 2615.9999370575 12 15 8
26.1260438710451 297.24645614624 2602.9999256134 11 14 7
33.3021134138107 297.930032014847 2608.99996757507 10 13 6
40.4178313910961 297.928035259247 2608.99996757507 20 23 16
47.5516058504581 298.039853572845 2609.99989509583 19 22 15
54.5021444559097 297.123610973358 2601.99999809265 14 17 10
61.5035332739353 296.663731336594 2598.00004959106 12 15 8
69.1956803202629 299.28657412529 2621.00005149841 13 16 9
76.1683136224747 298.597544431686 2615.00000953674 10 13 6
83.0442160367966 297.67981171608 2607.00011253357 8 11 4
90.67153185606 299.387902021408 2621.99997901917 8 11 4
97.7460741996765 299.15452003479 2619.99988555908 11 14 7
104.008674621582 296.637177467346 2598.00004959106 16 19 12
111.904084682465 298.800826072693 2617.00010299683 17 20 13
119.993641972542 301.192343235016 2638.00001144409 11 12 4
127.136573195457 301.071643829346 2637.00008392334 23 24 16
134.324505925179 301.064699888229 2637.00008392334 25 26 18
141.243606805801 300.48656463623 2631.99996948242 17 18 10
147.458255290985 298.538118600845 2615.00000953674 17 18 10
154.998451471329 299.329310655594 2621.99997901917 16 17 9
163.194611668587 301.261633634567 2638.99993896484 22 23 15
170.191511511803 300.910413265228 2635.99991798401 45 46 38
177.642524242401 301.357954740524 2640.00010490417 38 39 31
186.234846711159 303.631454706192 2660.00008583069 32 33 25
192.971542477608 302.822530269623 2653.00011634827 24 27 18
201.329529285431 304.524421691895 2667.99998283386 31 33 28
-215.25639295578 300.034314393997 2693.00007820129 189 191 188
-207.381755113602 299.265086650848 2686.00010871887 183 185 182
-199.544504284859 298.495471477509 2678.99990081787 178 180 177
-191.816434264183 297.83695936203 2673.00009727478 173 174 169
-184.189364314079 297.289401292801 2667.99998283386 172 173 168
-176.787778735161 297.075778245926 2665.99988937378 170 169 165
-169.523656368256 297.084629535675 2665.99988937378 167 166 162
-162.563234567642 297.650396823883 2671.0000038147 154 153 149
-155.691176652908 298.438668251038 2677.99997329712 148 147 142
-150.22112429142 302.124172449112 2710.99996566772 184 185 179
-143.200784921646 302.911877632141 2717.99993515015 14 15 9
-133.643716573715 298.126816749573 2674.99995231628 23 26 19
-125.926554203033 297.130465507507 2665.99988937378 14 17 8
-118.52503567934 296.802520751953 2663.00010681152 21 23 12
-110.178425908089 293.910622596741 2637.00008392334 19 21 10
-102.559000253677 292.690128087997 2625.99992752075 20 22 11
-95.0718596577644 291.692167520523 2617.00010299683 21 23 12
-88.0366191267967 292.031347751617 2619.99988555908 20 22 11
-80.6142091751099 291.032582521439 2611.00006103516 20 21 13
-73.6627876758575 291.705459356308 2617.00010299683 19 20 12
-66.5512457489967 291.820585727692 2618.00003051758 15 16 8
-59.3432188034058 291.489481925964 2615.00000953674 14 15 7
-51.5523552894592 287.813931703568 2582.00001716614 15 16 8
-44.458445161581 287.482023239136 2578.9999961853 16 17 9
-37.5984124839306 288.821846246719 2591.00008010864 15 18 11
-30.6609831750393 290.049850940704 2601.99999809265 14 17 10
