ply
format ascii 1.0
comment KinectMotionCapture
element vertex 798
property float x
property float y
property float z
property uchar red
property uchar green
property uchar blue
end_header
150.012771278846 303.458331822139 2790.39065755303 22 25 18
152.874638302135 304.237340081304 2801.60375091541 23 26 19
139.493337510003 304.75758381075 2800.64458191479 24 27 20
149.740723867892 305.64326392986 2817.26117673101 25 28 21
143.702128443834 306.275488446777 2821.74723942873 26 29 22
130.280845249365 306.800227131687 2820.82710919222 24 27 20
118.465370519024 307.352944536062 2821.14207080555 26 29 22
135.454472948313 308.311336699191 2842.38924531937 28 31 24
133.556327170147 308.997872012145 2849.84097547227 29 32 25
120.086346768373 309.528071612297 2848.96839516161 31 34 27
109.897109832462 310.105928639022 2850.49891945708 34 37 30
94.6959258025228 310.623233500162 2848.51319930045 33 36 29
81.9498146858288 311.176899578109 2848.3352470715 34 37 30
70.0053720835201 311.744727244141 2848.7763802401 39 42 35
53.8436804046043 312.267070854688 2846.32680433513 41 44 37
49.3834178170216 312.92945525853 2852.0749202115 42 45 38
76.8966909138276 313.946060860008 2879.86709693649 41 44 37
97.8162946895895 314.871069639119 2902.88447251422 40 43 36
86.7406839065543 315.444337865367 2903.87861020589 47 50 43
37.520227083395 315.632693178553 2879.04306045904 50 53 46
36.4935560540371 316.323584015922 2887.04533103472 51 52 46
9.95861653103836 316.767510295929 2877.90420829231 50 53 46
9.76726865994682 317.468347798888 2886.49242982838 47 50 43
2.76167527128024 318.104807629896 2890.52120050452 67 70 63
-29.0969138523556 318.526443139263 2878.16736564742 45 48 41
-70.5198391891089 318.883573195539 2859.73391373571 34 36 31
-82.8432578667937 319.497066977711 2860.54428847544 41 43 38
-10.6663558880435 320.772834840733 2916.21396023538 29 34 28
406.146114060958 262.941784294108 2526.44777383323 98 79 64
395.831669548749 263.415293632473 2526.70114432793 121 98 82
399.108380960537 264.41462749403 2540.30354568762 138 109 91
401.713608280063 265.380546115266 2553.16110795949 159 132 111
405.80319015284 266.394811228126 2567.37135726228 164 137 118
399.104397506945 267.000774171022 2571.09963985025 149 124 104
388.050757611572 267.448238014552 2570.67398248279 148 126 112
367.521230630152 267.557648636459 2561.28647484933 131 112 98
190.916934642257 286.195406401438 2692.80908820654 32 35 26
212.252650119841 287.505545865408 2719.60740236123 22 25 16
226.63886764003 288.630176709926 2740.58055358556 18 21 12
207.201849153959 288.946411091683 2734.32900404173 24 27 18
201.930205522169 289.599943621681 2739.46723227479 32 35 26
195.073748080154 290.217114299826 2743.35042183765 25 28 19
185.031587197667 290.763781239794 2744.73950731909 18 21 12
184.526792102741 291.523654131651 2753.63059901932 17 20 11
184.844668876943 292.297663213479 2763.11958538721 26 29 20
177.985940778318 292.914399480141 2767.00543179346 27 30 21
188.774652624415 293.902033546655 2784.48632296645 28 31 22
182.749248153689 294.531430499986 2788.95970476517 24 27 20
174.301460076789 295.112014178904 2791.59436023773 25 28 21
165.031000506974 295.678138996174 2793.63150620179 25 28 21
171.136526010251 296.547824313057 2807.2781718268 24 27 20
156.180429316158 297.004275857383 2805.05807041626 25 28 21
150.134135203246 297.635480718464 2809.5519287305 26 29 22
149.797358221088 298.372904427739 2818.27949394038 27 30 23
151.120611961425 299.137043833359 2828.18849417024 28 31 24
138.53697028425 299.647747896123 2827.85589499518 25 28 21
126.740948475901 300.176916852913 2828.15502001967 26 29 22
123.153293563932 300.851581353362 2834.45205574145 29 32 25
129.48331421874 301.692464254287 2847.88005134683 32 35 28
114.348255834465 302.169914089344 2845.83455800198 34 37 30
102.486356764421 302.706770453336 2846.19830176775 36 39 32
97.24690630458 303.353074948059 2851.30563000561 33 36 29
93.6754554095605 304.025151213054 2857.58695743909 35 38 31
65.0490428331967 304.313416616665 2846.29430132872 37 40 33
48.8759327930013 304.802555507524 2843.86097166837 35 38 31
55.3151840557775 305.629225888514 2857.18260026955 38 41 34
76.1111481710452 306.653601371605 2880.30806550243 38 41 34
96.1847833520677 307.65120388131 2902.73752391906 43 46 39
74.1188524907574 308.056244538877 2896.24924122011 50 53 46
9.6231407623466 307.904513455134 2861.12611525397 56 59 52
-19.4846331285747 308.251501387481 2850.30277888069 44 45 39
15.9715280825399 309.435955172221 2882.93593978797 37 40 33
4.70637832148491 310.013939891783 2884.11793323306 18 21 14
-6.58512787407695 310.595068647925 2885.32529647801 62 65 58
-22.186153698216 311.128727127452 2883.7345459181 29 32 25
-61.0169552555302 311.40081505155 2866.99037391793 40 42 37
-57.8280698319373 312.16445527566 2877.88100456345 28 30 25
-1.98489858894391 313.497640696882 2922.83885986426 38 43 37
389.104240483616 254.837327769007 2510.56025283655 103 84 69
389.464616908086 255.754784779322 2521.40274419999 113 90 74
392.006591251519 256.758720356037 2534.31716088076 127 100 81
396.747930576097 257.846881640747 2549.28653073695 120 93 72
400.823351491448 258.898151098915 2563.50537285373 133 108 88
394.11075203362 259.500547415453 2567.24789295587 136 111 91
380.1451450324 259.811242288979 2564.06576341047 125 103 89
354.509185192566 259.663664424282 2549.86829881242 114 95 81
188.628315132657 278.686583267708 2691.94045619635 27 30 21
205.247512964672 279.959561685761 2714.92570289209 29 32 23
206.238170217859 280.789571506878 2725.15524073173 14 17 8
212.782857491223 281.763949197291 2739.76758589965 14 17 8
199.616773423119 282.206407217073 2738.60620020451 27 30 21
186.412574880299 282.653434296701 2737.48198744114 22 25 16
172.375677567663 283.084478630913 2735.77010979082 21 24 15
181.398937711554 284.107821061014 2752.16468644429 21 24 15
166.53591432665 284.521919672693 2749.8584216068 25 28 19
185.248876595991 285.7718603619 2773.60209070843 24 27 18
196.85688850164 286.831343903484 2791.67569480748 25 28 19
190.850807416844 287.45604927937 2796.13058161142 22 25 18
171.133723891613 287.757155516218 2790.15903888282 24 27 20
172.363125035027 288.555683813362 2800.15649130767 21 24 17
164.711972599771 289.145815328386 2803.41591180535 20 23 16
166.795848054969 289.957122505179 2813.97954137004 24 27 20
161.588759195214 290.601013175354 2819.05509082284 25 28 21
163.727055368488 291.405314038154 2829.56605318213 27 30 23
155.267314082391 291.976128525252 2832.21436009241 27 30 23
142.693289242873 292.46175089601 2831.87558047652 29 32 25
129.263414639193 292.934353298663 2830.97168735612 31 34 27
121.562335499459 293.529717429212 2834.27991243111 29 32 25
120.456571211841 294.259475657798 2842.35531704001 30 33 26
111.921921969884 294.838937403813 2845.0767305967 29 32 25
100.054117598061 295.355366711923 2845.44901968237 33 36 29
96.4718978562749 296.034771154845 2851.73995763838 31 34 27
97.8992302467674 296.807107023643 2861.5443947964 26 29 22
68.4476050115501 297.003614497799 2849.66783951934 30 33 26
64.0057325089574 297.670227783258 2855.3974065846 32 35 28
73.8366573995544 298.590778253135 2871.00515281194 36 39 32
80.3732626488052 299.443549581071 2884.22624975685 37 40 33
74.3175234251488 300.071979494856 2888.72989734168 38 41 34
49.6662924048676 300.386932730066 2880.57110500487 43 46 39
23.2327441218367 300.684673101231 2871.35056763383 47 50 43
11.1363571475298 301.228446362047 2871.94613904056 55 56 50
-1.84121655613367 301.762318366479 2872.00095813754 49 52 45
-14.8524225680857 302.300284539997 2872.08890733941 32 35 28
-17.6405348179545 302.99925249583 2879.00496481394 32 35 28
-19.5589835919403 303.709413937268 2886.47336421035 31 34 27
-5.14694083353096 304.656746906663 2904.61325650444 35 37 32
-19.0442646223383 305.18533026524 2904.1652733742 43 45 40
10.1012010625352 307.04024772207 2940.1317975129 35 40 34
379.191487549116 246.936285822659 2501.73311392902 121 105 90
383.098047694008 248.044769621564 2516.11118103251 115 96 81
387.772159048784 249.179557186513 2531.14008007068 115 90 70
391.782486347326 250.274517220709 2545.41710366315 120 95 75
393.681872421137 251.265526067463 2557.55462124218 107 82 62
389.117517743935 251.961644242309 2563.40145410768 127 104 86
375.862827627142 252.273644528052 2560.93008996512 125 106 91
349.489221175232 252.020144294532 2546.06386531942 113 94 80
169.897319588161 270.643222677423 2677.72122833038 26 29 20
185.684021587736 271.973695704491 2700.10741085646 27 30 21
204.724235286686 273.387516807375 2724.91880231498 15 18 9
211.264364154721 274.403318107457 2739.52921381337 15 18 9
190.977631957565 274.606499696948 2732.72124238134 22 25 16
178.544810469023 275.052944942087 2732.24803611262 17 20 11
176.408417099847 275.80501267873 2739.92632613975 22 25 16
157.559813027762 276.072805817913 2734.51454129669 24 27 18
164.199353060546 277.075411361802 2749.02818636592 23 26 17
177.302126004944 278.25027606635 2768.4345738488 24 27 18
189.692715604114 279.39157690383 2787.13622132867 20 23 14
190.103992807957 280.192126372436 2796.52853703163 24 27 20
176.029639121688 280.597494247652 2794.85764908346 25 28 21
168.379405419996 281.180020900748 2798.1172812604 20 23 16
163.959238196593 281.84880534139 2803.82463592478 19 22 15
160.356099438997 282.537893733409 2810.13491548928 24 27 20
165.716495775851 283.454444704525 2823.09766935063 24 27 20
167.048019269487 284.261753453994 2832.99207718305 24 27 20
152.052435891651 284.65876118359 2830.82031024503 25 28 21
130.451809557926 284.900738504786 2823.89407396162 26 29 22
123.56765898368 285.509016888714 2827.80607749137 30 33 26
121.619420446359 286.235566169937 2835.30129860559 31 34 27
122.164786535403 287.018002743035 2844.56313914139 30 33 26
111.978825123146 287.548420903137 2846.09776007922 30 33 26
105.08868380359 288.156997507294 2850.01566843079 35 38 31
101.51806018054 288.840807473429 2856.29444013507 33 36 29
98.7892568875957 289.541881027164 2863.15129173217 29 32 25
98.5795863787779 290.2957138004 2871.75021308256 30 33 26
86.6711811711092 290.795695345001 2872.16558821267 29 32 25
83.9647413351026 291.493730200846 2879.00101952666 28 31 24
86.3180441021854 292.294777252197 2889.29862022984 25 28 21
71.001220897315 292.73011526191 2887.44018399021 25 28 21
50.5679879903753 293.069242384999 2882.1741687139 33 36 29
35.1484044587123 293.517136927119 2880.41591914784 41 42 36
37.5112761434031 294.316697562436 2890.70423746602 44 45 39
20.3394418679439 294.738178488231 2887.85574623511 48 51 44
-6.266621992014 294.990120102591 2878.81362626044 52 55 48
-24.4211038454027 295.411468371755 2875.52369104749 48 51 44
-11.7915608342458 296.398840728276 2892.59355765943 45 48 41
0.0614489841619381 297.360776280693 2909.02138344185 41 43 38
-13.8240687526183 297.861438522351 2908.56580345631 30 32 27
-32.0597152079225 298.292666770577 2905.3553434783 33 38 32
-16.6401242517953 299.299380591944 2923.90285837148 32 37 31
379.258589359525 239.464378080921 2502.77082554044 122 108 95
383.164649570847 240.608173520425 2517.14417004029 118 101 85
384.971526847689 241.638427239527 2529.36774984725 107 86 67
388.254956899011 242.734302831045 2542.94954851503 112 87 67
387.261838391229 243.613128058604 2552.30797147972 106 80 63
385.569681783495 244.453870559677 2560.94893106197 124 101 83
373.754557571901 244.806731760291 2559.8765117889 121 102 87
357.545665069935 244.957303560113 2554.69459823281 94 75 61
320.155063369458 244.124196977397 2529.5987493196 80 63 53
169.958884022823 263.125692996682 2678.77118154043 18 21 12
180.25045603469 264.339829580697 2696.71226294471 22 25 16
178.817820107196 265.141031439044 2705.10169658678 22 25 16
200.28069056265 266.711629378507 2731.73491047782 19 22 13
195.781846397446 267.394872897428 2737.51825546301 21 24 15
180.189981639105 267.711374112281 2734.53325641851 23 26 17
170.111070687648 268.215176296945 2735.96550849581 26 29 20
176.737693223945 269.260467341954 2750.48567193158 26 29 20
170.647190854125 269.891540122296 2755.02344921993 20 23 14
175.760169451834 270.87534146813 2768.22195297774 26 29 20
191.355902428865 272.176760411133 2789.38515542947 19 22 13
187.748881419509 272.872719893842 2795.69793674116 20 23 16
175.281528841482 273.29841405791 2795.26242519748 22 25 18
165.204607620294 273.800858035664 2796.69256434361 22 25 18
157.535865812993 274.377845591219 2799.97139401921 22 25 18
158.789635807708 275.217099199023 2809.93829078936 24 27 20
154.377092564979 275.887828434762 2815.63812513035 22 25 18
162.209120835444 276.906598221073 2830.3821320011 21 24 17
155.381471786872 277.503229536781 2834.24008795419 21 24 17
141.167983164325 277.895606471567 2832.70928310986 24 27 20
128.556257840374 278.338084158115 2832.41431739782 25 28 21
126.619502103347 279.074478380178 2839.89668084365 27 30 23
128.001891605364 279.896957251555 2849.73833584041 27 30 23
126.933478891867 280.649913717862 2857.77322109465 28 31 24
120.907918121903 281.270838864183 2862.2480102302 32 35 28
115.710843128979 281.913349189677 2867.31381977955 32 35 28
104.680602816682 282.407940270915 2868.27487021275 28 31 24
101.142518538782 283.093410634057 2874.52074661832 28 31 24
92.5893128253428 283.654012425033 2877.26337451863 26 29 22
84.8607024347063 284.236704590963 2880.60081144359 26 29 22
78.803939997139 284.860914546167 2885.106098803 26 29 22
64.3126852307763 285.286434352366 2883.8458835017 31 34 27
48.0897609823332 285.677684683712 2881.47648797287 36 39 32
34.3585171461025 286.133246809376 2880.87437750094 24 25 19
44.3598869672335 287.130494787887 2896.30187137634 25 26 20
38.2651180979852 287.75906853371 2900.8442547179 32 35 28
16.8168341341182 288.051244838404 2895.17623013907 47 50 43
-10.687230660491 288.223094370653 2885.62042878245 43 46 39
-10.0206251212676 289.008674542916 2894.7614121294 42 45 38
-14.4777676069729 289.682842671009 2900.50468806918 44 46 41
-6.02192686988001 290.62260413306 2914.64125517674 39 44 38
-30.2774438713493 290.889187626914 2907.5135713139 30 35 29
-0.159377235829261 292.254288695568 2935.50179854859 37 42 36
381.464030615857 232.10825521377 2505.91908731284 119 107 93
381.087148042248 233.055089189338 2516.07243653971 112 96 81
383.604535660071 234.151596469758 2528.99792398709 101 82 65
384.727567155116 235.166250581231 2540.48563121995 113 90 72
382.283340116582 235.986980315875 2548.45979426004 109 86 68
380.577230543786 236.843088866607 2557.11233824743 116 93 75
373.095177182117 237.39760281611 2560.20910512592 118 96 82
361.969632496138 237.767742070222 2559.86627881902 80 60 49
339.158945205232 237.55157608003 2548.54105138056 53 35 25
295.80600185295 236.321359474402 2518.08863832941 75 62 56
182.457438531619 255.207542051966 2680.28342878768 20 21 15
171.586684313056 255.667594756678 2681.09121192913 18 21 12
153.62539757865 255.862429980897 2676.22600031848 18 21 12
169.436696850624 257.336339664749 2698.56655751422 18 21 12
174.310973860428 258.386277833737 2711.9923204839 16 19 10
188.725365316095 259.77874789199 2732.89824589699 22 25 16
197.689010507876 260.956909862595 2749.3291388187 28 31 22
194.804287124453 261.697042069413 2756.3353863607 31 34 25
191.135598418118 262.407101856122 2762.70765843033 30 33 24
171.50524541063 262.553434623125 2756.67286646675 24 27 18
185.424788999761 263.879295958766 2776.6631185489 28 31 22
183.39053382664 264.640453440752 2784.23864037706 36 39 30
176.546661843823 265.235044619563 2788.11266963303 37 40 33
168.889679432766 265.803193355269 2791.38112842804 35 38 31
155.564412383786 266.184106063255 2790.38691015627 24 27 20
160.834915504401 267.18313539177 2803.426739045 24 27 20
155.599433520027 267.832020718287 2808.52974508225 29 32 25
149.550904748518 268.454470320933 2813.02711646889 28 31 24
154.923088989691 269.44053370649 2825.9678908625 28 31 24
161.164507514299 270.445831551574 2839.45956923601 28 31 24
157.622915371449 271.138468287346 2845.70820765858 28 31 24
134.366648258441 271.224254188912 2837.61497569005 28 31 24
129.972047808485 271.895270147971 2843.296612353 27 30 23
131.362141244466 272.738863345876 2853.12783438321 27 30 23
135.266866941685 273.651951917769 2864.70244597214 28 31 24
132.57884568438 274.365340724848 2871.51731805791 29 32 25
127.408806620336 275.004988203568 2876.55670365772 30 33 26
109.738222200003 275.287450434907 2872.80677843617 31 34 27
99.5289759545308 275.78894610971 2874.36879628828 29 32 25
95.1583184513511 276.456309765006 2880.02719706005 27 30 23
89.1140751741446 277.076848087786 2884.52059537382 29 32 25
81.38451437781 277.651994120012 2887.86009138095 33 36 29
65.2131794980848 278.002391450285 2885.44550490207 36 39 32
54.0627692611832 278.492981733542 2886.52647716303 30 33 26
52.2028534027106 279.230082323644 2893.93243307266 15 16 10
50.3594344693243 279.965073729801 2901.32231902828 15 16 10
47.6815822163563 280.67636975094 2908.12740245526 27 30 23
33.9300038868564 281.107797226393 2907.54905152651 35 38 31
3.04636933617441 281.120539709593 2895.70475373639 38 41 34
-0.539677951553852 281.817113149095 2901.99661708992 38 41 34
-3.2583011936147 282.533224672688 2908.84147498262 32 34 29
-3.38293931885358 283.309139172595 2917.35269424954 28 33 27
10.3158290100578 284.405377434908 2934.76196114127 35 40 34
-0.966717272266937 284.911829487088 2935.97180208615 24 29 23
378.680234569745 224.476903375171 2504.14337329481 123 113 103
379.009849031789 225.485040532216 2515.0030092556 96 82 71
376.504482298332 226.324829395972 2523.0350679856 112 94 80
376.170532129126 227.284796755726 2533.1438435918 99 80 65
372.98195006472 228.078861916415 2540.44385602884 109 87 73
368.360240538249 228.790552965992 2546.34500360145 95 76 61
361.569313901186 229.381285304168 2550.16702768136 111 93 81
353.318136182858 229.893108825327 2552.61694672471 111 93 83
333.397981999015 229.77335191572 2544.07544091586 107 90 82
134.879612984228 245.699374909744 2642.49632845824 6 7 1
171.648764179063 248.154083688861 2682.140059359 22 25 16
157.611912727668 248.468642362733 2680.44501485552 19 22 13
161.630111511412 249.530606889503 2693.30218935069 22 25 16
196.457494407331 251.835904553593 2730.64514197929 24 27 18
186.413714527668 252.303993241703 2732.04744898016 25 28 19
193.785813788437 253.468889745335 2747.22691253353 29 32 23
199.631657075494 254.5631524665 2761.09825399577 29 32 23
196.770942922579 255.308660986095 2768.07986540028 27 30 21
189.930194898536 255.898317740626 2771.95152182475 23 26 17
185.484061585653 256.580431508643 2777.68302897307 23 26 17
179.437653596177 257.201123085851 2782.17821638519 35 38 29
167.758291719061 257.611330023738 2782.37941674985 38 41 34
157.661121871629 258.084881535847 2783.83393337497 35 38 31
165.321918533054 259.212734487823 2798.73219116251 23 26 19
154.412578359195 259.656879796178 2799.58064183421 23 26 19
155.658037628712 260.541260300739 2809.5491215417 28 31 24
148.795443164218 261.132581927222 2813.44256357914 27 30 23
152.533351029172 262.097157936376 2825.17521792079 26 29 22
161.222245558101 263.226738986199 2840.46921323343 27 30 23
164.239201362324 264.150659897323 2851.50688311703 27 30 23
137.71176090088 264.063791597963 2841.01951774295 26 29 22
124.263979340885 264.432360147258 2840.14878265297 25 28 21
129.768431030588 265.437041961933 2852.95546171922 23 26 19
130.358610830615 266.271957575405 2862.1650451983 24 27 20
139.272252517582 267.3730435106 2877.24007482614 22 25 18
128.29738453619 267.82409335728 2878.15257509165 24 27 20
110.629160675501 268.066308326924 2874.40659216916 28 31 24
93.7388664671652 268.341772626442 2871.29977084127 25 28 21
91.8666391099552 269.092088066316 2878.71633694411 25 28 21
89.1714431738331 269.814519053715 2885.53699716171 27 30 23
72.1890184657643 270.101140858213 2882.52001370763 28 31 24
57.6829028920089 270.4701714136 2881.28324233635 24 27 20
45.6701481477286 270.919488862878 2881.80972623005 20 23 16
43.7908267808997 271.670284129301 2889.23292802917 15 16 10
44.4745927609236 272.492753060669 2898.35141866223 16 17 11
40.932154451137 273.189976395744 2904.59988160172 17 20 13
21.1959579131222 273.428139484968 2900.0738685068 30 33 26
-9.71615126335168 273.364023425667 2888.26920610004 37 40 33
10.6545297167417 274.731594214689 2910.34901249694 32 35 28
-3.20041789655257 275.149222214786 2909.8753483515 34 36 31
-11.93012673204 275.71037450067 2912.7931650983 30 35 29
4.33607129262104 276.937651333558 2931.88463470021 37 42 36
6.00547960764253 277.767436432544 2941.44019591549 19 24 18
375.183858737647 216.778910204587 2501.66786393818 137 127 117
371.215503105051 217.546030575122 2508.32927616611 89 77 65
365.82181298981 218.224369273629 2513.58503202054 105 88 78
359.709773322293 218.858997478337 2518.14367067371 91 74 64
355.034964428816 219.580375214783 2524.09611501462 97 80 70
350.364265505513 220.301043175499 2530.04458299893 81 67 58
342.800061485955 220.849859257739 2533.22376883741 88 75 67
333.045432113984 221.272269012895 2534.34603427805 80 70 61
307.972507306917 220.809326223691 2521.05264984313 71 62 55
171.613816116969 238.790533291823 2663.72061014468 47 48 42
163.838845042925 239.359978800964 2667.10604176369 35 36 30
163.882037233712 240.285286062281 2676.84543217863 37 40 31
178.865455182541 241.876199561411 2698.57388533607 27 30 21
184.509224051296 243.034458359732 2712.63643109065 64 67 58
181.532229201267 243.80353020162 2719.73002829758 66 69 60
199.125518529511 245.467870700259 2743.10705391096 27 30 21
179.578715203415 245.507846359342 2737.00501541277 33 36 27
188.567589735684 246.780820922402 2753.39717980866 23 26 17
192.848016959793 247.8421732801 2765.99371022243 21 24 15
193.183712913552 248.729839199657 2775.44820345062 21 24 15
183.142398415373 249.181107520139 2776.85088617622 20 23 14
170.671384929988 249.535864988791 2776.42915653827 23 26 17
151.732081983552 249.632259315729 2771.13276968782 23 26 19
152.883268762723 250.550785097623 2781.18981671474 22 25 18
151.642122885061 251.368210754263 2789.38670003628 21 24 17
177.15492876716 253.241791763286 2817.62146252712 21 24 17
142.72403169581 252.740407984384 2800.87350490491 20 23 16
156.180178035584 254.120678470818 2819.8986284975 20 23 16
147.696227274226 254.642888254948 2822.57815952847 21 24 17
148.194283866704 255.509113050553 2831.87459523103 23 26 19
156.09881728203 256.649684394791 2846.52893904604 24 27 20
142.700638581765 256.985670134438 2845.61376330812 23 26 19
111.967032339495 256.687856240873 2832.24947596906 23 26 19
111.662470882038 257.520638408525 2840.93061890618 25 28 19
137.037189258828 259.277816385448 2867.90313717268 25 28 19
139.329634510592 260.186001161657 2878.24533537927 25 28 19
135.837982472525 260.88357571515 2884.44365273224 25 28 19
119.020749319099 261.112813531278 2881.27145079283 28 31 22
97.1382890921055 261.174804174298 2874.65168168414 29 32 23
92.7616207592501 261.849323707855 2880.31499366294 25 26 18
88.3898425722629 262.523153049792 2885.97355166463 25 26 18
77.2938473571618 262.970396493547 2887.00689564849 32 33 25
60.2702223523703 263.224812976194 2884.03592247261 23 24 16
51.6434504242951 263.763361768376 2886.85486213515 28 29 21
46.3897996263514 264.413741483377 2891.9756892029 18 19 13
38.5904405466353 264.982089443669 2895.38550068929 18 19 13
36.7360589286609 265.74100370433 2902.78273696532 19 20 12
11.874037582476 265.774182415774 2894.87490868974 28 29 21
2.30808412067463 266.29632767056 2897.21164677488 31 33 22
7.28629263280256 267.268226351043 2909.12882911096 31 34 23
-4.00063890960256 267.738641078104 2910.34835098484 29 35 23
-22.197580954249 268.005462898245 2907.12341831117 23 28 21
-26.6528158999244 268.68904840024 2912.86374599375 24 29 22
-12.9524587676157 269.904702928859 2930.25344766622 32 37 30
361.992404283092 209.453317689275 2500.26287657073 101 91 81
345.107680426332 209.391460509361 2494.36656113329 128 115 106
329.597820876561 209.42965672386 2489.92435374421 129 116 108
326.28190448947 210.256152990737 2497.34601774269 57 46 40
322.977921767436 211.080894212003 2504.75609083034 47 38 31
311.717381185826 211.403582469909 2504.55399283793 52 43 38
201.386692887135 233.642781913135 2698.68185003682 33 34 28
197.608738360338 234.384881986678 2705.15788914101 28 31 22
192.269592540928 235.049931650142 2710.36144581694 25 28 19
185.357627525736 235.639337816655 2714.30385880321 43 46 37
194.213228545065 236.978382078174 2730.81860069501 46 49 40
186.535655839724 237.527160659777 2734.11036885694 30 33 24
193.906788175088 238.779438180705 2749.27787770534 30 33 24
184.655291770343 239.252609310141 2751.30959363863 22 25 16
183.350364028292 240.092714695413 2759.56646124039 21 24 15
171.685801200271 240.459097953677 2759.75910520924 21 24 15
171.996832527453 241.369008625512 2769.23480301156 20 23 14
165.917427857925 241.98929157878 2773.76315485119 24 27 18
161.44347971278 242.680792284508 2779.52055731183 22 25 18
166.648827413142 243.794887002606 2792.60807988172 22 25 18
174.33010611107 245.007520184865 2807.47346822323 22 25 18
179.644107072144 246.107843721989 2820.45513187358 21 24 17
169.580774188173 246.5452716387 2821.8813869454 21 24 17
157.053308385382 246.882439584953 2821.51865285888 21 24 17
149.387166614162 247.428125988538 2824.79952695681 22 25 18
132.713720241483 247.602954921486 2821.49224638574 24 27 20
150.418640812965 249.194816054467 2843.35222362525 26 29 22
149.332944873742 250.006102706716 2851.39531236012 26 29 22
124.381172736814 249.854792092014 2842.18696607063 26 29 22
117.500796336484 250.437785251905 2846.09929677695 26 29 20
131.30212380705 251.837060166079 2864.77850371583 26 29 20
141.046490506228 253.063147374937 2880.42738315222 25 28 19
132.569975462675 253.573304144898 2883.10131183572 25 28 19
124.078856719041 254.085198747851 2885.78948535831 27 30 21
107.220046458798 254.282201625402 2882.66299656845 27 30 21
89.4709017163326 254.454317158514 2879.00772994391 27 28 20
81.7346182185856 255.007578211465 2882.3571362833 28 29 21
71.4643069938408 255.469300487574 2883.9853332115 30 31 23
62.8579086409036 255.995108744319 2886.78592465833 22 23 15
52.5468254846775 256.461749837131 2888.45388171825 50 51 43
43.0603661172979 256.961327980373 2890.71501640172 16 17 11
31.0091798597654 257.373150715134 2891.28520505864 15 16 10
23.1817444299667 257.937372198027 2894.72350666727 17 18 10
27.2817156825358 258.91589236338 2906.09456577254 25 27 16
22.8788302335157 259.596342798078 2911.78337299266 28 30 19
6.48829589959909 259.869866199758 2909.59781674522 28 32 18
-9.09304783394127 260.178213281669 2908.02048466257 31 37 23
9.62620932438796 262.45346835397 2937.27399909921 29 35 23
-44.0095023886871 261.529830490157 2911.31890187857 23 31 20
344.909278532917 200.745886664123 2484.50543895927 92 83 74
320.095750148718 200.105711944771 2470.98100268572 134 124 115
237.370945158657 228.102523308749 2728.95036179136 20 21 15
154.613621408845 224.710422369284 2671.34680097647 19 22 13
209.022060306779 229.420465125104 2734.23419400445 25 28 19
187.964989239851 229.275575458427 2726.82537807774 27 30 21
196.084598641473 230.616783258322 2742.65340359614 31 34 25
194.760238734934 231.473505637253 2750.92711164009 19 22 13
189.483467869404 232.130441329171 2756.0699283062 19 22 13
179.428624367791 232.552042075519 2757.49009254471 18 21 12
181.327704106951 233.560399040123 2768.20844095662 20 23 14
164.854286038577 233.674115658172 2764.71189953786 19 22 13
176.407880572042 235.140356470954 2782.77942234488 23 26 17
173.567600890294 235.908350652022 2789.73741864649 23 26 19
174.770722674762 236.864526336732 2799.73732880622 23 26 19
168.732753273146 237.477005829942 2804.22568816028 23 26 19
174.842797275793 238.652125500997 2817.82272378446 23 26 19
176.948131903449 239.634023751246 2828.34016862951 24 27 20
171.763697000674 240.27822810461 2833.3931760059 24 27 20
152.709990302776 240.297171410564 2828.22184099892 18 21 14
133.59125577155 240.324076632853 2823.11390282397 17 20 13
127.523703612904 240.939561430216 2827.63085626844 24 27 20
138.709315068283 242.312261480692 2844.66070767789 26 29 22
129.382229403394 242.780029686424 2846.76862125567 22 25 18
134.897292184029 243.89012212262 2859.54918370794 28 31 22
136.32588903398 244.81715072455 2869.32950172062 27 30 21
131.980427284824 245.494548776136 2874.96173749878 24 27 18
123.482453541651 245.997015796185 2877.6577736879 23 26 17
115.803379200981 246.535826302419 2880.9525062731 23 26 17
108.113843458678 247.075913112232 2884.25777638965 23 26 17
90.3667248482893 247.207761166138 2880.60611145985 23 24 16
75.9191865400108 247.482192232093 2879.32515376125 28 29 21
70.6820209546106 248.131746811676 2884.4297327239 27 28 20
62.0734658823023 248.647520450443 2887.2336110951 25 26 18
54.2957118915872 249.198197852759 2890.62491795149 69 70 62
44.8131975397832 249.684305522278 2892.8841261063 14 15 9
26.823993927072 249.845831931522 2889.46846871453 14 15 9
32.5992014160263 250.922745696333 2901.99560741893 19 20 12
42.6892734877682 252.154313313579 2917.30038630794 22 24 13
40.0302400041963 252.897615755656 2924.08205188369 25 27 16
-2.01835363791858 252.180102988716 2905.01148242852 26 30 16
-15.043301457764 252.553434029463 2905.1370726075 33 39 25
-10.0329558461314 253.587105270475 2917.01321237124 26 32 20
7.09777326430672 255.048929715106 2936.62843310799 24 30 18
-2.46347814514758 255.54444746459 2938.96443751929 30 38 27
192.253422018891 219.227078076567 2702.79707332437 27 30 21
233.202553388406 222.451858977813 2745.26109022746 30 33 24
197.28281273277 221.423868194585 2725.81834278371 28 31 22
206.955161759891 222.90037689097 2742.9186339643 30 33 24
214.330218016519 224.239549835821 2758.06906535317 26 29 20
210.672677393129 224.977526478507 2764.42614111251 18 21 12
196.695128152776 225.166614248913 2762.69109102355 18 21 12
189.843655955778 225.737750461321 2766.57613403834 18 21 12
176.598146010356 225.976474121179 2765.52373126292 20 23 14
171.317973637863 226.633853369304 2770.66986011832 20 23 14
178.875217353499 227.949618128206 2785.64317422882 23 26 17
179.257495384322 228.889112633501 2795.04375052354 24 27 20
177.24932351271 229.702958059421 2802.58558399262 24 27 20
170.409057789224 230.272049307192 2806.46013890043 24 27 20
168.422103593086 231.083043001504 2813.9813243888 25 28 21
170.511651172943 232.091654140476 2824.5104978524 25 28 21
169.381160569492 232.936833939792 2832.5930589587 25 28 21
147.874302173934 232.792597243147 2825.63079198972 20 23 16
135.286648109354 233.089321062684 2825.33346551917 19 22 15
130.86268931478 233.780079332667 2831.04167538939 25 28 21
126.443325766201 234.470168141341 2836.7450832165 27 30 23
139.325225210674 235.968239718653 2854.90612219755 23 26 19
142.386460025153 236.996275316429 2865.88443426418 28 31 22
137.212273102811 237.63904032696 2870.92747797876 27 30 21
132.039107265305 238.28160290249 2875.9695376608 24 27 18
113.56467261115 238.323224019526 2871.63653449832 23 26 17
108.362341890634 238.969256901077 2876.70704243061 22 25 16
104.831375010092 239.689211299079 2882.9407544301 22 25 16
86.2398490279688 239.745212045434 2878.72223722628 22 23 15
80.1739402543302 240.357452773441 2883.23803823718 27 28 20
63.1714881796155 240.497527856681 2880.26293963763 24 25 17
54.5457621228351 241.005222041572 2883.085401032 24 25 17
46.7503506665166 241.550502022874 2886.49470190722 52 53 45
36.4037128431591 241.990165477491 2888.20195256035 14 15 9
15.8491886112397 242.007976199874 2883.10420962845 15 16 10
17.3451280784689 242.947965105498 2892.81573989944 17 18 10
37.6319671185295 244.651805074114 2914.92910214432 21 23 12
14.450623308047 244.573278377739 2908.20300271873 23 25 14
-27.6550785951581 243.747415599034 2889.20515669546 25 28 17
-10.6910216808576 245.300631016705 2908.97237784094 22 28 16
-30.6234722283403 245.381673477008 2904.66413239694 23 29 17
-29.924299172873 246.279611428671 2913.75616928809 23 29 17
-20.5541896322656 247.508699454757 2928.35933877829 22 30 19
148.500321829441 207.169885647711 2648.83551161337 32 33 27
156.284278222638 208.646388644074 2664.97718680204 30 31 25
232.239613133187 214.141872681416 2736.10922841351 29 32 23
205.012636067286 213.507998927443 2723.56354176057 18 21 12
205.212012323636 214.490733188463 2733.13935140411 21 24 15
240.928698922413 217.520272707398 2770.9090789973 21 24 15
233.365792279581 218.031612709732 2774.09251546976 22 25 16
214.696488224339 217.9130825111 2768.55978148005 24 27 18
203.112137844925 218.206080164881 2768.68361966197 22 25 16
185.922801087664 218.190584628118 2764.50018426683 22 25 16
167.877435373287 218.137765368151 2759.75506755082 25 28 19
176.181129699428 219.548126262796 2775.39007322069 23 26 17
174.924614002607 220.423626147869 2783.59329781227 26 29 20
172.884469275602 221.252855463634 2791.1649449092 27 30 21
167.636055871033 221.906378411288 2796.28010659949 27 30 21
169.66113563546 222.947970398811 2806.86808515981 26 29 20
171.722352664638 223.984978929798 2817.4211941569 26 29 20
177.067182431232 225.188075871033 2830.35705448339 25 28 19
166.185217207067 225.536321754294 2831.19249531851 25 28 19
149.566127029388 225.592495034469 2827.84911333793 21 24 15
131.25797611292 225.571344546254 2823.36026558164 20 23 16
138.300207143423 226.850210860839 2837.43320131601 22 25 18
151.975007505911 228.453283428469 2856.20826818145 23 26 19
141.855330365387 228.849917004683 2857.69650331866 21 24 17
141.619926035404 229.740882655495 2866.30071055446 27 30 21
143.89120323838 230.750952755451 2876.64920818205 25 28 19
135.415820177446 231.230126124767 2879.32659212315 23 26 17
126.09429245536 231.670832893763 2881.43264840811 22 25 16
108.421580876929 231.71365032094 2877.72059272539 22 25 16
101.549657293055 232.280450660719 2881.62658510975 22 25 16
90.4850713455336 232.650436215907 2882.64015790878 23 24 16
86.1071385972214 233.33786715785 2888.30281717031 32 33 25
67.4362454568809 233.360898158997 2884.1676477998 23 24 16
41.9606747282972 233.081008809997 2875.49844513577 18 19 11
32.4465914990801 233.545195885388 2877.79257934876 34 35 27
21.2202756820306 233.934980372148 2878.9638260256 13 14 8
7.42133936933742 234.213691257513 2878.45473587757 15 16 10
8.04728712224323 235.140380807928 2887.61557494489 17 18 10
3.58504729982601 235.837953503328 2893.36045343056 19 20 12
-5.99994845673013 236.310695227874 2895.72340261608 21 23 12
-15.6031012198312 236.785683409276 2898.10438779416 24 27 16
-38.9602450582163 236.672810517493 2891.55759890577 16 22 10
-45.1896080846046 237.30272525642 2896.23343803684 29 35 23
-43.6610064407561 238.260608394481 2905.91022736587 24 30 18
-61.1144654510341 238.418928524719 2903.37995086847 22 30 19
-69.9590105568717 238.94306321943 2906.41727291312 28 35 27
201.63750015896 203.91194173844 2702.82699990206 25 26 20
210.383568536452 205.461263717491 2719.41943037158 22 25 16
228.617192377829 207.586683305027 2743.50935637728 18 21 12
220.221219361755 208.047848129324 2746.11054662503 22 25 16
226.794272697846 209.427862293876 2760.63443313762 25 28 19
247.65689147322 211.664875976727 2786.34830054677 25 28 19
235.362961157884 211.878671390283 2785.77155883338 26 29 20
207.145870146535 211.145729488385 2772.80680287612 25 28 19
190.762613965177 211.136155231005 2769.23861386627 25 28 19
177.519311833086 211.32139593722 2768.19192345677 27 30 21
166.638933024409 211.651692210831 2769.02844190233 25 28 19
166.161276754711 212.5906375983 2777.86611751128 27 30 21
170.532955244447 213.804450810369 2790.34983826364 28 31 22
171.727522115424 214.827868001168 2800.3483053137 27 30 21
174.570222496621 215.938913517933 2811.53135647334 27 30 21
172.592671400074 216.771255264952 2819.04004931195 26 29 20
170.631742329123 217.601459019208 2826.53289006981 25 28 19
162.989836776965 218.113669518922 2829.79464496791 25 28 19
147.179009767885 218.178306393751 2827.06430411471 24 27 18
141.949602406322 218.829337503348 2832.16096081591 23 26 17
144.098375676434 219.879726939924 2842.62480963744 20 23 14
144.639997003763 220.83730296807 2851.86482108401 19 22 13
141.915097203511 221.615590595622 2858.70638424877 20 23 14
118.564850256023 221.30042932533 2850.76607330405 24 27 18
127.401205500678 222.689539707874 2865.87527962407 24 27 18
132.157541598413 223.854322625955 2877.98427634144 22 25 16
120.334330375317 224.154095571344 2878.34430548701 22 25 16
106.814643004179 224.372122490698 2877.56722391762 23 26 17
98.2684808458822 224.849596930001 2880.31514364983 24 27 18
93.8934090403105 225.539976830039 2885.9745260982 20 21 13
82.8105394027183 225.893787978879 2887.00864544195 25 26 18
54.8810306635974 225.415871353719 2876.55444204803 18 19 11
37.8064712408994 225.490352695173 2873.66064183736 33 34 26
15.6092612545891 225.323795468172 2867.3872031679 8 9 1
1.80388787605379 225.576960486828 2866.88861863134 13 14 8
4.93609738801704 226.650432596466 2877.78973627757 15 16 10
3.00373362468642 227.475669881403 2885.25460746269 17 18 12
-8.29116266616037 227.855510104036 2886.49542532171 18 19 11
0.89740603022026 229.200070962483 2901.26146287771 19 20 12
-8.69036235381149 229.660181707848 2903.6290321765 23 26 15
-32.0314359170082 229.489264221672 2897.07520207499 27 33 21
-51.1509947249773 229.524998594533 2893.38368679215 10 16 4
-65.1575958707924 229.802882913541 2893.08127090139 25 31 21
-72.4960937754209 231.299565637596 2905.8152738635 23 30 22
165.765704157981 193.043765185272 2664.95293605084 24 25 19
189.207708717535 195.646736173518 2693.71932202893 21 22 16
208.098100237728 197.921239482827 2718.5522806715 19 22 13
224.755599823748 200.02606684642 2741.37620840644 22 25 16
222.643323812093 200.887770596433 2749.01468322812 23 26 17
217.392831564492 201.543391020008 2754.13159923425 23 26 17
218.467483658447 202.604672598632 2764.24354709057 24 27 18
224.329056790324 203.964825588312 2778.05997011881 24 27 18
212.768411402207 204.212467453754 2778.16731030165 24 27 18
197.195517361418 204.213754854852 2775.21006151819 25 28 19
194.346164388145 205.017360147563 2782.17180442567 24 27 18
185.907479520071 205.472639062506 2784.81627810868 21 24 15
171.838500670517 205.584687477342 2783.18306751435 28 31 22
172.202561404345 206.584533372054 2792.59281394529 24 27 18
174.206989713389 207.67836014655 2803.19391726939 23 26 17
172.206949874357 208.524866342677 2810.72284826233 22 25 16
171.843450864722 209.465857954013 2819.4468615935 22 25 16
175.56363298942 210.644079188412 2831.16554118627 22 25 16
163.050372389359 210.860243489316 2830.80658540938 22 25 16
153.766108734219 211.270888564082 2832.88008103028 25 28 19
151.005411431949 212.062506579418 2839.75555926024 25 28 19
141.699909488226 212.47565387574 2841.8501128304 21 24 15
129.089270509346 212.70359132925 2841.58577731439 20 23 14
120.562649812574 213.168761833908 2844.31611060259 22 25 16
105.417290805777 213.264662491282 2842.33723873001 23 26 17
97.6733564393175 213.781398626366 2845.69964086204 23 26 17
104.018210295695 215.079587076142 2859.04531731859 22 25 16
109.587075956383 216.325181211608 2871.75242562364 22 25 16
93.5425603277107 216.383602110075 2869.25505974283 22 25 16
95.8229743506904 217.441884647559 2879.58735859588 21 24 15
79.7222742548236 217.507174728854 2877.14476945934 21 22 14
63.5721277856289 217.578580373525 2874.75037742487 19 20 12
44.0086794016636 217.478266359359 2870.10284962735 21 22 14
30.2809691949331 217.695421686719 2869.53246662977 24 25 17
22.4295154075755 218.225004727303 2872.99973836916 19 20 12
14.5674330048009 218.755853962709 2876.47737733774 12 13 7
13.4848023413743 219.635867357171 2884.50760226794 14 15 10
7.3181489390195 220.253850224869 2889.1225954987 16 17 11
4.55922599372904 221.044161002128 2895.99650497516 16 17 9
3.52200398756342 221.918413058311 2903.98248996072 17 18 10
-18.9070262543312 221.727042899633 2897.94291957246 21 24 13
-32.8283537923655 221.967972853171 2897.56128756768 14 20 8
-61.4134377401903 221.498841740266 2887.75644371032 21 27 15
-65.0956254761792 222.254815171807 2894.13533449929 22 28 18
-79.1397399303402 222.510936894098 2893.87338638056 15 22 14
-42.9853316925253 225.16839569213 2925.59546817067 19 26 19
-34.423130653582 226.488047003155 2939.56993253043 18 25 18
115.984337401204 181.951757391222 2625.33734772013 25 26 20
186.24440627716 189.004162329512 2701.89476046623 19 22 13
209.909152258327 191.679523064761 2730.42959958893 23 26 17
210.906008134266 192.772777000451 2740.61407473937 24 27 18
193.797467423583 192.627181025276 2736.36929862159 23 26 17
194.023226648094 193.664387819302 2745.91119641313 23 26 17
187.144553938497 194.219183789444 2749.8256650197 23 26 17
184.231133622134 195.039519464026 2756.84855500282 23 26 17
188.497343546465 196.332613077125 2769.4249521491 22 25 16
203.189143105396 198.301809815418 2789.97016726336 23 26 17
196.372272108546 198.84848299803 2793.82446640002 22 25 16
180.724653117092 198.824105919031 2790.94555163815 25 28 19
173.872601261852 199.374985703642 2794.83416415333 23 26 17
168.625918674928 200.02964673724 2799.9474389075 20 23 14
180.348352543458 201.760527766488 2817.80818805048 19 22 13
172.714386747073 202.256641314251 2821.06443777619 20 23 14
174.000683507689 203.312538541507 2830.96735299661 21 24 15
159.041940799787 203.353718739986 2828.81125604046 23 26 17
161.98484319094 204.506870014433 2839.88858191036 24 27 18
151.066246439528 204.804192620314 2840.76792483171 23 26 17
150.776981687974 205.752197044336 2849.41718595656 23 26 17
134.079963483321 205.705807178367 2846.16634644696 23 26 17
116.505901521307 205.616671480551 2842.37549500908 20 23 14
105.478528736975 205.927257396459 2843.36089382769 22 25 16
101.871831180552 206.680591330765 2849.66521186895 21 24 15
89.9801064805858 206.946779808788 2850.09823967947 20 23 14
89.6966065056684 207.893652080435 2858.74194362753 20 23 14
83.6046674281312 208.500655050723 2863.2847050953 20 23 14
97.5539444811644 210.256896955975 2881.7645741883 21 24 15
94.0138334605263 211.00160639093 2888.00370767043 20 21 13
61.1160520658527 210.086474578284 2874.04556109152 23 24 16
40.7062209257028 209.894366266896 2868.83516172205 27 28 20
26.9709293525615 210.086000342865 2868.27607916319 25 26 18
23.3359657246188 210.84232101426 2874.60768655088 18 19 11
26.4840832860802 211.968930885353 2885.48515353085 10 11 6
6.7564263630091 211.843558157359 2881.00439090708 12 13 8
2.27568762442054 212.553207533654 2886.76585416181 14 15 9
-9.87340863799746 212.850899989664 2887.45013730631 14 15 7
-25.470696627472 212.970404491476 2885.91654895636 15 16 8
-40.2568195071953 213.140775597852 2884.98719075898 18 21 12
-55.084651042062 213.316331031899 2884.09848363136 20 26 16
-73.3954527303062 213.318016545063 2881.02580229732 14 20 10
-88.3140990217828 213.504814231275 2880.22561396554 25 31 21
-94.6323904756308 214.139372158448 2884.98907407849 17 24 16
-68.0413251122114 216.447067850426 2910.6720376865 21 28 21
1.22822301093883 220.882080149812 2963.09384474278 23 33 25
164.35139866941 178.855013953491 2675.5396758164 21 22 16
177.698694961612 180.906086831417 2695.99065413254 18 21 12
176.23152274361 181.864591227328 2704.39079573328 23 26 17
192.090326534614 184.066439930414 2726.57692901223 24 27 18
187.552310163752 184.788735194397 2732.39340074585 22 25 16
181.438117664049 185.39807181153 2736.95791527881 22 25 16
172.943350924763 185.839942108152 2739.65972303491 22 25 16
163.639692287036 186.227927955069 2741.7561650262 21 24 15
193.337815718559 189.333658275399 2774.15486578029 20 23 14
172.118023880292 188.886538389045 2766.95230347946 23 26 17
191.632859234004 191.250543950877 2791.15195177053 22 25 16
178.38010486382 191.356970306566 2790.12629629977 23 26 17
161.872878347035 191.25022448582 2786.69557358024 22 25 16
160.627288760521 192.180022608679 2794.88026096893 18 21 12
171.521879440789 193.916643212334 2812.14531301131 17 20 11
179.255361578621 195.428485542332 2826.91463958392 18 21 12
167.566670660272 195.648881563039 2827.1528199531 20 23 14
155.84806714612 195.872961792795 2827.42049728961 22 25 16
149.809649773726 196.471699054444 2831.9113325811 23 26 17
151.945051740006 197.598229670863 2842.37720567187 22 25 16
145.100488286271 198.142638800293 2846.25967629566 24 27 18
142.356961028298 198.949141620681 2853.11590445012 24 27 18
137.155475657193 199.597942662798 2858.18516380503 19 22 13
127.827448402784 199.987642573744 2860.30521301301 21 24 15
115.171540953336 200.173382036844 2860.09206660202 21 24 15
100.823110192259 200.260719697614 2858.74034596755 19 22 13
91.4206776883786 200.659543288187 2860.93327005429 19 22 13
91.1649193564585 201.619582645225 2869.5471422093 20 23 14
99.2849919499692 203.082335292656 2883.9398341782 21 24 15
84.8667722420533 203.178146630531 2882.65616259383 23 24 16
57.8215183918962 202.527691257636 2872.76629149277 24 25 17
37.4043456982531 202.288426758827 2867.57015205835 27 28 20
34.6188629221227 203.099524150916 2874.46702574488 23 24 16
41.9842140669333 204.501451031875 2888.20124797318 16 17 9
55.3358920162537 206.239890687112 2905.86026365737 10 11 6
18.7002265795209 205.083175934228 2889.9812840865 12 13 8
-8.72032184311999 204.479274886036 2880.45754317691 15 16 10
-24.3048198028539 204.565412288314 2878.9161857811 14 15 7
-29.680701251261 205.235181514758 2884.15552393034 14 15 7
-56.4665040675996 204.70668392837 2875.40689812743 17 20 11
-68.7556696838958 205.00070975017 2876.23081413787 18 24 14
-94.8395993633744 204.539362933232 2868.19254023979 15 21 11
-62.3837013752047 207.29914204743 2897.90386152891 17 23 13
-103.210821327794 206.045926230739 2880.53334595559 16 23 15
180.758729404227 171.453371566868 2680.17899518015 17 18 12
205.015563084052 174.413486641781 2709.5003673741 18 19 13
206.723088590159 175.619839532701 2720.37966825968 19 22 13
189.635110974436 175.391558548402 2716.12703133485 21 24 15
192.154096789801 176.653943123938 2727.60916799695 21 24 15
189.981590100996 177.55667352815 2735.30105120785 20 23 14
194.149469709177 178.928092092306 2747.96385326008 21 24 15
186.478370840474 179.414299440404 2751.25844080752 21 24 15
178.796452231101 179.901774964389 2754.56358508155 20 23 14
154.381086823501 179.169855490246 2744.90805487415 20 23 14
168.189862988044 181.227795817555 2764.9000996911 22 25 16
177.291354380462 182.928041651134 2781.1169455309 21 24 15
172.827358275881 183.643563257267 2786.86091518955 24 27 18
169.172309767358 184.415611926217 2793.21048041139 25 28 19
163.107867937573 185.015735610681 2797.72695346109 22 25 16
170.775899727937 186.579532268466 2812.55359436931 20 23 14
163.92846843832 187.119701661414 2816.43920158573 21 24 15
164.38096763738 188.166291127752 2825.75421863385 22 25 16
157.537488799914 188.705860760156 2829.6363274932 23 26 17
153.949985280609 189.46896508168 2835.91980367089 22 25 16
147.918221451446 190.064578516457 2840.40449359584 23 26 17
140.244220187387 190.550053463214 2843.70207151337 24 27 18
139.953652025851 191.531539589736 2852.3476783626 24 27 18
138.863660851249 192.45521684628 2860.37842104746 20 23 14
132.841486794391 193.049385462577 2864.85380173029 20 23 14
119.370043841121 193.155621413917 2864.04533539703 20 23 14
105.860804080149 193.266519057987 2863.2737128564 19 22 13
104.78231574785 194.18853243649 2871.29327896927 16 19 10
102.057973033086 195.000909231601 2878.12958841783 19 22 13
98.5112029392492 195.758378926889 2884.37378633917 21 24 15
79.9058189766995 195.560052858583 2880.20628186492 25 26 18
54.5275675625696 194.946912798917 2871.48969399248 24 25 17
34.1027582136206 194.660534981765 2866.30776335556 22 23 15
37.2097685900417 195.847440806149 2877.21713866239 16 17 9
50.4941905390805 197.654212507753 2894.93284110248 12 13 5
48.6232305188188 198.517284406977 2902.33114552355 11 12 7
1.78890667010378 196.64404362356 2879.68156141544 14 15 10
-12.9107593513158 196.745512257257 2878.67653403507 17 18 12
-9.74864586796675 197.925375635117 2889.53223201266 16 17 11
-31.3267451664481 197.625152545248 2884.08067235193 15 16 10
-33.2799308723493 198.498317567837 2891.55913633514 17 20 11
-59.2502658097009 197.958683894183 2883.41963194212 12 18 8
