ply
format ascii 1.0
comment KinectMotionCapture
element vertex 792
property float x
property float y
property float z
property uchar red
property uchar green
property uchar blue
end_header
125.359059106287 -105.835083490255 2862.61234884046 16 19 10
131.545090829833 -102.869075880001 2875.86957292117 18 21 12
138.606627543176 -99.7469338268601 2889.65090247793 15 18 9
51.9659717713141 -115.203146139883 2837.6866181595 9 12 3
25.9485197357172 -118.573606914592 2828.59538743309 7 9 4
-5.94943746590992 -123.06844134715 2815.59038845198 7 9 4
-26.3745063529441 -125.277148075357 2810.69283491375 7 9 4
-73.4353801226386 -132.657819922566 2787.6653048145 8 10 5
-79.9131461491109 -132.092414381548 2792.59734622801 11 13 8
-75.5506593673312 -129.4283294288 2804.87550711034 12 14 9
-25.9946647881852 -118.067723378647 2847.50968895952 12 15 8
-75.0627176742467 -125.727166173529 2823.68236314127 13 16 9
-85.695477697243 -125.970424628423 2825.77467292828 13 16 9
-60.9930291521286 -119.473599945732 2851.29700020269 15 18 11
-52.1820956486181 -116.037771664823 2866.12894667593 19 22 15
-20.4702294581476 -108.29295986799 2895.84231688555 23 26 17
-46.2269390773797 -111.426968143495 2887.87412682681 19 22 13
-77.1730974977638 -115.505517279228 2876.69660727811 22 25 18
163.439549837713 -141.654314912424 2706.81203083894 27 29 24
168.115251207112 -138.73106845814 2720.15810820857 10 12 7
195.510253919128 -130.859660358989 2751.30565815363 10 13 6
145.52997023473 -138.005712873144 2731.14213077953 10 13 6
141.657453611426 -136.967255610278 2737.66826998028 11 14 7
112.531676777222 -141.364807448219 2724.73023306639 12 15 8
150.717645349383 -129.454235759993 2772.90542118439 13 16 9
162.835348983569 -125.043886787298 2791.39488457475 17 20 13
176.633725142801 -120.306766843544 2811.00093733146 20 23 16
174.543234939573 -118.95354928379 2818.54479515491 20 23 16
166.060460208789 -118.949027662606 2821.29967245452 18 21 14
163.987250401581 -117.597678985004 2828.82664680923 15 18 9
148.245877196418 -119.101714974831 2826.25918646635 15 18 9
130.034069655539 -121.102034221281 2821.96718859201 15 18 9
81.8333352934415 -129.286337984099 2795.93926756227 14 17 8
86.9405449985665 -126.41535239196 2808.86457490826 14 17 8
133.549123208059 -115.041307507756 2851.58944205209 14 17 8
129.081834085134 -114.195233935397 2857.31738620305 11 14 5
115.636539758285 -115.179487945517 2856.64412783726 16 19 10
99.69765983212 -116.657032916593 2854.26887922702 14 17 8
20.7923522452198 -129.0321164878 2816.84012862249 8 11 2
1.29683997681163 -131.137364140277 2812.4211297321 8 10 5
-28.1790969859115 -135.215315044138 2801.20081728337 8 10 5
-51.9689412072424 -138.124897726381 2794.08014943967 8 10 5
-78.3335813503387 -141.517253416131 2785.33657985329 8 10 5
-60.691072941605 -136.186227516174 2806.70588637343 13 15 10
-57.1183294721842 -133.659045715655 2818.37159894788 15 17 12
-68.5500388556663 -134.086813973635 2819.86763841109 14 17 10
-42.3004656609871 -127.148728407244 2846.6225863493 15 18 11
-53.6974789995637 -127.580813388452 2848.08447229483 16 19 12
-32.2896213762869 -121.648133229799 2871.29378225904 19 22 15
-28.4756790611027 -119.151533578464 2882.72483868436 22 25 18
-38.9949447040485 -119.424829737778 2884.70888643382 23 26 17
-90.2222157954173 -127.488453357693 2860.25127748454 25 28 19
-96.6310469752108 -126.933330307744 2865.11638532394 15 18 11
-63.8743609524846 -118.932175992041 2895.17159384223 12 14 11
144.850988449498 -153.4218370778 2693.00179320459 12 14 9
144.801681985825 -151.499883098228 2702.6857322011 10 12 7
144.780435497659 -149.581319102357 2712.34230826523 10 13 6
158.891527808338 -144.546689310676 2733.01110459488 10 13 6
149.535070556957 -144.715960580399 2735.24200090651 10 13 6
149.609568392005 -142.808994927172 2744.80521567231 12 15 8
151.290981117587 -140.560312011662 2755.55639101254 13 16 9
126.102270189321 -144.174284226036 2745.67786115795 13 16 9
148.414804465068 -137.452520614674 2772.12325343812 13 16 9
180.407027688521 -128.686527297183 2805.65836058191 16 19 12
179.101323906295 -127.149106159824 2813.81293583941 18 21 14
168.226371531488 -127.669780225654 2814.76983880046 18 21 14
174.948433090645 -124.423700830052 2828.8699543186 17 20 13
192.971851374378 -118.793753730577 2851.23374059696 15 18 9
183.740315702421 -118.977122223167 2853.34267149693 16 19 10
138.987399264225 -126.651270125908 2829.48392844218 15 18 9
93.2359018221667 -134.471068989714 2805.22073323273 14 17 8
93.5053878912488 -132.586856668001 2814.59368473213 13 16 7
132.000602869872 -122.736943867255 2851.43040085492 13 16 7
112.05105228314 -125.104075173112 2846.08406569843 11 14 5
112.4477026901 -123.235685841558 2855.33341760351 15 18 9
107.960951455747 -122.383679600051 2861.07981107291 14 17 8
63.2757432290596 -129.791410156245 2838.53102787147 17 20 11
-52.8859724189261 -148.010967209737 2785.11564367356 8 10 5
-56.027491762352 -146.783030802725 2792.30479615222 7 9 4
-20.9686871302428 -137.860440046203 2825.60575406915 7 9 4
-24.8278988959827 -136.814018668909 2832.11750425702 12 14 9
-34.5167801774169 -136.936326030772 2834.67156129956 14 16 11
-36.7000065893439 -135.557042242641 2842.30399281396 16 19 12
-42.2186265960711 -134.845071849629 2847.67883514767 17 20 13
-33.4588798026418 -131.31010641757 2862.54695835306 19 22 15
-53.2529358876785 -133.421176199114 2858.425616236 20 23 16
-68.04976444977 -134.530466477715 2857.69568449133 21 24 17
-86.2705162624362 -136.295493391266 2854.79503946676 19 22 13
-88.4442204196754 -134.916954730533 2862.41778752899 20 23 14
-81.2568900195747 -131.727598636083 2876.06426788928 19 22 15
-87.633770622519 -131.178714795012 2880.8985704859 14 16 13
158.927463427349 -157.894799847099 2705.19080433583 13 15 10
141.760962655129 -159.841145262199 2701.27007123874 8 10 5
126.099988563736 -161.427391485971 2698.63492402404 10 13 6
131.544788022769 -158.254883492807 2712.59734419244 10 13 6
146.470736990505 -152.980195690885 2733.83840466448 10 13 6
165.577071391596 -144.922980895497 2767.5209496679 11 14 7
179.199063602423 -140.033375852635 2787.27995490375 12 15 8
190.53519380941 -135.679923770516 2805.13669443697 12 15 8
198.773021308544 -132.034935498594 2820.5068298893 14 17 10
182.366133636089 -133.80025943431 2817.22194417712 15 18 11
169.901043551667 -134.688500745314 2816.97804719125 17 20 13
193.448537597194 -127.753059597698 2843.58243403514 17 20 13
217.136765173298 -120.83555179646 2870.04972094351 17 20 11
160.473649272896 -131.261701264336 2837.16939767356 16 19 10
143.905719155797 -133.005486599987 2834.04090825188 15 18 9
122.431759417976 -135.778691099479 2827.43453272257 14 17 8
147.904191392104 -128.536391063356 2854.91623061527 13 16 7
76.002722189402 -141.984006675366 2812.10799404442 12 15 6
111.31452082112 -132.685513061806 2846.51907621941 10 13 4
105.176440128396 -132.171642898598 2851.12142198137 15 18 9
95.7612286624996 -132.343310833417 2853.41101632262 14 17 8
78.9437027631221 -134.05371246364 2850.52578294736 17 20 11
29.1774911004077 -142.597444449005 2824.68861803574 9 12 3
-35.6351000279815 -154.187816916585 2788.73662772174 7 9 4
-80.8955965589351 -161.649968382277 2766.76715769742 7 9 4
-35.2391957804103 -150.359709558593 2807.6157781717 7 9 4
-24.2073554931341 -146.240787734943 2824.39243624548 6 8 3
-17.2572639305488 -142.980656814406 2838.26437563206 9 11 6
-6.91230467348269 -139.050025462815 2854.33369881264 11 13 8
-30.7663475859323 -142.068433616375 2847.29320341737 15 18 11
-42.1364961039146 -142.540773889543 2848.73469975549 17 20 13
-52.6931014613341 -142.840896364505 2850.75979131114 20 23 16
-84.3157704098285 -147.350741816405 2838.90055496498 20 23 16
-93.2777768876676 -147.30213978376 2842.1248014082 20 23 16
-97.1805027095138 -146.243495579858 2848.67795516861 20 23 14
-82.4282843651982 -141.495284280684 2867.33518923767 20 23 14
-73.5287389950008 -137.931622667334 2882.06024910666 21 24 17
-66.2652532194978 -134.711029551378 2895.62682707724 14 16 13
204.0398409136 -157.036164836351 2732.53442140444 14 16 13
239.105724180855 -147.015824694892 2769.9168312055 10 12 7
192.514494628843 -155.83798617712 2742.38492319885 9 11 6
146.499464922157 -164.454587068793 2715.6677056222 10 13 6
138.674938666012 -164.288447583663 2719.16195472381 10 13 6
152.04682770357 -159.30228689273 2739.15470738331 9 12 5
148.190160871438 -158.248535139518 2745.66284698813 9 12 5
131.712301807497 -160.043081280885 2742.45241810409 9 12 5
174.527923798565 -148.502254143497 2784.66803070368 11 14 7
208.855804116513 -138.943872558664 2820.01774698057 12 15 8
195.668214102514 -140.042949516145 2819.10555520404 13 16 9
183.239569690893 -140.959992086573 2818.82972393987 14 17 10
172.375053053801 -141.518984681575 2819.78192752097 18 21 14
191.922517107472 -135.368915390407 2843.38959646489 20 23 16
196.335039162141 -132.582291292974 2855.59996034953 17 20 11
175.038575245279 -135.432285445626 2848.82867832333 17 20 11
164.960912548868 -135.812304934658 2850.38998148032 15 18 9
152.434696747899 -136.715600640568 2850.20934610956 14 17 8
144.738548737749 -136.563065387033 2853.57812441461 13 16 7
106.963226017879 -142.882582874704 2835.34283556748 12 15 6
94.2863844473791 -143.76593156559 2835.30882565242 10 13 4
115.869920484505 -137.317442749571 2859.68435737809 15 18 9
97.4769999643761 -139.421742288567 2855.58757561131 14 17 8
66.7166089703297 -144.127388534369 2842.9010237814 17 20 11
26.7913048471522 -150.728265926463 2824.00880232787 9 12 3
-37.2007464101225 -162.338479577825 2788.66184562806 7 9 4
-46.9354363153296 -162.481295684899 2791.26476033676 7 9 4
-40.9535317258842 -159.33538231341 2804.69775784425 7 9 4
-39.8970841544584 -157.232775042876 2814.67387557807 6 8 3
-49.6251022321283 -157.376063684656 2817.27023490381 8 10 5
-14.3365298590341 -148.217609803021 2850.30816959047 10 12 7
-20.6532824025554 -147.68164444233 2855.08433563899 12 15 8
-42.8920381595761 -150.407599510571 2849.2304304172 14 17 10
-58.4888445938851 -151.751878223042 2847.91304823766 18 21 14
-61.505354179876 -150.522099087574 2854.97779182475 19 22 15
-75.4769519387732 -151.516295106726 2854.82862997178 19 22 15
-83.5670535584936 -151.310572353657 2858.58074894563 15 18 9
-88.2777800952996 -150.421573595723 2864.54408572355 21 24 15
-77.6932441116749 -146.469397847698 2880.37265926267 19 22 15
-84.0623860014231 -145.925928702879 2885.19973965044 20 22 19
190.96661505292 -165.635427405685 2732.617188491 5 7 2
162.966608349139 -170.21929138938 2720.00569136715 11 13 8
145.014559086068 -172.426919762726 2715.48638988144 10 13 6
156.77359843471 -167.732723359338 2734.29005968308 10 13 6
168.618801785814 -163.049435228467 2753.00944175247 11 14 7
156.929300568242 -163.804338711185 2753.39291344343 11 14 7
138.894842559416 -166.000428260592 2748.95373962733 12 15 8
143.745685718467 -162.956423971841 2762.10805065557 12 15 8
208.138489220853 -146.406552062469 2820.41612272967 12 15 8
194.949356757237 -147.532073737029 2819.50937114604 11 14 7
175.345304044222 -150.089799308433 2813.84812124276 10 13 6
170.854058164995 -149.22952930937 2819.59809442319 15 18 11
186.391774165721 -143.890662116378 2840.22183765993 18 21 14
177.140973830044 -144.110976721589 2842.35569711706 17 20 11
190.40776483028 -139.326152163747 2861.06566175608 16 19 10
170.685545233179 -141.867698349841 2855.51936200945 15 18 9
158.173323220425 -142.796655312039 2855.3286233226 15 18 9
152.923062618157 -142.119872169023 2860.44218146079 15 18 9
141.98527434985 -142.686654959318 2861.46829624231 16 19 10
138.352220826177 -141.653207840462 2867.75704770031 13 16 7
121.663869979673 -143.455256198849 2864.75708693439 17 20 11
98.3743695749069 -146.665574282229 2857.18401884535 15 18 9
67.6171162517929 -151.454760422348 2844.50703626371 17 20 11
-8.48743494373583 -165.93100573078 2800.35657815175 8 11 2
-6.61953980598007 -163.628967725388 2810.914349999 8 10 5
-18.7609600540153 -164.321784087921 2811.73740751854 9 11 6
-26.7918821878563 -164.132352431136 2815.433168205 8 10 5
-43.1341518983932 -165.695482832562 2813.47114110306 7 9 4
-54.5338092757852 -166.201135468155 2814.94686372741 7 9 4
-64.0371595956557 -164.407430893388 2826.952878805 10 13 6
-38.6199333071371 -157.232633744418 2853.08212649713 12 15 8
-44.9693674340841 -156.694374680171 2857.89074467473 15 18 11
-66.4722911764897 -159.28599152169 2852.70320157131 16 19 12
-65.2698317446747 -157.179383212128 2862.53373601748 17 20 13
-75.027670966318 -157.331060003128 2865.16094794482 15 18 9
-78.8715713782455 -156.26823126453 2871.65473088919 20 23 14
-102.243672452401 -159.183258264968 2865.53728975252 17 20 13
-103.56061080051 -157.598810149084 2873.69573269114 19 21 18
142.053212026105 -184.774483869664 2694.74562110042 13 15 10
118.609042659106 -188.313025751387 2685.95774359363 9 11 6
111.488047648419 -187.96819860156 2690.14421296931 10 13 6
170.170430698249 -172.156535404496 2745.72979230331 10 13 6
172.623514287265 -169.624049970465 2757.08965049818 12 15 8
173.702260781573 -165.490504353103 2776.66249417924 15 18 9
161.23134674467 -166.450556156839 2776.43533186573 13 16 9
185.212360651169 -158.994145025284 2803.94913726069 12 15 8
200.591735097777 -153.564920622544 2824.71709908724 10 13 4
166.654827763838 -159.455277979624 2808.27509029466 9 12 5
162.142149080645 -158.589241360388 2814.04515642033 12 15 8
176.857158840261 -153.358795473479 2834.08531226228 15 18 9
209.333663853375 -144.145291668721 2867.07337857536 17 20 11
188.069684558685 -147.106630577318 2860.28629554544 16 19 10
169.149232805033 -149.514542112678 2855.34132449465 15 18 9
158.250776100609 -150.105256491474 2856.33191953013 15 18 9
144.083264499086 -151.414856719915 2855.0066724637 16 19 10
166.441177909782 -144.602441915954 2879.97669506764 17 20 11
146.575616284884 -147.172974685364 2874.57702027795 14 17 8
134.806049307548 -147.935755356742 2875.04116269698 17 20 11
115.640512791066 -150.31103048313 2870.3347407917 15 18 9
57.0326770295266 -161.287108097195 2838.04958507223 17 20 11
-6.53685383589231 -171.336680979484 2811.97143826122 8 10 5
-22.8089259221456 -172.943776843014 2809.94620195676 9 11 6
-16.7712158532001 -169.728547046545 2823.3138767028 9 11 6
-25.6195334123643 -169.726372796652 2826.43175253318 7 9 4
-23.666389122059 -167.410003603733 2836.90309041047 7 9 4
-40.8575733483247 -169.183114361779 2834.3981736592 8 10 5
-74.8193053062458 -174.496342217159 2820.72967307433 10 13 6
-67.8598755344915 -171.114351774111 2834.57399085495 10 13 6
-73.437274846254 -170.392715758121 2840.00577333263 11 14 7
-75.6470191254781 -168.96465519496 2847.65699045322 13 16 9
-75.3093415126562 -167.009518334049 2856.95208196771 14 17 10
-82.5537751279573 -166.642954506475 2861.25757718905 21 24 15
-97.4320720195112 -167.858052838299 2860.62452092591 18 21 12
-112.352204416868 -169.067746164315 2860.03187123898 23 26 19
-138.381130211144 -172.551530716899 2852.38569264715 20 22 17
132.023557307921 -194.874860272471 2687.77721306609 9 11 6
106.995773732805 -198.846657499515 2677.79176635149 9 12 5
96.7197771209132 -199.251502505481 2679.55368721902 9 12 3
151.445821787642 -184.147206290174 2732.08729531127 11 14 3
167.203682284626 -178.409686964942 2753.85109619955 14 17 6
187.003617491659 -171.753948674112 2778.54989137439 15 18 7
142.209389975415 -180.371711374705 2753.45438952614 16 19 8
170.012635919034 -171.868983522004 2784.10323912341 19 22 11
186.082616218993 -166.170680881753 2805.56255880027 19 22 11
191.127115755755 -163.080239011469 2818.51770272841 16 19 8
203.396308377493 -158.330530878748 2836.80657817907 13 16 5
173.405692224314 -163.387153983492 2823.40750277929 15 18 7
186.54542838228 -158.461445653891 2842.22281219496 16 19 8
179.703843209815 -158.155085839268 2846.13750892618 14 17 8
169.635968863054 -158.583927148274 2847.69630795094 14 17 8
161.1591589747 -158.642045273647 2850.45452020103 14 17 8
161.563270927565 -156.678847660812 2859.68211221617 14 17 8
151.457167466333 -157.102191441 2861.27806078436 14 17 10
125.889835525035 -161.000692313445 2851.81756040417 17 20 13
130.363416630138 -158.122430987005 2863.95408564866 12 15 8
121.004762246182 -158.353738876341 2866.1966705727 13 16 9
107.535559061406 -159.494047204455 2865.57021881633 17 20 13
98.9503191488286 -159.536979259407 2868.4335213468 12 14 9
-19.6409779586637 -181.948653070634 2803.88057161882 7 9 4
4.53732920058236 -174.702172363519 2829.81224236261 8 10 5
-1.78263485921315 -174.172906179467 2834.59292547165 8 10 5
-17.235785537042 -175.632003858066 2833.14986119535 8 11 4
-27.7428744849226 -176.001789636113 2835.13607843011 11 14 7
-39.9400352776209 -176.72913900207 2836.01925325534 13 16 9
-63.0329490013013 -179.793260292487 2829.64661102345 12 15 8
-70.2887718038978 -179.430508902444 2833.96397935275 14 17 8
-70.8336760776835 -177.630293409178 2842.74113787836 15 18 9
-64.6213135195888 -174.398679590132 2855.93262072747 13 16 7
-89.5660421510538 -177.799119137395 2848.61440928793 11 14 5
-114.598785061283 -181.188050304546 2841.38189639473 9 12 3
-97.3472213265612 -175.637804051935 2861.69010676529 20 23 14
-91.0324774611348 -172.41909702345 2874.78183108075 19 22 15
-121.269028870812 -176.863713569816 2864.37067520164 15 20 14
-188.306289259793 -188.939326598202 2830.69953269304 22 27 23
128.992647974971 -203.332217378607 2686.36863157071 7 9 4
99.9262905838041 -206.271852050726 2683.07515165912 11 14 5
92.7696067801316 -205.932314586667 2687.29784234705 12 15 6
146.077332023434 -191.017754501605 2738.43374903314 13 16 7
166.611677297561 -184.079336139848 2763.77906916545 15 18 9
204.63799774493 -173.004457660095 2802.31692657264 16 19 10
139.234639613632 -186.6531616692 2761.58782201572 20 23 14
164.745739876896 -178.612553633187 2790.33004146967 20 23 14
208.695821306342 -166.266850881493 2832.71706812998 18 21 12
207.457985116233 -164.655018097931 2840.79291401444 15 18 9
203.843725675233 -163.608090695408 2847.06134813248 15 18 9
181.016413802624 -167.056559392319 2839.06451855528 15 18 9
156.499012324208 -170.867909670378 2829.96578804454 15 18 9
150.399099859777 -170.371485289887 2834.53281067064 15 18 9
166.077523469075 -164.838479828866 2854.98847346278 15 18 9
163.258605194455 -163.602563130651 2861.85609882765 15 18 9
124.78563430498 -170.552796662966 2842.9898951643 16 19 12
121.093830293574 -169.494501376896 2849.33365201885 12 15 8
106.822254903395 -170.848845872255 2848.11835501601 8 11 4
99.0403257350465 -170.715452704574 2851.57514447116 10 13 6
92.8844682223091 -170.21047185674 2856.19645671511 11 13 8
102.311416717587 -166.19441678562 2871.74818108867 27 29 24
47.6741900031605 -176.579386658374 2842.51767085359 0 1 0
11.7614950199845 -182.696128087278 2826.65419855344 9 11 6
0.489667650957148 -183.274004564957 2828.01365874212 10 12 7
12.3772177081274 -178.70303695376 2845.29068151242 10 12 7
-6.36265251499957 -180.932469946723 2841.55692059943 9 12 5
-25.1633718140658 -183.153743749697 2837.88271563563 12 15 8
-49.8622863738234 -186.648150773205 2830.33429554103 14 17 10
-61.2767455865879 -187.206883310628 2831.83222395103 15 18 11
-59.3132994952863 -184.841984165038 2842.28615928183 13 16 7
-34.6429351307758 -177.560721311943 2867.72440700286 10 13 4
-23.2979709128527 -173.20960435149 2884.15581004487 11 14 5
-97.0726720770481 -187.225640423454 2844.7089799587 12 15 6
-97.6033568457115 -185.410368886878 2853.46945518691 14 17 8
-84.5510688057107 -180.69811376379 2870.98624084942 13 16 7
-67.1660683034383 -175.091879281751 2891.1533336594 15 18 9
-97.3473201156456 -179.621230656678 2880.70012607517 9 14 8
-171.154167519498 -193.341646675043 2842.65809664109 11 16 10
117.19862967725 -209.805136702212 2697.62005141944 17 20 13
117.918520305885 -207.553986678118 2707.90842061856 17 20 11
151.653881000569 -197.243708872424 2743.73572554932 16 19 10
187.158746616486 -186.574887002698 2780.58637407257 16 19 10
180.249706425736 -186.271492847955 2784.56849295736 16 19 10
167.79543773067 -187.305513023082 2784.33539622434 15 18 9
121.997171543718 -196.355767248441 2758.88393235929 16 19 10
180.437530568989 -178.38002152252 2821.47487910537 19 22 13
198.328179497277 -172.182906967597 2843.88668021416 17 20 11
180.293317409335 -174.548864249914 2839.47301403134 16 19 10
157.380293689068 -178.045024682392 2831.56834640361 15 18 9
148.868215395089 -178.119601113831 2834.3640132323 16 19 10
159.701998542781 -173.65079280683 2851.28563190407 16 19 10
155.250261015007 -172.782340377015 2856.99482550578 17 20 11
132.970791763839 -176.06609187327 2849.84688213628 18 21 14
134.173570123479 -173.873678196182 2859.66475572856 16 19 12
126.449240171077 -173.7555955697 2863.06661120209 17 20 13
92.5894780455669 -179.650845011248 2847.96562844279 13 16 9
91.3281101387846 -178.019917706853 2856.06201950793 15 17 12
38.4101125886907 -188.201560187028 2827.92873191739 14 16 11
-8.15419361762038 -196.856405774603 2804.59642520945 10 12 7
2.77889748587734 -192.398790014775 2821.42108386665 9 11 6
-7.68786942088218 -192.805649615162 2823.37274021326 10 12 7
-21.4889405168259 -193.955305661294 2823.07721978723 9 11 6
-18.7286039435532 -191.375725221035 2834.12501060535 9 12 5
-35.8941895515223 -193.264162830802 2831.61171930601 11 14 7
-55.6146312359087 -195.702710369218 2827.46534022834 13 16 9
-67.0421487971939 -196.27809006844 2828.9790340567 11 14 7
-55.8777447317529 -191.849458076397 2845.57827931148 10 13 4
-30.3608203137142 -184.286608291592 2871.55150911907 9 12 3
-73.7094670808176 -191.888047572663 2851.95519649035 10 13 4
-36.2538010838613 -181.759464647648 2885.53194700147 13 16 7
-49.3269487052439 -182.708565947834 2885.90085521836 16 19 10
-47.1809879043672 -180.34214464961 2896.173325771 16 19 10
-98.1135781891545 -187.547045205082 2881.21521643872 14 19 13
-110.490304074613 -188.292282159626 2882.27968367529 5 11 7
130.621217524136 -216.271709331052 2699.4170865788 12 15 8
129.781537544347 -214.389634305779 2708.47486293499 19 22 13
103.898827724778 -218.748061729981 2697.97860507583 19 22 13
180.788781528666 -197.590638577207 2767.28497570833 17 20 11
198.258071315049 -191.262035436933 2790.09575871837 17 20 11
172.436049078781 -195.627494322618 2779.5402764388 16 19 10
119.01358847407 -202.648651361895 2767.02748792981 18 21 12
151.825316745219 -192.674267545464 2800.98746201843 19 22 13
173.63972954511 -185.424826619055 2826.43225865128 19 22 13
176.366996520533 -182.816428261065 2837.50862879327 18 21 12
159.064681703734 -185.023439557192 2833.76128735353 16 19 10
151.361414204583 -184.916798542757 2837.14391856489 17 20 11
150.907366955011 -183.081245257239 2845.82563181209 19 22 13
151.286056568765 -181.056964851425 2855.06944057565 20 23 14
152.503222861667 -178.844680920298 2864.86975208064 20 23 16
166.752234762445 -173.577629244295 2883.95033104778 16 19 12
155.848049129908 -174.240978620815 2884.9573504145 17 20 13
123.692056785231 -179.858023777001 2870.95753708204 18 21 14
84.8624278817711 -186.981803886114 2852.47115020721 13 15 10
42.5937212748857 -194.845580072592 2831.84121431499 34 36 31
-43.2881701569716 -210.694764846388 2790.51783501616 7 9 4
-12.5603315454432 -201.632858182528 2821.01369311212 8 10 5
-12.2967345343357 -199.591886678823 2830.36932359451 7 9 4
-19.4743991823856 -199.254510205318 2834.61316796453 6 9 2
-39.9689772766116 -201.934696316359 2829.85432254345 8 11 4
-47.1912039410789 -201.591259826424 2834.14152198673 10 13 6
-59.4349403237935 -202.375804759125 2835.07940054114 14 17 10
-63.3317023907316 -201.277253375431 2841.62073394102 16 19 10
-60.5030392848551 -198.678512262999 2852.59784356323 20 23 14
-21.4479525812585 -188.026514823671 2887.34280386769 21 24 15
-17.6133105436502 -185.261535163458 2898.71330087254 21 24 15
-34.8705739758581 -187.174474764171 2896.29466839149 18 21 12
-78.4492088439284 -194.866568139684 2876.94013598244 19 22 13
-110.310842782276 -199.926510321473 2865.39983730219 17 20 11
-117.60616421552 -199.572725628893 2869.75775362957 14 19 13
-116.376528063381 -197.358989865007 2879.54580564175 8 14 10
127.583751723736 -224.743850182801 2698.01753862566 24 27 20
140.019595415639 -219.480350184821 2717.48189820451 22 25 16
174.478463087504 -208.694565875989 2753.93704183376 21 24 15
165.161966646184 -208.987297282253 2756.14684166653 19 22 13
150.316191218094 -210.657311695103 2754.1314803478 17 20 11
122.009040664551 -215.668043685697 2741.88807251219 16 19 10
141.846746168207 -208.669812559668 2766.49907877466 16 19 10
118.192533205564 -212.488188677858 2757.96113704131 15 18 9
109.554461360974 -212.568493695192 2760.88276401077 16 19 10
163.061498217349 -197.368424821268 2810.36164392669 18 21 12
186.500123717296 -189.639042520467 2836.95679469001 18 21 12
183.652748956058 -188.37488946049 2843.84850444481 16 19 10
174.395928289983 -188.673139006333 2845.99986092922 17 20 11
158.682893684872 -190.527705359783 2843.45606817222 19 22 13
159.052884401963 -188.483251904457 2852.70553350086 23 26 17
169.962355575314 -183.91539418176 2869.5373533839 23 26 17
158.256007602938 -184.792789735911 2869.95565842608 22 25 18
161.143562753723 -182.176499603482 2880.87169363962 26 29 22
173.029051433574 -177.435412418243 2898.12561978932 23 26 19
128.669810696236 -186.046924707596 2875.43106446672 24 27 20
80.8523697899686 -195.40673826361 2850.613514363 15 17 12
-22.7845357210881 -215.781341636834 2796.41527367904 1 3 0
-29.1931079036263 -215.249956705849 2801.28363281395 7 9 4
-34.7786406467736 -214.525909574176 2806.72313554739 8 10 5
-33.7395869152397 -212.26699450574 2816.69342339707 7 9 4
-20.2199796287927 -207.137938282567 2835.10146043677 6 9 2
-67.3345804392675 -215.98933041448 2812.34465389903 8 11 4
-72.9531129561729 -215.260415511062 2817.8162064411 9 12 5
-62.6922085920993 -210.905269065062 2833.90659206941 11 14 7
-60.7332237009728 -208.465654215006 2844.35391448944 13 16 7
-62.9364219841801 -206.982369009084 2851.99046916113 16 19 10
-29.779303917612 -197.516891707201 2882.84852576027 17 20 11
-29.3380800291851 -195.478617305714 2892.02816875821 18 21 12
-44.9312753186777 -197.046240386554 2890.7398730166 19 22 13
-77.5162928843294 -202.394730919427 2878.54364297439 16 19 10
-101.731785712385 -205.836258505087 2871.92427171382 19 22 13
-108.156361038644 -205.301028089935 2876.80795384614 17 22 16
-158.946640016633 -214.572200918512 2853.51178983174 17 22 16
122.910096109123 -231.520209278345 2705.07699997297 20 23 16
174.557285555013 -216.183577931805 2754.96564266956 20 23 14
172.308283858423 -214.688782055169 2762.64631737773 19 22 13
166.139451177077 -214.19503713184 2767.28183697866 19 22 13
148.920009192638 -216.494727893808 2763.46589957588 18 21 12
130.851848524826 -218.986012388405 2759.10382268235 16 19 10
128.582495397016 -217.487605898118 2766.80383517346 15 18 9
129.509259878198 -215.195753414239 2776.88075977306 16 19 10
168.718892906582 -203.376083322574 2815.55073757947 17 20 11
176.992476013636 -199.319045118608 2830.82480422655 15 18 9
186.133444505618 -195.072386527569 2846.62609002942 13 16 7
194.542489986184 -191.032441954697 2861.76782912632 13 16 7
172.441316793541 -194.508648144466 2854.47127985465 15 18 9
189.782841289822 -188.30546289819 2876.01022523673 18 21 12
168.423874336328 -191.575602776951 2869.36310700471 18 21 12
159.955933318687 -191.686495656394 2872.12031242069 20 23 16
147.411074392548 -192.778118504871 2871.98568677626 15 18 11
151.933948417954 -189.74249180961 2884.05000488942 15 18 11
134.463876428297 -192.006593243376 2880.47734885765 18 21 14
85.025151946029 -201.89975989583 2854.51443018917 5 7 2
-2.1461626851762 -218.674851135081 2811.77415928227 0 1 0
-51.3572838164249 -228.2951316345 2786.9618039851 10 12 7
-54.5170577386536 -226.97947760262 2794.15611890373 10 12 7
-37.7937570490441 -220.995924714039 2814.92452191369 8 10 5
-47.5210318336261 -221.243698329099 2817.53524812984 9 12 5
-75.5663527547368 -225.7580628012 2807.79263317364 10 13 6
-62.8616606860906 -220.762544762926 2825.61272063897 11 14 7
-67.6203608334465 -219.842657550958 2831.61913062133 9 12 5
-57.2969594889874 -215.443821603614 2847.64099853502 10 13 4
-41.022221390008 -209.70323553609 2867.47383190078 11 14 5
-53.2566890777626 -210.530846286278 2868.4088716131 12 15 6
-56.2434238366971 -209.236387417733 2875.43448872047 15 18 9
-57.5268567957323 -207.558877662737 2883.54624368481 21 24 15
-81.6670640741997 -211.069071405533 2876.86226158861 14 17 8
-95.700720811668 -212.266714467433 2876.80479460283 26 29 20
-113.176786813284 -214.225545685437 2874.61021906869 22 27 21
-95.7292798581411 -208.33455833356 2894.67315569714 15 21 17
88.7765641282576 -250.298511305098 2669.48008382143 21 23 18
130.022913614115 -237.376185477345 2711.63257515399 21 24 15
128.423992860194 -235.650487377227 2720.05015410406 20 23 14
137.053141714158 -231.290905419705 2736.34333219131 19 22 13
175.664617847228 -219.244042387703 2775.57370961978 19 22 13
172.672753027388 -217.94587041449 2782.60387215821 18 21 12
154.663552850129 -220.487635059095 2778.1907075701 18 21 12
141.350875557223 -221.810518377298 2777.43580779302 17 20 11
167.746282045007 -213.051834632141 2806.61067613507 13 16 7
148.876624126563 -215.785849030275 2801.66346391574 12 15 6
173.077233897894 -207.655849420004 2828.85965128772 15 18 9
190.215787522653 -201.351196628527 2850.5854907288 17 20 11
175.35614376157 -203.081468438689 2848.59280688676 16 19 10
205.510122125626 -193.590367718924 2879.59508199765 15 18 9
172.116612376712 -199.922811678422 2864.09605873672 13 16 7
147.481522203232 -204.040161773442 2855.15908363726 12 15 6
137.342564223388 -204.553992239519 2856.80136896276 13 16 9
128.805669344577 -204.666204051722 2859.6269036779 12 15 8
116.997043889813 -205.572337895591 2860.1510192787 16 19 12
121.483731603495 -202.499097313518 2872.24571161829 10 13 6
21.2861501098427 -224.841469343799 2810.6719408955 9 11 6
-67.0066296983181 -242.02558021338 2767.68884509263 123 125 120
-53.7429289902667 -236.739013112368 2786.32772110871 10 12 7
-23.0438624124849 -227.316305094492 2816.79882397696 9 11 6
4.51511507330737 -218.704750228215 2844.83999470129 9 11 6
-6.77260460864471 -219.372408205748 2846.22850585811 10 13 6
-63.0025798004126 -230.661098576369 2817.29661642537 11 14 7
-63.6091048512215 -228.75359187245 2826.11876985742 11 14 7
-59.177345005192 -225.671569241857 2838.26670839864 12 15 8
-57.2109874193933 -223.18355641376 2848.69955642386 12 15 6
-61.9251164206558 -222.26607430192 2854.66206207202 13 16 7
-64.1100679688837 -220.762563295156 2862.27750810161 12 15 6
-72.1824074100907 -220.627822656388 2866.02248009511 12 15 6
-83.6467161809367 -221.271538161826 2867.58280814075 12 15 6
-87.5117118406634 -220.159035430845 2874.09053502564 12 15 6
-104.9552929213 -222.159407094118 2871.86984114441 13 16 7
-120.750042058942 -223.764334456802 2870.78720491009 12 17 11
-130.618839975486 -224.005382456159 2873.53747164531 10 16 12
137.957469754925 -245.128368243897 2709.15027863439 23 25 20
99.6336008250025 -253.069777504875 2688.86560054319 23 26 19
147.302623454515 -238.359345817928 2735.71228930218 22 25 18
166.970380073366 -231.080155091343 2760.45019377131 21 24 17
199.357446649072 -220.533074372271 2794.74721884906 21 24 17
186.95514747699 -221.693854084313 2794.48125061566 20 23 16
172.145765870546 -223.464087506703 2792.44489986187 15 18 11
143.017163787869 -228.908792372874 2779.66409937975 17 20 13
178.159394788182 -217.795768949656 2815.39262516568 18 21 14
164.09671652114 -219.354783015812 2814.00047814668 15 18 11
165.967454288764 -216.833621396922 2824.52304084606 11 14 7
183.087883090124 -210.450820288197 2846.25532821756 11 14 7
171.4218821201 -211.398007472235 2846.64354542039 15 18 9
150.87523271439 -214.573685902514 2840.59306965404 14 17 8
159.291083671572 -210.441782335224 2855.71445931285 14 17 8
128.157971327838 -216.239303929489 2842.14249467495 13 16 7
113.109999609926 -217.976291407162 2840.33781585076 12 15 8
85.0186098700743 -222.938566916877 2829.29023965062 10 13 6
95.906093954699 -218.204357847629 2846.11930638142 13 16 9
101.974448412032 -214.688934955992 2859.41184454643 5 8 1
89.2799904081589 -215.808267390105 2859.43020630432 13 15 10
15.2868685905574 -229.875057781014 2825.87540989288 7 9 4
-38.824158661396 -240.988613307399 2797.64730761404 10 12 7
-37.8249958214338 -238.658696279318 2807.64705149212 10 12 7
-6.99053211765754 -229.134470910494 2837.96869879258 9 11 6
-52.32749394056 -238.00487340167 2816.28329882009 10 13 6
-42.1221274965413 -233.487932348874 2832.40492125179 12 15 8
-36.844313192598 -230.175696311405 2845.09559908604 13 16 9
-56.5839472276588 -232.8383661339 2841.001741314 13 16 9
-52.0992545070889 -229.730318318928 2853.09327021743 14 17 8
-63.5176844761856 -230.398746569611 2854.61169246767 15 18 9
-66.5481094402978 -229.081783796558 2861.67703068539 14 17 8
-72.9392848119557 -228.558046626458 2866.52924486564 14 17 8
-87.7864091888778 -230.010679755165 2865.9003413739 15 18 9
-95.8973304868107 -229.878328425973 2869.68397886039 14 17 8
-60.711532627403 -219.688128066339 2901.25423131984 12 15 6
-58.5319629466907 -217.202462978791 2911.47570357798 11 16 10
169.979059067244 -246.3773557055 2725.71526210492 11 13 8
186.355730044197 -239.825724789073 2748.16115901897 26 28 23
132.528682474165 -252.069566628018 2715.56705074622 24 27 20
183.41047428798 -236.351962238211 2764.74252763898 23 26 19
207.092717611693 -227.956709978945 2792.41425633063 22 25 18
201.79733755806 -227.273280568735 2797.57163643562 21 24 17
200.447760659289 -225.551300875023 2805.74216283039 22 25 18
193.581747990806 -225.283611515538 2809.68683190265 18 21 14
186.708528961606 -225.014764766565 2813.63814809397 17 20 13
183.007956254398 -223.917004825434 2819.98477953429 17 20 13
156.462328087057 -226.678317474264 2818.4128881182 12 15 8
173.558660855804 -220.21660224458 2840.15710189168 9 12 5
159.462016109596 -221.799786755109 2838.80225646972 11 14 5
142.909725261868 -223.994338961001 2835.72519801093 13 16 7
145.66022874141 -221.251619989934 2846.75864143287 18 21 12
129.855937455301 -223.232728011526 2844.32417071242 17 20 11
133.451489401242 -220.289182710022 2855.9056957889 12 15 8
95.6615123700018 -227.788925438022 2837.85973350668 11 14 7
150.544524658871 -211.965385925242 2885.88010078933 12 15 8
144.499449448318 -211.491088609163 2890.39593958214 12 15 8
49.272535179584 -233.242349511035 2832.30132629071 14 16 11
-24.7301181620783 -245.343329770562 2808.38448985267 10 12 7
-34.4349259465098 -245.633428375214 2810.97949946252 9 11 6
-1.11031626096203 -235.383155992862 2842.97215135559 9 11 6
-33.9853477556882 -241.34840084579 2829.73781829159 10 13 6
-27.0646942814281 -237.593923407944 2843.56592593568 13 16 9
-49.2630004255141 -240.913339258823 2837.75956689479 14 17 10
-45.6345819240869 -237.97169649346 2849.30873618983 14 17 10
-65.4133874713136 -240.674539276694 2845.25971385449 15 18 9
-54.1968997540536 -235.926582036993 2861.76004314093 16 19 10
-74.8753931297372 -238.822553873826 2857.21572134914 16 19 10
-79.5990664894584 -237.897247588879 2863.18688611896 16 19 10
-80.9370881711247 -236.171034122132 2871.34531226253 14 17 8
-67.8522213127817 -231.045032972311 2888.76859519476 15 18 9
-68.2676413816661 -229.128254770019 2897.3999460733 18 21 12
-86.5316110908179 -231.406760758339 2894.61777119983 18 23 17
190.269734247403 -248.427107639852 2742.7116191371 13 15 10
205.916976683865 -242.017832853142 2764.48564238888 21 23 18
212.29530886008 -238.158426526128 2778.83677465491 23 26 19
190.538260544896 -241.907213915241 2771.23845383306 21 24 17
189.898612481441 -239.951347431737 2780.08668919401 19 22 15
195.579429948742 -236.313328827284 2793.74593772616 20 23 16
195.003511868398 -234.365142707821 2802.53202342623 21 24 17
203.943080102428 -229.89821548054 2818.50108489623 23 26 19
205.817326861101 -227.329036888269 2829.01340406993 19 22 15
200.573785168362 -226.650904181772 2834.12009076675 18 21 14
181.78560917801 -229.532014795574 2829.11336870275 17 20 13
178.90674997023 -228.221936300802 2836.02955521919 17 20 13
169.63513906894 -228.584130512842 2838.20504961954 17 20 13
156.331832116952 -229.986830041518 2837.45264175646 11 14 5
140.576885675765 -232.009481091931 2834.97531091707 10 13 4
149.773207223362 -227.573788253854 2850.69369113828 15 18 9
155.806646081684 -223.978483598281 2864.00909451943 17 20 11
144.067251545795 -224.957621120373 2864.47525270613 13 16 9
116.051577052508 -230.079900700748 2853.37613867864 17 20 13
158.767268828621 -217.169322083433 2892.65404046896 12 15 8
166.616925781488 -213.183235546652 2906.94231151965 14 17 10
79.6269675198014 -233.171701102942 2854.57784546957 11 13 8
63.5956127385708 -235.156705470887 2852.36942803467 12 14 9
49.1587698127627 -236.722919394589 2851.34989618879 18 20 15
-41.1225285375725 -257.221986671089 2798.0778425758 10 12 7
-5.44249370419436 -246.212096886721 2831.87065499436 9 11 6
-27.5151293142128 -249.601829663 2825.94955822426 9 11 6
-18.1335794011712 -245.187702292248 2841.48752914906 11 14 7
-55.2561943235368 -252.253982041443 2825.54861942377 12 15 8
-43.3408001576669 -247.230030490284 2842.73137959601 13 16 9
-53.9036584775348 -247.733898054621 2844.79279387104 16 19 12
-54.4387019933952 -245.785587113511 2853.53827207576 16 19 10
-66.7018621182081 -246.694112538864 2854.51376295588 16 19 10
-61.3261414140989 -243.323220691722 2867.09854898439 15 18 9
-79.5117241029253 -245.652192200002 2864.24633126476 15 18 9
-71.5520707072841 -241.678144428983 2878.42715354605 18 21 12
-72.0016103135879 -239.740540607537 2887.08896977021 18 21 12
-80.9178778414452 -239.831681870064 2890.28845075796 21 24 15
-97.5081825306447 -241.741769574361 2888.62400619431 19 24 18
-130.354474032228 -247.48471539256 2876.74518750973 13 19 15
221.580744097534 -245.145520355207 2777.73377404729 23 26 19
221.748091535162 -242.963066942538 2787.16407081462 21 24 17
185.91886293947 -250.620213572164 2768.61156773834 20 23 16
167.21033017537 -253.558863869844 2763.53426311348 18 21 14
144.501596090469 -257.555372410313 2755.50102193171 18 21 14
191.926826121006 -242.576503008387 2801.13287820865 19 22 15
198.48553979189 -238.698204643425 2815.30209674899 18 21 14
197.174482477338 -236.953041278362 2823.43094609071 24 27 20
189.525336922417 -236.908830798331 2826.76906061711 24 27 20
189.832719441521 -234.742232483539 2836.06264385498 18 21 14
193.36304138643 -231.731596568612 2847.69936516539 16 19 12
189.730900273453 -230.630568260822 2853.97722211587 14 17 8
158.820114448209 -236.715269191244 2840.22726678099 11 14 5
157.55268833752 -234.974220465278 2848.31339783414 9 12 3
159.531481410089 -232.392245828982 2858.72000972295 14 17 8
172.863542725151 -226.866775019537 2877.25569278194 17 20 11
160.354833709584 -228.082809278461 2877.10355769405 17 20 13
144.562970449285 -230.134418608335 2874.66716582282 10 13 6
165.361391056169 -222.737903462562 2898.26530158163 12 15 8
100.588312958275 -237.361068391012 2861.30541032775 18 21 14
56.8032611964453 -246.505382328097 2839.53633403297 19 21 16
27.8715413567978 -249.688902691816 2837.56245040082 4 6 1
-33.6200209580202 -263.1595813193 2804.25851292326 10 12 7
-26.0028574653188 -259.098897228959 2818.76662793093 9 11 6
-19.9784582917002 -255.462354175487 2832.08491283543 8 10 5
-38.7905458812545 -258.066570082313 2828.47825758586 9 12 5
-42.6937557020124 -256.926930148314 2835.0199208308 10 13 6
-65.7609623755904 -260.555911324264 2828.70523716254 11 14 7
-59.6651798618497 -256.928042946504 2841.95391946834 12 15 8
-57.7014664027784 -254.341041937518 2852.37476274058 14 17 8
-64.0962303700592 -253.824004042427 2857.23119275726 19 22 13
-83.1139468033388 -256.400557585813 2853.82464150403 21 24 15
-69.3049816089384 -250.933999227106 2871.8954591954 22 25 16
-67.238972146098 -248.359864770399 2882.21662269449 21 24 15
-65.137247735215 -245.790291719206 2892.50299489595 19 22 13
-86.7741190538078 -248.972902488181 2887.53581236018 16 19 10
-96.5693106442016 -249.275725027983 2890.22245501752 13 18 12
-110.648016260201 -250.599884034006 2890.22808339336 10 16 12
216.204525206868 -254.024076760689 2774.46564473211 22 23 17
181.986746975974 -261.359229727325 2757.09917573464 22 23 15
192.263381380844 -256.333219399487 2774.49169712887 22 23 15
144.524122055792 -267.321890265736 2747.00309948093 21 22 14
165.044976832426 -259.488527875391 2772.2292056981 20 21 13
191.217460562614 -250.161085488956 2801.54137735506 19 20 12
192.23757048786 -247.75053215291 2811.5080646147 15 18 9
163.954760424556 -253.308998214841 2799.32144116899 18 21 12
177.683417965984 -247.456331007433 2818.83218598742 19 22 13
192.3024644702 -241.400844889823 2838.84535633281 19 22 13
199.831671593418 -237.288442980094 2853.43316944449 18 21 12
187.40863316531 -238.540722426444 2853.20131921969 16 19 12
174.951680278453 -239.788238219275 2853.00278032985 16 19 12
159.242479707729 -241.886209994365 2850.49115553505 15 18 11
162.031374394536 -239.06665902031 2861.47512018416 13 16 9
184.260709774945 -231.133653692374 2886.40686204086 13 16 9
170.15914050112 -232.803166922594 2885.0696660947 13 16 9
164.137925826048 -232.33950103126 2889.56304450099 18 21 14
101.120905316957 -246.750670866934 2853.66218579744 9 12 5
100.670891100735 -244.782268008267 2862.32025907401 15 18 11
-31.2232699533674 -272.523211922572 2797.59446914616 2 5 0
-46.7148749468853 -274.328961960405 2796.24048779911 12 15 8
-31.6967199562677 -268.321738938062 2815.86480862399 11 14 7
-19.8918863100639 -263.170085572474 2833.13814491225 10 13 6
-61.9346693154101 -271.710794163729 2813.80116101745 10 13 6
-78.36658619145 -273.711936088876 2811.992892788 12 15 8
-67.3402365997453 -268.776901143234 2828.65438204064 13 16 9
-51.2224654888982 -262.593543500409 2848.57764450055 11 14 7
-52.5895206879001 -260.822391718942 2856.75825949273 13 16 9
-73.2416984302326 -263.866020300218 2852.20996733235 15 18 11
-76.2951843187647 -262.512020418596 2859.29306916244 14 17 10
-75.9633171594372 -260.324655891438 2868.5592695535 12 15 8
-54.4738877732263 -252.928981988836 2891.47134771482 12 13 5
-41.3310822629893 -247.631743766615 2908.81145010272 13 16 7
-99.88544041672 -257.842100425647 2889.11321449085 12 17 11
-138.70585472969 -265.208271500791 2873.4876591478 11 17 13
168.752222134478 -274.805053111914 2738.22035284946 23 24 19
168.787349895779 -272.567306726815 2747.77377343277 21 22 14
194.062497935522 -261.094183407957 2786.16201358094 21 22 14
206.835308124386 -255.37464093203 2805.22435756795 20 21 13
170.785299047459 -263.212072109092 2786.91740090865 17 18 10
170.173275563547 -261.209535155855 2795.7313067787 15 18 9
160.071604871907 -261.825528709343 2797.35132709353 17 20 11
167.431940622139 -257.648348370265 2812.0972577514 17 20 11
182.025241012109 -251.521890848652 2832.12550482631 17 20 11
181.08402460369 -247.550850585455 2849.47749179753 15 18 9
163.796637423743 -250.120737865202 2845.76862206364 19 22 15
151.278801981614 -251.384077521909 2845.63287921137 17 20 13
154.048207250055 -248.534649092681 2856.6317812662 14 17 10
150.390462939495 -247.417891703804 2862.93273781905 13 16 9
144.310614401042 -246.94914690448 2867.48392770006 12 15 8
135.790997400314 -247.126086346142 2870.30220978421 14 17 10
119.115247754501 -249.452938941256 2867.36730167671 13 16 9
78.2406785651606 -256.017612764878 2856.49691018359 8 11 4
-15.5193980063877 -276.253027199689 2809.47486131462 8 11 4
-47.4506982193854 -282.374470596596 2796.74338453125 10 13 6
-28.3062303749979 -275.230744218673 2819.18712542519 8 11 4
-35.531823964297 -274.932276232845 2823.48397675787 8 11 4
-27.0005211043216 -270.582042870082 2838.45878976408 8 11 4
-67.4669497334568 -278.803527588164 2820.3431001573 10 13 6
-58.916555297305 -274.455570046368 2835.29895346949 11 14 7
-49.4640630398422 -269.903717575991 2850.74578404598 13 16 9
-60.8760369029961 -270.665363872506 2852.27157287405 15 18 11
-71.4749476353034 -271.211478221218 2854.37503178386 18 21 14
-85.4611558459921 -272.601267509044 2854.29884683785 18 21 14
-82.6210521016888 -269.757596913834 2865.22839526639 18 21 14
-56.9222322776359 -261.217448700394 2890.87655596596 18 19 11
-49.7153923761062 -257.336194156784 2904.4014008143 17 20 11
-63.6749027757451 -258.729024799357 2904.29915405815 17 20 11
-118.517817706646 -270.216522241381 2878.27034267533 14 19 13
-130.940276090419 -271.166971311091 2879.41021537779 12 18 14
150.911950783528 -287.461811056213 2725.21539012385 21 22 17
146.21569640119 -286.532193930443 2731.15835246142 21 22 14
198.687247657855 -269.401945512541 2781.38020519148 22 23 15
213.767249100978 -262.949213255802 2802.2941748222 22 23 15
195.110384799158 -266.03078511769 2797.18702423726 20 21 13
190.588125408321 -265.122395199347 2802.96034434814 17 18 10
186.070643515336 -264.214266785471 2808.72929682526 16 19 10
162.531070540256 -268.60264040992 2800.16176127207 16 19 10
156.386594903015 -268.130010539921 2804.7762147638 16 19 10
161.392344853009 -264.574284555773 2817.70106881559 16 19 10
172.039809762463 -259.485442779187 2834.71640141819 15 18 9
157.14807213288 -261.435868125553 2832.78812585851 14 17 8
143.815613245051 -262.941272352482 2832.07984600821 14 17 10
145.729256187876 -260.277402958452 2842.53904892952 14 17 10
139.614783391052 -259.806992749311 2847.1240372221 12 15 8
113.289716701005 -264.802449319135 2837.16119890408 12 15 8
102.259329036563 -265.634903617348 2838.31853238767 12 15 8
96.8878375976123 -264.936601447689 2843.54929403607 16 19 12
117.56934271055 -257.265353690241 2867.22292324867 16 19 12
69.8262132204115 -267.892710709309 2842.51858533849 15 18 11
-18.7198677513361 -284.868037878883 2808.25795694417 2 5 0
-26.7669993364588 -284.791817334563 2811.98654640834 10 13 6
-19.9611330449407 -280.819013915295 2825.89637093706 8 11 4
-14.7516680866242 -277.285991519106 2838.6222885545 8 11 4
-16.1279451081726 -275.486505589281 2846.80821102004 9 12 5
-31.6208441147148 -277.355248109372 2845.46482490842 10 13 6
-41.3248022560371 -277.710277011844 2848.06824963777 11 14 7
-52.7179406508025 -278.492961452014 2849.57844399573 8 11 4
-69.1616451743848 -280.561316039741 2847.79181507673 10 13 6
-84.8153591640237 -282.408412546455 2846.60525919127 14 17 10
-71.9124250472527 -276.961021615039 2864.161364914 15 18 11
-95.1801064743871 -280.731641026244 2858.0666897089 16 19 12
-85.5688325510422 -276.151067772702 2873.35160282473 17 18 10
-80.1221256418008 -272.647540712262 2885.84629507558 18 19 11
-101.791667109727 -275.978097046796 2880.93375861302 17 20 11
-118.428584390991 -278.020472453665 2879.33515310701 15 20 14
-156.436217555457 -285.377643831812 2864.31807323482 15 20 14
179.042560086724 -286.958805377821 2748.21938691916 25 26 21
145.516368856443 -294.355922108152 2731.59222934148 22 23 15
203.465266378731 -275.453019743677 2786.0320396886 22 23 15
216.201418580247 -269.604579144166 2805.11173451257 22 23 15
210.928664102267 -268.922380404545 2810.24682897905 21 22 14
191.457262024672 -272.269657689625 2804.57088827433 18 19 11
193.268249866426 -269.569849146655 2815.126717438 17 20 11
180.052551608319 -271.118559749144 2814.30855537776 16 19 10
154.878791180315 -276.008687120957 2804.60413247234 16 19 10
160.677101356823 -272.194214950692 2818.12062924742 16 19 10
150.559109355999 -272.838991640072 2819.76111099845 15 18 9
147.623271821161 -271.479243082348 2826.72653662234 15 18 9
140.687770937442 -271.231393510053 2830.74314083143 16 19 12
139.375791665505 -269.429385906539 2838.86450413685 15 18 11
153.404497128804 -263.419197231622 2858.05367748723 12 15 8
128.730012156753 -268.04603806645 2849.23146235595 11 14 7
96.6711700062035 -274.650557000594 2835.2811256377 11 14 7
91.2863036912079 -273.950214902332 2840.52486723517 9 12 5
94.0432546343048 -271.043697257372 2851.52769885803 10 13 6
20.3325776974355 -286.594706058178 2817.91213517951 14 17 10
-19.454130636658 -292.844838152929 2808.74914912285 3 6 0
-13.4985750858525 -289.047388241362 2822.11201479914 11 14 7
-5.01046019126328 -284.599630526784 2837.1153000368 10 13 6
-2.2494612456172 -281.692266913857 2848.11398689959 9 12 5
-4.42646148314108 -280.101364025254 2855.70862067814 10 13 6
-31.5332170125848 -285.062257473078 2846.51690251879 11 14 7
