ply
format ascii 1.0
comment KinectMotionCapture
element vertex 802
property float x
property float y
property float z
property uchar red
property uchar green
property uchar blue
end_header
47.4380291998386 190.803870558739 2601.99999809265 18 21 14
54.6229518949986 191.09533727169 2605.99994659424 17 20 13
61.3793879747391 189.993351697922 2591.00008010864 13 16 9
68.3971419930458 189.844325184822 2588.99998664856 15 18 11
75.7534727454185 190.574988722801 2598.99997711182 14 17 10
83.8015824556351 192.77186691761 2628.99994850159 12 15 8
90.801939368248 192.402109503746 2624.00007247925 9 12 5
97.8119596838951 192.105397582054 2619.99988555908 10 13 6
104.078687727451 190.488696098328 2598.00004959106 14 17 10
111.380241811275 190.851435065269 2602.9999256134 14 17 10
118.16244572401 190.33408164978 2595.99995613098 18 21 10
125.822633504868 191.209524869919 2608.00004005432 20 23 12
134.006544947624 192.744508385658 2628.99994850159 20 23 12
141.713783144951 193.472728133202 2638.99993896484 19 22 11
149.136438965797 193.760797381401 2642.99988746643 19 22 11
156.994417309761 194.561764597893 2654.00004386902 18 21 10
164.354830980301 194.702655076981 2655.99989891052 17 20 9
171.596303582191 194.696709513664 2655.99989891052 16 19 8
182.607784867287 198.795437812805 2711.99989318848 15 18 7
188.739508390427 197.469502687454 2694.00000572205 15 18 7
193.9717233181 195.337101817131 2664.99996185303 16 19 8
202.745139598846 196.796104311943 2684.99994277954 17 19 8
215.382069349289 201.77273452282 2753.00002098084 19 21 10
223.774045705795 202.571257948875 2763.99993896484 22 23 15
-204.292982816696 193.432345986366 2740.9999370575 118 104 93
-195.816844701767 192.451134324074 2726.99999809265 105 87 75
-187.347203493118 191.399052739143 2711.99989318848 104 85 71
-179.290369153023 190.699517726898 2701.99990272522 114 91 75
-171.160131692886 189.858555793762 2690.00005722046 95 72 56
-163.399174809456 189.370214939117 2683.00008773804 119 93 78
-155.966594815254 189.234510064125 2680.99999427795 116 93 79
-148.821577429771 189.45150077343 2684.00001525879 59 40 26
-141.659632325172 189.668282866478 2687.00003623962 69 51 39
-134.480729699135 189.884796738625 2690.00005722046 41 24 16
-127.379462122917 190.242245793343 2694.9999332428 22 9 1
-118.558004498482 187.916994094849 2661.99994087219 20 17 10
-110.626868903637 186.791434884071 2645.99990844727 20 20 12
-103.876873850822 187.642306089401 2657.99999237061 20 21 13
-96.5520367026329 187.504589557648 2655.99989891052 20 21 13
-89.4730985164642 187.86084651947 2661.00001335144 19 22 13
-82.1502432227135 187.722608447075 2658.99991989136 16 19 10
-75.0351548194885 188.078373670578 2664.00003433228 15 18 9
-67.4091428518295 187.092438340187 2650.00009536743 15 18 9
-59.8365738987923 186.035633087158 2634.99999046326 16 17 9
-52.964985370636 187.167271971703 2651.00002288818 14 15 7
-44.7465963661671 183.144584298134 2594.00010108948 12 13 5
-37.60876506567 182.863608002663 2589.99991416931 11 14 7
-30.5869467556477 183.147236704826 2594.00010108948 12 15 8
-23.679094389081 184.489652514458 2612.99991607666 13 16 9
-16.4394583553076 183.290079236031 2595.99995613098 12 15 8
-9.33939777314663 183.008104562759 2592.00000762939 10 13 6
-2.26550246588886 183.078914880753 2592.99993515015 12 15 8
4.79715876281261 182.514026761055 2585.00003814697 14 17 10
11.935343965888 183.784633874893 2602.9999256134 15 18 11
19.1936884075403 185.2667927742 2624.00007247925 15 18 11
26.546498760581 186.607480049133 2642.99988746643 14 17 10
47.6949661970139 184.697270393372 2615.9999370575 15 18 11
54.7087416052818 184.27187204361 2609.99989509583 16 19 12
61.6658478975296 183.775618672371 2602.9999256134 13 16 9
68.4788301587105 182.996734976768 2592.00000762939 12 15 8
75.756162405014 183.488413691521 2598.99997711182 11 14 7
84.2508375644684 186.591997742653 2642.99988746643 10 13 6
90.18225222826 183.976829051971 2605.99994659424 9 12 5
97.3300784826279 184.044167399406 2607.00011253357 11 14 7
103.681735694408 182.699397206306 2588.00005912781 15 18 11
111.469753086567 183.895751833916 2605.00001907349 15 18 11
118.621788918972 183.962345123291 2605.99994659424 16 19 10
126.309528946877 184.805199503899 2618.00003051758 18 21 12
133.450537919998 184.80072915554 2618.00003051758 18 21 12
141.128033399582 185.501858592033 2628.00002098084 17 20 11
149.593085050583 187.120363116264 2651.00002288818 18 21 12
157.473146915436 187.891483306885 2661.99994087219 15 18 9
163.308545947075 186.262637376785 2638.99993896484 15 18 9
174.897342920303 191.056281328201 2707.00001716614 14 17 8
182.883471250534 191.685363650322 2716.00008010864 14 17 8
190.217316150665 191.608443856239 2714.99991416931 15 18 9
196.307629346848 190.331593155861 2697.00002670288 18 21 12
204.035803675652 190.677672624588 2701.99990272522 20 23 14
214.92001414299 193.846151232719 2746.99997901917 21 24 15
-204.896062612534 186.503544449806 2749.00007247925 113 104 95
-196.613281965256 185.763791203499 2737.99991607666 94 81 72
-187.906116247177 184.548825025558 2720.00002861023 97 83 72
-179.628163576126 183.672800660133 2707.00001716614 101 83 69
-171.611294150352 183.000057935715 2697.00002670288 114 95 81
-164.257317781448 183.005586266518 2697.00002670288 70 48 34
-157.019034028053 183.146595954895 2698.99988174438 75 53 40
-149.492025375366 182.948112487793 2696.00009918213 84 64 55
-141.928032040596 182.681486010551 2691.99991226196 87 68 61
-134.435296058655 182.482481002808 2688.99989128113 65 47 43
-127.100184559822 182.486832141876 2688.99989128113 42 29 23
-118.383884429932 180.387109518051 2657.99999237061 20 17 10
-110.714264214039 179.712280631065 2648.00000190735 20 20 12
-103.294171392918 179.376497864723 2642.99988746643 21 22 14
-96.2281674146652 179.651334881783 2647.0000743866 21 22 14
-89.2071649432182 180.061683058739 2653.00011634827 20 23 14
-82.369327545166 180.946856737137 2665.99988937378 18 21 12
-75.1503854990005 181.085243821144 2667.99998283386 17 20 11
-68.0474117398262 181.562781333923 2674.99995231628 15 18 7
-59.8840452730656 178.985729813576 2637.00008392334 17 19 8
-52.4673014879227 178.240969777107 2625.99992752075 14 16 5
-45.541662722826 179.192885756493 2640.00010490417 12 13 5
-38.9169715344906 181.90935254097 2680.0000667572 10 13 6
-31.4370058476925 180.96025288105 2665.99988937378 12 15 8
-23.7252227962017 177.703112363815 2618.00003051758 13 16 9
-16.389362514019 175.667464733124 2588.00005912781 12 15 8
-9.34692658483982 176.075160503387 2594.00010108948 9 12 5
-2.27781292051077 176.957756280899 2607.00011253357 11 14 7
4.83815278857946 176.957726478577 2607.00011253357 12 15 8
11.9999526068568 177.636221051216 2617.00010299683 14 17 10
19.1285144537687 177.499935030937 2615.00000953674 14 17 10
26.4369230717421 178.653091192245 2631.99996948242 13 16 9
34.2978872358799 182.249546051025 2684.99994277954 12 15 8
55.0040900707245 178.1045794487 2624.00007247925 16 19 12
62.1891692280769 178.17048728466 2625 13 16 9
69.5908293128014 178.779140114784 2634.0000629425 11 14 7
77.4202570319176 180.269852280617 2655.99989891052 12 15 8
84.7000181674957 180.335029959679 2657.00006484985 11 14 7
91.119721531868 178.703144192696 2632.99989700317 9 12 5
95.8399847149849 174.220621585846 2566.99991226196 11 14 7
104.125954210758 176.389053463936 2598.99997711182 13 16 9
112.201005220413 177.946388721466 2621.99997901917 13 16 9
119.263097643852 177.806794643402 2619.99988555908 16 19 12
126.313805580139 177.66697704792 2618.00003051758 17 20 13
133.251160383224 177.391231060028 2614.00008201599 16 19 12
141.079097986221 178.268864750862 2627.00009346008 15 18 11
149.315968155861 179.553359746933 2645.99990844727 15 18 11
157.833397388458 181.041151285172 2667.99998283386 14 17 10
165.294349193573 181.239396333694 2671.0000038147 14 17 10
170.186579227448 178.723305463791 2634.0000629425 14 17 10
178.714632987976 180.074602365494 2654.00004386902 16 19 12
189.242765307426 183.257460594177 2700.99997520447 18 21 14
196.168556809425 182.844087481499 2694.9999332428 21 24 17
203.740522265434 183.041110634804 2697.99995422363 18 23 16
212.266966700554 184.051975607872 2713.00005912781 18 23 16
223.141357302666 186.961993575096 2756.00004196167 22 27 20
-197.912201285362 179.471582174301 2756.00004196167 107 97 87
-189.15568292141 178.305476903915 2737.99991607666 88 76 64
-180.363893508911 177.008837461472 2717.99993515015 88 72 57
-172.380432486534 176.428288221359 2709.00011062622 105 86 72
-164.99350965023 176.433652639389 2709.00011062622 61 39 26
-157.896801829338 176.764398813248 2713.99998664856 55 33 22
-150.494977831841 176.769316196442 2713.99998664856 72 52 43
-143.092572689056 176.774010062218 2713.99998664856 81 62 55
-135.989546775818 177.169278264046 2720.00002861023 69 51 47
-128.002434968948 176.39185488224 2707.99994468689 40 26 23
-118.877694010735 173.855438828468 2668.99991035461 20 17 10
-110.42520403862 172.035202383995 2641.00003242493 20 20 12
-103.532068431377 172.559767961502 2648.9999294281 21 22 14
-96.3403806090355 172.628134489059 2650.00009536743 22 23 15
-89.3109738826752 173.021987080574 2655.99989891052 20 23 14
-82.2793617844582 173.480793833733 2663.00010681152 19 22 13
-75.8570730686188 175.437703728676 2693.00007820129 18 21 12
-68.2786181569099 174.853697419167 2684.00001525879 15 18 7
-60.5900250375271 173.813447356224 2667.99998283386 17 19 8
-52.6488609611988 171.665385365486 2634.99999046326 17 19 8
-45.3534051775932 171.276092529297 2628.99994850159 16 18 7
-38.2066927850246 171.407729387283 2631.00004196167 12 15 8
-31.0960728675127 171.799764037132 2637.00008392334 11 14 7
-23.8710101693869 171.605199575424 2634.0000629425 12 15 8
-16.3835715502501 168.543800711632 2586.99989318848 12 15 8
-9.35804564505816 169.195726513863 2596.99988365173 10 13 6
-2.33643013052642 174.212500452995 2674.00002479553 8 11 4
4.90512466058135 172.19278216362 2642.99988746643 9 12 5
12.0186917483807 170.759201049805 2621.00005149841 11 14 7
19.092570990324 170.042037963867 2609.99989509583 11 14 7
26.3072196394205 170.627668499947 2618.99995803833 10 13 6
47.114722430706 168.343856930733 2584.00011062622 14 17 10
54.6495392918587 169.84061896801 2607.00011253357 18 21 14
63.091516494751 173.486977815628 2663.00010681152 14 17 10
70.0422823429108 172.703072428703 2651.00002288818 11 14 7
77.656015753746 173.547580838203 2664.00003433228 12 15 8
85.3722617030144 174.456968903542 2677.99997329712 11 14 7
89.3923118710518 168.265476822853 2582.99994468689 10 13 6
97.6726189255714 170.412167906761 2615.9999370575 11 14 7
105.010822415352 170.734629034996 2621.00005149841 12 15 8
112.675413489342 171.512797474861 2632.99989700317 11 14 7
119.858793914318 171.509072184563 2632.99989700317 12 15 8
126.31793320179 170.528054237366 2618.00003051758 15 18 11
133.153527975082 170.133098959923 2611.99998855591 15 18 11
140.654042363167 170.584663748741 2618.99995803833 13 16 9
147.571414709091 170.31954228878 2615.00000953674 14 17 10
155.767902731895 171.487048268318 2632.99989700317 15 18 11
164.99026119709 173.631221055984 2665.99988937378 16 19 12
171.548962593079 172.909513115883 2654.99997138977 19 22 15
179.124429821968 173.229575157166 2660.00008583069 20 23 16
187.076821923256 173.875048756599 2670.00007629395 21 24 17
194.937378168106 174.389988183975 2677.99997329712 21 24 17
203.293904662132 175.295397639275 2691.99991226196 18 23 17
220.800384879112 177.561178803444 2726.99999809265 18 25 17
-181.165799498558 170.346632599831 2730.00001907349 116 109 101
-173.022136092186 169.665634632111 2719.00010108948 97 90 82
-165.912240743637 169.982776045799 2723.99997711182 61 44 34
-158.948987722397 170.486956834793 2732.00011253357 52 35 27
-151.775106787682 170.803725719452 2736.99998855591 52 37 30
-144.467905163765 170.995473861694 2740.00000953674 43 28 21
-137.093767523766 171.1246073246 2742.00010299683 32 17 12
-128.100991249084 169.131591916084 2710.00003814697 12 1 0
-119.148679077625 166.951030492783 2674.99995231628 19 19 11
-111.055888235569 165.768727660179 2655.99989891052 20 20 12
-103.769846260548 165.709644556046 2654.99997138977 21 22 14
-96.8523994088173 166.274458169937 2664.00003433228 21 22 14
-89.0784040093422 165.341094136238 2648.9999294281 20 23 14
-81.9111913442612 165.468603372574 2651.00002288818 20 23 14
-75.7749751210213 167.90534555912 2690.00005722046 18 21 12
-68.5351714491844 168.157264590263 2694.00000572205 15 18 7
-60.2967105805874 165.724888443947 2654.99997138977 16 18 7
-52.9502592980862 165.414556860924 2650.00009536743 17 19 8
-45.4066060483456 164.292514324188 2631.99996948242 17 18 10
-38.0917303264141 163.732007145882 2622.99990653992 12 15 6
-31.0970637947321 164.607003331184 2637.00008392334 10 13 6
-23.5001891851425 161.861270666122 2592.99993515015 11 14 7
-16.5360923856497 162.985503673553 2611.00006103516 12 15 8
-9.41239669919014 163.048341870308 2611.99998855591 10 13 6
-2.31553381308913 165.420591831207 2650.00009536743 8 11 4
4.91641694679856 165.358126163483 2648.9999294281 8 11 4
12.1062016114593 164.796069264412 2640.00010490417 10 13 6
19.1370714455843 163.297414779663 2615.9999370575 10 13 6
26.2980107218027 163.42157125473 2618.00003051758 9 12 5
33.5719585418701 164.044857025146 2628.00002098084 9 12 5
54.357785731554 161.85599565506 2592.99993515015 18 21 14
62.1932037174702 163.851633667946 2625 15 18 11
69.5424899458885 164.286509156227 2631.99996948242 11 14 7
77.0463049411774 164.970830082893 2642.99988746643 11 14 7
84.7373604774475 165.904596447945 2657.99999237061 10 13 6
91.817781329155 165.589779615402 2653.00011634827 9 12 5
98.4598100185394 164.588168263435 2637.00008392334 11 14 7
105.294585227966 164.023295044899 2628.00002098084 12 15 8
112.721756100655 164.394408464432 2634.0000629425 12 15 8
118.815518915653 162.892937660217 2609.99989509583 13 16 9
126.466646790504 163.575693964958 2621.00005149841 14 17 10
134.075328707695 164.133384823799 2630.00011444092 15 18 11
140.926986932755 163.754731416702 2624.00007247925 14 17 10
148.535415530205 164.249539375305 2631.99996948242 15 18 11
156.186893582344 164.744108915329 2640.00010490417 16 19 12
164.500281214714 165.862455964088 2657.99999237061 17 20 13
172.329649329185 166.418939828873 2667.00005531311 19 22 15
180.005431175232 166.787996888161 2673.00009727478 21 24 17
186.241760849953 165.84649682045 2657.99999237061 21 24 17
194.215461611748 166.464701294899 2667.99998283386 19 22 15
202.62049138546 167.394608259201 2683.00008773804 18 23 17
209.698095917702 167.201235890388 2680.0000667572 17 22 15
218.216046690941 168.130621314049 2694.9999332428 17 22 15
-167.074471712112 163.688138127327 2743.00003051758 118 115 110
-159.244641661644 163.334861397743 2736.99998855591 114 111 106
-152.223289012909 163.816824555397 2744.99988555908 21 20 15
-145.157694816589 164.298623800278 2753.00002098084 14 13 8
-137.04788684845 163.586616516113 2740.9999370575 15 14 9
-128.104850649834 161.740377545357 2710.00003814697 12 13 7
-119.686797261238 160.371318459511 2687.00003623962 17 20 11
-111.184678971767 158.703550696373 2658.99991989136 17 20 11
-104.32019084692 159.303605556488 2668.99991035461 17 20 11
-96.3827073574066 158.23221206665 2651.00002288818 18 21 12
-89.2492532730103 158.414036035538 2654.00004386902 19 22 13
-81.7591696977615 157.939031720161 2645.99990844727 20 23 14
-74.7349858283997 158.359214663506 2653.00011634827 19 22 13
-67.6468387246132 158.719465136528 2658.99991989136 17 20 11
-60.3893920779228 158.721372485161 2658.99991989136 16 19 10
-52.9518686234951 158.185839653015 2650.00009536743 15 18 9
-45.7357838749886 158.247023820877 2651.00002288818 15 18 9
-38.3252538740635 157.531931996346 2638.99993896484 13 16 5
-31.1098080128431 157.473295927048 2638.00001144409 12 15 4
-23.6368551850319 155.683264136314 2608.00004005432 11 14 5
-16.5682639926672 156.161427497864 2615.9999370575 11 14 5
-9.41989198327065 156.042441725731 2614.00008201599 13 16 7
-2.26142816245556 154.490530490875 2588.00005912781 11 14 5
4.89800656214356 157.534927129745 2638.99993896484 10 13 4
12.1478429064155 158.131614327431 2648.9999294281 9 12 3
19.4522272795439 158.728092908859 2658.99991989136 9 12 5
26.6303103417158 158.249855041504 2651.00002288818 9 12 5
32.921452075243 153.831586241722 2576.99990272522 10 13 6
53.9401695132256 153.588935732841 2572.99995422363 16 19 12
61.0815025866032 153.885677456856 2578.00006866455 20 23 16
69.0689906477928 156.032636761665 2614.00008201599 18 21 14
76.7279714345932 157.104894518852 2631.99996948242 9 12 5
84.5167636871338 158.236607909203 2651.00002288818 9 12 5
91.6821211576462 158.114612102509 2648.9999294281 10 13 6
98.4254404902458 157.335832715034 2635.99991798401 11 14 7
104.296080768108 155.363187193871 2602.9999256134 13 16 9
112.511180341244 156.911805272102 2628.99994850159 13 16 9
119.547501206398 156.729325652122 2625.99992752075 14 17 10
126.566961407661 156.546637415886 2622.99990653992 14 17 10
135.251939296722 158.333256840706 2653.00011634827 14 17 10
141.575694084167 157.314598560333 2635.99991798401 16 19 12
150.120064616203 158.742621541023 2660.00008583069 16 19 12
157.019853591919 158.380061388016 2654.00004386902 19 22 15
164.628967642784 158.733412623405 2660.00008583069 19 22 15
172.593235969543 159.384906291962 2671.0000038147 19 22 15
180.684208869934 160.095825791359 2683.00008773804 20 23 16
186.947986483574 159.195452928543 2667.99998283386 20 23 16
193.056434392929 158.235281705856 2651.99995040894 21 24 17
203.834801912308 161.033824086189 2698.99988174438 18 21 14
215.181618928909 164.070606231689 2750 17 20 13
219.518005847931 161.737576127052 2710.99996566772 21 24 17
-153.281331062317 157.412126660347 2763.99993896484 9 8 3
-143.369108438492 154.853478074074 2719.00010108948 12 11 6
-134.901791810989 153.661340475082 2697.99995422363 23 24 18
-127.210363745689 153.266355395317 2690.99998474121 14 15 9
-119.378440082073 152.643337845802 2680.0000667572 17 20 11
-111.438795924187 151.792243123055 2664.99996185303 17 20 11
-103.736914694309 151.168748736382 2654.00004386902 17 20 11
-96.6036543250084 151.342451572418 2657.00006484985 18 21 12
-88.9827981591225 150.718510150909 2645.99990844727 19 22 13
-81.2671482563019 149.809554219246 2630.00011444092 19 22 13
-73.8920271396637 149.413019418716 2622.99990653992 18 21 12
-67.0382156968117 150.098592042923 2634.99999046326 18 21 12
-59.9142052233219 150.27129650116 2638.00001144409 17 20 11
-52.5138005614281 149.703249335289 2628.00002098084 14 17 8
-45.4955846071243 150.217339396477 2637.00008392334 14 17 8
-38.340900093317 150.389432907104 2640.00010490417 12 15 4
-31.0045760124922 149.76379275322 2628.99994850159 11 14 3
-23.6647389829159 148.739188909531 2611.00006103516 11 14 5
-16.6637524962425 149.879083037376 2631.00004196167 12 15 6
-9.43818595260382 149.195864796638 2618.99995803833 13 16 7
-2.2894567809999 149.252980947495 2619.99988555908 12 15 6
4.86288452520967 149.252936244011 2619.99988555908 11 14 5
12.2169889509678 151.759266853333 2664.00003433228 9 12 5
19.5844825357199 152.499362826347 2677.00004577637 9 12 5
26.9123669713736 152.612626552582 2678.99990081787 9 12 5
33.4973074495792 149.364694952965 2621.99997901917 9 12 5
61.3439232110977 147.479444742203 2588.99998664856 18 21 14
69.2031159996986 149.186462163925 2618.99995803833 18 21 14
78.0129283666611 152.431264519691 2676.00011825562 10 13 6
84.8061591386795 151.517570018768 2660.00008583069 9 12 5
92.3769995570183 152.027696371078 2668.99991035461 9 12 5
98.2042625546455 149.803563952446 2630.00011444092 10 13 6
105.060406029224 149.344995617867 2621.99997901917 14 17 10
112.814016640186 150.139331817627 2635.99991798401 15 18 11
119.869634509087 149.965167045593 2632.99989700317 15 18 11
126.763626933098 149.619966745377 2627.00009346008 15 18 11
134.389117360115 150.128871202469 2635.99991798401 15 18 11
143.029943108559 151.662692427635 2663.00010681152 16 19 12
150.745183229446 152.114182710648 2671.0000038147 17 20 13
157.852649688721 151.939004659653 2667.99998283386 19 22 15
164.881244301796 151.706725358963 2664.00003433228 19 22 15
172.016575932503 151.588127017021 2661.99994087219 20 23 16
179.342418909073 151.640191674232 2663.00010681152 20 23 16
186.322614550591 151.407346129417 2658.99991989136 21 24 17
194.153875112534 151.857599616051 2667.00005531311 21 24 17
202.934265136719 152.990892529488 2687.00003623962 16 19 12
213.387921452522 155.262604355812 2726.99999809265 21 24 17
-154.061958193779 150.63202381134 2778.00011634827 130 131 125
-143.689408898354 147.762134671211 2724.99990463257 11 12 6
-134.355485439301 145.705297589302 2687.00003623962 12 15 8
-126.552060246468 145.1665610075 2677.00004577637 21 24 17
-118.579916656017 144.356414675713 2661.99994087219 18 21 12
-110.229194164276 142.949536442757 2635.99991798401 18 21 12
-103.935219347477 144.199728965759 2658.99991989136 17 20 11
-96.4972525835037 143.931284546852 2654.00004386902 17 20 11
-88.6153429746628 142.903372645378 2634.99999046326 18 21 12
-80.3732872009277 141.061753034592 2601.0000705719 19 22 13
-73.9785954356194 142.419666051865 2625.99992752075 21 24 15
-66.8110996484756 142.421588301659 2625.99992752075 21 24 15
-59.7568787634373 142.694488167763 2631.00004196167 20 23 14
-52.2754676640034 141.882464289665 2615.9999370575 17 20 11
-45.2553033828735 142.26345717907 2622.99990653992 16 19 10
-38.2548309862614 142.861217260361 2634.0000629425 14 17 8
-31.0997907072306 143.024861812592 2637.00008392334 13 16 7
-23.9735636860132 143.459513783455 2644.99998092651 10 13 4
-16.7528912425041 143.460065126419 2644.99998092651 9 12 3
-9.4816954806447 142.70107448101 2631.00004196167 8 11 2
-2.28602555580437 141.887679696083 2615.9999370575 12 15 8
4.84074745327234 141.453728079796 2608.00004005432 12 15 8
12.0751606300473 142.809450626373 2632.99989700317 11 14 7
19.6435563266277 145.629420876503 2684.99994277954 10 13 6
27.0537622272968 146.062672138214 2693.00007820129 9 12 5
34.4181023538113 146.116077899933 2694.00000572205 8 11 4
41.4621494710445 145.030304789543 2674.00002479553 9 12 5
48.1232926249504 143.130794167519 2638.99993896484 16 19 12
54.1109666228294 139.983683824539 2581.00008964539 16 19 12
61.3219328224659 140.361756086349 2588.00005912781 18 21 14
70.235587656498 144.156441092491 2657.99999237061 21 24 17
78.3357843756676 145.727232098579 2687.00003623962 11 14 7
87.1040895581245 148.165509104729 2732.00011253357 10 13 6
92.2757238149643 144.583702087402 2665.99988937378 9 12 5
105.784580111504 143.168330192566 2640.00010490417 14 17 10
112.260743975639 142.243474721909 2622.99990653992 16 19 12
120.646901428699 143.704518675804 2650.00009536743 15 18 11
127.635717391968 143.430039286613 2644.99998092651 15 18 11
133.169203996658 141.637071967125 2611.99998855591 15 18 11
142.443045973778 143.802374601364 2651.99995040894 16 19 12
149.959176778793 144.069597125053 2657.00006484985 17 20 13
157.856971025467 144.661918282509 2667.99998283386 18 21 14
166.309297084808 145.687788724899 2687.00003623962 18 21 14
173.507541418076 145.574808120728 2684.99994277954 18 21 14
179.077878594398 144.160494208336 2658.99991989136 19 22 15
187.028408050537 144.697815179825 2668.99991035461 20 23 16
192.848697304726 143.608525395393 2648.9999294281 20 23 16
208.307266235352 144.302725791931 2661.99994087219 21 24 17
218.072474002838 145.977571606636 2693.00007820129 18 21 14
-141.583904623985 138.268619775772 2684.99994277954 1 4 0
-134.058997035027 138.066157698631 2680.99999427795 18 21 14
-125.940784811974 137.194007635117 2664.00003433228 23 26 19
-117.914833128452 136.321634054184 2647.0000743866 18 21 12
-110.190272331238 135.706543922424 2634.99999046326 18 21 12
-102.882549166679 135.554760694504 2631.99996948242 17 20 11
-96.4997932314873 136.690407991409 2654.00004386902 17 20 11
-88.0459621548653 134.83864068985 2618.00003051758 18 21 12
-81.1479464173317 135.252833366394 2625.99992752075 19 22 13
-74.2622837424278 135.769918560982 2635.99991798401 19 22 13
-66.8637603521347 135.359689593315 2628.00002098084 21 24 15
-59.9856004118919 136.030927300453 2641.00003242493 21 24 15
-52.7764447033405 136.032372713089 2641.00003242493 19 22 13
-45.3082621097565 135.261014103889 2625.99992752075 18 21 12
-38.3575148880482 136.03475689888 2641.00003242493 16 19 10
-31.4662307500839 137.426376342773 2667.99998283386 15 18 9
-24.2098644375801 137.581631541252 2671.0000038147 13 16 7
-16.7976766824722 136.603489518166 2651.99995040894 10 13 4
-9.48915537446737 135.625138878822 2632.99989700317 8 11 2
-2.29132967069745 135.058686137199 2621.99997901917 11 14 7
4.86314995214343 134.955629706383 2619.99988555908 12 15 8
12.0158614590764 134.955406188965 2619.99988555908 11 14 7
19.5123869925737 137.375950813293 2667.00005531311 11 14 7
27.1750371903181 139.332711696625 2704.99992370605 10 13 6
34.5212258398533 139.177367091179 2701.99990272522 9 12 5
41.525274515152 137.94019818306 2677.99997329712 11 14 7
47.7963276207447 135.003060102463 2621.00005149841 14 17 10
53.4834340214729 131.396189332008 2551.00011825562 17 20 13
61.1103028059006 132.836908102036 2578.9999961853 20 23 16
69.312572479248 135.101512074471 2622.99990653992 22 25 18
77.8130739927292 137.468904256821 2668.99991035461 12 15 8
84.9382951855659 137.20928132534 2664.00003433228 11 14 7
92.6935225725174 137.928038835526 2677.99997329712 10 13 6
99.4045212864876 137.101531028748 2661.99994087219 11 14 7
106.027781963348 136.274829506874 2645.99990844727 14 17 10
113.119691610336 136.117517948151 2642.99988746643 15 18 11
120.240323245525 136.011525988579 2641.00003242493 14 17 10
126.577407121658 135.081380605698 2622.99990653992 14 17 10
133.835479617119 135.181039571762 2625 14 17 10
142.124474048615 136.258959770203 2645.99990844727 16 19 12
150.301709771156 137.130662798882 2663.00010681152 18 21 14
157.387733459473 136.972278356552 2660.00008583069 17 20 13
165.880352258682 137.998044490814 2680.0000667572 18 21 14
174.093648791313 138.714611530304 2694.00000572205 18 21 14
180.22745847702 137.783318758011 2676.00011825562 20 23 16
185.982093214989 136.64598762989 2654.00004386902 21 24 17
193.654507398605 136.950135231018 2660.00008583069 21 24 17
200.07486641407 136.37886941433 2648.9999294281 23 26 19
205.495446920395 135.189726948738 2625.99992752075 24 27 20
-145.911514759064 134.942591190338 2766.99995994568 17 22 15
-134.712383151054 131.385833024979 2694.00000572205 21 26 19
-126.03847682476 130.023419857025 2665.99988937378 16 21 14
-117.82868206501 129.002183675766 2644.99998092651 19 22 13
-110.151216387749 128.468468785286 2634.0000629425 18 21 12
-103.041484951973 128.568589687347 2635.99991798401 17 20 11
-96.0295274853706 128.814905881882 2641.00003242493 17 20 11
-89.6288678050041 129.987776279449 2664.99996185303 17 20 11
-82.5714990496635 130.331307649612 2671.99993133545 17 20 11
-74.4895413517952 128.967493772507 2644.00005340576 17 20 11
-67.1453177928925 128.725335001945 2638.99993896484 19 22 13
-59.9643960595131 128.775671124458 2640.00010490417 20 23 14
-53.0975237488747 129.606306552887 2657.00006484985 20 23 14
-45.7235090434551 129.266068339348 2650.00009536743 21 24 15
-38.4746715426445 129.21829521656 2648.9999294281 18 21 12
-31.5731726586819 130.58502972126 2677.00004577637 18 21 12
-24.2648627609015 130.585700273514 2677.00004577637 17 20 11
-16.8741084635258 129.952073097229 2664.00003433228 14 17 8
-9.55426786094904 129.318237304688 2651.00002288818 13 16 9
-2.32634390704334 129.85497713089 2661.99994087219 10 13 6
4.90225339308381 128.830537199974 2641.00003242493 11 14 7
11.9381984695792 126.976653933525 2602.9999256134 12 15 8
19.461665302515 129.756778478622 2660.00008583069 11 14 7
27.1455831825733 131.8049877882 2701.99990272522 11 14 7
34.3687832355499 131.218865513802 2690.00005722046 9 11 6
41.2472076714039 129.754558205605 2660.00008583069 8 11 4
47.6881079375744 127.558350563049 2615.00000953674 11 14 7
53.9250671863556 125.459596514702 2572.00002670288 17 20 13
61.2540170550346 126.092314720154 2585.00003814697 20 23 16
69.0764933824539 127.505287528038 2614.00008201599 19 22 15
76.852910220623 128.576591610909 2635.99991798401 12 15 8
84.5578089356422 129.355058073997 2651.99995040894 12 15 8
92.3150926828384 130.084529519081 2667.00005531311 11 14 7
98.8842099905014 129.155471920967 2648.00000190735 12 15 8
106.471233069897 129.591926932335 2657.00006484985 13 16 9
113.336533308029 129.150301218033 2648.00000190735 13 16 9
119.833543896675 128.367111086845 2631.99996948242 12 15 6
127.159655094147 128.510415554047 2634.99999046326 13 16 7
135.827273130417 129.921555519104 2664.00003433228 14 17 8
143.309727311134 130.113258957863 2667.99998283386 16 19 10
149.571686983109 129.231914877892 2650.00009536743 18 21 12
157.628312706947 129.910945892334 2664.00003433228 16 19 10
164.832204580307 129.858300089836 2663.00010681152 17 20 11
173.968702554703 131.268367171288 2691.99991226196 17 20 11
180.433943867683 130.630210042 2678.99990081787 19 22 13
187.388196587563 130.382016301155 2674.00002479553 20 23 14
194.532871246338 130.279943346977 2671.99993133545 21 24 15
207.143843173981 129.05153632164 2647.0000743866 25 28 21
-134.665563702583 123.989462852478 2693.00007820129 19 24 17
-126.183286309242 122.887432575226 2668.99991035461 13 18 11
-118.722438812256 122.706063091755 2664.99996185303 18 21 12
-110.530190169811 121.69573456049 2642.99988746643 18 21 12
-103.161193430424 121.514014899731 2638.99993896484 18 21 12
-96.5772196650505 122.299112379551 2655.99989891052 17 20 11
-89.2946645617485 122.255206108093 2654.99997138977 17 20 11
-82.4498534202576 122.855804860592 2667.99998283386 17 20 11
-75.1674845814705 122.857645153999 2667.99998283386 17 20 11
-67.2232508659363 121.662013232708 2641.99995994568 18 21 12
-60.1021163165569 121.847689151764 2645.99990844727 20 23 14
-53.1787276268005 122.539758682251 2661.00001335144 20 23 14
-45.8798930048943 122.448801994324 2658.99991989136 19 22 13
-38.7806110084057 122.956350445747 2670.00007629395 20 23 14
-31.4677767455578 122.865065932274 2667.99998283386 19 22 13
-24.1204127669334 122.543342411518 2661.00001335144 17 20 13
-16.7604964226484 121.853046119213 2645.99990844727 16 19 12
-9.59053821861744 122.544139623642 2661.00001335144 15 18 11
-2.32814741320908 122.682422399521 2664.00003433228 15 18 11
4.95248986408114 122.866600751877 2667.99998283386 14 17 10
12.0623195543885 121.116444468498 2630.00011444092 11 13 8
19.2206837236881 120.97791582346 2627.00009346008 10 12 7
27.0256716758013 123.878620564938 2690.00005722046 10 12 7
34.2929437756538 123.601615428925 2684.00001525879 10 12 7
41.4187647402287 123.00205975771 2671.0000038147 10 13 6
48.4369620680809 122.310265898705 2655.99989891052 8 11 4
54.4295608997345 119.546040892601 2595.99995613098 21 24 17
61.516135931015 119.544684886932 2595.99995613098 26 29 22
69.1574290394783 120.51023542881 2617.00010299683 21 24 17
76.8839046359062 121.42950296402 2637.00008392334 10 13 6
84.942452609539 122.67093360424 2664.00003433228 11 14 7
92.2134444117546 122.668877243996 2664.00003433228 12 15 8
99.2973297834396 122.436426579952 2658.99991989136 12 15 8
105.792514979839 121.559202671051 2640.00010490417 13 16 9
112.654387950897 121.188335120678 2631.99996948242 14 17 10
121.338881552219 122.705072164536 2664.99996185303 12 15 6
128.224357962608 122.333884239197 2657.00006484985 14 17 8
136.493325233459 123.251684010029 2677.00004577637 15 18 9
143.098250031471 122.64996021986 2664.00003433228 16 19 10
150.139644742012 122.462444007397 2660.00008583069 16 19 10
157.040283083916 122.182726860046 2654.00004386902 16 19 10
164.526551961899 122.363202273846 2657.99999237061 16 19 10
171.3877171278 122.08317220211 2651.99995040894 17 20 11
179.02372777462 122.355423867702 2657.99999237061 18 21 12
186.411455273628 122.443363070488 2660.00008583069 19 22 13
194.027736783028 122.669219970703 2664.99996185303 21 24 15
202.123731374741 123.171091079712 2676.00011825562 23 26 19
209.339812397957 123.120449483395 2674.99995231628 20 23 16
-143.650576472282 117.981031537056 2723.99997711182 10 15 8
-132.3182284832 114.605650305748 2645.99990844727 15 20 13
-126.658886671066 116.037778556347 2678.99990081787 20 25 18
-120.41798979044 117.080017924309 2703.00006866455 17 20 11
-110.992699861526 114.960059523582 2654.00004386902 17 20 11
-102.96805948019 114.096060395241 2634.0000629425 17 20 11
-95.7430452108383 114.054895937443 2632.99989700317 17 20 11
-89.094877243042 114.749997854233 2648.9999294281 16 19 10
-82.2662860155106 115.315012633801 2661.99994087219 18 21 12
-75.0001147389412 115.316718816757 2661.99994087219 17 20 11
-67.7082091569901 115.274965763092 2661.00001335144 19 22 13
-60.3533387184143 115.103080868721 2657.00006484985 20 23 14
-53.0400313436985 114.974357187748 2654.00004386902 20 23 14
-45.6738695502281 114.672183990479 2647.0000743866 19 22 13
-38.447417318821 114.673122763634 2647.0000743866 20 23 14
-31.33874386549 115.107096731663 2657.00006484985 19 22 13
-24.1028275340796 115.194343030453 2658.99991989136 17 20 13
-16.7988818138838 114.891536533833 2651.99995040894 16 19 12
-9.56912897527218 115.021787583828 2654.99997138977 16 19 12
-2.32120859436691 115.065239369869 2655.99989891052 15 18 11
4.92290128022432 114.891931414604 2651.99995040894 15 18 11
12.1497334912419 114.761762320995 2648.9999294281 12 14 9
19.1772188991308 113.548398017883 2621.00005149841 11 13 8
26.6645941883326 114.977531135082 2654.00004386902 10 12 7
34.2681631445885 116.189889609814 2681.99992179871 9 11 6
41.8849177658558 117.012180387974 2700.99997520447 8 11 4
49.0034073591232 116.404674947262 2687.00003623962 9 12 5
54.9130290746689 113.457694649696 2618.99995803833 19 22 15
61.8492774665356 113.066516816616 2609.99989509583 22 25 18
69.7667896747589 114.364698529243 2640.00010490417 18 21 14
77.1771967411041 114.66633528471 2647.0000743866 11 14 7
84.019660949707 114.144742488861 2634.99999046326 12 15 8
92.3193693161011 115.529015660286 2667.00005531311 12 15 8
98.9634618163109 114.790543913841 2650.00009536743 12 15 8
105.8349609375 114.398457109928 2641.00003242493 12 15 8
113.298945128918 114.655986428261 2647.0000743866 13 16 9
120.749697089195 114.870019257069 2651.99995040894 12 15 6
129.481986165047 116.210043430328 2683.00008773804 14 17 8
135.884493589401 115.427553653717 2664.99996185303 15 18 9
143.692284822464 115.857653319836 2674.99995231628 16 19 10
150.820285081863 115.724548697472 2671.99993133545 17 20 11
157.102927565575 114.98498916626 2654.99997138977 16 19 10
163.354068994522 114.288613200188 2638.99993896484 16 19 10
171.003729104996 114.588186144829 2645.99990844727 17 20 11
178.219392895699 114.58446085453 2645.99990844727 18 21 12
186.065122485161 114.970326423645 2654.99997138977 19 22 13
194.687247276306 115.789040923119 2674.00002479553 21 24 15
202.505797147751 116.087935864925 2680.99999427795 24 27 20
210.126951336861 116.256773471832 2684.99994277954 24 27 20
-134.521350264549 109.171018004417 2690.00005722046 16 21 14
-128.552719950676 110.350638628006 2719.00010108948 19 24 17
-121.757037937641 110.921375453472 2733.00004005432 18 21 12
-111.036852002144 107.757993042469 2654.99997138977 19 22 13
-103.400245308876 107.354313135147 2644.99998092651 19 22 13
-96.0359796881676 107.193998992443 2641.00003242493 18 21 12
-89.2313048243523 107.682958245277 2653.00011634827 17 20 11
-81.7735493183136 107.400573790073 2645.99990844727 18 21 12
-74.8044848442078 107.76748508215 2654.99997138977 17 20 11
-67.7350834012032 108.05307328701 2661.99994087219 18 21 12
-60.5590529739857 108.216769993305 2665.99988937378 19 22 13
-53.2010346651077 108.055554330349 2661.99994087219 18 21 12
-45.4160049557686 106.838807463646 2631.99996948242 17 20 11
-38.2303521037102 106.839671730995 2631.99996948242 15 18 11
-31.2096662819386 107.408687472343 2645.99990844727 13 16 9
-24.112407118082 107.97755420208 2660.00008583069 11 14 7
-16.8372467160225 107.896789908409 2657.99999237061 12 15 8
-9.54770762473345 107.53171890974 2648.9999294281 13 16 9
-2.31426605023444 107.491247355938 2648.00000190735 12 14 9
4.91001131013036 107.369437813759 2644.99998092651 13 15 10
12.1866846457124 107.856377959251 2657.00006484985 13 15 10
19.302012398839 107.084788382053 2638.00001144409 12 14 9
26.7756767570972 108.180329203606 2664.99996185303 7 9 4
34.5372185111046 109.72223430872 2703.00006866455 5 7 2
42.1959571540356 110.452108085155 2720.99995613098 6 9 2
49.0409210324287 109.152212738991 2688.99989128113 12 15 8
55.27064204216 106.999769806862 2635.99991798401 13 16 9
62.7510994672775 107.48565942049 2648.00000190735 15 18 11
69.7682723402977 107.159577310085 2640.00010490417 14 17 10
76.4790549874306 106.468036770821 2622.99990653992 12 15 8
84.6591666340828 107.765257358551 2654.99997138977 13 16 9
91.2482067942619 106.992281973362 2635.99991798401 13 16 9
98.965547978878 107.558578252792 2650.00009536743 11 14 7
106.919206678867 108.287058770657 2667.99998283386 11 14 7
113.429732620716 107.554242014885 2650.00009536743 12 15 8
121.298618614674 108.120068907738 2664.00003433228 12 15 6
128.905564546585 108.401618897915 2671.0000038147 14 17 8
135.938316583633 108.196012675762 2665.99988937378 16 19 10
143.158107995987 108.152613043785 2664.99996185303 18 21 12
150.766983628273 108.393140137196 2671.0000038147 19 22 13
156.810328364372 107.537843286991 2650.00009536743 17 20 11
163.109853863716 106.925927102566 2634.99999046326 17 20 11
171.33042216301 107.571832835674 2651.00002288818 17 20 11
179.098725318909 107.892937958241 2658.99991989136 18 21 12
186.699703335762 108.092173933983 2664.00003433228 19 22 13
195.85619866848 109.143286943436 2690.00005722046 20 23 14
203.114211559296 109.098739922047 2688.99989128113 20 23 16
208.331242203712 107.999250292778 2661.99994087219 22 25 18
215.748876333237 108.076192438602 2664.00003433228 20 23 16
-135.024070739746 102.208733558655 2700.00004768372 22 25 18
-129.122599959373 103.384755551815 2730.99994659424 20 23 16
-121.313914656639 103.084288537502 2723.00004959106 19 22 13
-112.837418913841 102.140083909035 2697.99995422363 19 22 13
-104.145050048828 100.854970514774 2664.00003433228 19 22 13
-97.0924273133278 101.084031164646 2670.00007629395 18 21 12
-89.905746281147 101.199388504028 2673.00009727478 18 21 12
-82.6096162199974 101.201042532921 2673.00009727478 17 20 11
-75.2567797899246 101.126834750175 2671.0000038147 16 19 10
-67.6346495747566 100.636005401611 2657.99999237061 16 19 10
-60.5602487921715 100.940115749836 2665.99988937378 17 20 11
-52.9622696340084 100.33542662859 2650.00009536743 16 19 10
-45.4514250159264 99.730558693409 2634.0000629425 15 18 9
-38.332786411047 99.9206677079201 2638.99993896484 11 14 7
-31.4108058810234 100.830055773258 2663.00010681152 9 12 5
-24.1038203239441 100.679144263268 2658.99991989136 8 11 4
-16.856586560607 100.755274295807 2661.00001335144 8 11 4
-9.53708402812481 100.187554955482 2645.99990844727 9 12 5
-2.30382429435849 99.8090282082558 2635.99991798401 10 12 7
4.88412007689476 99.6196940541267 2631.00004196167 10 12 7
19.5438601076603 101.133771240711 2671.0000038147 10 12 7
26.796305552125 100.981876254082 2667.00005531311 5 7 2
34.4740189611912 102.155052125454 2697.99995422363 3 5 0
41.9176556169987 102.343633770943 2703.00006866455 6 9 2
49.0236580371857 101.774826645851 2687.99996376038 13 16 9
56.2572404742241 101.584494113922 2683.00008773804 13 16 9
63.937246799469 102.151282131672 2697.99995422363 13 16 9
70.377491414547 100.82483291626 2663.00010681152 13 16 9
77.5302425026894 100.671961903572 2658.99991989136 12 15 8
84.756501019001 100.632555782795 2657.99999237061 13 16 9
93.327023088932 102.069534361362 2696.00009918213 13 16 9
99.9384894967079 101.310506463051 2676.00011825562 11 14 7
107.161767780781 101.232826709747 2674.00002479553 11 14 7
114.630483090878 101.38214379549 2677.99997329712 12 15 8
119.251988828182 99.1463661193848 2618.99995803833 13 16 7
128.908082842827 101.112522184849 2671.0000038147 15 18 9
135.4820728302 100.580051541328 2657.00006484985 16 19 10
143.644392490387 101.220943033695 2674.00002479553 19 22 13
150.54415166378 100.953206419945 2667.00005531311 19 22 13
157.582670450211 100.798897445202 2663.00010681152 17 20 11
164.412960410118 100.53089261055 2655.99989891052 17 20 11
172.044664621353 100.754849612713 2661.99994087219 18 21 12
180.718749761581 101.546384394169 2683.00008773804 18 21 12
189.857095479965 102.526962757111 2709.00011062622 19 22 13
196.660876274109 102.220594882965 2700.99997520447 20 23 14
202.36274600029 101.384289562702 2678.99990081787 22 25 18
-134.026348590851 94.1376835107803 2680.0000667572 24 27 20
-128.084778785706 95.158651471138 2709.00011062622 20 23 16
-121.137924492359 95.5121144652367 2719.00010108948 18 21 12
-112.797655165195 94.7413519024849 2697.00002670288 18 21 12
-104.967944324017 94.3217352032661 2684.99994277954 18 21 12
-96.76693379879 93.4804156422615 2661.00001335144 18 21 12
-90.5464738607407 94.5711135864258 2691.99991226196 17 20 11
-83.1674411892891 94.5375338196754 2690.99998474121 17 20 11
-74.9482363462448 93.4498608112335 2660.00008583069 16 19 10
-67.5086751580238 93.2052060961723 2653.00011634827 15 18 9
-60.3569261729717 93.3468714356422 2657.00006484985 16 19 10
-53.1431175768375 93.4181436896324 2658.99991989136 14 17 8
-45.7973815500736 93.2433605194092 2654.00004386902 12 15 6
-38.6240147054195 93.4197753667831 2658.99991989136 12 15 8
-31.2934331595898 93.2096019387245 2653.00011634827 12 15 8
-24.2855697870255 94.1235721111298 2678.99990081787 11 14 7
-16.8188884854317 93.2807251811028 2654.99997138977 9 12 5
-2.296875230968 92.3324525356293 2628.00002098084 7 9 4
4.94918460026383 93.6675146222115 2665.99988937378 8 10 5
12.2376093640924 93.7376394867897 2667.99998283386 9 11 6
19.5295885205269 93.7724933028221 2668.99991035461 8 10 5
26.7063770443201 93.3856070041656 2657.99999237061 5 7 4
34.7557663917542 95.5633446574211 2720.00002861023 4 6 1
41.7943634092808 94.6843177080154 2694.9999332428 4 7 0
48.8604195415974 94.1213816404343 2678.99990081787 10 13 6
56.5098971128464 94.6825593709946 2694.9999332428 10 13 6
63.8910382986069 94.7166308760643 2696.00009918213 11 14 7
70.4580768942833 93.6614647507668 2665.99988937378 11 14 7
77.7357816696167 93.6601534485817 2665.99988937378 11 14 7
84.566742181778 93.1668877601624 2651.99995040894 12 15 8
92.2209769487381 93.5868844389915 2664.00003433228 12 15 8
99.8656526207924 93.9364805817604 2674.00002479553 12 15 8
107.324033975601 94.075158238411 2677.99997329712 12 15 8
114.033319056034 93.5814008116722 2664.00003433228 13 16 9
122.350499033928 94.3872556090355 2687.00003623962 13 16 7
127.896934747696 93.0853635072708 2650.00009536743 15 18 7
136.045441031456 93.7153026461601 2667.99998283386 16 19 8
143.217235803604 93.6426073312759 2665.99988937378 18 21 10
150.885567069054 93.8858985900879 2673.00009727478 18 21 10
157.289639115334 93.3563634753227 2657.99999237061 19 22 11
164.0445291996 93.0725708603859 2650.00009536743 18 21 10
172.177031636238 93.5613438487053 2664.00003433228 18 21 10
180.250495672226 93.979723751545 2676.00011825562 19 22 11
189.369902014732 94.8896110057831 2701.99990272522 19 22 11
196.154728531837 94.605341553688 2694.00000572205 20 23 14
203.197315335274 94.4614335894585 2690.00005722046 21 24 17
209.591165184975 94.0364897251129 2677.99997329712 22 25 18
219.158411026001 95.0160101056099 2706.00008964539 24 27 20
-134.578704833984 87.1796980500221 2690.99998474121 20 23 16
-126.148387789726 86.4366814494133 2667.99998283386 20 23 16
-119.803383946419 87.1190428733826 2688.99989128113 19 22 13
-113.594233989716 87.9957154393196 2716.00008010864 19 22 13
-104.422405362129 86.539514362812 2671.0000038147 19 22 13
-97.3140746355057 86.7031738162041 2676.00011825562 19 22 13
-90.4807522892952 87.1583074331284 2690.00005722046 18 21 12
-82.9525142908096 86.9653224945068 2684.00001525879 18 21 12
-74.6113881468773 85.8001559972763 2648.00000190735 17 20 11
-67.4080327153206 85.8337208628654 2648.9999294281 16 19 10
-60.653280466795 86.5152329206467 2670.00007629395 16 19 10
-53.1640201807022 86.1921384930611 2660.00008583069 14 17 8
-45.970730483532 86.3225683569908 2664.00003433228 12 15 8
-38.5665744543076 86.0316380858421 2654.99997138977 15 18 11
-31.3411541283131 86.0970169305801 2657.00006484985 15 18 11
-24.1409428417683 86.2918868660927 2663.00010681152 14 17 10
-17.0028898864985 86.972713470459 2684.00001525879 12 15 8
-9.64555889368057 86.7137014865875 2676.00011825562 10 12 7
-2.34498549252748 86.9406387209892 2683.00008773804 7 9 4
12.1965371072292 86.1627608537674 2658.99991989136 8 10 5
19.4640699774027 86.1949175596237 2660.00008583069 8 10 5
27.1388851106167 87.5230953097343 2700.99997520447 6 8 5
34.3346893787384 87.0689302682877 2687.00003623962 6 8 5
41.6555106639862 87.0359092950821 2686.00010871887 4 6 1
49.3901781737804 87.7480283379555 2707.99994468689 9 12 5
57.2447739541531 88.4600132703781 2730.00001907349 8 11 4
64.5556896924973 88.2645919919014 2723.99997711182 10 13 6
70.9350034594536 86.9674012064934 2684.00001525879 10 13 6
78.1161710619926 86.8041515350342 2678.99990081787 10 13 6
84.8551765084267 86.2195938825607 2661.00001335144 11 14 7
92.2917872667313 86.3801464438438 2665.99988937378 12 15 8
99.2324277758598 86.0869809985161 2657.00006484985 12 15 8
106.885015964508 86.4093005657196 2667.00005531311 13 16 9
114.163681864738 86.4074975252151 2667.00005531311 14 17 10
121.487401425838 86.4379703998566 2667.99998283386 14 17 8
128.526523709297 86.2739533185959 2663.00010681152 15 18 9
135.180875658989 85.8830511569977 2651.00002288818 16 19 8
143.165931105614 86.3343328237534 2664.99996185303 17 20 9
150.662317872047 86.4615365862846 2668.99991035461 17 20 11
157.410636544228 86.1675143241882 2660.00008583069 19 22 13
163.861572742462 85.7438147068024 2647.0000743866 19 22 11
171.016544103622 85.7087224721909 2645.99990844727 18 21 10
179.579898715019 86.3537266850472 2665.99988937378 19 22 13
186.779841780663 86.3184109330177 2664.99996185303 19 22 11
196.085184812546 87.2222557663918 2693.00007820129 20 23 14
206.297785043716 88.4497910737991 2730.99994659424 23 26 19
210.299029946327 87.0214700698853 2687.00003623962 25 28 21
-126.24491751194 79.2139023542404 2670.00007629395 21 22 14
-118.557758629322 78.9487138390541 2661.00001335144 19 22 13
-110.50096899271 78.3867090940475 2641.99995994568 18 21 10
-105.440519750118 80.0201594829559 2697.00002670288 19 22 11
-97.2428545355797 79.3392583727837 2674.00002479553 19 22 11
-90.9867212176323 80.2604705095291 2704.99992370605 18 22 8
-83.1083506345749 79.7870382666588 2688.99989128113 18 21 10
-74.6407359838486 78.6013379693031 2648.9999294281 16 19 10
-67.434549331665 78.6320865154266 2650.00009536743 16 19 10
-60.4497753083706 78.9594501256943 2661.00001335144 16 19 12
-53.3847101032734 79.2570412158966 2671.0000038147 15 17 12
-45.8679161965847 78.8720324635506 2657.99999237061 13 15 10
-38.7414954602718 79.139731824398 2667.00005531311 13 15 10
-31.447809189558 79.1105851531029 2665.99988937378 12 14 9
-24.1594538092613 79.0813341736794 2664.99996185303 11 13 8
-16.9017985463142 79.1706740856171 2667.99998283386 11 13 8
-9.59524791687727 78.9928212761879 2661.99994087219 10 12 7
-2.33191181905568 79.1709572076797 2667.99998283386 9 11 8
4.93635237216949 78.9038613438606 2658.99991989136 8 10 7
20.0790390372276 81.4258009195328 2743.99995803833 8 10 7
34.641906619072 80.4457291960716 2710.99996566772 6 8 5
41.8112501502037 80.0000578165054 2696.00009918213 6 8 3
49.5733432471752 80.6521773338318 2717.99993515015 9 11 6
57.832807302475 81.8382874131203 2757.99989700317 9 11 6
64.5567029714584 80.828495323658 2723.99997711182 8 10 5
70.6718266010284 79.343855381012 2674.00002479553 9 11 6
77.5925368070602 78.9569988846779 2661.00001335144 9 12 5
85.1435214281082 79.2228281497955 2670.00007629395 9 12 5
92.1201407909393 78.9544433355331 2661.00001335144 9 12 5
