ply
format ascii 1.0
comment KinectMotionCapture
element vertex 795
property float x
property float y
property float z
property uchar red
property uchar green
property uchar blue
end_header
18.4903088324191 269.815464289254 2864.75802221209 28 31 24
43.5214206525361 269.96467222392 2832.26432960705 28 31 24
21.7781803037815 269.164685734481 2842.43567464054 18 21 14
-4.369612102326 268.282739679412 2856.82445947773 19 22 15
-16.9519947322256 267.675216917794 2858.81635765927 29 32 25
-29.495861327927 267.070821385718 2860.83619277601 31 34 27
-53.8843851522191 266.239805190146 2874.03019918718 31 34 27
-41.1388416005005 266.126662637856 2852.39116555272 33 36 29
-28.5042776811637 266.004513538303 2830.67134031737 32 35 28
-26.2864772018183 265.679815691762 2818.6911402042 31 34 27
-18.980684884963 265.446629448934 2801.75365764601 27 30 23
-32.9748009161288 264.816390797082 2805.19241283205 24 27 20
-39.6263873573091 264.322881748335 2801.60307277752 22 25 18
-52.8203593941452 263.711659279156 2804.38663463546 19 22 15
-60.8957628610627 263.194439095633 2802.23538686707 20 23 14
-61.7301707881754 262.805726948708 2792.98269249146 21 24 17
-68.3618741585708 262.313847320379 2789.40777435261 19 22 15
-67.8055177632231 261.946183139856 2778.69301359142 18 21 12
-70.8713062699227 261.514143918752 2771.5279287181 19 22 13
-68.2432205307235 261.176885417295 2758.60975841729 18 21 14
-76.3471516146028 260.657379383071 2756.43781879227 17 20 13
-85.8582653159359 260.115507452911 2755.71603690484 19 22 13
-98.1781636943335 259.529342192684 2757.89832370194 22 25 16
-91.4176444897965 259.252000016395 2740.56533736942 22 25 18
-100.20453992388 258.722997639004 2739.13329084011 21 24 17
-100.564914184266 258.326913529895 2728.98915961625 19 26 18
-73.0166318560645 258.359271253023 2689.67348592678 21 28 20
-81.1985364766252 257.833482098639 2687.44498979574 24 31 23
-80.3435404121253 257.444234285587 2675.71157334945 23 28 21
-94.0655725398667 256.836136325064 2679.34738563358 20 23 16
-80.8384492616683 256.624564663025 2654.35155649281 22 23 17
-102.114896923304 255.908430432171 2666.09704534148 21 22 16
-101.363270335347 255.510827208653 2654.28865183383 20 20 12
-91.7757740884491 255.233468369426 2632.82952378257 7 7 0
-90.4621789605584 254.835578059092 2620.19318070215 10 7 0
-100.73678360272 254.277744110688 2620.15288371643 37 28 21
-113.015402118096 253.695012128705 2622.36511255743 43 23 16
-127.277841910558 253.089006646752 2626.84421902055 94 69 62
-135.439336928486 252.564945110816 2624.63052699675 119 94 87
-140.908896771152 252.07571639314 2619.42801167151 138 118 109
-139.039252149852 251.677099717497 2605.95972042715 151 133 123
146.784648215068 268.571041042148 2847.82881263998 29 34 28
152.366485063995 268.293893961519 2833.34677966637 27 32 26
129.257416862326 267.488716453903 2843.76331175376 18 19 13
118.586745360744 266.914439283934 2843.43581416101 13 14 8
100.249041276174 266.204538932566 2849.90088379118 17 18 12
83.5147255628965 265.527440706979 2855.05808228352 16 19 12
61.6668622176557 264.386467177933 2855.27097471987 17 20 13
52.6853245676042 263.85196927931 2853.69780005843 19 22 15
30.8299372275211 263.099918526899 2863.78838462555 17 20 13
34.0155466518519 262.774305647307 2851.27443412961 27 30 23
52.9782363455742 262.707237024487 2824.26139932284 25 28 21
48.4934909392871 262.245735558375 2818.53760633729 19 22 15
9.52382770501892 261.223973016827 2844.62822473932 20 22 17
-2.35212765881476 260.649249087865 2845.89706214827 26 28 23
-35.800587316136 259.734954107691 2867.34452336048 28 31 24
-36.4017447401277 259.345360316231 2858.2609127867 30 33 26
-35.5534339572514 258.976079797228 2847.75778780456 31 34 27
-34.7459461285224 258.603503455542 2837.2253471748 33 36 29
-35.4515553749795 258.205449768577 2828.06597439475 27 30 21
-34.7209123099592 257.826637785656 2817.47750129405 25 28 19
-35.494792119025 257.423057155733 2808.26860973115 23 26 17
-43.5970524896041 256.911353279703 2806.09792076133 21 24 15
-56.0517240111451 256.338390433826 2808.18228002657 18 21 12
-55.4137335393321 255.952101585884 2797.52689768897 19 22 11
-54.8163102287396 255.562516920585 2786.84179617948 19 22 13
-47.0512879806599 255.26802386228 2769.00187203858 16 19 10
-49.432146200616 254.831408150152 2761.09824793722 14 17 6
-44.6716247616801 254.487741231194 2746.02048895907 16 19 8
-85.6885831974852 253.543297024215 2776.8028486337 16 19 10
-85.1935191842239 253.145454653682 2766.0435028582 19 22 13
-83.3197560229693 252.762196296496 2753.81360613049 19 22 11
-81.4955830632771 252.374926180919 2741.54774008701 22 25 16
-91.0071695323533 251.846272920633 2740.8253879583 25 28 19
-91.356456710221 251.428620980599 2730.68918475185 21 24 15
-98.7517338961879 250.925757961576 2727.79571665478 16 22 12
-92.1638935846527 250.584505400517 2710.3375224659 18 24 14
-74.5113130393609 250.362641953681 2681.1386464058 23 29 19
-96.5883915646128 249.690196083316 2693.53899877448 20 26 16
-78.4204547704808 249.461537734769 2663.47893888772 17 23 13
-85.9356411233767 248.949010211307 2660.49849712393 20 23 14
-112.699595798068 248.236876105792 2678.14717175572 20 21 13
-113.282012038007 247.800398699205 2667.84157848524 17 17 9
-96.1349076432863 247.537610407776 2638.27635916081 15 12 5
-81.8633713182766 247.236110981933 2611.56682408928 16 11 5
-91.486422933353 246.698577161263 2610.76362351566 38 27 21
-105.148336189308 246.125245211592 2614.44319334965 38 19 13
-122.134894605706 245.525426303823 2621.88829489377 91 66 59
-134.345819856453 244.972564443028 2624.14974732499 108 81 74
-141.827548198506 244.462895907528 2621.19386894565 133 109 99
-142.622893237969 244.009263176738 2610.73383214917 145 123 112
172.880742228672 261.426627837849 2825.95108671351 29 34 28
146.577839092795 260.627551749505 2838.99281159599 28 33 27
142.827443747064 260.168120542266 2832.56633849821 18 21 14
106.656513696738 259.236443256561 2854.51050251275 16 19 12
99.892369781037 258.738050140004 2850.83954240409 15 18 11
86.993948721267 258.153052118131 2852.60245167547 14 17 10
77.1941503306031 257.613916868665 2851.67111548071 14 17 10
65.1266076583159 257.044970991101 2852.80139090508 15 18 11
31.7966846529147 256.189745802318 2873.1000444369 17 20 13
-20.336109879511 255.093662698688 2910.64485220194 17 20 13
26.1042444086979 255.314942656117 2859.08786550612 22 25 18
42.8340218030634 255.129759906691 2834.16095101412 20 23 16
31.6142026076802 254.578244726088 2834.67051646191 18 20 15
25.6712095168381 254.09515491966 2830.35986699549 19 21 16
10.0108341812386 253.491716356002 2835.06092425814 23 25 20
-12.3003603215319 252.811190045493 2846.05648340022 25 28 21
-14.4545320362677 252.378590527841 2838.31691505003 26 29 22
-27.7439864373266 251.813398621996 2841.03149285832 25 28 21
-36.5589877039165 251.302921965036 2839.57946012466 29 32 25
-43.8844784191419 250.810513404073 2836.73663468344 21 24 15
-47.5312977429163 250.359637305218 2830.38528938771 18 21 12
-48.9965439602038 249.931606124038 2821.91041882036 18 21 12
-57.7871188675037 249.423152059047 2820.47580904364 19 22 13
-58.5576937602095 249.000107835741 2811.2692146982 18 21 12
-54.2822536104592 248.6267243483 2797.0746960503 18 21 12
-50.0697592326123 248.24825190972 2782.83481536949 19 22 13
-45.9200464147447 247.864689730633 2768.54939721549 17 20 11
-49.0210577343619 247.406784964801 2761.35864755931 16 19 10
-75.7875727015598 246.724754907103 2777.76999308011 17 20 11
-95.9982509269817 246.112144278262 2787.8185320468 18 21 12
-106.15110543235 245.596065354173 2787.86641135393 22 25 16
-85.750434308721 245.349032182205 2756.95444742401 22 25 16
-76.1302951193357 244.998226513595 2736.75364754493 24 27 18
-84.9527469391898 244.487364717055 2735.2962117954 22 25 16
-119.781987415878 243.768057062766 2760.68414416739 19 22 13
-102.547447206639 243.469749051066 2732.41716564569 19 22 13
-90.3521160147727 243.122358648945 2709.14275371171 17 23 13
-85.2397718036011 242.714247846331 2693.08467551925 22 28 18
-103.812512528954 242.131924742442 2701.85037601191 21 27 17
-94.6146360506093 241.746954025897 2681.34329582936 21 27 17
-85.5149521668377 241.354024880128 2660.76499342846 20 23 14
-95.0863494168131 240.833942589967 2659.99962107892 19 22 13
-114.921611693953 240.25206680629 2670.32016827932 18 18 10
-88.1940942935269 239.953113821761 2630.40782642367 16 11 5
-74.6236992631977 239.563222757186 2604.42490244967 14 9 3
-82.9115737428723 239.044561485799 2602.11962261038 29 20 13
-98.6321785978426 238.488237526396 2608.01229348303 27 12 5
-118.339429347905 237.916866527621 2618.42569218011 76 53 45
-133.25231484512 237.374737242784 2623.66893132241 106 82 72
-143.417271036972 236.858080374292 2623.70832940837 130 102 91
-142.200749395573 236.391114289556 2611.00126580352 139 112 101
-133.044709260632 235.951583840054 2589.2285445778 156 140 125
178.750272806817 253.867538237329 2821.52190105409 29 34 28
171.831082082436 253.358656963727 2817.73849108037 28 33 27
154.854274832385 252.737406130797 2822.72018516073 18 21 14
127.133547578949 252.002262224967 2837.20479064705 14 17 10
106.460559351042 251.351815628018 2845.68266847389 15 18 11
91.2414224016227 250.764980901417 2849.46834185466 14 17 10
49.5136986205922 249.487370038983 2867.3825152842 15 18 11
52.740134408753 249.098080621282 2854.89813263348 16 19 12
59.7058834120769 248.741500673376 2838.94855703619 14 17 10
45.4176304846152 248.176163953394 2842.17441484999 18 21 14
28.9143211783802 247.593512576769 2847.49955320862 17 20 13
26.758726298465 247.146472320179 2839.75888003042 17 19 14
37.325721174513 246.811438587722 2820.24485041049 17 19 14
-3.03893619255025 246.025117921837 2847.79547361293 20 22 17
-10.406558993963 245.534174647931 2844.92211314526 23 26 19
-21.4822544087536 245.013066653927 2845.53631101574 24 27 20
-23.6368854849285 244.566180179364 2837.79663177541 23 26 19
-31.7245869854896 244.070997759213 2835.63658052559 26 29 22
-33.1711548692168 243.627434917674 2827.17487713291 21 24 15
-36.8483019728458 243.165317722598 2820.80148964397 19 22 13
-47.1291519192381 242.654656199916 2820.75690424157 18 21 12
-56.654587960697 242.151161714016 2820.02463969643 19 22 13
-63.2483545089133 241.669015983173 2816.47756655072 18 21 12
-64.0343045884122 241.224988335325 2807.25972011908 18 21 12
-41.7051986502792 240.923959161009 2775.27507850521 18 21 12
-60.6538784016657 240.359788841649 2783.76805024538 17 20 11
-64.4267197935431 239.890010824729 2777.32525312109 17 20 11
-83.9820259934521 239.33084079853 2786.61382483637 17 20 11
-102.025463822527 238.786082698366 2794.52808746236 18 21 12
-96.4884738621921 238.367893666808 2778.77779298764 22 25 16
-96.7041048257187 237.916117750763 2768.73830717867 24 27 18
-84.921587467641 237.517398964457 2746.3994143275 24 27 18
-83.1303229138243 237.066049059473 2734.10936770153 20 23 14
-99.6795386710769 236.5343826474 2740.63681684925 17 20 11
-90.2158046844481 236.109991992514 2720.32226277837 19 22 13
-80.8503116442341 235.677642725355 2699.93645143694 21 27 17
-82.7328988246341 235.199000167409 2691.15849066531 26 32 22
-99.9255549553118 234.669380558519 2698.45454315129 23 29 19
-100.429752320179 234.194339565435 2688.20575155747 19 25 15
-93.3775806099637 233.736805723829 2669.84824101498 20 23 14
-97.4188482688294 233.24555289987 2663.21074718713 19 22 13
-92.5586459548393 232.772644806873 2646.96955774138 19 19 11
-74.7816816982643 232.318994472033 2616.6249338896 17 12 6
-67.3813298946437 231.835636343286 2597.28465909305 14 9 3
-77.0500037913953 231.321062619051 2596.44850225123 26 17 10
-91.4364718709255 230.80279150808 2600.83843683107 29 19 10
-114.542622283938 230.280989217613 2614.96362932467 45 27 17
-130.81365542268 229.772334783547 2621.69285554945 62 39 31
-142.326721579043 229.270716195745 2623.2251293823 128 100 89
-141.778923399087 228.773028335536 2611.26846936336 135 108 97
-132.619367752897 228.270157385465 2589.49797577465 147 128 114
184.621389961225 246.270277647654 2817.09367219408 25 30 24
177.686771772335 245.762267482813 2813.29908293443 25 30 24
169.98125255183 245.248600669659 2810.18095351931 15 18 11
153.792857535541 244.67223461116 2814.4993751745 14 17 10
132.272795315843 244.061400775088 2823.59842826288 15 18 11
123.119202920144 243.544019171696 2821.9006141419 14 17 10
116.278127362545 243.043661682976 2818.17387469429 16 19 12
96.4675117150784 242.457873624735 2826.04219568768 14 17 10
88.9094517547506 241.956250583456 2823.03072916425 15 18 11
89.7048073647193 241.506783055648 2812.48880968415 14 17 10
62.4687251680545 240.887359818819 2827.32533086297 16 19 12
38.372003673194 240.29519041214 2839.49704418698 15 18 11
25.6611829805147 239.773726592661 2841.39627078132 15 17 12
7.73953684807793 239.227648003934 2848.16377948963 16 18 13
-33.114495063973 238.127212193458 2866.71220822706 21 24 17
-27.7701781851407 237.705674989477 2852.05726059376 23 26 19
-32.8686425365574 237.233188141374 2847.12384511057 23 26 19
-33.5390314019799 236.778700362956 2837.98971848658 23 26 19
-32.7679008317254 236.327412228328 2827.43022853647 23 26 17
-29.8339347699053 235.880966340181 2814.7332443537 22 25 16
-38.671011149698 235.389621023152 2813.26530580338 20 23 14
-46.031065890848 234.904352267873 2810.39746032666 19 22 13
-48.2883047641298 234.434951192362 2802.58328446355 18 21 12
-35.3289464822761 234.005577462264 2779.86231681052 17 20 11
-23.9321732404527 233.563171129931 2758.47860516046 17 20 11
-52.3132894770957 233.02213931863 2776.19086816011 18 21 12
-66.8962920104685 232.519831252453 2780.43841157607 18 21 12
-74.2584972738394 232.03453390644 2777.56900699508 18 21 12
-83.7571051384649 231.546609509029 2776.85656411045 18 21 12
-93.2346075503807 231.060418136182 2776.15913532 22 25 16
-84.2243784359111 230.595146637098 2756.75094992571 24 27 18
-83.0964268008143 230.116140975404 2745.2149501565 23 26 17
-85.5428683391957 229.631588715017 2737.26324602292 18 21 12
-85.9016240172545 229.145782431323 2727.11983368343 17 20 11
-78.5808467056621 228.657260451171 2708.95688411267 23 26 17
-80.4349565288971 228.163946431264 2700.19949287114 23 29 19
-86.4987377043673 227.670472137767 2695.80122894496 26 32 22
-107.154637124885 227.187862708026 2706.76271267673 23 29 19
-113.174008178651 226.698060809432 2702.39666119694 13 19 9
-97.7921215531155 226.180957964324 2675.25561957426 20 23 14
-87.3656753466991 225.660074166735 2653.16839412161 20 23 14
-76.3601625140042 225.129280153311 2630.26556512084 19 19 11
-79.141512208518 224.617830994959 2622.07123715651 18 13 7
-68.3147404674731 224.072571895687 2599.03876165536 15 10 4
-77.3004359945639 223.5698559978 2597.46273384221 23 16 8
-86.9465908422438 223.070505141642 2596.6432731235 32 23 14
-105.345337303477 222.600715627676 2605.53538129924 37 20 10
-123.665509269416 222.137365360296 2614.48477689656 72 52 43
-138.554357615958 221.66797230576 2619.74580950571 117 88 80
-138.684329716787 221.144319583426 2608.53272445795 139 111 100
-128.197860665084 220.571675136588 2585.25341756269 151 129 118
167.914585235826 238.531511986496 2832.11592723854 23 28 22
185.873242987577 238.13788240177 2806.84376188971 23 28 22
182.790894691539 237.646515146171 2799.6663719635 16 19 12
160.389371052208 237.077944993003 2809.36168556055 15 18 11
165.023011970585 236.616509046136 2795.42668276816 14 17 10
158.079560603764 236.109934072719 2791.62569741885 13 16 9
115.929245053934 235.489113274239 2819.11773381542 15 18 11
93.0652704237227 234.942820482876 2829.71325076544 13 16 9
115.198662971137 234.530091371855 2800.05653429113 14 17 10
85.5666783564764 233.971274107 2816.86163154485 15 18 11
64.3929003441981 233.442998182999 2826.21213161736 14 17 10
58.395119662662 232.953690725219 2821.86173396359 14 17 10
52.3961822506021 232.464311963298 2817.51049741002 15 18 11
38.1453862129999 231.96126806582 2820.76382404807 14 16 11
-33.6430333790274 231.380828393349 2877.41080637578 15 17 12
-22.2773601470128 230.929145062554 2857.2398337813 12 15 8
-26.626683528707 230.454513352164 2851.61443908117 14 17 10
-31.7270841067832 229.978572536307 2846.67960249092 17 20 13
-33.137612174734 229.503894017056 2838.24386752278 19 22 15
-30.154541248663 229.027943496119 2825.58233105728 22 25 16
-33.102654725631 228.547794284831 2818.50230763774 21 24 15
-37.5342908956306 228.066547440038 2812.81691465674 19 22 13
-36.8642878530587 227.581850380272 2802.18424045787 20 23 14
-33.3226257510684 227.091619184469 2788.69252969309 21 24 15
-24.0325373944044 226.590740156951 2769.48674539978 17 20 11
-37.2690975650571 226.110754404346 2772.24009895048 16 19 10
-50.4626907419032 225.634301733259 2775.02461808771 19 22 13
-60.0172483743473 225.154999621993 2774.27165969595 20 23 14
-68.8336134803211 224.675974859792 2772.81850311904 19 22 13
-76.9186908517456 224.19668590786 2770.66043465998 21 24 15
-87.8419988446153 223.725703489637 2771.38535532065 23 26 17
-76.0022466804773 223.193260285918 2749.08727586131 26 29 20
-74.188834730583 222.682265521062 2736.81298224244 24 27 18
-79.48506338303 222.190826378112 2731.73610719982 19 22 13
-77.7486665630249 221.673615776357 2719.40565770824 22 25 16
-80.9731300628929 221.17141892422 2712.12519058385 30 33 24
-81.4187531301065 220.656152812592 2701.91865700028 25 31 21
-97.9355073720551 220.208725173428 2708.46977040217 20 26 16
-133.846066419703 219.857840376181 2735.54606573542 21 27 17
-117.61125569224 219.264650035063 2707.78819944619 15 21 11
-106.352480339217 218.68522711214 2685.06871953627 18 21 12
-59.4119098239478 217.899368481621 2623.98836691545 17 20 11
-63.5857247322167 217.379998003013 2617.25464433634 18 18 10
-68.4576602652989 216.863671969627 2611.24989126758 18 13 7
-72.6577428907875 216.342251926736 2604.49711627823 15 10 4
-78.9105814385829 215.833278912219 2599.96172212409 21 17 8
-83.8098422751452 215.314880272482 2593.93744433855 34 32 20
-97.4946275623065 214.859124253275 2597.60102929428 22 12 0
-112.47743272171 214.417424509851 2602.79409087672 191 174 164
-128.744944690071 213.990844612855 2609.52628539678 100 71 63
-130.909767819262 213.45591486486 2600.54344065694 134 106 95
-125.773677416798 212.857246320118 2583.26657474359 146 122 112
163.508897013815 231.416163904962 2846.17809437747 13 18 12
180.014552825739 230.943807687898 2822.32229140634 22 27 21
180.860705511723 230.447852278284 2811.81696034042 22 27 21
173.148052489869 229.94334205555 2808.69370586039 17 20 13
163.899001877674 229.438879962156 2806.92675748096 16 19 12
162.366155112032 228.936955355884 2798.40221307165 14 17 10
153.895773605928 228.433341680697 2795.96470621305 12 15 8
76.6831073274838 227.462293997131 2844.97244796444 13 16 9
96.5870390217325 226.953694528786 2817.40417202395 15 18 11
76.8722307417971 226.47330053178 2825.34247966439 16 19 12
78.4259874675839 225.972477551338 2814.11504458354 15 18 11
74.6524546821292 225.475945506413 2807.67161073887 15 18 11
58.0737385782943 225.000659380209 2812.94262892682 16 19 12
28.0517047428979 224.557285477939 2830.70088702597 14 16 11
5.64925019013351 224.10855791772 2841.63146391659 14 16 11
16.904100013686 223.584150004091 2821.37978470388 9 12 5
-26.2268991999841 223.200014414024 2851.86750580557 10 13 6
-32.8098351995496 222.725229125944 2848.32802676078 14 17 10
-27.5622498259274 222.212426243744 2833.60278859337 19 22 15
-35.6478811699992 221.740504380922 2831.44435586348 19 22 13
-36.3731203044462 221.24206089682 2822.26994998758 18 21 12
-37.130492899226 220.7410395384 2813.0725313001 17 20 11
-26.2332657755597 220.187619123885 2792.56145680615 19 22 13
-26.3615788051252 219.675277600519 2782.58496285422 22 25 16
-21.4440816003951 219.135686197129 2767.62000656259 16 19 10
-46.9933766294606 218.744089984561 2782.44543311661 16 19 10
-54.3847264523158 218.266315471626 2779.55493912711 20 23 14
-54.5746958114552 217.749087383618 2769.53372443465 21 24 15
-65.5586368607812 217.291814412022 2770.21476033977 19 22 13
-80.0875811686186 216.858876577541 2774.50154861396 23 26 17
-86.7243850987334 216.380129813499 2770.92329396808 24 27 18
-77.725207081988 215.79757547587 2751.50620885949 26 29 20
-77.3202821099694 215.266367743601 2740.68113832451 25 28 19
-84.7235634242389 214.787906695931 2737.78199146481 21 24 15
-87.8955638451913 214.278477923789 2730.53951931484 25 28 19
-88.9809943454862 213.751212541388 2721.10415151939 29 32 23
-100.591176243408 213.305883884995 2722.56630919824 27 33 23
-112.864553332525 212.869210001252 2724.78307747404 23 29 19
-129.269842284929 212.471706091548 2731.41554179367 22 28 18
-137.987828612943 212.011662639451 2730.03379823648 12 18 8
-105.247436954036 211.17184903452 2684.59669569859 17 20 11
-50.1198390481046 209.52560827419 2603.50910539564 16 16 8
-71.451103638146 209.165399085821 2615.21665911356 17 12 6
-72.9122040494741 208.607961630227 2605.50880735492 15 10 4
-82.5608940438958 208.135025846156 2604.68734817475 22 18 9
-84.0592885295435 207.574664238327 2594.95244633433 27 27 15
-91.6665915644219 207.080294154468 2591.90561366994 14 6 0
-105.322915236494 206.656768026931 2595.5899943086 199 185 174
-122.956271359 206.285044714872 2603.80241037057 82 55 46
-127.143593338124 205.75634283437 2597.05884896215 121 93 82
-121.34955014959 205.101534523679 2579.02362607665 127 103 93
176.42259899795 223.827422318181 2835.7390156133 16 21 15
196.013154086522 223.264883008489 2809.17862417386 27 32 26
194.486691864621 222.746388890317 2800.65862412872 19 24 18
167.373552822213 222.299991461402 2814.34981472741 19 22 15
142.694893748194 221.855910206944 2826.10041917681 16 19 12
138.914054274968 221.349865740417 2819.65164037595 16 19 12
145.10199189181 220.806380783725 2804.3728915778 16 19 12
129.012307464106 220.343223976296 2808.76344407243 14 17 10
140.466195391732 219.771249727848 2788.65581089617 13 16 9
105.375834720501 219.394069170982 2810.15078024314 14 17 10
86.3934333056355 218.956764480063 2817.38491240002 15 18 11
84.8945987758447 218.440650404625 2808.88495231388 14 17 10
75.0658995028877 217.964863209592 2807.93328060018 13 16 9
34.4610356128365 217.1368792355 2825.42867994733 13 15 10
49.4460127642204 216.525844315603 2801.70483875652 14 16 11
-12.5274967639641 216.377250929654 2849.41268662598 11 14 7
12.1043633322593 215.70248277622 2816.62509984749 8 11 4
-12.3884282540423 215.339465543205 2829.74618531682 11 14 7
-24.9425528397149 214.903336867216 2831.75943650251 16 19 12
-27.8750011041458 214.401385241805 2824.6903642193 17 20 11
-24.2117112210281 213.84855583123 2811.28680143344 16 19 10
-34.5288497835667 213.398670281436 2811.21592300403 14 17 8
-15.5986995861521 212.71698921571 2782.94114985957 15 18 9
-23.7683653916205 212.246037522276 2780.72180366933 16 19 10
-50.0795374518854 211.931299208265 2796.23006075676 18 21 12
-53.1023102662218 211.422186270911 2789.09576848327 20 23 14
-51.0916151725569 210.865618841273 2776.96425879101 17 20 11
-47.6913282379481 210.291536378203 2763.3696374271 17 20 11
-64.4348632743448 209.906707661497 2769.75696414426 21 24 15
-77.5376097116247 209.491708880136 2772.60765129783 18 21 12
-67.0708729635428 208.839753175156 2751.78400604283 22 25 16
-73.0531737606579 208.351244214061 2747.44483413218 21 24 15
-83.2874339921179 207.908584289787 2747.4340725729 23 26 17
-85.727133249379 207.381938971669 2739.48733733017 25 28 19
-88.1898522224684 206.853448313376 2731.52361078014 24 27 18
-101.906033643015 206.454152499116 2735.16501646784 21 24 15
-107.178280116965 205.958361519144 2730.10521009828 18 24 14
-111.758723140166 205.453625343478 2724.31211935263 23 29 19
-126.777803397764 205.079085077713 2729.47922451824 20 26 16
-142.433491390144 204.718109992144 2735.41994449054 15 21 11
-97.2338484927995 203.562257807008 2676.78079208355 16 19 10
-96.3552873621132 201.212893698914 2631.70618527662 18 13 7
-77.376055429772 200.339922751136 2599.76061924368 28 24 15
-81.5990667096826 199.799424076799 2592.99112614639 30 27 18
-89.2132475085001 199.30959744558 2589.93933065763 27 19 8
-103.550914939335 198.925798407248 2594.3650285197 208 194 185
-119.849376077307 198.578466959461 2601.07518873523 64 40 30
-122.707506756505 198.018679138941 2592.82466127464 119 92 83
-116.257470131684 197.302079636109 2574.02963241693 118 98 87
216.684627534147 215.995983033936 2801.89457182802 193 198 192
201.889537294352 215.537015905198 2804.75355124062 32 37 31
169.342814953659 214.650615895258 2813.26826154192 20 23 16
131.523906342148 214.358833504062 2836.49137965707 16 19 12
128.546743775352 213.841354722727 2829.39010885074 16 19 12
121.7106353747 213.349965398618 2825.66701562673 16 19 12
140.152210279394 212.670745151102 2799.50814954879 14 17 10
153.869983558994 212.015215969533 2777.33582759106 12 15 8
115.690510981609 211.762385912986 2801.53279912298 13 16 9
83.0095270545761 211.480909120698 2821.0697519613 14 17 10
82.2796301832622 210.942309285424 2811.89206066973 14 17 10
90.5769010746078 210.321916360022 2794.43632418201 13 16 9
57.3904907204197 210.067522003884 2814.84205642402 13 16 9
32.6170202396523 209.749468438364 2827.75960504559 13 15 10
-1.02763189796806 209.526034166973 2849.06863596459 13 15 10
-3.91979006165233 209.015722583007 2842.0287284904 10 13 6
-6.83076986027809 208.503918999014 2834.97546373112 7 10 3
5.81545434474062 207.829329112851 2813.26158754123 12 15 8
-23.8013809023072 207.593726485568 2831.31434066989 15 18 11
-34.108583337221 207.160529416198 2831.25104415891 16 19 10
-31.1585713542082 206.581478023239 2818.56531481085 16 19 10
-0.411718370976644 205.678812619402 2779.0932494382 14 17 8
-6.42162760673193 205.187141037743 2774.7340475619 14 17 8
-36.4730958586545 204.984530557193 2793.70722416774 18 21 14
-39.5073630057721 204.462933490432 2786.56453617254 19 22 15
-42.5602886074849 203.939862220648 2779.40831479828 20 23 16
-39.1349136020631 203.331573813201 2765.83170705245 17 20 13
-50.8812628280044 202.917688203271 2767.19531339448 17 20 13
-79.8131077671025 202.738543689581 2785.74521106429 21 24 17
-51.3827848126036 201.783482920837 2747.0642404562 19 22 15
-53.1141659106185 201.232040686946 2738.39552345588 19 22 15
-68.3795509739837 200.87226187566 2743.38415178106 16 19 12
-81.4626850983049 200.485990538422 2746.24920182902 20 23 16
-81.7864852244932 199.913139785873 2736.13039414065 27 30 23
-77.9212586838214 199.272904723335 2721.63744571432 25 28 21
-83.9473794774006 198.780547134755 2717.26648825901 18 21 12
-99.7721703555192 198.443627186765 2723.08474378462 16 22 12
-98.7932223022954 197.840893116596 2711.44010143023 21 27 17
-125.675994171532 197.693159447678 2729.00520726447 19 25 15
-135.0972071598 197.265076430671 2728.3491726858 16 22 12
-143.115190156909 196.815120397393 2726.23989094756 18 21 12
-96.0178528144944 195.405687105981 2665.2697289397 18 21 12
-128.770869551827 194.779100180523 2678.57723798269 14 9 3
-76.8336262972349 193.21910976707 2611.23398247013 14 9 3
-76.2690812309526 192.583065812597 2599.28876182559 19 12 4
-80.4938293786077 192.033778515354 2592.51796511969 24 20 11
-90.1368519322041 191.588126830216 2591.70075258767 163 153 143
-108.51188316235 191.316777482959 2600.61135205612 213 196 188
-122.110320693718 190.957789145252 2604.33802249016 77 54 46
-124.958904923816 190.384678043589 2596.09464244623 127 105 94
222.572522986749 207.631412407607 2787.59373735019 21 26 20
186.786797933624 207.404385408156 2808.58538277428 17 22 16
162.014088426451 207.083011574998 2820.26872407186 20 23 16
156.661629395133 206.572918447463 2815.15069746445 16 19 12
131.272277310852 206.272231093906 2827.62216280837 14 17 10
103.687092107688 206.00521505424 2842.20710230246 15 18 11
129.846455224063 205.158046401264 2809.29121966711 13 16 9
139.779749966868 204.476508626284 2790.55079433765 11 14 7
98.5891922866058 204.376351614834 2817.50618033165 11 14 7
97.0911348945695 203.826194245723 2809.00661117326 11 14 7
88.7502891353069 203.356161661239 2806.66317763682 12 15 8
81.9315831196747 202.868492619656 2802.95301309408 12 15 8
78.88066501192 202.333557646063 2795.79789242601 13 16 9
19.5114047067957 202.524003156613 2840.45489243973 12 14 9
27.8148568905396 201.8514916196 2823.00337291174 11 13 8
-6.3901555496817 200.61514387734 2825.37403425918 12 15 8
-10.0863188386804 200.098745439319 2818.98658658644 16 19 12
-29.2833450620227 199.807447423775 2827.30090882113 17 20 11
-23.4037109547471 199.150173529237 2811.79808786597 16 19 10
-35.2460350344452 198.180231086156 2803.20842146319 14 17 8
-48.455348794521 197.810137089565 2805.9820831418 15 18 11
-38.3752723310147 197.070005693094 2786.11272959671 16 19 12
-39.9812016977035 196.511579973558 2777.53491986097 16 19 12
-52.4453400054201 196.131495876825 2779.61368789679 18 21 14
-54.7930650069417 195.583595439536 2771.73322461648 19 22 15
-85.151786257093 195.517332363049 2791.71968869952 23 26 19
-76.0128993003293 194.771558185543 2772.40305484241 21 24 17
-57.6959240958845 193.852308808282 2743.68257472941 18 21 14
-68.6816785153792 193.451234819182 2744.36258074272 18 21 14
-83.8904226295478 193.131375555169 2749.39247150113 21 24 17
-84.9108121142024 192.550191769479 2740.00398021863 25 28 21
-88.7807207736011 192.020375200759 2733.4905128535 21 24 17
-78.6211251906814 191.216260905773 2712.4434436999 18 21 12
-94.463374369826 190.915931175139 2718.24922866717 17 23 13
-106.75601349357 190.550524562495 2720.45239446579 19 25 15
-90.4916536941442 189.606086557266 2692.71387531374 16 22 12
-126.371453019062 189.728758687445 2719.81486768564 14 20 10
-116.446503323811 188.905792286228 2698.59760323084 16 19 10
-144.515797787202 188.885415309538 2717.7735863371 17 17 9
-123.68684652549 187.81696649018 2684.69756345162 19 19 11
-95.5016223987206 186.568289839677 2643.36706051489 14 9 3
-81.1844609339005 185.607250863088 2616.68725938305 14 9 3
-81.9629872974921 184.975628765905 2606.2385132524 32 23 16
-88.2009346497976 184.466297563134 2601.71391222937 32 21 15
-95.1156305903251 183.972808877071 2597.9341330639 16 0 0
-108.761185492387 183.639755926837 2601.62677847823 33 14 7
-116.989064913288 183.181182480458 2599.36529469409 111 91 82
-119.183162856228 182.57639303883 2590.36087416389 104 88 75
213.647183359053 199.967130284529 2795.90607005942 11 16 10
184.876527765351 199.753023956014 2810.86723587255 18 23 17
170.181675804285 199.361350604291 2813.79892653181 20 23 16
165.579988312883 198.835510255735 2807.99032832099 15 18 11
144.015804954807 198.546478134907 2817.0590270437 13 16 9
144.054286116642 197.364817305328 2797.31887906178 12 15 8
101.999621516668 197.393322929908 2824.88354383954 11 14 7
99.7836081018719 196.248880994667 2807.21465751139 10 13 6
103.554282519715 195.595812659564 2793.88813785952 10 13 6
79.3239491342459 195.384297173104 2805.96521563678 11 14 7
57.4572364624566 195.144669183184 2816.04989127454 12 15 8
82.9827319697456 194.129870894059 2782.67336092778 11 13 8
96.3446254415325 193.301521416581 2760.24217873365 10 12 7
11.8342312196367 193.548255327166 2818.78742751993 4 7 0
24.4354257638553 192.731625565975 2797.03989443096 11 14 7
-3.0244228837748 192.62550900106 2812.95183916275 17 20 13
-15.6056156152882 192.259697825087 2814.94582424386 18 21 12
-20.7941068551796 191.760217271949 2809.9470096195 16 19 10
-16.4562285540626 191.080064728682 2795.79619987427 13 16 7
-20.9534055845075 190.563370478895 2790.06340985375 13 16 7
-40.7652381122632 190.344723415644 2799.16774497537 12 15 8
-48.1422050958153 189.887949019739 2796.28778378275 12 15 8
-43.1968796514866 189.183836310407 2781.34246192006 14 17 10
-70.094926089781 189.124155128581 2797.66160979019 18 21 14
-98.3064714689659 189.104821034554 2815.49944082502 19 22 15
-70.3952674460635 187.916415426551 2777.67600451646 21 24 17
-80.6178232109538 187.52253608664 2777.67397485805 19 22 15
-87.2483376988118 187.053331355622 2774.10032789537 18 21 14
-84.63014835178 186.380714172425 2761.17328483085 18 21 14
-93.4093928008151 185.957405578371 2759.74732002373 22 25 18
-96.5180512499981 185.407243632226 2752.55055949932 21 24 17
-90.4862512122428 184.644813428208 2735.92218313089 18 21 14
-88.7446222117634 183.974607464407 2723.59504608395 19 22 13
-94.0537209805239 183.46618987939 2718.50846074317 18 24 14
-94.4829639669549 182.840089191934 2708.31324003076 19 25 15
-110.949891927358 182.600674624287 2714.9015271947 15 21 11
-103.078883564795 181.767509663736 2695.90066954147 13 19 9
-132.627332369039 181.861297855742 2716.47532810383 22 25 16
-122.059213789711 180.953512716239 2694.48854976916 13 16 7
-87.5575170702083 179.418928410397 2646.61933134261 15 15 7
-79.3349807247985 178.541008343486 2626.63804050349 11 6 0
-85.5378480119096 178.033973854905 2622.13888140167 20 15 9
-90.3810755084693 177.490542195679 2616.15480210591 41 32 27
-95.2342210186516 176.946399572863 2610.16382390627 71 56 51
-98.0694631595433 176.34585370302 2601.92968238801 96 77 70
-106.990295340911 175.912232460035 2600.40102537648 85 65 58
-109.180491570966 175.290824619456 2591.39964358277 94 76 66
-110.059484850507 174.629047985744 2580.87791410201 102 88 75
199.261063093689 192.458192382692 2808.90669303013 0 2 0
177.523604863151 192.209131473713 2817.84998356199 20 25 19
156.64808939673 191.954050956049 2826.18304767862 18 21 14
152.859235130609 191.412041139158 2819.72827661176 13 16 9
145.20257123945 190.936539220717 2816.64575678022 11 14 7
165.221011549939 189.968089120487 2789.15816134527 12 15 8
142.94012027791 189.751324032792 2798.94300035884 11 14 7
116.929776454449 189.612421778649 2812.20015164103 12 15 8
127.548302940835 188.179119476055 2782.83644449667 9 12 5
97.1518430865785 188.141061056938 2800.32532618693 9 12 5
95.5986658762615 187.552332117334 2791.78560412335 10 13 6
89.4988674167587 187.051227728731 2787.36119185139 10 13 6
90.9076009919092 186.398527137208 2776.02785710365 10 12 7
85.5323918868192 185.880171430248 2770.89359110768 10 12 7
-1.96995318924187 187.068168962563 2842.09600153565 7 10 3
51.6902564698447 185.328823057613 2782.17662476874 4 7 0
38.9450612369306 184.973593504188 2784.0517745346 9 12 5
38.8177487822539 184.348589834888 2774.07514078776 16 19 12
-3.39827288910222 184.64626750223 2803.99456552583 16 19 10
-12.2994734744581 184.222727727194 2802.48019094184 15 18 9
-2.85039526070041 183.385599887584 2783.38825309945 12 15 6
-7.38664885194673 182.859665644958 2777.62679436666 12 15 6
-33.801563976696 182.841835441727 2793.0616442678 14 17 8
-41.1985442002509 182.388391018872 2790.16719191737 15 18 9
-56.5579201124695 182.126191823213 2795.08817853035 17 20 13
-81.251512115077 182.096216480418 2809.30042304464 22 25 18
-83.5073672686222 181.52738310356 2801.48674662528 22 25 16
-69.9917957656575 180.563675249835 2777.93124666954 20 23 14
-73.7736797911432 180.023298020867 2771.48153674825 17 20 13
-91.1267252419843 179.828129823163 2778.66271917848 18 21 14
-101.297258328048 179.454650896751 2778.69879967931 16 19 10
-105.769562036295 178.934632059974 2772.98402402119 18 21 12
-113.079074489941 178.488938151894 2770.1530181817 20 23 16
-111.924550663824 177.816539892899 2758.63530158922 21 24 15
-83.4180455482054 176.394400330465 2718.77186010314 17 20 11
-84.5407889450851 175.765650645889 2709.30892935466 17 23 13
-94.0724731168059 175.3682881243 2708.5729674629 17 23 13
-102.887034581793 174.953051576268 2707.12144148371 14 20 10
-126.945481162867 174.976098371109 2721.79438503632 14 20 10
-130.837971827319 174.427492632599 2715.26445232296 17 20 11
-98.2150657642289 172.806327301706 2669.73822426886 17 20 11
-55.5350569165383 170.858937655845 2612.97393043895 21 22 14
-73.4341831676684 170.696809572878 2620.99504018105 20 17 10
-87.1632235671982 170.41626669894 2624.62743115049 53 50 43
-85.1954465020663 169.658107236926 2611.22845705382 32 25 19
-88.7072379621023 169.064585410137 2603.73923718022 36 22 19
-90.2097186015489 168.405752359861 2594.00087442244 44 27 20
-96.4603666098354 167.894779888208 2589.46705810949 45 28 20
-95.3248982197792 167.145558907386 2576.70010207331 84 74 64
148.535648084177 184.53392626679 2833.85086780094 21 24 17
164.871481195696 183.567065238183 2809.86945196573 17 20 13
154.098066062347 183.158756067072 2809.46831398229 12 15 8
151.036800684428 182.588147627366 2802.30580614114 11 14 7
143.357863601946 182.115740324876 2799.20715567271 11 14 7
139.508206985188 181.559992626755 2792.70823809921 11 13 8
104.398413578328 181.699369772833 2814.19173670801 10 12 7
100.610328487615 181.148729542617 2807.73747951807 10 12 7
100.59645401058 180.510223323207 2797.84330546605 9 11 6
108.856892162291 179.676003143331 2780.35978506212 9 11 6
89.0706647208725 178.845321127336 2778.36336868571 8 10 5
78.4598579417319 178.45067793285 2778.08017818934 8 10 5
33.5257187868803 178.897554638033 2809.73534164328 6 8 3
20.8330622993684 178.570762618114 2811.64872190862 6 8 3
65.3370493381251 176.814234099974 2759.9130399089 10 12 7
23.6876885185877 177.212772646045 2789.00872344263 15 16 10
7.9691327461977 176.318958737729 2783.78495719199 15 16 10
-0.242084342355398 175.883011392279 2781.53566689382 14 15 9
-11.3663599837779 175.526165367846 2782.11547994053 14 15 9
-21.7318829093682 175.152147166649 2782.01020541386 14 15 7
-29.1645424127409 174.700759015329 2779.0901932845 17 20 9
-43.1115455563773 174.430586045632 2782.56463093479 20 23 14
-60.6237010177564 174.265554067945 2789.63091824572 21 24 15
-64.3809274341733 173.718332295652 2783.1990484825 20 23 12
-60.9716279943857 172.964004727827 2769.61004749894 19 22 11
-63.3476921228457 172.371211164976 2761.7088131882 18 21 12
-86.4435971171811 172.384489678623 2774.60940094202 17 20 11
-95.2051271871901 171.98358622596 2773.19639115275 18 21 10
-95.4388918704172 171.328219458205 2763.14243411856 20 23 12
-102.072702372251 170.863504814582 2759.56642054818 19 22 13
-109.407796714172 170.420831648499 2756.7168851526 18 21 12
-92.1427308727489 169.213529972901 2728.46743108101 19 22 15
-68.0200974101797 167.773809656008 2692.83674715643 20 23 16
-78.9995010919118 167.429969432041 2693.52164685538 18 21 14
-94.1251460729022 167.223148775722 2698.61235051169 12 15 8
-109.888300850605 167.043623934231 2704.47637907613 15 18 11
-108.992114530843 166.322643537702 2692.77114203399 12 15 8
-49.542961540316 163.64703550368 2618.51652965485 18 21 14
-42.0531339472301 162.672121064708 2599.23862793797 17 20 13
-71.640960641006 162.949005001856 2619.78537356687 19 20 14
-77.1829964784092 162.415872380978 2614.53009646441 9 10 4
-69.1193019700018 161.40884240298 2594.43270934361 127 127 119
167.558964244427 176.522106494713 2817.95775377661 20 23 16
168.382057524049 175.847355441313 2807.43480081972 16 19 12
167.622393738187 175.20724410054 2798.23501668074 13 16 9
156.836065795445 174.813750830793 2797.82459297166 12 15 8
145.308472022034 174.441714073658 2798.1119551532 11 14 7
162.094880033294 173.349469489793 2773.22149895693 11 13 8
155.881104872361 172.837682929751 2768.71440843442 10 12 7
108.623498870881 173.400096492389 2801.15589966136 10 12 7
100.252559178503 172.958177457199 2798.79079279124 9 11 6
101.717155394101 172.25398506783 2787.49769324762 9 11 6
61.6460790981024 171.34646399369 2794.26343064834 8 10 5
50.3635595380971 170.994908291045 2794.7285560979 6 8 3
36.8766957192874 170.709345753335 2797.30144398422 7 9 4
8.3773106190268 168.858769696638 2784.04306671472 16 17 11
-10.1054338837394 168.739422937595 2791.64102134999 16 17 11
-17.5427183546308 168.292506829334 2788.71767913476 16 17 11
-12.5748551975136 167.464986531065 2773.78777578025 16 17 11
-21.4882929079765 167.061607613401 2772.26492683885 18 21 10
-33.2843488536378 166.750808397492 2773.59302187188 21 24 13
-42.8783071474532 166.373975907992 2772.81172565165 20 23 12
-50.2901909993674 165.929483464013 2769.90680916352 19 22 11
-44.7660462015023 165.065685166237 2754.14494585761 18 21 10
-62.2264534864911 164.948562904717 2761.24898919813 16 19 8
-76.0481904542507 164.718753326808 2764.81443942116 16 19 8
-86.9761717500892 164.397415663264 2765.53702476198 17 20 9
-83.6859445304696 163.597431333067 2751.86147452439 18 21 10
-96.0124836744138 163.326008255097 2754.040247043 16 19 8
-96.3156146768751 162.642688213385 2743.93615777182 15 18 9
-89.6270060975886 161.710453397757 2726.54772473208 18 21 14
-80.9173126384706 160.697352382223 2706.91889976297 20 23 16
-84.8719690509325 160.126026355536 2700.34378668945 19 22 15
-97.8911220409868 159.880511856339 2703.25593098819 14 17 10
-84.4967248133122 158.676210300954 2678.37633393058 12 15 8
-87.82883259707 158.073979217393 2671.01703199742 13 16 9
-89.1111159228413 157.393269904086 2661.43818416398 18 21 14
-99.3605990817534 157.046351323352 2661.41716660552 15 18 11
-86.97554898991 155.841915660741 2637.04090821852 16 19 12
-34.419190392232 153.079997675892 2568.90533800143 17 20 13
147.666546341644 170.118055386127 2845.49906789525 23 25 20
155.566286659555 169.233798641753 2828.98914759508 20 23 16
174.213443748334 168.041432158711 2802.97671324288 15 18 11
177.295398980153 167.27177779104 2790.38566693005 13 16 9
163.405955219971 166.979508200242 2792.66668205284 13 16 9
138.057665931375 167.021982257451 2805.16935839686 11 14 7
142.637031858921 166.205262802442 2791.19321092432 11 13 8
159.352241076808 165.024318438817 2766.2506919214 10 12 7
153.888863042993 164.488533770752 2761.05212762924 10 12 7
127.195715977401 164.590889840027 2775.05085339666 9 11 6
99.1087929099215 164.748932289091 2790.50926203953 9 11 6
75.6697156275679 164.778436509789 2801.9258279583 8 10 5
82.3869491736242 163.882273125561 2785.79365958299 8 10 5
43.3032045181001 163.731122588867 2801.92481128492 7 9 4
40.2641837493847 163.139635964742 2794.77832328358 7 9 4
15.6707362275914 163.244801916939 2807.8288125573 10 12 7
18.5815139297105 162.461553685081 2795.11331266746 13 14 8
7.41233634428706 162.138215819519 2795.66074506213 15 16 10
0.68894853371404 161.669684261844 2792.01948117854 16 17 11
-5.29738248186185 161.17667420902 2787.6773648776 19 20 14
-17.1376952160356 160.883494176492 2788.97376094181 20 21 15
-25.2967909638966 160.467384780608 2786.76235499895 21 22 16
-27.626104309588 159.849596969573 2778.89488472755 22 25 16
-27.803699155285 159.15341551582 2768.8817341499 22 25 16
-28.0174806929923 158.454307114026 2758.84204176435 18 21 12
-31.1500816424033 157.855844357758 2751.62768015744 17 20 11
-52.2610567590425 157.907620412415 2762.26197657313 17 20 11
-75.428847150546 158.045762112537 2775.11079104807 19 22 13
-92.06607063475 157.95471135866 2781.57637884449 18 21 12
-80.1677068784665 156.804623107234 2759.31795416222 19 22 13
-83.2813873211264 156.208141201634 2752.11731846784 20 23 14
-80.7547974343417 155.394396782209 2739.12315816248 20 23 14
-90.2697767592202 155.037972394654 2738.39921885339 19 22 13
-80.7844446831751 153.945260754036 2718.09723099793 19 22 15
-74.9008606879638 152.982174833171 2701.36039329641 22 25 18
-81.6667153206181 152.511554693122 2697.68833372811 19 22 15
-76.5918385666768 151.567322013635 2681.60037901331 15 18 11
-82.6943745789093 151.06630950776 2677.17398269636 13 16 9
-84.6464522168842 150.395864517665 2668.3446752919 13 16 9
-120.420862513748 151.116140884273 2695.52509340262 19 22 15
-121.632208889211 150.421671899392 2685.99759958288 20 23 16
-110.540684780525 149.206526825431 2663.15395009562 12 15 8
192.418253641056 161.219171967518 2807.49336699272 9 14 8
163.737060185105 161.40689856529 2822.52142118171 19 22 15
200.931541479714 159.5424082781 2780.30799308632 14 17 10
147.633926694891 160.517932689528 2817.01889089237 14 17 10
142.289122921011 159.988508179345 2811.90661030421 14 17 10
144.608152306087 159.210573111983 2799.99749744925 12 15 8
153.760628380824 158.203651562067 2781.92472297706 11 13 8
163.586787175096 157.164239448616 2763.10481980804 10 12 7
153.550425944461 156.776378897074 2762.00305487528 10 12 7
138.228012445046 156.569012062452 2765.71578296061 9 11 6
119.044059268557 155.778725160785 2762.92113603203 8 10 5
74.5327338904733 156.598659861348 2793.64965919914 7 9 4
69.9606230132495 156.045221262761 2787.86206743953 8 10 5
54.6990422904718 154.43393804015 2771.85001941433 9 11 6
41.9453773305474 154.174672901409 2773.719515373 11 12 6
1.17272813186942 154.951037058831 2802.21732852563 13 14 8
-9.21174664848046 154.623091898773 2802.09854876404 15 16 10
-12.9652612059721 154.049510150919 2795.66923628809 18 19 13
-18.1965245815481 153.530259093811 2790.63902061126 19 20 14
-33.6470982761739 153.401144506183 2795.49457010528 21 24 15
-35.2220180363618 152.743303384307 2786.93903081348 21 24 15
-37.54934498327 152.111509741548 2779.07292958266 21 24 15
-29.0558188436996 151.051317917718 2760.52219841534 17 20 11
-48.0393933998231 151.071423201918 2768.99283363798 16 19 10
-71.2560910336553 151.270890814435 2781.80679931409 18 21 12
-90.0698794258434 151.305168878129 2790.4005879383 18 21 12
-85.2394550888769 150.383525765786 2775.3708699764 15 18 9
-80.4761023864107 149.456446212644 2760.29220834159 15 18 9
-64.4247624874454 148.051479217262 2733.63226495373 17 20 11
-69.7361368500151 147.526552286266 2728.54394636334 19 22 13
-68.0002291537201 146.702378567859 2716.21188194387 19 22 13
-77.5633638642461 146.355393754164 2715.45337605836 21 24 17
-77.9937504683701 145.616923965819 2705.2564626644 21 24 17
-76.3646145545227 144.784264837773 2692.84695412094 15 18 11
-65.7308387650337 143.549615584074 2670.90611646792 13 16 9
-87.1401325031402 143.723060968185 2682.55980825681 13 16 9
-94.612215390049 143.284893696361 2679.61128424175 11 14 7
-85.5202045331576 142.099601107958 2659.02340602286 17 20 13
-108.845094172328 142.379503289384 2672.99438505151 23 26 19
-100.530964472344 141.218376626265 2653.07776321555 19 22 15
171.955051491342 152.801783820676 2806.20280566987 13 16 9
171.192118678232 152.102067107799 2797.00034983032 14 17 10
147.318940484245 152.220514621509 2808.10267724938 16 19 12
139.654422692753 151.768886349735 2805.01458488261 12 15 8
152.649782429063 150.569461735844 2783.55085162189 11 13 8
156.381923566836 149.695737076225 2770.19528070517 10 12 7
140.28288857209 149.547441876273 2774.58064961031 10 12 7
121.964956587959 149.488590295594 2781.06335014842 9 11 6
136.228604144734 148.212272799476 2758.04856305935 9 11 6
122.478054915157 147.985375643241 2760.4305969158 8 10 5
108.01871213682 147.790877474883 2763.53401193881 7 9 4
95.1055341757328 147.542341086947 2765.28792786201 8 10 5
118.848885786756 145.867534380338 2733.08650803468 8 10 5
121.552219965592 145.000104822035 2720.22020151273 7 9 4
82.5986438319237 145.782370330628 2746.33161955504 8 10 5
49.7632376884201 146.342826537427 2766.99592961893 11 12 6
-11.7538826133623 147.352529205918 2805.15931431165 13 14 8
-18.434455955447 146.892021563579 2801.54912819268 14 15 9
-16.3289646803024 146.066519817496 2789.4849760701 15 16 10
-25.2184779657061 145.696426721697 2787.97934457722 15 16 10
-32.6364943683199 145.266141919233 2785.07005443672 15 18 9
-34.9696793361853 144.619647215454 2777.19963213772 17 20 11
-44.556919336598 144.283061638239 2776.42370448732 17 20 11
-56.285797163558 144.042347407175 2777.80085336651 17 20 11
-69.4178628972018 143.867622941237 2780.63150337322 19 22 13
-75.3421431348009 143.379363378294 2776.33439306763 21 24 15
-72.6963230809199 142.508315473642 2763.42666947847 20 23 14
-67.9681222296409 141.536664641594 2748.32229975425 20 23 14
-64.7268999714781 140.624096106979 2734.61065451309 21 24 15
-58.7135204726201 139.57707009761 2717.96748316904 19 22 13
-64.0634015442714 139.045890033843 2712.85151304714 18 21 12
-91.9222742537518 139.564222921969 2730.94743293888 18 21 12
-121.748410806604 140.192810195172 2751.32320411189 19 22 13
-80.1454850378844 137.450323833913 2697.47978129198 13 16 7
-56.2592211905701 135.516984497807 2661.67524771128 14 17 8
-74.9226095329585 135.61366878749 2670.37838064113 14 17 8
-111.504652658991 136.593540990413 2698.20968001153 18 21 12
-94.0742272323341 134.945431118506 2668.84282922261 21 24 15
-52.7226501780622 132.092237889456 2613.58130649721 19 22 13
-4.13585727488996 128.837180696142 2549.97642427538 16 19 10
214.23075110997 144.290380737271 2779.99044297546 17 20 13
