ply
format ascii 1.0
comment KinectMotionCapture
element vertex 794
property float x
property float y
property float z
property uchar red
property uchar green
property uchar blue
end_header
105.244062840939 307.329833507538 2628.99994850159 15 18 11
112.838752567768 308.49289894104 2638.99993896484 13 16 9
118.804626166821 305.33042550087 2611.99998855591 16 16 8
126.261979341507 306.142061948776 2618.99995803833 18 18 10
133.145794272423 305.55060505867 2614.00008201599 23 23 15
140.592142939568 306.244552135468 2619.99988555908 13 13 5
148.070648312569 306.938111782074 2625.99992752075 13 13 5
155.40400147438 307.280600070953 2628.99994850159 23 23 15
162.134736776352 306.453913450241 2621.99997901917 36 36 28
169.343233108521 306.561946868896 2622.99990653992 61 61 53
177.094846963882 307.604551315308 2631.99996948242 30 30 22
185.244917869568 309.231102466583 2645.99990844727 33 33 25
194.270625710487 312.142670154572 2671.0000038147 34 35 27
202.450856566429 313.534498214722 2683.00008773804 33 35 30
-216.044679284096 308.50151181221 2703.00006866455 179 184 180
-207.602739334106 306.914538145065 2688.99989128113 182 187 183
-199.385285377502 305.555433034897 2677.00004577637 173 178 174
-191.950067877769 305.337309837341 2674.99995231628 171 175 174
-184.455990791321 305.004686117172 2671.99993133545 170 174 173
-177.242800593376 305.128276348114 2673.00009727478 168 172 171
-169.959962368011 305.137366056442 2673.00009727478 164 168 167
-162.980780005455 305.716902017593 2677.99997329712 163 165 164
-156.031876802444 306.410253047943 2684.00001525879 91 96 92
-144.088894128799 312.248468399048 2734.99989509583 59 64 57
-134.985566139221 308.48827958107 2701.99990272522 10 16 6
-125.731006264687 303.928345441818 2661.99994087219 17 23 13
-118.20724606514 303.24974656105 2655.99989891052 19 22 11
-110.339745879173 301.543235778809 2641.00003242493 17 20 9
-103.412769734859 302.348136901855 2648.00000190735 18 21 10
-94.9578508734703 298.471301794052 2614.00008201599 20 23 12
-87.8303572535515 298.476159572601 2614.00008201599 19 22 11
-80.8877870440483 299.165785312653 2619.99988555908 18 21 12
-72.9552134871483 295.972675085068 2592.00000762939 16 19 10
-66.1155804991722 297.004133462906 2601.0000705719 12 15 6
-59.4081468880177 298.948705196381 2618.00003051758 12 15 6
-52.6476837694645 301.121324300766 2637.00008392334 18 21 12
-45.4041622579098 300.781399011612 2634.0000629425 20 23 14
-37.9736796021461 298.842340707779 2617.00010299683 14 15 9
-30.6829139590263 297.359675168991 2604.00009155273 7 8 2
-23.5716104507446 297.246962785721 2602.9999256134 16 17 11
-16.4973121136427 297.704815864563 2607.00011253357 18 19 13
-9.43713542073965 299.304246902466 2621.00005149841 13 14 8
-2.27959756739438 298.16260933876 2611.00006103516 10 11 5
4.84379753470421 298.276722431183 2611.99998855591 14 15 9
11.9130630046129 296.905934810638 2599.99990463257 14 15 9
19.0337747335434 297.361880540848 2604.00009155273 12 13 7
26.1260438710451 297.24645614624 2602.9999256134 15 16 10
33.2255251705647 297.244876623154 2602.9999256134 15 16 10
40.3558649122715 297.471284866333 2605.00001907349 19 22 15
47.6062633097172 298.382431268692 2612.99991607666 19 22 15
54.7744482755661 298.608094453812 2615.00000953674 15 18 11
62.0716959238052 299.404263496399 2621.99997901917 12 15 8
69.6444883942604 301.227748394012 2638.00001144409 11 14 7
76.4304623007774 299.625247716904 2624.00007247925 21 24 17
82.8530862927437 296.994715929031 2601.0000705719 14 17 10
90.4986336827278 298.817008733749 2617.00010299683 7 10 3
97.7087691426277 299.040347337723 2618.99995803833 11 14 7
105.930306017399 302.117764949799 2645.99990844727 13 16 9
113.400690257549 302.796989679337 2651.99995040894 5 8 1
120.175585150719 301.649034023285 2641.99995994568 11 11 3
126.702666282654 300.04408955574 2628.00002098084 23 23 15
133.967936038971 300.265520811081 2630.00011444092 25 25 17
141.458258032799 300.943225622177 2635.99991798401 18 18 10
149.093553423882 301.848888397217 2644.00005340576 19 19 11
156.476318836212 302.183330059052 2647.0000743866 21 21 13
163.441970944405 301.718264818192 2642.99988746643 17 17 9
169.86870765686 300.339668989182 2631.00004196167 51 51 43
176.902338862419 300.102293491364 2628.99994850159 40 40 32
185.394689440727 302.261680364609 2648.00000190735 36 36 28
193.698912858963 303.963959217072 2663.00010681152 30 31 23
202.914193272591 306.92133307457 2688.99989128113 26 28 23
-215.815916657448 300.814181566238 2700.00004768372 190 192 189
-207.536160945892 299.487918615341 2687.99996376038 184 186 183
-199.544504284859 298.495471477509 2678.99990081787 178 182 181
-191.959947347641 298.059791326523 2674.99995231628 174 176 173
-184.465497732162 297.735124826431 2671.99993133545 170 170 168
-177.185654640198 297.744363546371 2671.99993133545 169 170 165
-169.905185699463 297.753244638443 2671.99993133545 166 167 162
-162.867546081543 298.207610845566 2676.00011825562 152 151 147
-155.9237241745 298.884451389313 2681.99992179871 155 156 150
-149.944081902504 301.566958427429 2706.00008964539 170 171 163
-143.516898155212 303.580582141876 2723.99997711182 6 9 0
-135.142534971237 301.470279693604 2704.99992370605 20 26 16
-125.406980514526 295.904517173767 2654.99997138977 14 20 10
-117.323309183121 293.793231248856 2635.99991798401 18 21 10
-110.596247017384 295.025169849396 2647.0000743866 16 19 8
-100.801520049572 287.674516439438 2581.00008964539 18 21 10
-94.0183326601982 288.459807634354 2588.00005912781 20 23 12
-88.2382318377495 292.700111865997 2625.99992752075 20 23 12
-80.4907083511353 290.586739778519 2607.00011253357 20 23 14
-73.2405632734299 290.033459663391 2601.99999809265 18 21 12
-66.0936683416367 289.814174175262 2599.99990463257 13 16 7
-59.1162852942944 290.37481546402 2605.00001907349 13 16 7
-51.9916079938412 290.266275405884 2604.00009155273 15 18 9
-45.1479889452457 291.940838098526 2618.99995803833 16 19 10
-38.0917899310589 292.611867189407 2625 17 18 12
-30.7199023663998 290.607243776321 2607.00011253357 14 15 9
-23.6996505409479 291.723370552063 2617.00010299683 19 20 14
-16.6437458246946 293.173581361771 2630.00011444092 17 18 12
-9.46644321084023 293.062776327133 2628.99994850159 12 13 7
-2.29194248095155 292.617201805115 2625 11 12 6
4.83478279784322 290.610611438751 2607.00011253357 10 11 5
11.8907866999507 289.272516965866 2595.00002861023 11 12 6
18.9251415431499 288.602858781815 2588.99998664856 17 18 12
26.0772500187159 289.604902267456 2598.00004959106 18 19 13
33.2272946834564 290.160715579987 2602.9999256134 12 13 7
40.4819510877132 291.273474693298 2612.99991607666 16 19 12
47.5541390478611 290.93673825264 2609.99989509583 16 19 12
54.6097829937935 290.599644184113 2607.00011253357 14 17 10
61.5778230130672 289.927810430527 2601.0000705719 15 18 11
68.8561350107193 290.704637765884 2608.00004005432 15 18 11
75.9393200278282 290.589392185211 2607.00011253357 10 13 6
83.2078829407692 291.142493486404 2611.99998855591 10 13 6
90.3996676206589 291.360884904861 2614.00008201599 15 18 11
97.863182425499 292.359113693237 2622.99990653992 17 20 13
105.135172605515 292.68816113472 2625.99992752075 16 19 12
113.791547715664 296.583473682404 2661.00001335144 8 11 4
120.090939104557 294.236838817596 2640.00010490417 9 10 2
126.805737614632 293.11591386795 2630.00011444092 22 22 14
133.924022316933 292.997658252716 2628.99994850159 23 23 15
141.572996973991 293.993532657623 2638.00001144409 18 18 10
149.383306503296 295.211911201477 2648.9999294281 17 17 9
156.543597579002 295.092582702637 2648.00000190735 15 15 7
163.821518421173 295.195728540421 2648.9999294281 8 8 0
170.716896653175 294.629991054535 2644.00005340576 35 35 27
176.978781819344 293.061017990112 2630.00011444092 37 37 29
184.213951230049 293.163180351257 2631.00004196167 30 30 22
196.400299668312 300.841838121414 2700.00004768372 29 30 22
202.471867203712 298.937529325485 2683.00008773804 25 27 22
-214.947402477264 292.272567749023 2688.99989128113 200 202 199
-207.237750291824 291.73955321312 2684.00001525879 192 194 191
-199.480071663857 291.097491979599 2677.99997329712 179 181 178
-192.113161087036 290.998578071594 2677.00004577637 175 177 174
-184.681951999664 290.790587663651 2674.99995231628 175 174 170
-177.327290177345 290.690958499908 2674.00002479553 177 174 169
-169.850260019302 290.373563766479 2671.0000038147 176 173 166
-162.632375955582 290.490627288818 2671.99993133545 168 165 158
-155.524715781212 290.824800729752 2674.99995231628 154 151 144
-148.843452334404 292.028456926346 2686.00010871887 159 159 149
-142.99738407135 295.080125331879 2713.99998664856 10 12 1
-135.149464011192 294.108659029007 2704.99992370605 18 21 12
-124.563172459602 286.721676588058 2637.00008392334 21 24 15
-117.017775774002 285.857975482941 2628.99994850159 18 21 10
-110.351257026196 287.168592214584 2641.00003242493 17 20 9
-103.228278458118 287.391513586044 2642.99988746643 17 20 9
-96.3483452796936 288.375288248062 2651.99995040894 19 22 11
-88.3436128497124 285.878986120224 2628.99994850159 19 22 11
-80.772764980793 284.469693899155 2615.9999370575 22 25 16
-73.6103057861328 284.364938735962 2615.00000953674 20 23 14
-66.5801241993904 284.803509712219 2618.99995803833 15 18 9
-58.733556419611 281.435608863831 2588.00005912781 14 17 8
-51.6748391091824 281.43846988678 2588.00005912781 16 19 10
-45.2365465462208 285.355895757675 2624.00007247925 17 20 11
-38.1518229842186 285.901755094528 2628.99994850159 24 23 18
-30.8511294424534 284.707337617874 2618.00003051758 23 22 17
-23.8095633685589 285.904973745346 2628.99994850159 17 16 11
-16.6762564331293 286.558538675308 2634.99999046326 8 7 2
-9.51015017926693 287.211716175079 2641.00003242493 8 7 2
-2.29380885139108 285.689502954483 2627.00009346008 13 12 7
4.85543673858047 284.710675477982 2618.00003051758 18 17 12
11.92806661129 283.078968524933 2602.9999256134 19 18 13
18.9846083521843 282.42564201355 2596.99988365173 17 16 11
26.0585360229015 282.315760850906 2595.99995613098 17 16 11
33.3439223468304 284.054219722748 2611.99998855591 16 17 11
40.5150502920151 284.378558397293 2615.00000953674 17 20 13
47.5019589066505 283.506333827972 2607.00011253357 15 18 11
54.4659867882729 282.742440700531 2599.99990463257 15 18 11
61.5336783230305 282.6307117939 2598.99997711182 26 29 22
68.5692727565765 282.409876585007 2596.99988365173 27 30 23
75.7976025342941 282.949864864349 2601.99999809265 21 24 17
83.1484869122505 283.815711736679 2609.99989509583 15 18 11
90.3351902961731 284.028798341751 2611.99998855591 16 19 12
98.0174839496613 285.65502166748 2627.00009346008 24 27 20
104.940414428711 284.997403621674 2621.00005149841 17 20 13
112.343400716782 285.644292831421 2627.00009346008 7 10 3
119.915150105953 286.616921424866 2635.99991798401 12 13 5
126.764044165611 285.849541425705 2628.99994850159 22 23 15
134.389385581017 286.821454763412 2638.00001144409 21 22 14
141.258239746094 286.162108182907 2631.99996948242 27 28 20
148.037448525429 285.393714904785 2625 26 27 19
156.492471694946 287.777870893478 2647.0000743866 11 12 4
164.633870124817 289.400517940521 2661.99994087219 18 19 11
171.758711338043 289.174616336823 2660.00008583069 17 18 10
180.083364248276 290.905147790909 2676.00011825562 27 28 20
186.954081058502 290.243715047836 2670.00007629395 26 27 19
193.282216787338 288.82110118866 2657.00006484985 17 20 11
197.802990674973 284.898102283478 2621.00005149841 23 25 20
206.505730748177 287.061989307404 2641.00003242493 19 24 18
-215.197771787643 285.273373126984 2691.99991226196 187 189 186
-207.479566335678 284.753769636154 2687.00003623962 188 190 187
-199.787855148315 284.233808517456 2681.99992179871 183 184 179
-192.266181111336 283.925443887711 2678.99990081787 172 171 167
-184.691101312637 283.510714769363 2674.99995231628 181 176 170
-177.269801497459 283.307671546936 2673.00009727478 182 175 167
-169.795125722885 282.998234033585 2670.00007629395 189 182 172
-162.579625844955 283.112406730652 2671.0000038147 180 172 161
-155.474349856377 283.438265323639 2674.00002479553 166 160 148
-148.684665560722 284.399777650833 2683.00008773804 164 160 149
-142.003402113914 285.67898273468 2694.9999332428 19 17 5
-134.156972169876 284.625828266144 2684.99994277954 28 30 19
-124.994590878487 280.497997999191 2645.99990844727 15 18 7
-117.157228291035 279.019922018051 2631.99996948242 18 21 10
-110.315054655075 279.873728752136 2640.00010490417 16 19 8
-104.092814028263 282.529413700104 2664.99996185303 14 17 6
-96.062570810318 280.308097600937 2644.00005340576 17 20 9
-88.2809013128281 278.510451316834 2627.00009346008 20 23 12
-80.9003859758377 277.772545814514 2619.99988555908 22 25 16
-73.6985057592392 277.564376592636 2618.00003051758 20 23 14
-66.7614787817001 278.416067361832 2625.99992752075 12 15 6
-58.8273294270039 274.814456701279 2592.00000762939 12 15 6
-52.0568676292896 276.40762925148 2607.00011253357 17 20 11
-45.2733375132084 278.424561023712 2625.99992752075 19 22 13
-38.4149998426437 280.653238296509 2647.0000743866 18 17 12
-31.1119724065065 279.912829399109 2640.00010490417 14 13 8
-23.9556934684515 280.444353818893 2644.99998092651 11 10 5
-16.6834369301796 279.491096735001 2635.99991798401 11 10 5
-9.46742203086615 278.74955534935 2628.99994850159 10 9 4
-2.29392596520483 278.537809848785 2627.00009346008 11 10 5
4.8352824524045 276.417165994644 2607.00011253357 11 10 5
11.9836675003171 277.264952659607 2615.00000953674 16 15 10
19.1171728074551 277.264177799225 2615.00000953674 16 15 10
26.2606367468834 277.369052171707 2615.9999370575 14 13 8
33.3328582346439 276.837408542633 2611.00006103516 17 18 12
40.4086597263813 276.517480611801 2608.00004005432 14 17 10
47.4314875900745 275.98512172699 2602.9999256134 16 19 12
54.3849617242813 275.240391492844 2595.99995613098 23 26 19
61.5368112921715 275.555521249771 2598.99997711182 24 27 20
68.6255693435669 275.552242994308 2598.99997711182 24 27 20
75.8305862545967 275.972694158554 2602.9999256134 26 29 22
82.8341245651245 275.650650262833 2599.99990463257 27 30 23
90.68563580513 277.978718280792 2621.99997901917 34 37 30
98.0597659945488 278.610080480576 2628.00002098084 34 37 30
105.626411736012 279.665112495422 2638.00001144409 29 32 25
112.30630427599 278.387516736984 2625.99992752075 12 15 8
118.510901927948 276.155531406403 2605.00001907349 15 16 8
125.998914241791 276.9975066185 2612.99991607666 19 20 12
133.58099758625 277.945071458817 2621.99997901917 21 22 14
140.5139118433 277.51424908638 2618.00003051758 23 24 16
148.157671093941 278.461158275604 2627.00009346008 24 25 17
156.086415052414 279.831558465958 2640.00010490417 15 16 8
164.332836866379 281.625598669052 2657.00006484985 15 16 8
172.34842479229 282.889187335968 2668.99991035461 18 19 11
179.486602544785 282.668590545654 2667.00005531311 23 24 16
188.923984766006 285.94508767128 2697.99995422363 20 21 13
193.364471197128 281.696438789368 2657.99999237061 21 24 15
198.491990566254 278.719484806061 2630.00011444092 24 26 21
203.935414552689 276.378273963928 2608.00004005432 26 31 25
-216.087490320206 279.082864522934 2703.00006866455 210 212 209
-208.338961005211 278.576672077179 2697.99995422363 207 208 203
-200.467959046364 277.863621711731 2690.99998474121 148 143 137
-192.706122994423 277.253448963165 2684.99994277954 93 86 78
-184.907212853432 276.53968334198 2677.99997329712 91 79 67
-177.145764231682 275.825530290604 2671.0000038147 104 90 77
-169.739797711372 275.627315044403 2668.99991035461 117 99 85
-162.465810775757 275.635302066803 2668.99991035461 129 110 95
-155.365660786629 275.952816009521 2671.99993133545 130 113 95
-148.414850234985 276.579856872559 2677.99997329712 106 94 78
-141.219988465309 276.793450117111 2680.0000667572 87 80 64
-133.114233613014 275.147587060928 2664.00003433228 21 17 5
-124.906279146671 273.088157176971 2644.00005340576 25 26 12
-117.741711437702 273.197382688522 2644.99998092651 22 25 14
-110.905535519123 274.132579565048 2654.00004386902 21 24 13
-102.652706205845 271.452218294144 2628.00002098084 19 22 11
-95.5223217606544 271.560341119766 2628.99994850159 18 21 10
-87.9492163658142 270.325362682343 2617.00010299683 16 19 8
-81.1514481902123 271.465748548508 2628.00002098084 19 22 13
-74.2370635271072 272.399246692657 2637.00008392334 19 22 13
-66.5359869599342 270.336747169495 2617.00010299683 18 21 12
-59.5338679850101 270.95964550972 2622.99990653992 19 22 13
-52.2791258990765 270.445883274078 2618.00003051758 24 27 18
-45.344565063715 271.68795466423 2630.00011444092 25 28 19
-38.3878946304321 273.239552974701 2644.99998092651 17 18 12
-31.1724543571472 273.241281509399 2644.99998092651 14 15 9
-24.0202955901623 273.965775966644 2651.99995040894 13 14 8
-16.6273079812527 271.38414978981 2627.00009346008 11 12 6
-9.49670653790236 272.417843341827 2637.00008392334 10 11 5
-2.29142094030976 271.075159311295 2624.00007247925 11 12 6
4.89487824961543 272.624641656876 2638.99993896484 10 11 5
12.1446708217263 273.76064658165 2650.00009536743 12 13 7
19.3740129470825 273.759871721268 2650.00009536743 11 12 6
26.2217950075865 269.833117723465 2611.99998855591 9 10 4
33.2323871552944 268.901884555817 2602.9999256134 11 12 6
40.2402319014072 268.280237913132 2596.99988365173 19 22 15
47.360971570015 268.484711647034 2598.99997711182 17 20 13
54.3248280882835 267.862379550934 2592.99993515015 19 22 15
61.5635588765144 268.5826420784 2599.99990463257 20 23 16
68.6289891600609 268.476098775864 2598.99997711182 20 23 16
75.8052319288254 268.782466650009 2601.99999809265 21 24 17
82.2965949773788 266.815930604935 2582.99994468689 16 19 12
89.2720296978951 266.605138778687 2581.00008964539 8 11 4
97.3183214664459 269.389480352402 2608.00004005432 8 11 4
104.990966618061 270.830631256104 2621.99997901917 10 13 6
111.755847930908 269.895702600479 2612.99991607666 9 12 5
118.471264839172 268.960505723953 2604.00009155273 19 20 12
125.281766057014 268.334835767746 2598.00004959106 22 23 15
133.485659956932 270.600765943527 2619.99988555908 23 24 16
141.218572854996 271.730184555054 2631.00004196167 23 24 16
148.954525589943 272.755950689316 2641.00003242493 24 25 17
156.685322523117 273.678064346313 2650.00009536743 20 21 13
164.21714425087 274.186670780182 2654.99997138977 20 21 13
171.194434165955 273.765504360199 2651.00002288818 19 20 12
179.024204611778 274.686515331268 2660.00008583069 23 24 16
187.812685966492 276.949495077133 2681.99992179871 21 22 14
195.629119873047 277.663141489029 2688.99989128113 24 27 18
199.935585260391 273.523449897766 2648.9999294281 30 32 27
209.02818441391 275.991827249527 2673.00009727478 29 34 28
-217.376783490181 273.334115743637 2719.00010108948 186 188 185
-209.429889917374 272.640287876129 2711.99989318848 95 96 91
-201.520398259163 271.946102380753 2704.99992370605 58 51 43
-193.145871162415 270.547807216644 2690.99998474121 80 71 62
-184.846937656403 269.149124622345 2677.00004577637 122 106 91
-176.955208182335 268.252730369568 2667.99998283386 130 111 94
-169.493466615677 267.959237098694 2664.99996185303 135 112 94
-162.351831793785 268.168121576309 2667.00005531311 144 122 101
-155.198648571968 268.376737833023 2668.99991035461 132 111 90
-148.144856095314 268.786132335663 2673.00009727478 117 102 83
-140.91058075428 268.893539905548 2674.00002479553 122 111 93
-133.070677518845 267.793923616409 2663.00010681152 16 10 0
-125.148519873619 266.392171382904 2648.9999294281 26 23 8
-118.148036301136 266.900807619095 2654.00004386902 20 23 12
-110.994473099709 267.107397317886 2655.99989891052 20 23 12
-103.048302233219 265.302270650864 2638.00001144409 20 23 12
-95.1272547245026 263.295620679855 2618.00003051758 20 23 12
-88.0542919039726 263.501137495041 2619.99988555908 21 24 13
-81.6803649067879 266.019582748413 2644.99998092651 19 22 13
-74.6066719293594 266.526222229004 2650.00009536743 19 22 13
-67.6325261592865 267.535388469696 2660.00008583069 19 22 13
-59.5140680670738 263.716489076614 2621.99997901917 20 23 14
-52.5612533092499 264.724999666214 2631.99996948242 22 25 16
-45.2778078615665 264.123886823654 2625.99992752075 23 26 17
-38.1865724921227 264.628797769547 2631.00004196167 20 21 15
-30.5964630097151 261.110097169876 2595.99995613098 19 20 14
-23.6591547727585 262.720704078674 2611.99998855591 15 16 10
-16.792694106698 266.84558391571 2653.00011634827 13 14 8
-9.46835894137621 264.432221651077 2628.99994850159 11 12 6
-2.28367326781154 263.024359941483 2615.00000953674 11 12 6
4.86543914303184 263.828963041306 2622.99990653992 11 12 6
12.1315140277147 266.242533922195 2647.0000743866 11 12 6
19.2945320159197 265.437096357346 2638.99993896484 10 11 5
26.2029934674501 262.519121170044 2609.99989509583 7 8 2
33.1318713724613 261.008977890015 2595.00002861023 8 9 3
40.1647202670574 260.705441236496 2592.00000762939 13 16 9
47.3268292844296 261.206239461899 2596.99988365173 14 17 10
54.3693751096725 261.002629995346 2595.00002861023 22 25 18
61.6849586367607 262.005627155304 2605.00001907349 24 27 20
68.6323270201683 261.399000883102 2598.99997711182 23 26 19
76.0711431503296 262.602478265762 2611.00006103516 8 11 4
81.4084559679031 256.966471672058 2555.0000667572 7 10 3
87.58145570755 254.649251699448 2532.00006484985 7 10 3
97.0245003700256 261.483669281006 2599.99990463257 10 13 6
105.156235396862 264.093667268753 2625.99992752075 14 17 10
112.488374114037 264.490753412247 2630.00011444092 14 17 10
118.840947747231 262.675017118454 2611.99998855591 18 19 11
125.143140554428 260.959655046463 2595.00002861023 21 22 14
133.237332105637 262.964725494385 2615.00000953674 20 21 13
141.17169380188 264.466613531113 2630.00011444092 18 19 11
149.356499314308 266.269713640213 2648.00000190735 19 20 12
156.515419483185 266.161948442459 2647.0000743866 18 19 11
162.554889917374 264.243930578232 2628.00002098084 19 20 12
170.879647135735 266.045928001404 2645.99990844727 22 23 15
178.359657526016 266.439944505692 2650.00009536743 25 26 18
185.300514101982 266.029238700867 2645.99990844727 26 27 19
193.382948637009 267.226845026016 2657.99999237061 30 33 24
203.492537140846 271.037936210632 2696.00009918213 31 36 30
211.462303996086 271.832555532455 2703.9999961853 30 35 29
-218.90577673912 267.790645360947 2737.99991607666 210 210 208
-210.443452000618 266.528904438019 2724.99990463257 210 207 202
-202.498227357864 265.853583812714 2717.99993515015 219 210 201
-193.657234311104 263.906329870224 2697.99995422363 124 108 93
-184.993579983711 262.056469917297 2678.99990081787 136 113 95
-176.897093653679 260.890930891037 2667.00005531311 143 116 95
-169.437751173973 260.60539484024 2664.00003433228 140 110 86
-162.17677295208 260.613054037094 2664.00003433228 150 118 93
-154.740691184998 260.326832532883 2661.00001335144 142 112 86
-147.652953863144 260.627299547195 2664.00003433228 125 103 79
-140.390202403069 260.63397526741 2664.00003433228 124 106 84
-133.276835083961 260.933876037598 2667.00005531311 77 66 46
-125.201672315598 259.27659869194 2650.00009536743 19 12 0
-118.865922093391 261.239111423492 2670.00007629395 20 23 12
-111.292272806168 260.559588670731 2663.00010681152 18 21 10
-103.600092232227 259.48828458786 2651.99995040894 15 18 7
-95.6041589379311 257.438153028488 2631.00004196167 16 19 8
-88.8315066695213 258.616626262665 2642.99988746643 17 20 9
-82.2092518210411 260.479807853699 2661.99994087219 18 21 12
-75.0888511538506 260.972768068314 2667.00005531311 18 21 12
-67.2543421387672 258.823335170746 2644.99998092651 16 19 10
-59.9935837090015 258.630603551865 2642.99988746643 16 19 10
-52.1243959665298 255.404025316238 2609.99989509583 14 17 8
-45.1247803866863 256.091296672821 2617.00010299683 14 17 8
-37.8400385379791 255.114674568176 2607.00011253357 15 18 11
-30.2325431257486 251.006275415421 2565.00005722046 16 19 12
-23.4157089143991 252.964705228806 2585.00003814697 15 18 11
-16.5149755775929 255.314260721207 2608.99996757507 15 18 11
-9.43999830633402 256.489187479019 2621.00005149841 15 18 11
-2.28378246538341 255.902290344238 2615.00000953674 12 15 8
4.84712142497301 255.706489086151 2612.99991607666 12 15 8
12.0037598535419 256.293267011642 2618.99995803833 10 13 6
19.0980397164822 255.607515573502 2611.99998855591 10 13 6
26.2343659996986 255.704313516617 2612.99991607666 10 13 6
33.171758055687 254.235059022903 2598.00004959106 7 10 3
40.1511453092098 253.548324108124 2591.00008010864 12 15 8
47.31085896492 254.035502672195 2595.99995613098 7 10 3
54.6443499624729 255.207389593124 2608.00004005432 7 10 3
62.0194151997566 256.281048059464 2618.99995803833 9 12 5
69.7975605726242 258.62643122673 2642.99988746643 7 10 3
77.6189640164375 260.67790389061 2664.00003433228 9 12 5
82.0814594626427 252.063244581223 2575.99997520447 9 12 5
90.1107788085938 254.896879196167 2605.00001907349 8 11 4
97.8128015995026 256.458044052124 2621.00005149841 9 12 5
105.161190032959 256.942510604858 2625.99992752075 11 14 7
111.809320747852 255.763351917267 2614.00008201599 10 13 6
117.390543222427 252.431303262711 2579.99992370605 18 21 12
125.100791454315 253.795474767685 2594.00010108948 19 22 13
133.192643523216 255.746215581894 2614.00008201599 17 20 11
141.554057598114 257.990092039108 2637.00008392334 13 16 7
149.419888854027 259.157359600067 2648.9999294281 12 15 6
154.867023229599 256.215423345566 2618.99995803833 12 15 6
163.552179932594 258.65375995636 2644.00005340576 16 19 10
170.887604355812 258.841753005981 2645.99990844727 20 23 14
178.233280777931 259.029358625412 2648.00000190735 25 28 19
186.569675803185 260.586142539978 2664.00003433228 27 30 21
194.483250379562 261.457800865173 2673.00009727478 28 31 22
201.84126496315 261.546581983566 2674.00002479553 29 34 28
211.159184575081 264.080256223679 2700.00004768372 26 31 25
-210.839062929153 259.585082530975 2730.00001907349 221 218 213
-202.283829450607 258.167892694473 2714.99991416931 108 94 81
-193.378865718842 256.17977976799 2694.00000572205 118 101 85
-184.863850474358 254.571586847305 2677.00004577637 145 120 100
-176.772430539131 253.438502550125 2664.99996185303 145 117 95
-169.191032648087 252.97075510025 2660.00008583069 170 136 108
-161.879748106003 252.883076667786 2658.99991989136 151 117 89
-154.398828744888 252.509742975235 2654.99997138977 140 109 80
-147.271707653999 252.70676612854 2657.00006484985 116 92 66
-140.08042216301 252.808392047882 2657.99999237061 132 112 88
-132.883131504059 252.909660339355 2658.99991989136 112 99 80
-125.774383544922 253.200858831406 2661.99994087219 35 28 10
-118.55973303318 253.301560878754 2663.00010681152 22 25 14
-111.924305558205 254.733592271805 2677.99997329712 21 24 13
-103.95647585392 253.12140583992 2661.00001335144 19 22 11
-96.8804359436035 253.601610660553 2665.99988937378 17 20 9
-89.2053544521332 252.464383840561 2654.00004386902 16 19 8
-82.3057070374489 253.514677286148 2664.99996185303 16 19 10
-75.0641673803329 253.613412380219 2665.99988937378 16 19 10
-67.3591792583466 251.999467611313 2648.9999294281 15 18 9
-58.8840693235397 246.770203113556 2594.00010108948 15 18 9
-52.2067062556744 248.675376176834 2614.00008201599 16 19 10
-44.9889302253723 248.201936483383 2608.99996757507 16 19 10
-37.6966409385204 247.062221169472 2596.99988365173 14 19 12
-30.3518213331699 244.970872998238 2575.00004768372 15 20 13
-23.3715046197176 245.447769761086 2579.99992370605 12 17 10
-16.4397805929184 247.065961360931 2596.99988365173 12 17 10
-9.38640907406807 247.922763228416 2605.99994659424 13 18 11
-2.27340799756348 247.637629508972 2602.9999256134 10 15 8
4.82694152742624 247.542440891266 2601.99999809265 11 16 9
11.9584836065769 248.208001255989 2608.99996757507 9 14 7
19.0696828067303 248.11215698719 2608.00004005432 10 15 8
26.3560730963945 249.728411436081 2625 11 16 9
33.4159098565578 248.965978622437 2617.00010299683 7 12 5
40.2459874749184 247.061565518379 2596.99988365173 22 25 18
47.3312884569168 247.059568762779 2596.99988365173 10 13 6
54.9821518361568 249.625816941261 2624.00007247925 4 7 0
62.2828006744385 250.193893909454 2630.00011444092 7 10 3
69.6951672434807 251.047044992447 2638.99993896484 8 11 4
76.3405114412308 249.236240983009 2619.99988555908 16 19 12
82.9456225037575 247.615426778793 2602.9999256134 15 18 11
90.391680598259 248.562723398209 2612.99991607666 11 14 7
98.0039015412331 249.795019626617 2625.99992752075 10 13 6
104.405142366886 247.983127832413 2607.00011253357 16 19 12
109.804019331932 244.173377752304 2566.99991226196 18 21 14
116.986431181431 244.548723101616 2571.00009918213 19 22 13
123.997285962105 244.543254375458 2571.00009918213 19 22 13
132.179632782936 246.725082397461 2594.00010108948 18 21 12
142.312094569206 252.140283584595 2651.00002288818 14 17 8
150.160014629364 253.179907798767 2661.99994087219 14 17 8
155.169755220413 249.558940529823 2624.00007247925 12 15 6
162.136822938919 249.266505241394 2621.00005149841 16 19 10
170.184910297394 250.590473413467 2634.99999046326 20 23 14
177.904784679413 251.343458890915 2642.99988746643 20 23 14
186.508059501648 253.237277269363 2663.00010681152 23 26 17
194.492027163506 254.179745912552 2673.00009727478 23 26 17
202.529713511467 255.121827125549 2683.00008773804 22 27 21
210.933983325958 256.443858146667 2697.00002670288 32 37 31
220.223143696785 258.716344833374 2720.99995613098 23 28 22
-209.303602576256 250.303953886032 2710.00003814697 228 219 210
-201.324060559273 249.573901295662 2701.99990272522 149 130 115
-192.74128973484 248.01217019558 2684.99994277954 146 125 108
-184.595748782158 246.911913156509 2673.00009727478 154 127 108
-176.713898777962 246.088415384293 2664.00003433228 158 127 106
-169.007703661919 245.449334383011 2657.00006484985 159 127 102
-161.582499742508 245.179399847984 2654.00004386902 159 125 100
-154.114902019501 244.816794991493 2650.00009536743 145 113 88
-147.167399525642 245.285347104073 2654.99997138977 126 102 76
-140.086680650711 245.568841695786 2657.99999237061 120 98 74
-133.038997650146 245.944395661354 2661.99994087219 105 89 66
-125.59100985527 245.580539107323 2657.99999237061 103 90 71
-118.565060198307 246.047928929329 2663.00010681152 16 14 2
-111.385986208916 246.237814426422 2664.99996185303 26 26 14
-103.922091424465 245.780616998672 2660.00008583069 21 21 11
-95.4311639070511 242.643430829048 2625.99992752075 20 22 11
-88.7724086642265 244.033575057983 2641.00003242493 16 19 8
-82.0932313799858 245.60821056366 2657.99999237061 13 16 7
-74.1665363311768 243.394002318382 2634.0000629425 13 16 7
-66.4467737078667 241.456627845764 2612.99991607666 12 15 8
-58.9094310998917 239.796116948128 2595.00002861023 13 16 9
-51.8295951187611 239.798590540886 2595.00002861023 19 22 13
-45.3875958919525 243.219882249832 2631.99996948242 19 22 13
-38.1193198263645 242.667272686958 2625.99992752075 18 23 16
-30.647886916995 240.266174077988 2599.99990463257 18 23 16
-23.4993975609541 239.712938666344 2594.00010108948 12 17 10
-16.4405293762684 239.991053938866 2596.99988365173 11 16 9
-9.29318461567163 238.420650362968 2579.99992370605 13 18 11
-2.24818242713809 237.866431474686 2573.99988174438 10 15 8
4.80860937386751 239.52978849411 2592.00000762939 12 17 10
11.9590274989605 241.100400686264 2608.99996757507 10 15 8
19.1217362880707 241.654172539711 2615.00000953674 11 16 9
26.3572689145803 242.577239871025 2625 13 18 11
40.3253063559532 240.448817610741 2601.99999809265 21 24 17
47.2605340182781 239.615201950073 2592.99993515015 13 16 9
54.6493679285049 240.999042987823 2608.00004005432 11 14 7
62.2145682573318 242.752149701118 2627.00009346008 15 18 11
69.1965147852898 242.1023696661 2619.99988555908 13 16 9
76.1691331863403 241.544708609581 2614.00008201599 14 17 10
83.3955183625221 241.818398237228 2617.00010299683 14 17 10
90.4649570584297 241.629675030708 2615.00000953674 12 15 8
98.5681712627411 244.02791261673 2641.00003242493 11 14 7
103.648878633976 239.12625014782 2588.00005912781 12 15 8
110.493399202824 238.659530878067 2582.99994468689 13 16 9
117.446720600128 238.469690084457 2581.00008964539 18 21 12
124.388664960861 238.279536366463 2578.9999961853 18 21 12
131.217315793037 237.904340028763 2575.00004768372 16 19 10
148.135900497437 242.603808641434 2625.99992752075 15 18 9
154.112160205841 240.749478340149 2605.99994659424 15 18 9
162.762641906738 243.052110075951 2631.00004196167 19 22 13
171.290442347527 244.984745979309 2651.99995040894 20 23 14
178.72042953968 245.254263281822 2654.99997138977 18 21 12
186.096027493477 245.431065559387 2657.00006484985 21 24 15
194.355010986328 246.715977787971 2671.0000038147 22 25 16
202.312126755714 247.538715600967 2680.0000667572 25 30 23
214.30641412735 253.071546554565 2740.00000953674 16 21 15
220.637425780296 251.769155263901 2726.0000705719 27 32 26
-209.853157401085 243.551135063171 2717.00000762939 118 108 98
-200.960084795952 241.766929626465 2697.00002670288 153 132 115
-192.318797111511 240.16161262989 2678.99990081787 154 131 115
-184.396460652351 239.362776279449 2670.00007629395 158 131 112
-176.522493362427 238.56358230114 2661.00001335144 160 132 110
-168.951362371445 238.122656941414 2655.99989891052 162 130 107
-161.52860224247 237.860724329948 2653.00011634827 157 125 102
-154.354214668274 237.957119941711 2654.00004386902 141 111 87
-147.284671664238 238.23256790638 2657.00006484985 123 99 75
-140.30359685421 238.687038421631 2661.99994087219 118 96 73
-133.194744586945 238.961890339851 2664.99996185303 116 98 76
-125.832766294479 238.788157701492 2663.00010681152 109 96 77
-118.169516324997 237.986370921135 2654.00004386902 19 15 4
-110.304109752178 236.646205186844 2638.99993896484 25 23 11
-102.012194693089 234.139963984489 2611.00006103516 21 21 11
-95.0719341635704 234.592586755753 2615.9999370575 23 25 14
-87.4317288398743 233.2514077425 2601.0000705719 19 22 11
-81.139363348484 235.586687922478 2627.00009346008 15 18 9
-74.2824375629425 236.576557159424 2638.00001144409 14 17 8
-66.5005668997765 234.516948461533 2615.00000953674 13 16 9
-58.9574389159679 232.905372977257 2596.99988365173 13 16 9
-51.9317500293255 233.176842331886 2599.99990463257 14 17 10
-45.3896000981331 236.048862338066 2631.99996948242 14 17 10
-38.1645560264587 235.781610012054 2628.99994850159 18 21 12
-30.8378543704748 234.617203474045 2615.9999370575 17 20 11
-23.8446984440088 236.053392291069 2631.99996948242 16 19 10
-16.4159331470728 232.556492090225 2592.99993515015 15 18 9
-9.18913260102272 228.79022359848 2551.00011825562 15 18 9
-2.24216771312058 230.225458741188 2566.99991226196 15 18 9
4.8088226467371 232.467576861382 2592.00000762939 14 17 8
11.9595564901829 233.991861343384 2608.99996757507 13 16 7
19.0202035009861 233.273714780807 2601.0000705719 15 18 9
26.3082291930914 234.976753592491 2619.99988555908 23 26 17
33.8786207139492 237.935066223145 2653.00011634827 25 28 19
39.9241261184216 231.027692556381 2575.99997520447 23 26 19
46.8433983623981 230.4877191782 2569.9999332428 17 20 13
54.295539855957 232.368886470795 2591.00008010864 14 17 10
61.9567930698395 234.60841178894 2615.9999370575 14 17 10
69.3316236138344 235.412687063217 2625 12 15 8
76.5221640467644 235.499188303947 2625.99992752075 14 17 10
83.7815925478935 235.764756798744 2628.99994850159 14 17 10
96.8555882573128 232.707902789116 2595.00002861023 12 15 8
103.853672742844 232.524201273918 2592.99993515015 14 17 10
111.139915883541 232.96794295311 2598.00004959106 16 19 12
118.817046284676 234.128713607788 2611.00006103516 15 18 9
125.262305140495 232.868075370789 2596.99988365173 18 21 12
133.363381028175 234.655871987343 2617.00010299683 17 20 11
138.673901557922 231.601431965828 2582.99994468689 15 18 9
145.885780453682 231.86431825161 2585.99996566772 17 20 11
155.242502689362 235.354632139206 2625 18 21 12
164.81126844883 238.844454288483 2664.00003433228 19 22 13
173.816919326782 241.257920861244 2690.99998474121 19 22 13
180.074453353882 239.815965294838 2674.99995231628 20 23 14
185.613706707954 237.566992640495 2650.00009536743 21 24 15
193.126276135445 237.917587161064 2654.00004386902 22 25 16
201.112866401672 238.80572617054 2664.00003433228 18 23 16
220.646798610687 244.345620274544 2726.0000705719 34 39 35
-210.943207144737 237.367689609528 2730.99994659424 91 81 69
-201.341018080711 234.855502843857 2701.99990272522 149 128 109
-192.326799035072 232.864394783974 2678.99990081787 156 130 113
-184.40417945385 232.08986222744 2670.00007629395 152 124 103
-176.529884338379 231.314957141876 2661.00001335144 157 126 105
-169.02206838131 230.97437620163 2657.00006484985 150 118 95
-161.535397171974 230.633497238159 2653.00011634827 146 114 91
-154.477044939995 230.900853872299 2655.99989891052 131 99 76
-147.623494267464 231.51570558548 2663.00010681152 115 89 66
-140.573069453239 231.869474053383 2667.00005531311 103 78 56
-133.450299501419 232.136026024818 2670.00007629395 118 100 80
-126.027122139931 231.880605220795 2667.00005531311 109 93 77
-118.219070136547 230.842381715775 2654.99997138977 21 17 6
-109.76542532444 228.325694799423 2625.99992752075 23 21 9
-102.524489164352 228.156268596649 2624.00007247925 20 20 10
-94.7852358222008 226.769208908081 2608.00004005432 24 26 15
-87.6371562480927 226.686105132103 2607.00011253357 19 22 11
-81.0501649975777 228.167861700058 2624.00007247925 17 20 11
-74.2011368274689 229.127630591393 2634.99999046326 16 19 10
-66.8340250849724 228.521943092346 2628.00002098084 14 17 10
-59.4367347657681 227.655023336411 2618.00003051758 13 16 9
-52.7329668402672 229.570478200912 2640.00010490417 13 16 9
-45.4087965190411 228.963851928711 2632.99989700317 12 15 8
-38.1081327795982 228.269964456558 2625 18 21 12
-30.9570655226707 228.358373045921 2625.99992752075 17 20 11
-23.5376879572868 225.924625992775 2598.00004959106 17 20 11
-16.1570645868778 221.925273537636 2552.00004577637 17 20 11
-9.2651778832078 223.665043711662 2572.00002670288 18 21 12
-2.25624023005366 224.621832370758 2582.99994468689 18 21 12
4.80717420578003 225.317493081093 2591.00008010864 16 19 10
11.8592195212841 224.969282746315 2586.99989318848 13 16 7
18.8893899321556 224.620804190636 2582.99994468689 15 18 9
26.1386521160603 226.35905444622 2602.9999256134 24 27 18
33.1904701888561 226.009950041771 2598.99997711182 27 30 21
40.1428304612637 225.225746631622 2589.99991416931 24 27 20
46.8089543282986 223.310813307762 2568.00007820129 19 22 15
54.3397814035416 225.482627749443 2592.99993515015 15 18 11
61.7462918162346 226.697593927383 2607.00011253357 15 18 11
69.1761150956154 227.738291025162 2618.99995803833 14 17 10
76.2340202927589 227.474346756935 2615.9999370575 17 20 13
84.040142595768 229.297026991844 2637.00008392334 15 18 11
90.3690159320831 227.119520306587 2611.99998855591 12 15 8
96.1505323648453 223.98529946804 2575.99997520447 12 15 8
103.297367691994 224.241971969604 2578.9999961853 15 18 11
111.358538269997 226.324215531349 2602.9999256134 16 19 12
119.641229510307 228.579983115196 2628.99994850159 14 17 8
127.197042107582 229.27038371563 2637.00008392334 18 21 12
131.891116499901 225.00479221344 2588.00005912781 17 20 11
139.538794755936 225.955471396446 2598.99997711182 16 19 10
147.922903299332 227.949053049088 2621.99997901917 19 22 13
156.313598155975 229.768365621567 2642.99988746643 19 22 13
165.560618042946 232.630535960197 2676.00011825562 20 23 14
173.63041639328 233.666658401489 2687.99996376038 20 23 14
180.283948779106 232.7900826931 2677.99997329712 20 23 14
186.88228726387 231.913268566132 2667.99998283386 21 24 15
193.279847502708 230.862364172935 2655.99989891052 21 24 15
200.819239020348 231.201991438866 2660.00008583069 20 23 14
209.396511316299 232.671186327934 2677.00004577637 28 30 25
216.770514845848 232.74938762188 2677.99997329712 28 30 27
-210.333794355392 229.254901409149 2723.00004959106 84 72 60
-200.97653567791 227.074027061462 2697.00002670288 147 126 107
-192.334592342377 225.566312670708 2678.99990081787 151 125 108
-184.687927365303 225.152865052223 2674.00002479553 148 120 99
-176.669776439667 224.233895540237 2663.00010681152 155 124 103
-169.028982520103 223.735600709915 2657.00006484985 148 113 91
-161.542013287544 223.405420780182 2653.00011634827 143 108 88
-154.774203896523 224.085465073586 2661.00001335144 132 100 79
-147.906735539436 224.681064486504 2667.99998283386 96 68 47
-140.947818756104 225.192204117775 2674.00002479553 54 27 8
-133.505776524544 224.94512796402 2671.0000038147 108 87 70
-126.221343874931 224.950402975082 2671.0000038147 104 86 72
-118.758305907249 224.618524312973 2667.00005531311 19 15 4
-111.651033163071 224.960118532181 2671.0000038147 23 21 9
-104.052595794201 224.290698766708 2663.00010681152 16 16 6
-96.5337678790092 223.705232143402 2655.99989891052 19 21 10
-87.9097431898117 220.255702733994 2615.00000953674 15 18 7
-80.868199467659 220.511838793755 2618.00003051758 20 23 14
-73.8099738955498 220.767706632614 2621.00005149841 20 23 14
-66.0738348960876 218.833282589912 2598.00004959106 18 21 14
-59.3484044075012 220.183566212654 2614.00008201599 17 20 13
-52.495464682579 221.365109086037 2628.00002098084 15 18 11
-45.0657531619072 220.103606581688 2612.99991607666 14 17 10
-38.022618740797 220.610752701759 2618.99995803833 14 17 8
-30.71079403162 219.43287551403 2605.00001907349 17 20 11
-23.4843119978905 218.338936567307 2592.00000762939 19 22 13
-16.2843689322472 216.655015945435 2572.00002670288 19 22 13
-9.25836060196161 216.48707985878 2569.9999332428 16 19 10
-2.27642618119717 219.519823789597 2605.99994659424 21 24 15
4.79438807815313 217.66659617424 2584.00011062622 15 18 9
11.7405252531171 215.72881937027 2561.00010871887 14 17 8
18.8462994992733 217.075929045677 2576.99990272522 16 19 10
25.9087756276131 217.32771396637 2579.99992370605 25 28 19
32.7576510608196 216.063007712364 2565.00005722046 29 32 23
39.9740152060986 217.240765690804 2578.9999961853 26 29 22
47.5765056908131 219.850227236748 2609.99989509583 23 26 19
54.614495486021 219.511196017265 2605.99994659424 18 21 14
61.6778060793877 219.340339303017 2604.00009155273 16 19 12
68.7827914953232 219.337671995163 2604.00009155273 14 17 10
75.7126361131668 218.829303979874 2598.00004959106 16 19 12
82.2269842028618 217.309921979904 2579.99992370605 14 17 10
90.2343764901161 219.664812088013 2608.00004005432 15 18 11
96.9757214188576 218.818694353104 2598.00004959106 16 19 12
103.381752967834 217.382773756981 2581.00008964539 14 17 10
111.448727548122 219.399765133858 2605.00001907349 11 14 7
120.192296802998 222.427010536194 2641.00003242493 12 15 6
127.346992492676 222.337752580643 2640.00010490417 16 19 10
133.782222867012 221.069172024727 2625 16 19 10
140.188828110695 219.884619116783 2611.00006103516 17 20 11
148.493155837059 221.647247672081 2631.99996948242 20 23 14
156.734019517899 223.156899213791 2650.00009536743 21 24 15
164.763048291206 224.245145916939 2663.00010681152 21 24 15
172.022566199303 224.238365888596 2663.00010681152 20 23 14
180.358588695526 225.578531622887 2678.99990081787 20 23 14
186.609670519829 224.30819272995 2664.00003433228 20 23 14
193.651556968689 224.048018455505 2661.00001335144 20 23 14
201.204806566238 224.376916885376 2664.99996185303 10 12 1
211.047634482384 227.147102355957 2697.99995422363 24 25 17
217.022061347961 225.70738196373 2680.99999427795 44 46 41
-209.955766797066 221.429213881493 2717.99993515015 111 99 85
-200.909927487373 219.644829630852 2696.00009918213 145 124 105
-192.701160907745 218.674793839455 2684.00001525879 144 122 101
-184.971481561661 218.193247914314 2677.99997329712 144 116 95
-176.942110061646 217.304036021233 2667.00005531311 149 118 98
-169.162884354591 216.658905148506 2658.99991989136 146 111 89
-161.670193076134 216.339454054832 2654.99997138977 135 100 80
-154.780358076096 216.83457493782 2661.00001335144 130 97 78
-148.134395480156 217.736884951591 2671.99993133545 79 50 32
-141.111597418785 218.150019645691 2677.00004577637 42 15 0
-133.611097931862 217.829450964928 2673.00009727478 109 86 72
-126.273646950722 217.753052711487 2671.99993133545 107 89 77
-118.941180408001 217.676416039467 2671.0000038147 18 14 3
-111.948132514954 218.251451849937 2677.99997329712 24 22 10
-105.033665895462 219.070732593536 2687.99996376038 23 21 9
-97.6644158363342 218.993276357651 2687.00003623962 16 18 7
-88.115006685257 213.617876172066 2621.00005149841 14 17 6
-80.8405801653862 213.295221328735 2617.00010299683 18 21 12
-72.7991238236427 210.690125823021 2585.00003814697 19 22 15
-65.4915422201157 209.877833724022 2575.00004768372 19 22 15
-58.828592300415 211.184427142143 2591.00008010864 18 21 14
-52.09806188941 212.572231888771 2608.00004005432 17 20 13
-44.7571314871311 211.514592170715 2595.00002861023 16 19 12
-37.7483069896698 211.923748254776 2599.99990463257 13 16 7
-30.7591985911131 212.658733129501 2608.99996757507 16 19 10
-23.6030537635088 212.333783507347 2605.00001907349 19 22 13
-16.5193006396294 212.660595774651 2608.99996757507 18 21 12
-9.34519991278648 211.438491940498 2594.00010108948 15 18 9
-2.2599205840379 210.868135094643 2586.99989318848 19 22 13
4.80386009439826 211.03110909462 2588.99998664856 18 21 12
11.768507771194 209.237545728683 2566.99991226196 15 18 9
18.7300499528646 208.747863769531 2561.00010871887 20 23 14
25.7893186062574 209.317535161972 2568.00007820129 24 27 18
32.65680372715 208.419755101204 2556.99992179871 26 29 20
39.7741310298443 209.151908755302 2565.99998474121 24 27 20
47.8336550295353 213.87767791748 2624.00007247925 22 25 18
55.0987459719181 214.283123612404 2628.99994850159 21 24 17
61.798732727766 212.650641798973 2608.99996757507 16 19 12
68.5742497444153 211.588487029076 2595.99995613098 14 17 10
75.3951072692871 210.852041840553 2586.99989318848 14 17 10
80.668568611145 206.284731626511 2530.99989891052 15 18 11
89.684396982193 211.253002285957 2592.00000762939 16 19 12
97.2036048769951 212.227329611778 2604.00009155273 16 19 12
103.986762464046 211.571335792542 2595.99995613098 13 16 9
110.169671475887 209.855645895004 2575.00004768372 10 13 6
119.833014905453 214.577868580818 2632.99989700317 12 15 6
127.207383513451 214.899003505707 2637.00008392334 16 19 10
133.125022053719 212.856516242027 2611.99998855591 16 19 10
140.731364488602 213.584557175636 2621.00005149841 17 20 11
149.288952350616 215.616077184677 2645.99990844727 20 23 14
156.740263104439 215.936034917831 2650.00009536743 21 24 15
164.08896446228 216.092705726624 2651.99995040894 20 23 14
172.73998260498 217.878773808479 2674.00002479553 20 23 14
178.21130156517 215.671971440315 2647.0000743866 20 23 14
184.375360608101 214.442774653435 2631.99996948242 20 23 14
192.93138384819 215.983480215073 2651.00002288818 20 23 14
203.855261206627 219.967886805534 2700.00004768372 28 30 19
212.072819471359 220.85602581501 2710.99996566772 24 26 15
217.435285449028 218.811169266701 2686.00010871887 26 29 22
221.823945641518 215.951591730118 2651.00002288818 16 18 15
-210.272714495659 214.338645339012 2721.99988365173 106 97 82
-201.290175318718 212.692692875862 2700.99997520447 134 116 96
-192.995697259903 211.676388978958 2687.99996376038 135 114 95
-185.116723179817 211.053475737572 2680.0000667572 124 97 76
-177.346974611282 210.509046912193 2673.00009727478 116 88 67
-169.423893094063 209.728062152863 2663.00010681152 123 88 68
-161.79820895195 209.261775016785 2657.00006484985 133 98 79
-154.669985175133 209.425285458565 2658.99991989136 126 93 74
-147.973775863647 210.218653082848 2668.99991035461 46 17 3
-141.169771552086 210.933059453964 2677.99997329712 46 18 6
-133.716240525246 210.702002048492 2674.99995231628 115 91 81
-126.467615365982 210.785746574402 2676.00011825562 111 93 83
-118.678621947765 209.923967719078 2664.99996185303 18 14 3
-111.200012266636 209.534496068954 2660.00008583069 24 22 10
-103.826403617859 209.302335977554 2657.00006484985 19 19 9
-96.7595279216766 209.700062870979 2661.99994087219 21 23 12
-88.3874073624611 207.10401237011 2628.99994850159 15 18 7
-80.7201787829399 205.846831202507 2612.99991607666 13 16 7
-73.3652412891388 205.219581723213 2605.00001907349 15 18 11
