ply
format ascii 1.0
comment KinectMotionCapture
element vertex 793
property float x
property float y
property float z
property uchar red
property uchar green
property uchar blue
end_header
-82.2467493561323 47.9519564409852 2707.8544527925 17 23 13
-79.2118313699621 46.5896219151422 2693.9909750284 17 23 13
-76.2352956112617 45.2226623294535 2680.08515131483 18 21 12
-64.2953371777026 42.9861147356946 2656.61604526481 17 20 11
-64.2313547554651 41.8743176146982 2645.54058292268 22 25 16
-31.1089190802998 37.5483224215375 2599.12773741917 23 26 17
323.814319251968 43.5760033254268 2703.29396656787 31 29 14
248.831387706298 48.5080242625475 2757.65339518289 22 25 14
231.627281802553 48.8504472078458 2762.47519681606 20 23 14
249.286117796829 46.3790889810149 2736.97516017153 18 21 12
252.155140110699 45.089922995544 2724.22682833648 16 19 10
258.046522439139 43.5442739185085 2708.7277296451 15 18 9
214.023996389476 46.1003379538736 2737.3490199788 13 16 7
178.626309670567 47.9771950146711 2758.63291373707 13 16 7
159.405292217835 48.5332024951289 2765.69909935776 12 15 8
136.456969483665 49.4141903540785 2776.24040554799 12 15 8
127.248227099147 49.1525207241308 2774.50420173174 12 15 8
132.416936703903 47.6741120437636 2759.71659937543 13 16 9
132.243114424626 46.6402729153945 2749.70447330899 10 13 6
122.264573546628 46.4417766355622 2748.64528827415 9 12 5
93.5763201365618 47.8617467366727 2764.90950273722 8 11 4
50.8252814211221 50.5249526853425 2794.45306406929 8 11 4
39.486847861784 49.4488593967321 2784.99310435412 16 19 12
11.2296991327918 50.9053220599749 2801.57002064275 14 17 10
-29.4463140131387 53.4878559285312 2830.147035938 13 16 9
10.3104435741703 48.918679800978 2782.36654811262 12 15 8
6.49731679017274 48.2180806503392 2775.89367257033 12 15 8
16.5709623173242 46.2597671749259 2756.01348676985 12 15 8
11.2286809634172 45.6862021620649 2750.9028111574 11 14 7
-2.11844927191729 45.8438775149068 2753.57923998775 12 15 8
-31.3727339011813 47.4724602432643 2771.90425626279 16 19 12
-36.634453479788 46.9060340067588 2766.85201775985 17 20 13
-26.7687592091259 44.9310683278308 2746.82099930894 16 19 12
-74.6544395557005 47.2952045179001 2773.87616560287 14 17 10
-61.3055415004144 44.9754582226101 2750.19267742885 14 17 10
-63.7363176337029 44.1372959289068 2742.25083285422 14 17 10
-61.2229762965826 42.8216010185832 2729.24452591428 14 17 10
-65.8374924939729 42.1831498268995 2723.42605750459 14 17 10
-76.8082449713263 42.1591992476133 2724.11884895033 13 19 9
-77.2045795893796 41.1099973156278 2713.94504664821 15 21 11
-79.0387404628334 40.1953878513328 2705.19998288163 17 23 13
-75.3120549953914 38.7275077782666 2690.60241088955 16 22 12
-68.8628293164955 36.9783032356072 2673.03660044093 18 21 12
-72.9059700634946 36.2615692706376 2666.39660666508 17 20 11
-37.5236912245489 31.5854545715903 2617.91479190949 25 28 19
-20.3398413681015 28.6977785987896 2588.36262010384 23 26 17
252.47876848829 41.4147339163402 2765.20197143052 28 29 15
244.586741213749 41.0130366997156 2761.94920549483 22 25 14
247.562791932808 39.6994132631554 2749.27833695298 21 24 15
236.561483050905 39.5579562142982 2748.71334558633 20 23 14
235.612882083169 38.5664500223378 2739.3748169679 17 20 11
180.023038602217 42.2396650844403 2778.14309797315 13 16 7
199.107596105717 39.5420426590199 2751.20508346887 13 16 7
149.906721287584 41.6672719607418 2774.83525937681 12 15 8
136.108050263599 41.8124741034071 2777.18429347383 12 15 8
119.319526051463 42.2279648465445 2782.307729247 13 16 9
123.002661336641 40.8438965247152 2768.91404795064 13 16 9
110.044576646373 40.9295734658177 2770.6371028839 10 13 6
91.864012746123 41.4890266257116 2777.222516313 9 12 5
79.7478596110972 41.5152471129125 2778.32027313348 8 11 4
36.2843866601423 44.3827537245688 2808.58344713647 7 10 3
27.308506374133 44.151598565515 2807.01620458676 15 18 11
51.0315239916319 40.9321755131565 2774.79192595025 16 19 12
22.7370739782886 42.4673160236473 2791.34220026061 15 18 11
3.43404421430105 43.193750026795 2799.58512775679 14 17 10
-1.06717511595145 42.5567897062428 2793.84850373849 13 16 9
15.7067289381487 39.9273525664466 2767.70616034429 13 16 9
11.1219264984546 39.2836658897455 2761.90891107589 13 16 9
-0.0388759425109519 39.2607935009487 2762.46393670839 12 15 8
-16.9890193069711 39.794483026457 2768.70614111527 13 16 9
-41.8507728803725 41.0973758919001 2782.80323295839 18 21 14
-16.2750893681982 36.4739454363447 2737.09355681103 14 17 10
-32.4027460530336 36.9469318471546 2742.69636078525 13 16 9
-68.5275070345199 39.3895867215573 2768.39648976533 14 17 10
-63.0477711396087 37.7679326085465 2752.59859480883 14 17 10
-44.8248553141275 34.8710484065079 2723.79991193442 14 17 10
-55.8518175828413 34.860840750655 2724.45202531345 14 17 10
-71.0941048867932 35.2786617478934 2729.46133639369 14 17 10
-72.8789072079761 34.3508894658804 2720.75198702275 13 19 7
-86.6442213313337 34.6325052501558 2724.36122431712 15 21 11
-82.1382552197167 33.060692254569 2709.09271194771 17 23 13
-62.3282761030204 29.9076492546658 2677.73782326329 17 23 13
-77.50700263911 30.3317694513933 2682.79324280729 18 21 12
-85.6865374597762 30.0408105104163 2680.5676540561 19 22 13
-93.8535970495487 29.7511057551069 2678.35082074168 22 25 16
208.425391785561 37.3916600601039 2803.6484548246 26 28 15
241.118026921738 33.4835958573234 2765.57199999928 21 24 13
220.736659406705 33.1024863263614 2763.14643105585 21 24 15
189.747147572673 34.7581478031361 2780.2139757348 19 22 13
218.902090437653 31.0854157122721 2744.51460528135 15 18 9
233.279141460773 28.6999556209974 2721.57640875928 13 16 7
207.761687329687 29.8838123623247 2733.96223522713 13 16 7
177.013859715942 31.5600387292324 2751.20508612039 11 14 7
115.224838174809 36.0852444622308 2796.59997924737 11 14 7
108.353777080027 35.6416369499397 2792.85208457077 11 14 7
125.682078866985 32.9720266581128 2767.11113796259 11 14 7
105.930846862911 33.7090501762462 2775.02920772781 9 12 5
84.002703889662 34.6625033088349 2785.07539442015 8 11 4
74.1580199442122 34.5017310726141 2784.1137306891 8 11 4
61.3452079627592 34.624034727955 2785.94198795376 7 10 3
41.1195369289863 35.454591825223 2794.75163713653 13 16 9
35.8348162605111 34.8786699715319 2789.6826765555 14 17 10
36.4704875462878 33.7354742565258 2779.02148463092 13 16 9
10.4787259214127 35.1466762092387 2793.53499475804 13 16 9
5.95790730112178 34.5021939763812 2787.78441917318 12 15 8
4.36387064872967 33.571340322356 2779.21334429892 12 15 8
2.74231470174957 32.6383319783341 2770.6223091868 12 15 8
-47.0678210818727 36.4408534235948 2808.64063761542 14 17 10
-62.4217279465062 36.8830735921554 2813.56915688066 18 21 14
-42.1791534489144 33.7947178547091 2783.76323010282 19 22 15
-26.4349530914054 31.1271732596038 2758.10927613142 18 21 14
-23.8001789642444 29.7540442236233 2745.19070749731 11 14 7
-45.6551764651572 30.8485084236149 2756.52596425863 13 16 9
-38.0377920985198 28.9627095593379 2738.5709539891 14 17 10
-25.5053075635947 26.5585178868901 2715.53053360478 14 17 10
-23.0578025109056 25.1704374291234 2702.47642836719 14 17 10
-46.2196545092346 26.4219231868718 2715.33518701722 14 17 10
-60.7847411195088 26.7988562489811 2719.60017159784 14 17 8
-73.1812656725264 26.9588567923052 2721.73039544555 14 20 8
-59.5187157669663 24.3846061632493 2697.03824892466 15 21 9
-83.8374426538531 25.8056771288221 2711.52959099697 16 22 12
-82.8839603078557 24.559500324363 2699.86322884365 17 23 13
-86.8520012914225 23.8315544432694 2693.27761969846 19 22 13
-74.1680258028481 21.3091902631948 2669.11138314317 18 21 12
-103.137384795042 23.2717367903434 2688.87997079185 26 29 20
267.369413719602 24.4045159574702 2753.67822612267 25 27 16
234.310823392226 24.0709377260974 2751.94379056028 22 25 16
193.807566218315 24.470622857255 2757.16781544735 15 18 9
167.635745119357 25.8032924640257 2770.31506773101 14 17 8
150.731033103324 26.2846283928967 2775.35490448143 12 15 8
136.929484127593 26.4834265668635 2777.70212376428 11 14 7
136.064729322358 25.4599241771308 2768.42421495137 10 13 6
143.487106991825 23.6385280113768 2751.56320300697 10 13 6
142.534489902139 22.6078480529202 2742.22156459318 9 12 5
167.113345365298 19.1038659998899 2709.38151757586 8 11 4
74.5629038344551 26.9497103174382 2784.36898718782 8 11 4
62.4963180173355 27.0230514728416 2785.50291509034 7 10 3
45.1529321401023 26.5180505616357 2781.57361197101 14 17 10
28.723668388317 27.0402227526762 2786.95802368145 13 16 9
23.4349241113736 26.4609877510669 2781.88612951903 12 15 8
10.0395979378507 26.6949647673157 2784.52800656819 12 15 8
8.4355680976409 25.7463641820229 2775.94959752712 12 15 8
-5.64114214471712 26.059226249182 2779.33325539788 13 16 9
-26.2391292981152 27.0468082413998 2789.10883667117 15 18 11
-35.1074605614885 26.8466398372902 2787.61942118018 17 20 13
-35.2537128720116 25.7494699242617 2777.62666591253 17 20 13
-33.2666102820882 24.4242167105935 2765.47415996578 15 18 11
-24.1185422484116 22.3424437320964 2746.15770904698 11 14 7
-51.7250922373154 24.1002360358954 2763.20778454079 13 16 9
-39.0684793393832 21.6344822467076 2740.25703563159 14 17 10
-25.8132083882967 19.0834507542054 2716.50479814354 14 17 10
-35.469269032558 18.9541841323694 2715.67973657407 14 17 10
-48.654459089176 19.2077086937841 2718.47404479108 14 17 10
-55.4264157473401 18.7778502164078 2714.79806267715 14 17 8
-41.7318371187396 16.1287708641994 2690.12846096186 15 21 9
-65.4425436968125 17.5359397631353 2703.82546288592 15 21 9
-72.2149936011513 17.1065985351853 2700.14883135026 16 22 12
-97.1578651136034 18.6822166228131 2715.42353710443 17 23 13
-89.930348399865 16.7131557305815 2697.18548171454 20 23 14
-93.9010754399139 15.9766235372534 2690.59817637534 17 20 11
-95.1162333266555 14.9285627718612 2681.06583402063 25 28 19
198.380445912209 20.7660459234587 2793.81237391958 22 25 16
198.355053445037 19.6544408885483 2783.90715941492 23 26 17
240.741384272382 14.484554540565 2736.79482600423 22 25 16
229.748698955996 14.3916210207494 2736.2363318255 20 23 14
175.040061044745 18.5247283118541 2774.41071036969 17 20 11
157.336302385087 19.1153158210388 2780.10689116564 15 18 11
150.379555656758 18.6687891659853 2776.2965718816 14 17 10
143.4261741637 18.2226247482418 2772.48869396324 12 15 8
139.510473702743 17.4774560675898 2765.94094034301 11 14 7
140.875397870508 16.2059720846119 2754.57271296105 10 13 6
154.262720350816 13.7274375593481 2732.15160628528 8 11 4
148.734321922154 13.1241726890268 2726.90585999778 8 11 4
97.2899016802886 16.0079155599813 2753.85392496301 7 10 3
72.4830104308936 17.3882804197568 2766.75614345735 12 15 8
51.5011751324379 18.3971916292603 2776.25357305525 14 17 10
45.4265353954684 17.8871847916035 2771.84735378551 13 16 9
52.6496293535166 16.0001466718619 2754.84154433634 13 16 9
6.01950443353871 19.7047818755637 2788.98915706868 13 16 9
6.63297193871282 18.5098415772038 2778.31160705318 13 16 9
5.74123558169992 17.4657821576984 2769.01403461216 13 16 9
-13.4326632744164 18.3502892358806 2777.35137253053 15 18 11
-6.32713642510785 16.4540853320765 2760.26028974873 18 21 14
-85.6487774999291 23.7871073681053 2827.54331086501 15 18 11
-69.1515971361287 19.7719128344601 2791.31216896308 12 15 8
-21.8482946280703 13.4936079210514 2734.17205806928 13 16 9
-25.7642316745514 12.7509591864791 2727.62414570718 13 16 9
-33.9819339371634 12.4784757743337 2725.37098214497 14 17 10
-47.1740715061082 12.7582774187445 2728.16038706063 14 17 10
-46.1196363113054 11.4637911436319 2716.56696308487 14 17 10
-43.6945627976373 10.0075927821305 2703.49625171532 14 17 8
-56.8500032920487 10.2910543527106 2706.31227766171 15 21 9
-65.0374365929733 10.0221581965196 2704.08107488596 15 21 9
-43.7560005249689 6.40959717188289 2671.32018146318 16 22 10
-88.366863641967 10.2862688509248 2706.93247156834 17 23 11
-104.161596882872 10.9030398682169 2712.77734714938 20 23 14
-114.337727563898 10.8835451257957 2712.81116283385 25 28 21
-124.488095674033 10.8663959277202 2712.86337175937 19 22 15
293.19871618477 6.14045515959369 2732.78581073107 26 28 23
251.719970810048 9.0131918667288 2758.3123049787 24 27 20
225.964200576811 10.3806920862154 2770.52630120861 24 27 20
167.02971338006 15.0371835833111 2811.81569456588 24 27 20
185.585590328563 12.0728514693145 2785.72811393672 24 27 20
213.236745574391 8.17693947423187 2751.40785303094 25 28 21
186.966138513405 9.642701694341 2764.48446187987 20 23 16
149.328590939611 12.2733028249507 2787.85356045335 20 23 16
161.474434395497 9.90108653147828 2767.00338539653 19 22 15
119.486652639923 13.0142365193036 2794.63215930736 12 15 8
135.369296811384 10.2495563521194 2770.31311082961 9 12 5
137.50547999379 8.87367919499141 2758.26842016563 7 10 3
140.346723258709 7.41581652762735 2745.49909622321 8 10 5
140.125365810898 6.26600231531629 2735.45192346199 8 10 5
91.8705455054445 10.124992124924 2769.65757830239 8 11 4
82.5814867009771 8.77845427889221 2757.97647986322 13 16 9
51.1612698166144 10.9431799683098 2777.20444902848 13 16 9
48.7948254701509 10.0376451089051 2769.30860420668 15 18 9
56.5175493716463 6.87111798617002 2741.54258768527 14 17 8
25.3965768523874 9.0615598882785 2760.98791021169 15 18 9
-11.4342994457877 11.9028763706596 2786.17788595208 17 20 13
-17.4149904753604 11.4010479922922 2781.83981353081 18 21 14
-33.5881087277798 12.0214091682644 2787.41070240374 17 20 13
6.90803350912939 6.38045011371846 2737.69041376287 13 16 9
-11.4860964518329 7.23849180764444 2745.35755763583 11 14 7
-26.1997191338783 7.69937023052622 2749.5152904479 13 16 9
-9.93858433506656 4.68629997669132 2722.99928650015 15 18 11
-12.4552431283171 3.76991043579195 2714.99449303904 14 17 10
-49.3020731201843 6.75253274422599 2741.40895045448 14 17 10
-60.3093735404112 6.81895614925798 2742.07570527851 15 18 11
-37.9018608528905 3.0512868592982 2708.89530654574 16 19 12
-45.4126256177241 2.70534452099461 2705.91920834933 16 19 12
-66.3276222256792 3.91826813136384 2716.70116073261 19 22 15
-66.7437779674471 2.75574989127236 2706.51271018249 19 22 15
-72.8080497550541 2.24933118863949 2702.11402503512 19 22 15
-73.2789405953818 1.08260741202518 2691.88558006506 19 22 15
-107.245976156086 3.88461170815677 2716.68134269105 18 21 14
306.119728579134 -3.12143585500352 2722.34355660758 13 15 12
284.844394404173 -2.17385959536598 2730.39287530352 24 26 21
162.063568057467 6.80775381770571 2806.93861504836 25 28 21
159.688896243745 3.5781346614483 2779.26327003954 18 21 14
114.562956951541 7.13205678546563 2809.56009464909 15 18 11
129.786630047908 4.37607571595711 2785.9984246677 13 16 9
161.581860600156 -0.156765926506736 2747.26825748702 9 12 5
153.051227895207 -0.442681303250175 2744.78817593335 8 11 4
136.233364669175 0.15985041863284 2749.89129062865 8 10 5
117.971213568939 0.929310243377168 2756.41862348049 8 10 5
110.279847928131 0.5701710715659 2753.31153701031 8 11 4
108.579569228208 -0.437964888718667 2744.66305355836 7 10 3
50.0770023165975 3.57696135323637 2778.85149676422 14 17 10
26.9591006461782 4.94742334881868 2790.5076819538 16 19 10
48.2880024636918 1.40883550602938 2760.25164541295 16 19 10
64.2944398736667 -1.56837101967494 2734.78622417857 15 18 9
28.7385733967258 1.20651461082999 2758.43007200467 14 17 8
8.74026137643558 2.26345854445667 2767.40568528235 14 17 8
-3.87245544974824 2.5004851125755 2769.3798713665 17 20 13
11.2212533559228 -0.408731896298392 2744.48817469777 17 20 13
-23.1747678242182 2.3201848432011 2767.73754966114 12 15 8
10.6070958229125 -5.2110976157245 2703.25948033239 15 18 11
3.00992774537079 -5.56000687842911 2700.2207315026 14 17 10
-37.4635784556476 -2.04436424471902 2730.18431141298 14 17 10
-45.656381818836 -2.29884909776656 2727.94928876059 15 18 11
-29.6811569931927 -5.4205149037129 2701.22547251378 16 19 12
-42.173925519235 -5.171571022796 2703.28637756704 16 19 12
-62.3948267245513 -3.98710372352709 2713.33660823142 19 21 16
-83.232079513611 -2.71016947132718 2724.17524299468 19 22 15
-82.2268004076829 -4.06354250400526 2712.545886448 19 22 15
-69.3762730488188 -6.8702818517451 2688.4989464816 19 22 15
-46.1873816151082 -10.9689291035699 2653.41294167334 18 21 14
-49.5957413579871 -11.8279523925632 2645.99735684159 18 21 14
222.915143197285 -4.84485933196996 2774.41462612454 25 28 21
242.187763463055 -8.0719608113323 2747.6102604143 24 27 20
210.223429124414 -7.09229719238577 2755.32157155803 21 24 17
208.5268701787 -8.1177861084851 2746.67569673915 17 20 13
196.849560816445 -8.07345849705143 2746.85693033988 15 18 11
140.922990564088 -3.23278583456849 2786.62206095454 9 12 5
178.913077774304 -8.55693522023068 2742.49778745265 7 10 3
145.297439011892 -6.09850620753488 2762.60610384654 9 12 5
123.816738806266 -6.14528084052229 2761.85537190535 8 10 5
152.993996735404 -10.594915329377 2724.93320632513 8 10 5
142.200321111988 -10.6224979409237 2724.51930953514 9 11 6
81.1587729039451 -6.21183805791381 2760.5745998482 13 16 9
40.0680082536664 -2.76580549366698 2788.85532671784 14 17 10
29.5823831229329 -2.76696885635727 2788.66487612283 18 21 12
47.213873144746 -5.9840738302093 2761.90590733875 19 22 13
19.7431949617481 -4.03558921452743 2777.82040846927 16 19 10
2.68718741912766 -3.2671646031312 2783.98676417662 15 18 9
17.1998939217266 -6.1586076003872 2759.90930767428 15 18 9
14.0576864151916 -7.01007951468507 2752.68670052784 16 19 12
-13.8635103642006 -4.95203889357099 2769.51020266526 14 17 10
-3.17339873850697 -7.43019778529913 2748.83923654692 11 14 7
-46.8735787725223 -3.46786992703746 2781.4067297547 12 15 8
-16.7385970236476 -8.27561856227702 2741.47132584985 15 18 11
6.69982423198379 -12.3244582889652 2707.80179392588 16 19 12
-4.47028831685303 -12.2344820357396 2708.35064206312 15 18 11
-7.0302141517149 -13.1825458984006 2700.3143229635 14 17 10
-30.2851465707206 -11.6119111529375 2713.10751665971 16 19 12
-41.3546828347633 -11.5129208136645 2713.72932035032 17 20 13
-48.8522486122656 -11.8475581808664 2710.76255316639 16 19 12
-63.404088991331 -11.3067202579947 2715.03797043313 19 21 16
-84.2399964218681 -9.97246195532636 2725.87816531013 19 22 15
-94.4571519957338 -9.94779419688899 2725.88217038901 18 21 14
-83.6614380989591 -12.5612406418541 2704.05203572332 18 21 14
-37.4065161004538 -19.6816336541304 2644.91262945317 18 21 14
-53.3534270320413 -18.9632293994369 2650.64770297098 19 22 15
134.345515883079 -0.679388757926475 2870.79595844442 25 27 22
183.654839908487 -7.15552462960131 2818.814752148 25 28 21
241.19612925207 -14.5849064374876 2759.20966398169 24 27 20
241.83374524882 -15.8799030031599 2748.54911291837 21 24 17
253.243984671993 -18.3631714439332 2728.40015692785 19 22 15
276.104785665074 -22.1273183275195 2698.01844766151 16 19 12
215.088506470426 -16.6398333572988 2741.50831908225 11 14 7
150.554280318155 -10.7001355026345 2788.62572384712 10 13 6
156.487717557893 -13.7952741188994 2763.26838120081 9 12 5
156.907238318532 -16.3067038224624 2742.56268478516 9 12 5
168.003982133334 -18.8158767261455 2722.18633792659 8 10 5
172.977859361006 -20.6431557075434 2707.25573032535 8 10 5
168.129498418973 -21.3515825080058 2701.26709395249 9 11 6
134.839784013182 -18.7670375600548 2721.61231867014 7 10 3
30.7982828784219 -9.11844351637384 2798.15998169129 13 16 9
42.5886206657267 -11.7182377652376 2777.05064578421 17 20 11
37.2660489700158 -12.3162394434466 2771.95413434709 18 21 12
23.0916130073502 -11.8633386911754 2775.26765808119 17 20 11
11.9046327091406 -11.7574330792652 2775.80435911227 17 20 11
5.14429599890232 -12.1767268794472 2772.13655958173 17 20 11
-12.5716980355519 -11.2731675434073 2779.06049258658 15 18 11
-11.2800180464814 -12.6605436135644 2767.6385819201 13 16 9
-33.9975840801612 -11.1300969212991 2779.58578931037 11 14 7
-39.2391350646208 -11.7201712689558 2774.54775719237 13 16 9
-28.6069853951196 -14.266294425835 2753.83442896263 15 18 11
-30.3101785022486 -15.3063502211885 2745.18396559147 16 19 12
-20.5626212969001 -17.7768873205496 2725.0647968938 15 18 11
10.5419362147772 -22.9389818786208 2683.36039106082 15 18 11
-34.8710427472367 -18.5288964755035 2718.39391211761 16 19 12
-50.1905695300384 -17.8709193716878 2723.34844708928 17 20 13
-66.1622494631944 -17.1179584674552 2729.06574006551 17 20 13
-67.239875610521 -18.2537582198781 2719.63294746553 19 21 16
-73.2783202195833 -18.759339253135 2715.25298923402 18 21 14
-81.4235495106301 -18.9930924479859 2713.05255905174 18 21 14
-90.9558192032012 -19.0440882492749 2712.31763264212 18 21 14
-48.1530532059062 -25.9129248923247 2656.85273109667 18 21 14
-61.9805645457219 -25.4270008702127 2660.41762068595 20 23 16
201.151235804758 -15.4882249384276 2814.16407096107 17 19 14
229.248965678498 -19.8302712283598 2780.16528177528 19 22 15
243.945451697215 -22.7098636899898 2757.45614762073 16 19 12
160.202665189065 -18.1862040693987 2790.64168453982 9 12 5
178.535147238424 -21.5215403779413 2764.39028097141 9 12 5
162.229766294228 -22.1359800904756 2758.74282219266 10 13 6
152.193788794674 -22.220642455724 2757.64257671631 9 12 5
165.649873300965 -25.0519200216467 2735.26953038759 9 12 5
200.883698631386 -30.4693464904683 2692.8521157253 9 11 6
205.012671716996 -32.2568966727782 2678.54425694373 8 10 5
188.063558521325 -31.5515337987489 2683.55304107211 9 11 6
127.771323971118 -25.655624050055 2728.80459881168 7 10 3
49.7942937728051 -18.8108406180376 2781.00322993529 15 18 11
51.8904518806749 -20.3116584041233 2768.92889139169 16 19 10
60.5930862931898 -22.6277521084882 2750.52338588341 16 19 10
29.3902506344406 -20.0734212501927 2769.91091276525 16 19 10
6.42253608472787 -18.5020915826118 2781.67698923814 18 21 12
-8.38265090646906 -17.9198232243696 2785.76895999238 15 18 11
-4.86748472154463 -19.605240066487 2772.25198792094 13 16 9
-1.64357553007299 -22.5339376584575 2748.63640351245 13 16 9
-8.43021580967784 -22.9523647919673 2744.94983482999 14 17 10
-31.8176595797639 -21.2628909669738 2757.64727568621 14 17 10
-29.1902283664114 -22.8696904198848 2744.72220043045 17 20 13
-32.3569489546733 -23.7448053001877 2737.48170347164 15 18 11
-26.9584189603029 -25.7275279242236 2721.62311174162 15 18 11
-38.0330307747809 -25.5915491328294 2722.24142341121 17 20 13
-61.8742041726983 -23.7868544356793 2735.8458606998 18 21 14
-69.3059214244849 -24.1057814276215 2732.92720257061 17 20 13
-54.121775575287 -27.39734082828 2706.86379789894 18 20 15
-69.3554612794682 -26.6962048877623 2711.88077950847 18 21 14
-83.1287318662044 -26.1766915476419 2715.48545399076 18 21 14
-75.158129814094 -28.5507139293075 2696.5489891819 17 20 13
-51.2304307560882 -33.0861691396734 2660.7613126398 17 20 13
-15.6704711258511 -39.2327728542555 2612.40055968793 15 18 11
236.723758176551 -27.1857516885802 2784.31162478926 7 10 1
251.482353299822 -30.1344949250201 2761.64687011074 16 19 12
219.49877650639 -27.7104247742736 2779.23272465685 13 16 9
288.086916231659 -38.230375282 2699.21247041022 9 12 5
232.275497833356 -33.00301150629 2737.82799909887 10 13 6
179.048720722388 -28.0232712434589 2774.61082526617 12 15 8
193.323935454555 -32.2560608992171 2741.7082718904 9 12 5
181.683660420229 -32.1523751629452 2741.91635864938 9 12 5
172.35152708318 -32.3196787493781 2740.09088960393 9 12 5
189.980867264381 -37.0452854542158 2703.44183950821 9 11 6
194.897576643167 -38.9604084451139 2688.46963924309 8 10 5
169.720020570522 -37.2033759062448 2701.1047683157 9 11 6
155.130094462877 -36.7268206570945 2704.11691971437 7 10 3
107.750690138165 -32.1842488451538 2737.72560812992 9 12 5
90.3757154616898 -31.3212699828316 2743.66151116778 16 19 12
77.517190612336 -31.008815835248 2745.45759334867 16 19 12
68.3953553965129 -31.1572205119021 2743.78496410301 15 18 9
19.4660904638972 -26.2790740885976 2779.97693512739 15 18 9
2.40818201262405 -25.3887364991854 2786.14282481578 17 20 11
8.87414491952487 -27.4824776139033 2769.82243902446 18 21 12
-3.73861557855459 -27.1484708581064 2771.79679019666 12 15 8
7.73355565126188 -29.9064519544192 2750.45630179151 11 14 7
3.11640511598954 -30.6054876821028 2744.63561682144 14 17 10
-11.6502052419298 -29.9868571115685 2748.75544230517 15 18 11
-29.975463692441 -28.8918781328844 2756.4737127399 13 16 9
-47.5069354740456 -27.8850093338425 2763.53193314654 17 20 13
-20.4736031691355 -32.7450811677812 2726.28854781081 16 19 12
-32.2790631276093 -32.4968547108004 2727.61295172652 15 18 11
-35.4908884021978 -33.3867462817206 2720.33938809414 17 20 13
-42.9878869699172 -33.7062420268912 2717.37340326501 18 21 14
-66.7805589759616 -31.8291218919778 2731.01336709676 17 20 13
-61.4915334936095 -33.864328587807 2715.07512736687 18 20 15
-67.5449823165606 -34.3718719274106 2710.68428232104 18 21 14
-83.4305448446049 -33.5349845189867 2716.46442874635 17 20 13
-80.35476002983 -35.2903189740352 2702.62858559633 17 20 13
-30.5837095112282 -43.5085144919113 2639.85705771916 17 20 13
-15.2514255116134 -47.0238314248813 2612.66487154894 17 20 13
241.768685382326 -36.8081648588306 2770.62807557119 15 18 11
202.037024065318 -33.3678308870606 2794.9535755935 12 15 8
254.717312225895 -40.9339137135198 2739.23476024236 11 14 7
300.880536877807 -47.785802004838 2688.67638047355 12 15 8
182.533392898738 -36.1267931591777 2772.15515708648 10 13 6
209.784270665888 -42.0477131580215 2727.65358744166 11 14 7
215.618854559513 -44.0852938422398 2712.11082262218 11 14 7
139.342753292609 -35.9848320656238 2770.48929467998 10 13 6
139.212573755453 -37.2613652019043 2760.50728239867 9 12 5
164.132734148394 -44.327375458842 2706.89951715217 9 11 6
158.542594759995 -44.9580563245313 2701.60858018089 9 12 5
108.16087022556 -39.8865891309811 2737.98394255692 11 14 7
75.1549548510808 -36.9833214112719 2758.53651364262 14 17 10
72.7297051471312 -37.9785655072762 2750.59787964426 15 18 11
41.4281131269325 -35.2473279075983 2769.91471199964 14 17 8
31.6664972090983 -35.2810868936673 2769.0136149247 18 21 12
6.48160462737524 -33.2975129421919 2782.87990418845 17 20 11
4.14031770060008 -34.2850290877301 2775.00217574271 14 17 8
17.1277736968234 -37.297536458095 2752.28849264133 13 16 9
-17.3741640134009 -34.0453009520844 2775.4637371644 12 15 8
-16.1006792723626 -35.5174339186302 2764.02820706393 15 18 11
-24.2897149489405 -35.7334969929508 2761.79611030185 16 19 12
-55.5774808663911 -32.8416738021797 2782.35881552106 14 17 10
-42.7910763215116 -35.8701101194019 2759.49930524869 16 19 12
-38.0162911133679 -37.8361017251179 2744.42396346389 15 18 11
-49.7674902091183 -37.5618028865842 2745.7875398217 15 18 11
-59.3442526360222 -37.5778579763746 2745.02083113805 15 18 11
-70.3222979124698 -37.3959097924585 2745.70937879592 16 19 12
-55.0377636222088 -40.8444581566433 2719.71824714455 17 20 13
-83.7072433743629 -38.2043436633497 2738.4726190402 19 21 16
-73.4845863084808 -40.9733269011512 2717.46131205284 18 21 14
-64.7689472354283 -43.55317131012 2697.82856684497 16 19 12
-51.108595987603 -48.2400169785133 2662.00791266595 17 20 13
189.085555156796 -36.9058904213856 2826.30601194842 18 19 11
218.798729892999 -41.7956266022129 2791.00544580305 15 18 11
253.750791456799 -47.3686813783454 2750.85276506652 13 16 9
291.263052025672 -54.6571091462311 2697.7263100193 12 15 8
212.304236630922 -46.2108133707869 2756.63185032965 12 15 8
191.39849002749 -44.9226285570945 2764.95081619305 11 14 7
215.023977761444 -49.2007968168356 2733.88580441559 11 14 7
162.825243186304 -43.961847746007 2770.17986239412 11 14 7
126.074967730093 -41.9222996715928 2783.07325104387 10 13 6
123.712639463006 -42.9271732799365 2775.18018136252 10 13 6
162.117606808485 -49.1731554785373 2730.11666295351 10 12 7
163.356624675379 -50.6778031943328 2718.6559823868 9 11 6
196.091725212896 -56.2767758069669 2678.13137911729 9 11 6
152.221759574279 -51.9417187818226 2708.10731132818 10 13 6
80.7702530207281 -45.272729590756 2753.91933027711 15 18 11
25.6358456780976 -39.3154759553048 2795.49970349959 14 17 8
24.0693384422741 -40.412965313214 2786.94774124422 17 20 11
14.3597966340403 -40.4289932550477 2786.0847780909 16 19 10
21.5896965160902 -42.7131348529674 2769.08189099389 14 17 8
17.7386352798958 -43.5206671624274 2762.58067984309 14 17 8
-10.2555893636009 -41.0599443022541 2779.35357666527 12 15 8
-10.4175150847381 -42.3596309778146 2769.34843362046 12 15 8
-12.0692297186193 -43.4633360313517 2760.7346712201 15 18 11
-29.6890023498677 -42.3773206448439 2767.72928134946 16 19 12
-35.6813428219045 -42.8823032791314 2763.38274802181 15 18 11
-51.756910261674 -41.9872040072347 2769.02545068627 16 19 12
-64.4007278973082 -42.8908518425125 2761.09043140155 15 18 11
-79.6400882246151 -42.0852953421819 2766.10382826639 15 18 11
-56.4103630392705 -46.7147350327305 2732.27977277698 15 18 11
-53.9277163748479 -48.4323085360009 2719.24947349646 16 19 12
-64.9305603326997 -48.2331318133491 2719.9201313269 18 20 15
-66.037264235927 -49.4493126109263 2710.46585249528 18 21 14
-52.2387936847983 -54.227260845389 2674.74456801735 16 19 12
-63.9634673769844 -53.9271442441534 2676.12779845536 17 20 13
230.147036152662 -49.6053233654691 2791.78170881254 22 24 13
244.939415433181 -52.7741442671622 2769.14033025384 16 19 12
262.722026596342 -56.3445893820826 2743.72445377896 14 17 10
261.760936904516 -57.5729012025852 2734.37567235072 13 16 9
249.171814940754 -57.3299202462443 2735.1316619081 13 16 9
214.260901014003 -54.2291276885422 2755.53959049704 12 15 8
188.736030388358 -52.2982077907534 2767.92382461188 12 15 8
204.71101684494 -55.6940984593324 2743.66851982166 12 15 8
215.971726450287 -58.5068396292583 2723.40949763074 11 14 7
159.302710119199 -52.5001714217381 2763.87765034187 11 14 7
125.720063955364 -49.4502644699798 2784.01287972693 10 13 6
141.545863483338 -52.858439688532 2759.64965840172 10 13 6
163.287709853748 -57.0754817190868 2729.68953767572 10 12 7
202.192009333372 -63.6047137166541 2683.75152444175 10 12 7
168.723901656958 -60.5446615847248 2703.96983660806 10 12 7
166.86778397496 -61.6840734574964 2695.20771721386 10 13 6
135.862000460381 -58.9064176752279 2713.50418595588 11 14 7
78.9419374429245 -52.5926321518588 2756.26227291163 15 18 11
43.8474376929565 -49.1786402443651 2779.00877589425 14 17 8
11.8841941997565 -46.1542712816481 2799.08248437386 19 22 13
16.2319917290703 -48.0774163869339 2784.93286376348 14 17 8
32.2888239701324 -51.6284422936621 2759.50106830934 12 15 6
35.7427595901303 -53.4632202957226 2745.93895235094 15 18 9
-9.86014629829701 -48.48238380074 2779.60264566313 12 15 8
6.7490461648636 -52.1498708209769 2753.33534691721 13 16 9
7.22841188549461 -53.5810584022458 2742.55938701716 15 18 11
-14.074383081911 -51.9448601199397 2753.06265454033 16 19 12
-33.84058084803 -50.5058400748327 2762.20846768526 17 20 13
-36.9567462589973 -51.4223049517987 2755.00411533047 15 18 11
-39.3736412216033 -52.4430400116338 2747.07140874565 15 18 11
-56.1314774878814 -51.4035390133607 2753.45528822985 15 18 11
-64.2598243879708 -51.5977183764504 2751.26729690233 15 18 11
-42.4932842335506 -56.1362613821247 2718.85337550313 15 18 11
-20.8998801060254 -60.6890888256367 2686.31416622667 15 18 11
-28.4694591625341 -60.998851750544 2683.2953210739 18 20 15
-42.3750910903142 -60.371480040403 2686.80429584222 18 21 14
-41.4771789229713 -61.9282560862104 2675.09607643408 16 19 12
-7.00235275562 -68.499384835242 2628.41719898652 16 19 12
-29.3429063112771 -66.6209471656664 2640.63947341085 17 20 13
-20.2607211466672 -69.4481684761655 2620.03615564526 20 23 16
233.686981162055 -57.7758510401695 2789.36576969173 28 35 28
263.290825681571 -62.92737998783 2753.98432723007 16 19 12
257.698859553186 -63.5686237772046 2748.69230698972 15 18 11
231.94049436124 -61.5896363680835 2760.90781385887 15 18 11
205.51766434354 -59.5003524800085 2773.87723129806 15 18 11
218.531067667707 -62.5610827119096 2752.41715033934 14 17 10
205.292957007848 -62.1850632775791 2753.93867911316 14 17 10
210.493089194215 -64.2426967147961 2739.17092176926 14 17 10
198.043763641985 -63.966185504346 2740.02871704314 12 15 8
149.802899046652 -58.8967504576495 2773.01528871317 11 14 7
132.860352730004 -59.3342185544672 2768.14186818347 11 14 7
150.099809476661 -63.0353535103999 2742.33158551077 10 12 7
175.490188871304 -67.8772936507698 2708.83772138245 10 12 7
176.654339007402 -69.4437474672834 2697.32245453985 9 11 6
169.533831875473 -69.8805690443949 2693.39347100256 9 12 5
73.3891642105062 -59.378324843441 2762.08346020979 15 18 11
22.6419652444729 -55.0191239188637 2789.54442924323 18 21 12
29.9133945463193 -57.3992149050118 2772.57145618336 13 16 7
43.7276886090854 -60.7233553659082 2749.22025605275 12 15 6
29.5424901749475 -60.0926626145183 2752.52687839312 14 17 8
4.43282337729078 -57.8899182187062 2766.44881057464 13 16 9
-6.70726469436644 -57.6669096679747 2767.02009793096 15 18 11
-1.09510993607764 -59.8537070109194 2751.3153336726 15 18 11
-14.4007764699388 -59.3142553104097 2754.02375419749 15 18 11
-34.8899325395871 -57.7183276012284 2763.88131083694 18 21 14
-31.5169882238853 -59.5947662936034 2750.26027153401 16 19 12
-33.9484658634788 -60.6307225094756 2742.31691655728 17 20 13
-52.8717447159173 -59.2345298944169 2750.83823157592 17 20 13
-61.7229669610795 -59.315557217501 2749.36182225041 15 18 11
-74.1157685527138 -58.8639786793888 2751.49651632933 15 18 11
-27.5870913316798 -67.2384819513969 2693.78453985273 14 17 10
-8.96740465023149 -71.4842062796228 2664.03132139194 18 20 15
-32.0991828163828 -69.4444439329349 2676.91587398105 17 20 13
-26.3108473121905 -71.779929206404 2660.1030371424 16 19 12
-36.7123991949914 -71.6577215149588 2659.97415793774 15 18 11
-12.8667106739655 -76.7911349042996 2624.12400143113 16 19 12
-16.4086240691952 -79.2446616876495 2605.48731113822 13 16 9
275.553070082556 -71.0124585520941 2754.1866920103 3 12 9
268.389075819233 -71.4516277090573 2750.22646630947 15 18 11
239.451345498758 -68.9971404728167 2765.07973856309 15 18 11
205.210846634798 -65.8072258122941 2784.73878565321 16 19 12
209.022831153809 -67.6855865959189 2771.43600622747 16 19 12
198.895500160204 -67.6987475466493 2770.27019329949 14 17 10
210.32090631969 -70.6243253966293 2750.12999161543 15 18 11
168.735759461616 -66.3641355149205 2776.82141751012 13 16 9
190.048464226403 -70.6519188119033 2747.78517566364 12 15 8
159.358862684134 -67.8376651815481 2765.07600021116 11 14 7
146.293549496851 -67.4224353348353 2766.72299216899 11 14 7
143.121072098229 -68.3690623356206 2759.47766527549 11 14 7
145.220361580054 -70.0535179086576 2747.4046665701 10 12 7
172.893208604839 -75.3251456690239 2711.85783112002 9 11 6
179.327583043155 -77.657493615809 2695.51333758305 9 11 6
109.266579032805 -69.2088994999071 2749.75318427937 9 12 5
8.99964586838831 -59.0885482350399 2812.98255315411 19 22 13
34.8843297435124 -64.1723845435733 2778.6107590117 16 19 10
26.6209131241695 -64.3644819085509 2776.32486330789 14 17 8
21.3137393375114 -64.9828634455042 2771.23941091564 14 17 8
12.3321873402298 -65.0661744135845 2769.66851120434 13 16 7
-2.48569843692037 -64.2899608577432 2773.75225870831 14 17 10
-21.6280582708306 -62.8645576067028 2782.11490520568 16 19 12
-26.1482298604792 -63.584742580527 2776.36441521784 15 18 11
-47.3530551063934 -61.8259995071201 2786.9390293194 15 18 11
-32.3263499567532 -65.4589145775356 2761.99509459713 17 20 13
-21.7519608190977 -68.4534940409111 2741.23762300557 17 20 13
-48.6364896483726 -65.8214622622024 2757.58049861279 18 21 14
-56.057041495305 -66.1093439770665 2754.67009177431 18 21 14
-82.7470989470878 -63.4605525614932 2771.15373424714 16 19 12
-88.6687799422712 -63.959482399155 2766.85845414081 15 18 11
-57.6935665138445 -70.1318277874247 2725.05546137895 14 17 10
-33.3147865385672 -75.3396903958809 2689.5913771443 17 19 14
-21.8195287274556 -78.5927400427119 2667.02978596858 17 20 13
-65.2664357660198 -73.3010174641635 2701.02265245141 15 18 11
-29.9960913896606 -80.2926008087042 2653.68300233912 15 18 11
-23.6275251190325 -82.7943756192405 2636.05490824731 16 19 12
1.46201947362057 -88.2786552119772 2598.63430461032 19 22 15
262.673098034515 -77.1390521536064 2765.81608255455 4 8 9
238.384086044734 -75.2435911999524 2776.62596410411 16 19 12
229.75353687911 -75.460750864442 2774.07350476 15 18 11
210.274805928123 -74.1894025943999 2780.95678618506 14 17 10
196.284592976799 -73.6568051943244 2783.1689296846 15 18 11
196.992579466318 -75.1461830023696 2772.55840711396 16 19 12
183.046647195005 -74.6097593981202 2774.80267000391 16 19 12
191.384776238989 -77.1722727436461 2757.36671524019 16 19 12
176.696241837548 -76.5266148393953 2760.30853439758 13 16 9
147.566821803678 -73.8369220490625 2776.25936915583 12 15 8
145.180412901431 -74.9003342087738 2768.34825192183 11 14 7
160.966529887254 -78.5512474692782 2743.95473988188 11 14 7
171.332425918432 -81.4574887027004 2724.28190574474 9 12 5
171.048295570171 -82.8583638655375 2714.18766141811 8 11 4
162.460735240481 -83.0709850797482 2711.66668306376 8 11 4
13.8531162266755 -65.7406234971691 2818.93761105781 16 19 12
19.0468368605599 -67.8805357527324 2804.16478908426 16 19 12
35.2819881820619 -71.6643656044499 2778.86108173917 14 17 10
25.5415391928047 -71.6297851209267 2777.97596965239 12 15 8
-3.31786501090292 -68.7436373292272 2795.35857636086 13 16 9
-15.8948772991363 -68.2611285337552 2797.35988884241 15 18 9
-2.82172594094177 -71.6243201018433 2774.70655185315 15 18 9
2.84044914639026 -73.8954562148708 2759.03762120631 15 18 9
-39.5740078618136 -68.8895577487579 2790.07208062962 15 18 9
-38.9855913590731 -70.3863414358603 2779.37513618859 16 19 10
-44.9441589902024 -70.8898725854153 2775.05309286612 17 20 11
-38.6510838277248 -73.2786843141056 2758.60588246843 18 21 12
-48.9601494479537 -73.1185550884922 2758.54394613228 19 22 15
-63.5419539764099 -72.2883558024886 2762.79910742001 18 21 14
-79.49990963642 -71.2306650102632 2768.52789293169 16 19 12
-81.8706181570297 -72.2888816856939 2760.62847803257 17 20 13
-87.8128714615671 -72.789657341288 2756.31827527072 20 23 14
-79.6057001713004 -75.5306392539595 2737.55144582887 15 18 9
-9.42020858037118 -88.1530249629759 2654.97279794842 17 20 11
-19.8661768572008 -88.002572041295 2654.81186341949 18 21 12
-89.1620960438397 -78.3932818751981 2715.78769320957 9 15 5
-75.615953103239 -82.0563945059984 2691.0053510178 11 16 9
247.440763022045 -82.847157097977 2779.44742459913 12 13 15
259.864146787915 -85.98958082948 2758.79424870648 16 19 12
234.056438615421 -83.8108045984488 2770.97499776576 16 19 12
222.323110622382 -83.5841766972074 2771.11625117543 16 19 12
207.524975342646 -82.918342678688 2773.97842603612 16 19 12
184.287933150927 -81.0456865371861 2784.31575080238 17 20 13
194.994722155178 -83.9840658116127 2764.88957999391 14 17 10
190.262261305484 -84.7364144087236 2758.98503407588 14 17 10
193.169054077877 -86.5884737271486 2746.26123168657 11 14 7
144.159414879701 -80.9591561391846 2779.92866926221 10 13 6
141.02425243007 -81.925362888627 2772.71058807331 9 12 5
154.552934454203 -85.3231348674298 2750.38729982869 9 12 5
132.261202218743 -84.943542439587 2750.28612420024 8 11 4
132.564829995993 -87.8903341696053 2729.49420929315 8 11 4
65.7756955863476 -79.3987479804387 2781.16538638066 8 11 4
13.4986042108469 -72.996811815311 2819.87890033672 19 22 15
12.0107088958417 -74.1718429193673 2811.38353277618 16 19 12
9.01401519108092 -75.1251294574947 2804.26589597892 14 17 10
22.2458750940047 -78.5468577226473 2781.72731370083 14 17 10
8.11900811811483 -77.82218221271 2785.07669780134 14 17 10
-3.75792500154315 -77.4308149059777 2786.3497198568 16 19 10
7.08824032687305 -80.5300642270839 2765.78873445245 16 19 8
3.2381830114967 -81.3800826760865 2759.2880358646 16 19 10
5.92127926247077 -83.2486404660936 2746.402282002 17 20 11
-29.1645721701475 -79.2322288339028 2770.3931423383 17 20 11
-40.9362869478547 -78.8309635602946 2771.74248955046 17 20 11
-47.6274892962714 -79.2219540563875 2768.12495035602 17 20 11
-29.8799754136696 -83.4822953632924 2740.2097689178 18 21 14
-48.1030616290941 -82.0545005316041 2748.00408644114 17 20 13
-41.2522534143496 -84.6169311524857 2730.72497811552 15 18 11
-45.8750746303129 -85.3558273146662 2724.89998044705 16 19 12
-81.0318340607992 -81.1691753336128 2750.07533699257 18 21 12
-86.2870091845065 -81.7864212054439 2745.02758529318 12 15 4
-42.8707806911308 -90.3342880676745 2689.99859670698 17 20 11
-1.87419903419439 -98.5625953707902 2636.92287196503 11 14 5
-43.8975049776571 -93.2096319394918 2669.47797420145 14 20 10
-89.8895673282545 -87.1445778697307 2706.57016135256 13 18 11
259.59284492225 -92.3350288317592 2769.68164834294 6 7 9
257.159061025757 -93.4309455672608 2761.73631779951 13 16 9
241.473383952894 -92.6333363863125 2765.19079876967 15 18 11
236.703276290728 -93.3948884080479 2759.2589152567 16 19 12
205.614164638275 -90.3534529053526 2776.26098264333 15 18 11
200.127722976497 -90.9981565429435 2771.04544181602 12 15 8
206.946665150335 -93.4393001014191 2754.97917856639 13 16 9
215.22454012127 -96.1116944540361 2737.49898777026 12 15 8
201.232198089818 -95.5250520209074 2739.70986160292 11 14 7
178.128784309904 -93.5810201310849 2750.14441798891 10 13 6
161.206286818705 -92.5327327246832 2755.17393891281 9 12 5
174.681734863787 -96.0065396996105 2732.81167508847 9 12 5
137.373707470287 -91.89420265399 2756.42744963449 10 13 6
130.406776097481 -92.3088446400102 2752.60990878646 9 12 5
121.187749221656 -92.3818205331274 2750.86691081693 9 12 5
105.988036979257 -91.5418452321405 2754.67418713346 10 13 6
54.2154212207113 -85.1055128862125 2792.51824934752 14 17 10
23.5769016610181 -81.8469193354172 2811.08339161285 22 25 18
16.8598971291538 -82.2395416591324 2807.44743407647 14 17 10
-9.85623072312802 -79.5355174539873 2822.67742069538 13 16 9
12.3003804326642 -84.4020088718887 2791.77994007247 18 21 14
12.9320422137194 -85.9461116823611 2781.11381089888 18 21 14
26.0051829399934 -89.4524502929557 2758.45974113432 17 20 11
36.0347861771677 -92.506777217741 2738.54207661373 20 23 12
28.4502301151139 -92.7945027446386 2735.51278041081 22 25 16
-0.228057704141804 -89.7232035292779 2753.02762008004 22 25 16
6.77564399378605 -92.3233926473824 2735.85945072607 20 23 14
-43.4364075259008 -85.752780882501 2774.8354794127 18 21 12
-45.792685906775 -86.8387744341446 2766.94638453448 17 20 11
-37.3894122297178 -89.6746348998577 2748.32123331927 17 20 13
-27.6419249910751 -92.751248800527 2728.19894400276 16 19 12
-48.7124528852803 -90.8085781831986 2738.87184474989 14 17 10
-44.0517293435265 -93.0734480719994 2723.7123033515 15 18 11
-45.8480720882606 -94.28822358012 2714.99313435332 16 19 12
-57.5811894544034 -93.8603716798843 2716.37089079636 17 20 11
17.5092089993156 -107.901463914087 2628.69488318996 22 25 16
-5.68067827171714 -105.60461165477 2641.53861345992 8 11 2
-9.83351156028345 -106.485461306758 2634.81826994143 9 14 7
227.134080313388 -96.8584586778512 2788.12287527267 13 16 9
226.320650044326 -98.1915179813444 2778.88060474455 15 18 11
202.967258717707 -96.2092478655601 2789.1341407563 16 19 12
206.797819113556 -98.2297279277206 2775.84410751794 15 18 11
221.375138536819 -101.862127529751 2753.04477383862 11 14 7
228.137321802334 -104.355007062982 2736.93710279214 13 16 9
232.521946944832 -106.508717652852 2722.81271696784 12 15 8
243.730574548926 -109.70579806988 2702.51399266867 10 13 6
194.562200293436 -103.78437748717 2736.06783937295 10 13 6
165.419051288894 -100.850717408273 2752.0102519268 10 13 6
164.474418306407 -102.194386081237 2742.67252153614 10 13 6
180.138147743364 -106.094716694836 2718.18931927909 10 13 6
185.115182760764 -108.37797350477 2703.25869120942 10 13 6
123.850293101087 -100.417590402866 2749.05093857341 9 12 5
105.643230497667 -99.0792082295728 2755.62108795609 11 14 7
74.0490436043135 -95.6316274389368 2774.72944046312 17 20 13
47.8208662102602 -92.9904437536802 2789.07809233078 20 23 16
29.8859297321235 -91.6285032204913 2795.84533659985 13 16 9
18.6890720085344 -91.3170920379546 2796.37621267774 14 17 10
-5.03720434779975 -89.0040092051511 2808.83118526371 19 22 15
-14.6635572375104 -88.9196001010821 2808.02874178918 19 22 15
18.3257136684105 -95.6750938779531 2766.44749740709 18 21 12
29.1150204271577 -98.9057556250543 2745.84462838233 22 25 14
-5.45722730350473 -94.8080160078576 2768.9731863161 23 26 17
6.71959943830025 -98.2810504965383 2746.90485921408 23 26 17
-21.1216625397412 -95.2343160713772 2763.79131572392 22 25 16
-41.5979080482121 -93.3651795126463 2773.65961536139 19 22 13
-56.2175247634229 -92.4410895817824 2777.88754688559 18 21 12
-37.7124930708062 -96.9987149004277 2749.28496384276 18 21 14
-35.8439539892859 -98.8214410753998 2737.04398887988 17 20 13
-50.4597586749493 -97.8963254018472 2741.27468902125 15 18 11
-45.7899589888375 -100.201862485664 2726.12152112624 16 19 12
-41.1871583063059 -102.512837594341 2710.91946220202 17 20 13
16.5138179486486 -115.45749813456 2630.40510343007 14 17 10
10.9135700414584 -116.109419929424 2625.10702546532 13 16 9
229.105141954151 -104.859953777591 2787.04113751207 13 16 9
219.725043100691 -104.926352453931 2785.1814083434 14 17 10
211.137866193926 -105.108413517046 2782.6608627337 15 18 11
217.270772502083 -107.518525691581 2767.33247125358 14 17 10
226.420137335095 -110.404679614477 2749.24792269342 13 16 9
234.47506642227 -114.667059931235 2721.71717808825 12 15 8
229.611098195428 -115.448055339257 2715.71686008726 11 14 7
204.896307334365 -113.155100287018 2727.45513546163 11 14 7
180.285875720206 -110.853232534941 2739.26940270282 11 14 7
180.059290292362 -112.338523945918 2729.21644633213 11 14 7
199.466144767737 -116.916052938186 2701.26751305435 11 14 7
146.307021041445 -110.081811380471 2739.34381264786 11 14 7
91.7988723788277 -104.461356450728 2769.02521847761 12 15 8
62.4848596467364 -101.276665113181 2786.07978194395 23 26 19
32.5606370727765 -97.9605434112855 2803.92798810031 18 21 14
36.2262743423654 -100.02966280882 2790.51815220027 18 21 14
28.7167254920839 -100.301663288906 2787.54330997636 19 22 15
2.00284517101545 -97.4446920732188 2802.77570058537 19 22 15
-12.8012060403861 -96.5051533050157 2806.87030433569 19 22 15
7.70440517172366 -101.354014615385 2777.24614117788 17 20 11
-18.0863997445606 -98.6011462599954 2791.91212491652 18 21 10
-19.6649815848455 -99.8331113505744 2783.35072837659 18 21 12
-46.0206406412624 -96.9447499783762 2798.84325469953 18 21 12
-32.3388032869771 -100.724642230854 2775.39401987852 18 21 12
-39.0354919825633 -101.10914689969 2771.77253636592 18 21 12
-45.0074792916981 -101.614870453406 2767.44075372751 19 22 13
-48.8229677164764 -102.486493785253 2760.9650054332 19 22 15
-30.4283656443789 -107.146594077391 2732.28185054582 18 21 14
-40.7727358502055 -106.924592493177 2732.19463455783 17 20 13
-49.6669376690295 -106.945225144232 2730.6876688101 17 20 13
-64.2266138238683 -105.982285128656 2734.95924930905 18 21 14
-49.7022802135885 -110.054598247057 2709.64890909902 20 23 16
-16.2476950132642 -117.461549610951 2664.69627685351 13 15 10
16.947885812447 -126.533498271739 2608.43153465303 16 18 15
231.865272024035 -111.501696481648 2795.18385059065 4 8 9
234.199914168575 -113.349513603969 2783.28063659469 12 15 8
234.149507221588 -114.842478086904 2773.35565137601 13 16 9
206.888008735756 -112.143541938007 2786.95522478266 13 16 9
231.618153763661 -117.47745911071 2755.45061844656 13 16 9
212.165327224346 -115.973232294715 2762.3535636312 12 15 8
222.040575445063 -119.03859069395 2743.55898461768 14 17 10
217.237054132142 -119.820264916164 2737.60277691329 14 17 10
209.362218895189 -120.119657504576 2734.36269756863 13 16 9
203.021636972634 -120.660170197415 2729.7635366149 13 16 9
180.697626943658 -118.656203485549 2739.52836636573 13 16 9
188.060970863663 -121.37713529161 2722.62000327115 13 16 9
171.130542531788 -120.215488813985 2727.64464362245 11 14 7
176.140645047917 -122.578692484154 2712.7375819417 11 14 7
109.617586911489 -113.365572018609 2763.37026148217 9 12 5
42.6951427121809 -104.000357482533 2814.94951903501 13 16 9
22.4963953589867 -102.186655693316 2823.7836655901 24 27 20
26.2420024069243 -104.285023448441 2810.43165334032 20 23 16
29.9294529601375 -106.388162272034 2797.03745804 22 25 18
