ply
format ascii 1.0
comment KinectMotionCapture
element vertex 802
property float x
property float y
property float z
property uchar red
property uchar green
property uchar blue
end_header
2.31190707356266 216.803567784254 2845.35062907681 12 15 6
-3.57590331679636 216.322190841509 2841.07999140362 16 19 10
-0.539703761769594 215.783540799698 2828.45694590666 19 22 13
-8.6805484513961 215.314723146281 2826.25820909068 15 18 7
-11.633957113012 214.811039045457 2819.17422786992 15 18 7
-2.81161683922004 214.22092956782 2800.8642421455 14 20 8
-13.922182368959 213.771728750452 2801.45352614952 14 20 8
-29.3995735161214 213.358999738684 2806.28819853692 18 24 10
-41.1681676550579 212.921650332134 2807.63585469506 18 24 10
-54.3591477178678 212.499193722054 2810.42254163512 16 19 8
-64.6026765511532 212.055449769106 2810.40535005477 18 21 10
-94.3672908612316 211.78627523472 2829.58613604477 21 24 13
-87.9003013511337 211.200566961321 2813.27383846664 21 24 15
-78.6313942569508 210.581687303437 2794.0523962047 20 23 14
-77.3467594290946 210.031404795483 2782.62961839443 20 23 14
-81.113146711461 209.527248043374 2776.1913258568 19 22 13
-84.1809452897111 209.014663014458 2769.02437585931 27 30 23
-82.2924752482286 208.448332150074 2756.8042131646 24 27 20
-86.8300604652017 207.946826069016 2751.04191284136 20 23 16
-89.2585705976474 207.421080570404 2743.10299891474 21 24 17
-93.8227083138954 206.917519680895 2737.32173418713 21 24 17
-91.3776393553971 206.331322104826 2724.26963019073 21 22 14
-128.168682578321 206.209427304814 2751.94384026354 16 19 12
-117.3384325185 205.522017967009 2730.14849735714 15 20 13
-124.69200316784 205.052896659564 2727.28572860397 13 18 11
-107.78078190569 204.272633045218 2698.78192807742 13 18 11
-76.5084786947932 203.289568326351 2654.74992455627 19 20 12
-78.530531598084 202.731974243167 2645.87075667775 9 10 2
-79.8933882578707 202.162747405773 2636.23376971866 23 19 10
-86.0778577565737 201.658398219536 2631.74796116788 24 17 7
-99.7653976066799 201.261949184273 2635.41014416072 25 12 3
-111.365724738617 200.8394755436 2636.8795615349 38 24 13
-127.674766338713 200.491077857031 2643.58204634693 88 69 55
-135.813880911429 200.023855774286 2641.38486628852 124 105 91
-137.8821329855 199.462926891371 2632.47189627673 110 92 78
-127.900799700107 198.707014674615 2610.06080850317 112 100 88
200.331495398581 215.54625492456 2806.09421347597 26 31 24
187.141864243705 215.081909611124 2807.64662946443 23 28 21
154.624006116487 214.745273797089 2826.06622517877 18 21 14
150.063338412135 214.234959183003 2820.28744172789 17 20 13
109.289769293518 213.974888744329 2846.30897052995 16 19 12
130.159495901844 213.289233989141 2818.20518096165 15 18 11
118.707136379757 212.830368008844 2818.54664225041 14 17 10
96.5928257061037 212.456272413386 2828.45114770769 12 15 8
81.4230167157035 212.035110923876 2832.27371362329 14 17 10
110.344366289909 211.25624994513 2796.41966443593 14 17 10
82.2796301832622 210.942309285424 2811.89206066973 14 17 10
38.4883680338053 210.777333402707 2841.90225316568 14 17 10
36.3147193188023 210.257365779197 2834.14812298565 10 11 5
35.6396190309169 209.176162962801 2815.12652452812 6 9 2
3.54134856423505 208.942524347043 2835.08584662234 14 17 8
0.608367497982432 208.428916011077 2828.0166235332 17 20 11
4.29992862214501 207.29503004472 2804.74943554265 14 17 8
-10.5147923893616 206.903239547683 2808.82956108197 12 18 6
-17.9265378365929 206.433506195731 2805.92432259916 13 19 7
-36.3241783995183 206.09045761423 2813.5828378028 20 26 14
-44.4182976373626 205.633355391383 2811.41832708197 19 25 13
-48.8577687422171 205.133471427585 2805.72745446583 17 20 9
-62.7489573574827 204.749064288497 2809.24177464029 19 22 11
-67.9036889132545 204.259114505249 2804.26748140665 21 24 13
-76.6733061741236 203.815272214732 2802.84839154646 21 24 13
-60.9570159559818 203.050435474387 2777.18384250979 20 23 12
-69.7684027619623 202.603269128703 2775.73445617794 18 21 12
-85.0007795281105 202.246082209865 2780.74702605066 20 23 14
-93.759214095146 201.803347477637 2779.33604837388 26 29 20
-96.8141770763031 201.280387472542 2772.17835062335 23 26 17
-85.7146820224619 200.54829138166 2750.57796281188 19 22 13
-90.9703729209799 200.050473530349 2745.53014766576 20 23 16
-91.3019705944793 199.477046255745 2735.40597892577 20 23 16
-76.22500275692 198.660379932762 2709.27770892454 19 20 12
-108.869977152028 198.587994187956 2732.54693481601 15 18 11
-125.302974875387 198.269736122711 2739.15971385206 15 20 13
-87.4283215372438 197.062546549931 2688.79684098588 13 18 11
-51.9124255539247 195.867547624569 2640.42922621043 12 17 10
-80.9253909418048 195.750740284546 2660.155670315 15 16 8
-74.6655163879655 195.033475397477 2642.45782217266 6 7 0
-82.9042470357906 194.56564381062 2640.18842520823 4 0 0
-96.6054953524416 194.197818830299 2643.84052115059 13 6 0
-99.3447930916926 193.633195222323 2635.67640820699 25 12 3
-110.266323000044 193.219490606043 2636.40290796243 25 11 0
-123.191041004446 192.847045982154 2639.38286727151 68 50 38
-127.966082670829 192.321124238524 2633.44830603038 113 97 84
-128.037893349894 191.701603683523 2622.27719232602 108 94 83
213.222129228078 207.719622884081 2795.63720715215 2 7 1
182.124673578653 207.449577249775 2812.61674696953 24 29 23
181.384708256841 206.89022972738 2803.43165175219 18 21 14
136.573316130024 206.778081040633 2832.70259783707 15 18 11
147.451445410123 206.102735246029 2813.41209796186 13 16 9
110.695507785414 205.368815439468 2826.28733382323 11 14 7
106.967264126143 204.279655161716 2809.99284726618 12 15 8
92.5343957324691 203.880020546953 2813.11441507909 12 15 8
75.8770044026038 203.511735941324 2818.32894190047 12 15 8
57.0146882189611 203.176429238351 2825.65093752115 12 15 8
39.7319864667298 202.828158792096 2831.64730147744 10 11 6
18.8332902936774 201.969957498703 2831.31466112106 8 11 4
15.8844348896423 201.443487800147 2824.23386524035 13 16 9
-1.22014450788055 201.1099385022 2830.35942845841 17 20 13
-10.0993630731971 200.667201968828 2828.86089187449 16 19 12
-18.2225203456412 200.215267594075 2826.67535703885 11 14 7
-5.68474848360068 199.462701052665 2804.88246646392 14 20 10
-30.7562870297675 199.259715909326 2818.81985313425 12 18 8
-33.7225145407991 198.732030153363 2811.72616320585 13 19 9
-36.7076367303234 198.202861415984 2804.6190630872 14 20 10
-55.74184802311 197.925084706963 2813.0517763048 19 22 11
-57.989354397961 197.385235884312 2805.24400442875 20 23 12
-55.9146489604705 196.772407492463 2793.15861222792 22 25 14
-50.2792163547379 196.095392470348 2777.47836992305 21 24 13
-55.513017190294 195.595811027612 2772.44670889482 18 21 10
-66.4933220874393 195.195014215105 2773.13066678713 17 20 9
-94.6140486967075 195.098564277176 2791.03364920246 20 23 14
-101.202413267231 194.630530876061 2787.49026907038 23 26 17
-107.076506449079 194.149906717293 2783.22957910738 20 23 14
-98.7753634194375 193.406872894759 2764.54099178582 18 21 12
-82.08442934063 192.496995053851 2737.11217496351 19 22 13
-88.7807207736011 192.020375200759 2733.4905128535 18 21 12
-101.793382200628 191.667048649687 2736.40681693551 17 18 10
-109.163102656291 191.206585042994 2733.53238469605 13 16 9
-104.662682164976 190.508456954334 2718.26427757444 15 20 13
-72.406938663691 189.236832783824 2673.70869266774 14 19 12
-56.3425667504736 188.276129208091 2645.82541011773 12 17 10
-56.3167673091458 187.638808494534 2634.72467143441 12 13 5
-74.93303838605 187.396305629212 2643.46024262574 10 11 3
-81.7965350005807 186.906591260702 2639.71759806199 51 47 38
-94.817147313994 186.553180697429 2642.62813795125 48 41 31
-100.971411964759 186.050524175062 2638.16423411302 92 79 70
-110.527059799633 185.625191539614 2637.41046429926 85 72 63
-115.31647614119 185.092156199796 2631.46574099457 75 62 53
-116.737047623844 184.479267244694 2621.78669417146 58 48 38
-105.393964447604 183.559716801485 2597.89186583669 60 51 42
180.990604334675 199.804323356702 2814.22627898956 21 26 20
161.656886809298 199.47620042507 2821.2062876276 17 20 13
186.444920700493 198.548755307743 2789.76596581358 13 16 9
181.774336996161 198.017241091464 2783.90710005141 11 14 7
134.064188981192 198.099873826831 2816.01810373057 12 15 8
134.093806143317 197.509907879973 2806.15570356199 10 13 6
147.839263469473 196.712840455678 2784.00273344131 10 13 6
134.044615952283 196.321114821166 2786.35196461923 10 13 6
99.0238823653944 196.260585356987 2807.89930650279 10 13 6
77.8024197754146 195.999810326982 2817.21659395205 11 14 7
74.7926826317533 195.456676336835 2810.09157919108 11 14 7
51.4330894885315 195.242614196583 2821.56453114694 12 13 8
38.6849466754011 194.862849637035 2823.43712539733 9 10 5
21.4834347229731 194.56190464238 2829.49287976194 7 10 3
4.34695750864167 194.266314912122 2835.59551184455 12 15 8
0.670978385868715 193.742727358371 2829.22295416739 16 19 12
-11.181198440223 193.362597025669 2830.51001480074 16 19 12
-8.20305374492536 192.718789245104 2817.84405697531 11 14 7
-13.3927710452142 192.219179495493 2812.8443528992 14 20 10
-16.3816328367394 191.678095104568 2805.73448150812 12 18 8
-17.9227269276061 191.107797694408 2797.20361211502 11 17 7
-38.4974635866315 190.900519937884 2806.98999596768 13 19 9
-68.4596395056829 190.885397690527 2826.02885215608 20 23 12
-65.5805408863852 190.233760240612 2813.29105405759 21 24 13
-49.7163360956012 189.31513954701 2787.73295250524 22 25 14
-47.7070716187979 188.666278982587 2775.59993824537 20 23 12
-67.3469979289383 188.461946574915 2784.82896435935 18 21 10
-82.5975617237855 188.173649582267 2789.82869900788 17 20 9
-87.0580558141161 187.660342376036 2784.12222391253 19 22 13
-95.8086956310671 187.239239056535 2782.71700638381 21 24 15
-93.8753217078976 186.584469486172 2770.52894751174 18 21 12
-91.9915625748422 185.925695500444 2758.30490153633 18 21 12
-95.1044859942063 185.375170217796 2751.10475292663 19 22 13
-70.7588565637778 184.190780155284 2715.6370168362 18 21 12
-91.5539437949815 184.040194124674 2726.49928211756 16 17 9
-107.356264283587 183.781148405572 2732.33422135639 13 16 9
-101.462214373407 183.007663456665 2715.60593098628 14 19 12
-79.6427875593913 181.838458503164 2682.01237798757 14 19 12
-55.9205149033766 180.603435166467 2646.09250080076 13 18 11
-76.6321462282964 180.460032779276 2657.01500695917 20 21 13
-77.9576480610549 179.834781962535 2647.40511001591 19 20 12
-79.31509775156 179.207002756838 2637.77204058197 53 49 40
-92.3437287451714 178.879999071348 2640.67690131487 47 40 30
-97.1396022281996 178.340351339487 2634.72716912044 53 40 31
-99.9046374985502 177.74539134785 2626.54424483152 54 41 32
-103.370532136274 177.167003321804 2619.08807872256 50 40 31
178.21434753832 192.804026882486 2826.99957628936 5 10 6
168.973030819476 192.35201076882 2825.23879450052 9 14 10
163.624215401143 191.83552150727 2820.12337682824 18 21 14
159.815622707131 191.29189025366 2813.65428874086 12 15 8
171.407552155233 190.476511841374 2793.64549191868 11 14 7
162.915374505482 190.009222851649 2791.19236856209 11 14 7
171.294853339761 189.237347807618 2773.79545907981 10 13 6
171.948196767385 188.599271793524 2763.14993107589 11 14 7
132.177827901064 188.713237049819 2788.66555908552 10 13 6
103.995921182859 188.626531663579 2804.05416683392 7 10 3
65.3345605911313 188.75480602792 2829.13877445847 9 12 5
82.0021384665726 187.818619413305 2804.16296622516 10 13 6
51.8408509399046 187.7999486344 2821.82242755674 13 14 9
80.3940678905457 186.610696704834 2785.69943246315 9 10 5
7.66124445698946 187.475052331289 2842.9044455708 6 8 3
10.7215469519195 186.804398904374 2830.29790970916 10 12 7
11.4947932744975 186.176444210297 2819.73905866211 14 16 11
13.7116392016829 185.513430358168 2807.75645293643 15 17 12
20.3186856894142 184.750045455036 2791.54508016022 16 19 12
4.71704918866278 184.467645415718 2796.29034458121 10 15 8
-16.7128577564406 184.321250510116 2806.6921422561 9 14 7
-16.7842084993528 183.70100729328 2796.75639493805 17 22 15
-24.2032070485738 183.245629780952 2793.84597124197 18 23 16
-69.520233345113 183.672965684198 2827.6938403931 21 24 13
-68.0883951413627 183.022667051621 2816.3772668501 21 24 13
-55.1089269710245 182.091547197865 2793.66833584137 21 24 13
-54.5249090720366 181.448561610218 2782.97223293728 18 21 10
-87.1079649210056 181.615804108596 2805.05252203935 17 20 9
-83.6323992727155 180.903116806481 2791.51176976068 20 23 12
-72.3421663289556 179.987197116275 2770.04872081338 17 20 11
-68.2941229902885 179.24486107485 2755.68778302383 18 21 12
-92.0501117714492 179.215343568716 2769.3443873356 16 19 10
-101.51485674375 178.823097681754 2768.65697701481 19 22 13
-101.768569220542 178.188615934654 2758.5886651861 20 23 14
-79.508461843848 176.944801534563 2725.3141930203 19 22 13
-95.3605123409296 176.719644939286 2731.11354804681 17 18 10
-103.448382245919 176.28709297731 2728.95339747562 12 15 8
-94.7704910922713 175.387781636407 2709.30209470372 14 19 12
-79.9234712304715 174.303803332193 2683.00577651965 14 19 12
-100.586413463903 174.221602283295 2693.96388843641 15 20 13
-83.1280171894402 173.045016158433 2664.61970267272 20 23 14
-77.520047442067 171.511659434788 2636.56396469314 17 14 5
-86.4456045640844 171.087796931545 2635.03193190125 20 16 7
-81.0197029148374 170.229428113822 2617.96384091248 21 14 6
190.38138253367 184.3113787737 2807.36879886719 0 5 1
168.692680917995 184.120559886331 2816.347729117 14 19 13
137.813746188185 184.129835050257 2833.48709422738 17 22 16
141.763959237883 183.418916778546 2820.29043293995 6 11 5
163.335763337847 182.325102506213 2791.45819581377 15 20 14
175.550521628709 181.417659493183 2770.66539795698 12 14 9
135.644347438171 181.003094332888 2786.19901869046 10 12 7
114.288444898498 180.839795980423 2795.41934148969 10 12 7
100.59645401058 180.510223323207 2797.84330546605 9 11 6
44.6389067255195 181.165592277585 2838.80011188645 8 9 4
91.4202005320646 179.436839353932 2786.24536559329 7 8 3
20.0886275134105 178.589191790576 2812.34419522185 15 18 11
30.4485176551008 177.688889944188 2792.67687328869 16 19 12
20.727284617434 177.287933914164 2791.803485177 12 15 8
5.12370710140386 177.040505994295 2796.54751965527 12 15 6
-27.3449342970109 177.238269389559 2817.47586819943 13 16 7
-44.9860468654995 177.062342369412 2824.4486165658 18 21 12
-43.5436817077621 176.384791650036 2813.13924172219 21 24 15
-30.48118003228 175.388484709075 2790.49046776494 24 27 18
-47.3369028545869 175.197660005916 2796.79715535344 22 25 14
-53.2572549574082 174.711384024547 2792.50290268382 20 23 12
-59.1786450774605 174.225076228043 2788.20789737221 17 20 9
-74.464917984165 174.004197401601 2793.18208720979 17 20 9
-76.0513125415543 173.396601848471 2784.6181896193 17 20 11
-52.6096060901666 172.05949384383 2750.96477465963 16 19 10
-47.1915276813071 171.231574788093 2735.1262033002 18 21 12
-88.0904711208499 171.772151443373 2766.00163648761 17 20 13
-105.368677286445 171.626759021596 2773.237618114 20 23 16
-99.244522319095 170.777490048611 2756.6757519495 21 24 17
-106.588450539831 170.334086303873 2753.81980898612 19 22 15
-109.708802024283 169.760207229901 2746.61445179897 15 18 11
-103.742232728713 168.898269143756 2729.9382842464 12 15 8
-78.3013071955492 167.40774195599 2692.79263329531 14 17 10
-92.7332113287289 167.178325609048 2697.15109341653 14 17 10
-116.132463763567 167.246943339236 2711.0668005932 16 19 12
-133.889654523348 167.14245077526 2719.19109433729 18 21 14
-105.273632917212 164.800468744946 2667.05113478589 9 10 2
-81.2304757240041 163.275421021655 2630.12707351119 18 19 11
195.474087661517 175.851518058201 2793.72606791885 20 25 19
164.515863415819 175.941394221884 2810.808362627 9 14 8
156.056879585285 175.492088718393 2808.37939326825 13 18 12
155.298321908635 174.852089388732 2799.18041153881 6 11 5
152.974862589871 174.248203241628 2791.31725539113 14 16 11
136.103839467414 174.01353989144 2796.37759278494 10 12 7
129.964780386468 173.507910718811 2791.92469673171 10 12 7
125.344450975284 172.962435386918 2786.10248514034 10 12 7
101.010384594435 172.938107263534 2798.10501831936 9 11 6
123.292555300945 170.319142538906 2747.54788420783 8 10 5
140.297340835846 169.162623221153 2721.58007786843 8 10 5
68.2881499220058 170.491401736755 2778.07698339701 7 10 3
35.3872862272056 170.75166714808 2798.69232135947 15 18 11
18.9779242346999 170.55538927096 2804.0875211887 16 19 12
16.6937750178691 169.955228265248 2796.25317511843 15 18 11
-6.27898006291128 169.960921379359 2808.00766734498 15 18 9
-27.6797402538587 169.931132796501 2818.43118475799 16 19 10
-43.853603628492 169.754463160144 2823.99720188071 20 23 14
-52.6524121698304 169.360375061137 2822.55720265313 22 25 16
-47.5789687971579 168.541552719753 2807.70417518396 20 23 12
-49.8430419794016 167.943373669228 2799.88409822158 20 23 12
-61.5533283556877 167.639645122998 2801.27469973721 19 22 11
-64.5577069690648 167.063137702142 2794.1534004462 18 21 10
-69.7419772428813 166.554608956967 2789.15730538233 18 21 10
-64.876649509733 165.71904641544 2774.15332565225 18 21 12
-57.2142675617198 164.783959283497 2756.23575063211 17 20 11
-63.1994601348047 164.292221397561 2751.89446605621 18 21 14
-86.9761717500892 164.397415663264 2765.53702476198 16 19 12
-93.61766650411 163.934256268371 2761.95515411383 20 23 16
-86.1116694781348 162.986649573226 2743.92414891222 21 24 17
-86.4456837725636 162.30079030056 2733.79765882191 20 23 16
-110.710858822879 162.44853326636 2748.32137210605 16 19 12
-91.4261287722418 161.069108220215 2717.82973951807 13 16 9
-80.6817105966846 159.976232734881 2695.96982700402 15 18 11
-96.4989080859395 159.830222345839 2701.79484861084 14 17 10
-90.7422298740865 158.904147448531 2684.96590718977 15 18 11
-106.506168780569 158.762712977842 2690.82956025776 17 20 13
-112.555567258929 158.266714662624 2686.44170987099 14 17 10
-86.9887221414136 156.580681129948 2648.15131380647 11 14 7
140.66664129628 170.30863624656 2851.54186576598 12 17 11
188.140242660094 168.33683248506 2800.72279352446 19 24 18
178.080206543078 167.933753536834 2799.60378907713 9 14 8
161.10070627458 167.727866251847 2804.5856348292 13 18 12
148.795381239836 167.395593230998 2805.54444106215 5 10 4
149.559405410045 166.690780709574 2794.97880985701 11 13 8
138.814173657855 166.316572865814 2794.59798086096 10 12 7
127.331577045907 165.966913957043 2794.91837027037 10 12 7
114.358535229986 165.664983189001 2796.62832467755 10 12 7
126.437787271492 164.613692413575 2775.73656683148 9 11 6
214.746717854072 161.232042868645 2685.34569771836 8 10 5
140.479790097374 162.786040614238 2742.67713566525 8 9 4
131.228311973656 162.364619092268 2740.9091426248 7 9 4
119.745794357472 162.015187731942 2741.22929597547 7 9 4
119.498111486804 161.31258614641 2731.16501009651 6 8 3
35.795282471387 163.282987239262 2798.95025620779 13 16 9
34.2360536115569 162.642963401714 2790.40588735555 15 18 11
-25.8429928950228 163.916847044603 2837.02390929039 14 17 10
-34.6654765931798 163.531072122213 2835.56678954425 18 21 12
-31.6954636961388 162.752856999437 2822.89455048206 20 23 14
-35.3834837773332 162.193430587204 2816.51278804927 20 23 14
-35.4276930577346 161.507992217583 2806.5960914533 19 22 13
-44.9905920790947 161.146740257531 2805.83768415798 16 19 8
-58.8955947700984 160.939340209247 2809.34288678995 16 19 8
-65.5034319746868 160.480672784166 2805.7857324474 17 20 9
-70.6621484112226 159.970935742936 2800.80815578526 18 21 10
-59.9735124514567 158.891319763292 2780.14320382077 18 21 10
-60.1632033779174 158.194367495452 2770.1212806317 19 22 13
-56.0920921606722 157.33702637098 2755.77648271621 18 21 12
-75.6446922036145 157.346800198015 2765.06960351818 20 23 16
-91.5559784814479 157.230425304541 2770.82656826383 18 21 14
-99.6012815849148 156.824393199248 2768.69770408082 21 24 17
-72.9739692891265 155.097672190286 2731.17585721523 21 24 17
-70.5257370716563 154.27759486173 2718.12486168572 20 23 16
-85.0021166879322 154.109292992461 2722.45139013697 14 17 10
-93.119942633977 153.697669511243 2720.26992427623 12 15 8
-66.8434610434603 151.176982416724 2671.37351805668 14 17 10
-91.7177761205534 151.431124717114 2686.69122829853 15 18 11
-104.711547587109 151.214954391972 2689.62192083935 19 22 15
-80.4189925678245 149.467456590974 2652.87782109471 18 21 14
-47.3843901747717 147.332108889612 2606.41210495494 20 23 16
-15.2881124456781 145.204945099786 2560.50154980077 14 17 10
187.008557950338 160.684341128838 2802.33401748506 7 12 6
183.140485371601 160.100530470609 2795.82160764327 8 13 7
169.230978569484 159.833400778872 2798.08820597735 10 15 9
153.826203754539 159.619077976051 2801.74119335402 9 14 8
140.77356057277 159.334621430043 2803.39382601973 12 14 9
148.407472766839 158.378592562437 2786.69083769958 9 11 6
133.085062981101 158.171158816872 2790.40356813812 10 12 7
128.458953419703 157.613064829935 2784.57710247652 10 12 7
160.214188920059 155.828484550941 2745.8318625148 9 11 6
147.433783738385 154.06892137822 2726.67698505223 7 9 4
114.172709192307 154.495808579723 2747.03204245354 7 9 4
110.95514479452 153.878021187084 2739.7559911466 8 11 4
51.8470188762659 155.255534094268 2784.60801130362 12 15 8
-1.74759772676003 155.766901108244 2814.9260719586 12 15 8
-32.0534158117693 156.173624242018 2833.71795133724 17 20 11
-32.0325155570442 155.470937052537 2823.84836666412 19 22 13
-29.8462020634518 154.682735936373 2811.84299322756 20 23 14
-35.0268441318002 154.167652981488 2806.8494951289 19 22 13
-52.6154142864248 154.126403231399 2813.86101477932 17 20 11
-67.2252286266191 153.978649696385 2818.09091763292 17 20 11
-77.4323205656484 153.665679430833 2818.10080232933 18 21 12
-65.925688806582 152.501711373129 2796.79307461053 18 21 12
-80.4725934491342 152.359352944289 2801.06860937379 18 21 12
-60.4780351585443 150.838858396063 2771.09083188059 18 21 12
-71.4453450357906 150.551596993147 2771.78478521939 17 20 13
-83.0970782112468 150.296030726881 2773.21807715134 21 24 17
-90.4428847056973 149.867298755169 2770.36084690267 20 23 16
-102.039362084301 149.616485139822 2771.83421901409 21 24 17
-102.988926637233 148.922917972851 2762.49650099208 20 23 16
-63.0631627257126 146.493139732891 2711.14396156536 18 21 14
-79.6724783374603 146.445602932311 2717.63000078086 10 13 6
-99.0202063661152 146.524551125071 2727.072282537 10 13 6
-81.9539450971207 145.027748895674 2698.67724441078 13 16 9
-73.3920860679884 143.88641017825 2678.94060155919 13 16 9
-89.2229334182821 143.815457004231 2684.75581379301 15 18 11
-102.224698254381 143.625673203386 2687.68084542261 19 22 15
-66.2047876018259 141.227079835129 2638.43776304178 19 22 15
-54.5223624731854 139.903382855298 2614.78658937132 20 23 16
-79.2830233957074 140.24111345963 2630.18711332655 16 19 12
249.496985778032 150.844296942624 2748.77307836125 6 11 5
229.980247554457 150.777142570617 2755.62202772354 15 20 14
187.393027650994 151.531363370059 2782.80430768694 8 13 7
176.551500049021 151.180902113366 2782.35408653249 19 24 18
135.051892053477 151.934114426556 2809.08975784135 12 14 9
118.229675424962 151.816918195549 2814.18607109832 9 11 6
164.77147037274 149.388805708555 2762.68920120642 9 11 6
134.198799837715 149.772116691548 2780.05247833276 9 11 6
105.282342036711 150.110443564673 2796.14578382653 9 11 6
109.008939836866 149.236389320517 2782.78619275666 9 10 5
140.571703820778 147.29828316886 2743.9006484463 9 10 5
120.046032678275 147.32990318141 2752.48847989708 7 9 4
129.582840322652 146.208698516792 2733.45870008606 7 9 4
103.902736785041 146.451009464287 2746.95718051917 8 11 4
79.8261780767264 146.644009870447 2759.14748731734 9 12 5
35.0526127801665 147.672738117304 2790.92200138074 11 14 7
-19.101452703254 148.381484235511 2822.07024751935 13 16 7
-31.6340939209436 148.164746404654 2824.10018371485 13 16 7
-36.7871069780159 147.648626156351 2819.12700369902 15 18 9
-47.0688696451254 147.345237204722 2819.08280652234 16 19 10
-68.2707531087168 147.503442811026 2829.65144614688 18 21 12
-65.3737034739359 146.652542778442 2816.92565181834 18 21 12
-63.9813736460821 145.859280339141 2805.57971367064 19 22 13
-59.741733061502 144.937678569928 2791.35676079729 19 22 15
-62.0529711319338 144.293188739306 2783.5025529047 19 22 15
-74.4485927546312 144.088377078765 2785.63158346014 18 21 14
-83.2233160965818 143.728255366482 2784.20921615404 15 18 11
-89.8387914903906 143.273890559666 2780.64654651872 16 19 12
-77.9369806267547 141.985794143738 2758.38962720256 14 17 10
-88.8620615349183 141.721026971269 2759.11430715996 16 19 12
-84.1890632784241 140.745063831322 2743.97019253103 16 19 12
-85.2267778695677 140.024669941072 2734.56843678247 15 18 11
-61.6829964604684 138.153479557783 2699.75098179927 11 14 7
-90.2020868062929 138.708291406387 2718.60381171604 13 16 9
-85.7360058801608 137.715689720279 2703.30931954395 14 17 10
-86.9102519658365 136.984504103498 2693.80853453906 13 16 9
-95.7547918173995 136.619697312317 2692.33553202433 15 18 11
-84.5090642021651 135.278618022311 2669.6030300682 20 23 16
-68.5446752673717 133.6912168894 2641.64379889969 19 22 15
186.29425387752 145.353912767513 2804.20862483509 0 5 0
213.384278535335 143.563986745635 2770.72729225428 8 13 7
207.104733681263 143.044310590888 2766.17248391526 5 10 4
187.74383307505 143.036042030328 2773.13440708334 19 24 18
159.249608774769 143.397139241411 2788.29887735973 15 17 12
165.308484359636 142.398421896219 2772.92396842147 8 10 5
149.173478540396 142.282177726166 2777.28342365306 9 11 6
142.222151236327 141.800836676376 2773.47715116058 9 11 6
123.13920658746 141.815742830182 2780.64068791851 9 11 6
88.2486103788924 142.49150598559 2802.28580415513 10 11 6
107.815570416547 140.923159405156 2774.46817691843 9 10 5
115.202196816307 139.847079015791 2757.58531776402 7 9 4
119.510226953774 138.891299971515 2743.4114743454 7 9 4
131.977286886457 137.579441187579 2721.56449025834 8 10 5
121.975796694599 137.221078302154 2720.48785902024 8 11 4
-21.6569651576417 141.182108400681 2825.12197121674 11 14 5
-46.6683623782849 140.801514597819 2829.22087952989 11 14 5
-48.135441281316 140.118427602757 2820.74309402453 12 15 6
-64.9569938926149 140.13372696913 2827.07589086429 17 20 11
-56.9733987840686 139.014042332975 2809.3902350965 18 21 12
-55.6036910575515 138.190949805782 2798.02774660948 19 22 13
-49.2164229038892 137.126895845545 2781.65552888055 20 23 16
-65.978133339031 137.147436007941 2788.03143865955 20 23 16
-69.0171757699383 136.522356668845 2780.8847648011 19 22 15
-92.1403024333245 136.860449741727 2793.76696975885 15 18 11
-72.548545970438 134.359878588371 2753.61134635567 9 12 5
-114.92794458261 134.887954463881 2776.00269394581 15 18 11
-109.517016987165 133.837716942421 2760.15781272227 15 18 11
-95.7371605679813 132.35519878952 2735.55623403677 14 17 10
-77.1735006725804 130.612443334258 2705.7750785939 15 18 11
-82.5305654867656 130.077813604101 2700.65388335049 15 18 11
-96.9508565877486 130.012010092672 2705.02129626083 14 17 10
-92.5663248404764 128.971335228294 2689.66773832554 16 19 12
-87.5565556733011 127.888778631744 2673.53188509372 22 25 18
-76.4071808438536 126.470774674931 2650.72885083128 20 23 16
-94.950315978819 126.626783604551 2659.51975284554 14 17 10
164.97932715289 138.56871150109 2823.30628709803 2 7 1
204.5208243932 136.146713250892 2779.08603269711 10 15 9
243.030490615892 133.735828407869 2735.35287489195 11 16 10
182.778374774566 135.504277699728 2778.14283035746 8 13 7
170.410415952174 135.252259747617 2779.05663852882 10 12 7
145.068195020439 135.567144806682 2791.56538824668 10 12 7
133.568674503588 135.290537840249 2791.87358470171 10 12 7
121.338056711975 135.049974634285 2792.88701233783 10 12 7
122.796187650058 134.205218982522 2781.58851399593 9 11 6
140.093549964463 132.644720968182 2755.83105105318 10 11 6
118.789405147484 132.811480740467 2765.09056593962 10 11 6
102.084069809771 132.779851882114 2770.27204235427 10 12 7
116.181057285478 131.340673522802 2747.13561489336 9 11 6
124.92502732927 130.134070267902 2728.76569425419 8 10 5
106.745219884991 130.173634285541 2735.34902271337 10 13 6
97.5532869242675 129.798966385728 2733.62413757162 11 14 7
26.7636141123977 131.564821311694 2779.89109858244 10 13 4
-22.7359069001523 133.162469219859 2816.88839353911 9 12 3
-10.2869349337709 131.78038455522 2795.02764691431 9 12 3
-28.7015277733729 131.897438814755 2802.6762035624 10 13 4
-35.3624940637436 131.443189938231 2799.08055719256 10 13 6
-34.0143704213327 130.590299138279 2787.70227100822 11 14 7
-39.2415212635613 130.061867039667 2782.67499009079 13 16 9
-44.4743296529657 129.533076590739 2777.64390055858 14 17 10
-54.7608901699825 129.261672639618 2777.59638732844 13 16 9
-66.459939932189 129.066472509136 2778.99538974622 11 14 7
-43.719665657604 127.089323363518 2746.06528632692 11 14 7
-87.6117442192517 128.572757592721 2779.71614874096 12 15 8
-112.037316012792 129.061712777849 2794.12531531006 13 16 9
-117.885136755865 128.579131996257 2789.88366088793 14 17 10
-98.9555398048623 126.769609941778 2760.36744284017 15 18 11
-115.468864363825 126.852133031142 2766.92402127439 14 17 10
-107.996550162543 125.638738165285 2748.86725240485 14 17 10
-106.219874627023 124.726145404236 2736.56429360218 14 17 10
-84.2181195752381 122.689003669878 2703.0985179632 15 18 11
-97.239735285912 122.57848244865 2706.00956075078 16 19 12
-101.881651906866 122.003608971137 2700.17125674592 17 20 13
-99.6085519454322 121.03617043507 2686.99285216995 15 18 11
-118.788122215255 121.284886320228 2696.55760050394 20 23 16
-88.3432090786735 118.692903959858 2653.15298588172 18 21 14
194.879140022449 128.830475160863 2788.1161658324 14 19 13
182.479243512021 128.597093890188 2789.00691609059 10 15 9
219.375794910741 126.091642938863 2746.57426566339 6 11 5
155.478927737042 128.246067527767 2792.89949576921 10 12 7
133.238455363361 128.488628344477 2802.71566740401 11 13 8
132.456984789073 127.728188809395 2793.4994655727 11 13 8
117.185729959256 127.654381859633 2797.25025065357 10 12 7
147.490895609458 125.397544728315 2759.92150529579 9 11 6
168.505390128009 123.562820628811 2730.68150970613 10 11 6
127.503962408858 124.734225923487 2757.78044075894 9 10 5
104.003080677846 125.071280531739 2769.15376111724 10 12 7
98.6010251921052 124.524268522463 2763.99988845719 9 11 6
104.409836502504 123.416349577374 2748.44314946209 8 11 4
85.5438573403649 123.541674244083 2755.76452842316 9 12 5
70.4682678603068 123.484554783186 2759.6572400172 10 13 6
54.7032146226116 123.469689693177 2764.28539527536 10 13 6
42.6891211540554 123.269071302825 2765.45598834249 10 13 4
-0.971278461688652 124.717321821583 2796.80454829786 10 13 4
-4.74250156809419 124.107288140096 2790.36221388066 11 14 5
-44.4130713720929 125.389644318347 2818.42647422617 11 14 5
-4.29626599133925 122.456854913922 2769.68024472223 12 15 6
-19.7817461300736 122.465654007675 2774.51118834996 11 13 8
-28.6792629369148 122.126487143712 2772.99991158106 11 13 8
-32.4955717127384 121.51318935499 2766.52487706657 10 12 7
-49.3102064182671 121.610793624019 2772.86310573442 11 13 8
-39.4519363619712 120.243612706994 2752.82978386172 12 14 9
-43.3132503363076 119.626907970541 2746.32210686151 11 14 7
-33.6092128229901 118.247202625577 2726.17691508822 11 14 7
-89.5546487705354 120.565564020464 2772.09166013105 13 16 9
-63.5068285406006 118.255960141174 2735.3818113125 14 17 10
-61.0258874007308 117.271339533296 2722.35369373473 15 18 11
-85.423095820778 117.833941519289 2736.78379455415 15 18 11
-73.8185336991699 116.314441555971 2714.31051565372 14 17 10
-79.1606318610618 115.774516793283 2709.19984875855 14 17 10
-86.6061813527388 115.358445988679 2706.27067129091 16 19 12
-101.711531913996 115.400280210603 2711.37734629116 16 19 12
-116.309530485874 113.70191873208 2694.61057095394 18 21 14
-91.3690595993728 111.302303909807 2657.09781951818 20 23 16
244.077251496098 118.704427586383 2745.91673364912 15 20 14
199.883024894459 120.042609662457 2774.4073857762 13 18 12
182.848485480442 120.058976435573 2779.35045823771 9 14 8
145.147138096338 121.118702905271 2802.66535017729 10 12 7
142.836763954289 120.415950694923 2794.81147345438 12 14 9
136.687046392399 119.905432826923 2790.35082607865 11 13 8
143.474666711235 118.73181574416 2774.26827721937 11 13 8
156.257829282666 117.23846744145 2752.64922892389 10 12 7
147.74243957828 116.838242379163 2750.17961834554 10 11 6
112.831867332193 117.823383682741 2771.81182058757 9 10 5
78.8393351832251 118.782602621254 2792.87465623388 9 11 6
84.7638308468581 117.639785231868 2777.40160252777 9 11 6
79.3982520434064 117.092561818452 2772.27417152235 9 12 5
47.1821305919185 117.995045762684 2792.15381560737 9 12 5
29.9886464042789 118.101031453748 2798.21745065414 10 13 6
75.8709835208671 114.757626547721 2745.00255846412 8 11 4
55.6638533388996 115.022343455733 2753.82278221394 9 12 5
36.2762637319087 115.252953913112 2762.00189903132 12 15 6
-44.7478129331866 118.950322491723 2829.26740958412 13 16 7
-27.9016747919558 117.18203415444 2803.18149763266 14 17 8
-29.4507184957564 116.44137091639 2794.64429693601 15 17 12
-16.4653273844264 114.863727772301 2771.93638482568 15 17 14
-4.32138966463214 113.318535383954 2749.853686193 14 16 13
-17.6176911070092 113.237888033831 2752.56575474862 13 15 10
-35.2000079064243 113.414649702441 2759.5829118605 13 15 10
-62.0634061383414 114.149361449515 2775.93149518868 14 16 11
-27.8488447389842 111.269274188619 2731.55271536768 11 14 7
-46.0675720711246 111.49569480939 2739.34381306429 13 16 9
-77.7529671007282 112.545655211693 2760.84427016236 15 18 11
-56.7067942263082 110.412060946622 2729.15535731719 16 19 12
-51.4108290502893 109.219027567996 2713.22641409322 15 18 9
-58.1895060291184 108.760813923726 2709.54541665091 15 18 9
-79.0412545737533 109.177920810157 2720.36918793647 15 18 11
-89.9785275357319 108.987741871578 2721.08540741799 15 18 11
-77.1056401414951 107.300396679022 2697.06034667049 16 19 12
-69.930656152295 105.957616275788 2678.78738142162 17 20 13
-111.491029568039 107.721244487593 2711.65989263635 17 20 13
-95.3248434086185 105.796940937101 2683.84524210537 19 22 15
-72.3951719926947 103.412687508794 2648.58000691689 16 19 12
-66.8615712283152 102.138735477014 2631.58788430418 23 26 19
224.462667195451 112.69956885285 2773.66147726329 4 9 3
219.72447837652 112.095642391388 2767.75323632848 13 18 12
168.643303214651 113.940146386534 2802.37017018369 14 19 13
151.696745440097 114.001622784154 2807.37725090241 11 16 10
174.73743824696 111.926529282392 2777.13479891635 13 15 10
163.156989013583 111.699062359092 2777.38457732168 12 14 9
140.918207099705 112.055811065102 2787.20255279104 11 13 8
127.14411992019 111.96110206562 2789.56819304433 11 13 8
125.557551382364 111.199360842913 2781.00338855351 10 12 7
117.888726779515 110.772177354694 2777.91229790491 10 11 6
106.454416829306 110.557101973412 2778.26807856098 10 11 6
112.356097021717 109.367897262186 2762.77825047194 8 10 5
85.9254325748231 110.006613589504 2776.96997226177 9 11 6
110.479992683169 107.742801581037 2744.118300252 10 13 6
63.9972659114907 109.550060616865 2777.12811783412 10 13 6
44.522500078747 109.822035767532 2785.24395378833 10 13 6
63.6810420978473 107.845038214531 2757.12818571616 11 14 7
55.3366714074603 107.467270709025 2754.78266422274 11 14 7
47.7416529740955 107.046862526771 2751.74481708275 13 16 7
31.3360615097156 107.154284133983 2757.14428854605 14 17 8
13.5257412350711 107.355022959026 2763.99628252192 14 17 8
-7.13702851672848 107.73878355388 2773.72184303268 14 17 10
-0.767948270805618 106.484405970454 2757.3354764746 14 16 13
-5.36542754994573 105.893636415924 2751.52960000742 14 16 13
-31.6876551318455 106.647271147769 2767.03525423139 13 15 10
-44.1767591273641 106.555803276859 2769.09738600542 12 14 9
-70.2961095738752 107.326455821419 2784.75019639301 12 14 9
-107.051513571409 108.788163182602 2811.22322672883 11 14 7
-39.9410648813689 103.658299865316 2733.86417445713 12 15 8
-42.4241900621716 102.929006693065 2725.88493238434 16 19 12
-53.4575739031506 102.749129141478 2726.53153121712 16 19 12
-70.8367694100889 102.986869978324 2733.69624416024 15 18 9
-59.192458454298 101.332302695225 2711.25080141836 14 17 8
-82.8588400561321 101.992695028693 2724.97615289311 15 18 11
-76.9411853288058 100.702419061741 2708.26235651032 15 18 11
-59.206745301303 98.6096248002989 2679.11334550242 16 19 12
-54.8735425076106 97.3980317940868 2663.72171237918 17 20 13
-92.3167818109114 99.0136270462736 2692.16726343064 17 20 13
-94.7730318345839 97.3465262808061 2673.08624598157 17 20 13
-76.7704185294103 95.1720863879208 2642.89648380236 23 26 19
256.732235845421 103.113601830033 2746.36578591013 6 11 4
179.098643950476 105.710210225565 2793.85112947429 18 23 17
144.407685016517 106.81280099649 2814.40809236856 9 14 7
149.04465834704 105.689214259254 2800.47215138856 15 18 11
159.745453376098 104.207695225945 2781.04901470389 11 13 8
152.022544593227 103.780790333564 2777.91871869013 11 13 8
117.658927372934 104.910765719236 2798.71311728693 11 13 8
132.044790331635 103.196942537633 2775.78471069837 11 13 8
138.740951737482 101.921491163026 2759.63534551048 12 13 8
131.020195473848 101.495014559924 2756.50661207322 12 13 8
108.255474967045 101.973072811283 2767.17897451844 8 10 5
123.105944417317 100.190385306528 2743.35198565025 9 11 6
101.918854520126 100.584229743635 2752.69750637471 11 14 7
89.7706216727414 100.436461346537 2753.77112663909 12 15 8
70.2183493672677 100.750903984157 2761.83128608036 13 16 9
1.05718048396009 104.161087351535 2816.69792191996 16 19 12
34.3059817335378 101.214291271951 2775.32381395032 15 18 9
54.0505752551828 99.0846343017175 2746.39707724006 14 17 8
22.1905878356101 100.208075312007 2766.53600967619 14 17 8
18.3296777083317 99.5644887029262 2760.02848927135 15 18 9
18.1073335343833 98.6847112792348 2749.98196900087 15 18 11
4.00935276505443 98.6988832047001 2753.34840001122 13 15 10
-20.2078911176136 99.3805320422334 2766.67452733099 11 13 10
-26.2165296281665 98.8820853967631 2762.31621231347 9 11 8
-43.0529048776553 99.0999701177589 2768.63929004124 10 12 7
-73.4960295947946 100.234124738309 2788.57035412506 11 13 8
-51.4223572467449 97.8681484700635 2756.39008388639 12 15 8
-47.4009184127808 96.6954583076137 2742.00768009515 15 18 11
-42.7291229324589 95.469210144885 2726.86113132809 16 19 12
-78.6376929390682 97.0115197305205 2752.71342133322 15 18 11
-65.4721630818287 95.1986268548038 2728.89986742869 14 17 8
-76.4423787760926 95.0430145203415 2729.5923811072 13 16 7
-73.3000386969709 93.905744608754 2715.80791590743 15 18 11
-75.1295286032307 93.109567323715 2707.06683810699 15 18 11
-76.080990380317 91.3118005856681 2686.60593866433 17 20 13
-90.5173746193757 91.4075205413113 2690.96279794066 18 21 14
-106.287768698308 91.6079819160419 2696.82320880922 13 16 9
-74.3261874266048 88.3422584470276 2652.04427891849 17 20 13
250.783604821627 94.6554639051669 2742.01065419484 15 18 9
210.41513209448 96.1603166061417 2767.09974907071 15 18 11
157.913646669807 98.4245301437425 2803.15926887546 13 16 7
133.326959975257 99.031527045447 2814.9818699836 14 17 8
155.565964728243 96.7908736297295 2785.39245525402 15 18 11
140.218627817203 96.8400842472981 2789.08870991877 11 14 7
149.292130031734 95.3835181010707 2770.95640807141 10 13 6
133.218519835789 95.4829342254862 2775.36146266248 11 14 7
119.472411035316 95.444410579942 2777.74766962973 11 14 7
155.595254040591 92.2586639945956 2734.75069564487 10 13 6
140.284387953735 92.3111623242175 2738.47311096428 9 12 5
99.5066344593969 94.0036410337907 2765.73682757567 8 11 4
99.3405234328888 93.1053430735537 2755.73097810367 10 13 6
86.4537698597219 93.0281269044052 2757.50491740028 12 15 8
69.8858485038918 93.1974660838452 2762.78702608569 14 17 10
69.6967140126734 92.2974821976472 2752.76447787322 13 16 9
49.5037020333955 92.7181436402692 2761.59543162226 13 16 9
-3.78743271185744 95.3599364708696 2802.02516576697 15 18 11
-6.07290125213811 94.6174604787315 2794.18884796049 14 17 10
13.6065359331421 92.3860836649336 2765.21436280043 13 16 9
36.7847200481295 89.8931435589352 2732.59880250998 12 15 8
12.4306128744189 90.6314096221185 2745.82600148667 11 14 7
-37.2360589627494 93.1330264350702 2783.94174065332 10 12 7
-30.1573693043635 91.7330864920824 2766.8340111709 10 12 7
-31.8221051900431 90.9323927193569 2758.2123441991 11 14 7
-36.3931931891315 90.3322053021721 2752.4252571537 13 16 9
-35.2340618016163 89.3245320853045 2740.90918244704 13 16 9
-44.8498945920315 89.0787633131329 2740.11298727799 18 21 14
-63.0018862956141 89.4494647624898 2747.95319386679 18 21 14
-54.0657757816243 87.8732792440185 2728.48565131872 16 19 12
-64.3578854409157 87.6821591583437 2728.43422757351 13 16 9
-72.5053045066313 87.3379862923388 2726.23165067944 13 16 9
-72.1892037392653 86.3716677325776 2715.33998566078 14 16 11
-63.4886554932625 84.7764932366336 2695.70128833756 14 16 11
-66.7797193934136 84.0630985019388 2688.37147140277 17 20 13
-65.2058624908034 82.9808173478025 2675.92062553957 18 21 12
-64.376962638349 81.947287850976 2664.1650279785 17 20 11
200.863889970916 90.8110085868303 2795.96746706199 12 15 4
235.714385590364 87.7049672661909 2755.75394939141 17 20 11
186.833381711378 88.9602464702173 2778.37626899455 14 17 8
158.320574376155 89.8722594354067 2793.53005852924 14 17 8
144.489469898739 89.8533316382156 2795.85474957321 15 18 9
158.964595413166 87.9977237080661 2772.99033314855 13 16 7
186.268835788808 85.283539510781 2738.42427745708 10 13 6
160.97406982967 86.0103640174882 2750.96951485183 11 14 7
114.584164348815 88.1543263325076 2782.81299493085 11 14 7
112.976383684892 87.339964960478 2774.2325467857 10 13 6
120.375669696062 85.9155432455276 2757.35710043628 8 11 4
105.174165957056 86.0095810118796 2761.159005261 7 10 3
96.0121922717967 85.6998471141404 2759.45616714091 9 12 5
99.5534518070858 84.521180617808 2745.96097196344 11 14 7
85.1784853611437 84.5709397949415 2749.1267904021 13 16 9
50.819671891503 86.0170895530183 2771.16130945499 12 15 8
24.7634090315931 86.9079354982312 2785.62572003157 14 17 10
-24.037118957515 89.4186474611815 2821.8990236914 14 17 10
-6.40746998551411 87.2599595536819 2795.14437585915 14 17 10
-21.1754459469833 87.3908355395405 2799.26074081459 12 15 8
-5.19452993077341 85.3217734567366 2773.78141850786 12 15 8
-5.37798365663589 84.4004731552483 2763.76288043159 11 14 7
-46.2804719329211 86.4358767840783 2793.40798437829 10 13 6
-20.3391435516731 83.6097833426631 2757.85365233074 11 14 7
-21.3094757209369 82.7366465574249 2748.49996986494 12 15 8
-43.1877765066295 83.4095869511253 2759.8159039996 14 17 10
-39.1344241246219 82.1616210148268 2745.45625373377 14 17 10
-53.7458283860843 82.3065356487423 2749.68648644149 17 20 13
-40.4883772407714 80.3518792440507 2725.93885018016 17 20 13
-59.6997924751261 79.8892448968689 2724.36099167375 13 16 9
-73.5137570493296 79.9877523278738 2727.93373926112 14 17 10
-73.8961128681692 79.0514439992161 2717.77093679425 14 16 13
-72.9102452892296 78.0025062377867 2706.12905044207 14 16 11
-54.4691037497647 75.5738689682837 2676.2556047017 16 19 12
-50.1395974633712 74.2370866356716 2660.8603633158 18 21 12
-43.0951290503978 72.6732659126639 2642.49195940461 17 20 9
-70.1116383720599 73.8267692839534 2659.96670712763 16 19 8
245.58077281751 80.1563130193324 2757.92733315872 19 22 11
234.441682632093 78.993883908313 2747.37640777233 20 23 14
184.168668436449 81.4231166220894 2781.34682541898 16 19 10
154.892048295923 82.4665626256505 2797.18261311399 16 19 10
173.251633126036 80.2794082941079 2770.95696717484 15 18 9
187.649660592375 78.3428345629655 2748.035956145 13 16 7
188.214937249683 77.3440079841781 2737.32475938711 10 13 6
181.903039675953 76.8173346638685 2732.74646242915 11 14 7
141.505684483453 78.6763033802656 2759.05145008613 11 14 7
108.85715893423 80.0197769761999 2778.62016338929 10 13 6
110.248155667953 78.9738769025633 2767.27197919378 8 11 4
128.863388098226 76.6922570357079 2739.99584806299 8 11 4
105.408539611402 77.4084859207427 2751.40445949487 7 10 3
90.2647380705264 77.5398780755669 2755.24838308178 9 12 5
33.4183842119145 79.7706731956517 2788.15834024084 13 16 9
1.49256075303628 81.1749685632613 2808.25096930976 14 17 10
53.8104401574468 76.3602194582885 2748.57796780018 14 17 10
-28.8056548104236 81.5539314021747 2817.1673373195 13 16 9
-42.0406832421998 81.6127311772462 2819.92453031532 12 15 8
-7.71546570626858 78.0861831167851 2776.85772966705 11 14 7
-15.9058641979961 77.7526429142923 2774.62404992637 11 14 7
-12.6907517251311 75.58333373718 2751.00622951788 12 15 8
-29.5706778194196 75.9196469943935 2757.2980416957 13 16 9
-47.3438808321744 75.3700178823585 2754.29226001766 16 19 12
-19.7095368858957 72.216038335298 2716.25816591156 16 19 12
-7.26492056151606 70.2352273541882 2693.15619249289 14 17 10
-30.4959130111133 71.0881918277376 2705.96281116539 13 16 9
-38.733270441123 70.752027367893 2703.69507659582 14 17 10
-67.4553136376694 72.076715995855 2722.40468123753 15 18 11
-94.6278995374183 73.29840880566 2739.7666311112 14 16 11
-96.3836535001661 72.4576467507651 2731.07878023916 15 17 12
-69.4602098899999 69.2457776292171 2692.52904608595 18 21 14
-42.7451056939216 66.0167514861152 2653.82790086455 19 22 13
-58.679452108513 66.3176038599905 2659.5702621633 18 21 10
-65.5367420925186 65.8654081688599 2655.83201248096 18 21 10
279.195969169909 68.9764595611053 2719.24779297208 21 24 15
180.666824907526 73.0052098623832 2775.06022158992 16 19 10
172.135952153981 72.6495540066963 2772.57961277062 15 18 9
185.778162840113 70.694337793778 2750.34593070526 13 16 7
183.303588824681 69.8924466359993 2742.37251983163 10 13 6
158.012812786268 70.7555459998304 2754.92104538706 11 14 7
154.042951727745 70.066928398256 2748.33431603617 11 14 7
124.375712231228 71.2787867450952 2765.12311957173 10 13 6
112.920167916555 71.1552661749501 2765.463970727 9 12 5
99.9923031775225 71.14694981545 2767.20845665323 9 12 5
105.073900672718 69.7863934643212 2752.35830181492 7 10 3
-30.0059374938519 77.1916991914411 2848.3884393962 15 18 11
2.63122764736456 73.7293417737114 2807.80366304505 14 17 10
50.5319355475073 69.042576000339 2752.34001663496 14 17 10
-11.4919420171846 72.908474698816 2801.2667224629 13 16 9
-26.9790749491778 73.1631499928928 2806.09771335697 12 15 8
-6.23999308337497 68.5912355014288 2755.64710576728 11 14 7
-20.980314821835 68.7898011373038 2759.78386072057 12 15 8
-60.3880521858562 70.0243655484148 2778.15752984858 16 19 12
-57.7109920712666 68.8217058562821 2765.27047869002 17 20 13
-37.9097549886245 66.1931718133152 2735.14694608902 14 17 10
-33.6426246309665 63.8169564508445 2709.82034014035 13 16 9
-43.2876413455932 63.609045978922 2709.00318068158 14 17 10
-67.0502892435319 64.6023287749508 2722.66043281968 14 17 10
-113.254755229643 67.5295770824703 2759.5827504377 14 16 11
-117.057453074177 66.8579517708138 2753.11728733737 15 17 12
-78.8556359212953 62.5544792994596 2702.97589921921 19 22 15
-57.6874155653879 59.6847568773126 2670.13669593456 19 22 13
-58.2653371301216 58.6881412077688 2659.83181821634 18 21 10
-77.6089123586514 59.3374162700772 2669.27970476693 16 19 8
-89.9549293028732 59.3812993592458 2671.44624897736 20 23 12
279.279125279165 62.9981955964965 2740.27488860625 32 30 15
239.43179241144 64.9047506301437 2764.5087669602 23 26 15
264.896877278946 62.0386804991917 2732.3143977008 20 23 14
205.681991074221 63.4219089507984 2753.62188565825 17 20 11
189.41553732893 63.645403150516 2757.88747784781 15 18 9
152.568280065906 65.4375674880194 2780.59048573336 13 16 7
138.759337049811 65.5012086544878 2782.93166032167 10 13 6
153.110669057175 63.4117464436381 2759.9760243468 11 14 7
158.249321601459 62.0140317474312 2745.16733619386 11 14 7
141.410793034055 62.3118537795842 2750.25392672754 10 13 6
110.319313603561 63.7327752203017 2768.48140054435 10 13 6
104.159290127106 63.2179871889131 2764.01326056199 11 14 7
67.2917582284809 65.130754180536 2787.93721843693 7 10 3
64.9534479749794 64.3265238701039 2780.06228174705 8 11 4
