ply
format ascii 1.0
comment KinectMotionCapture
element vertex 792
property float x
property float y
property float z
property uchar red
property uchar green
property uchar blue
end_header
33.473327755928 328.072071075439 2622.99990653992 131 134 127
40.6411290168762 328.195035457611 2624.00007247925 130 132 127
47.796007245779 328.192472457886 2624.00007247925 126 128 123
54.9297630786896 328.064411878586 2622.99990653992 127 129 124
62.1051974594593 328.186094760895 2624.00007247925 134 136 131
69.259449839592 328.182309865952 2624.00007247925 134 136 131
76.4716938138008 328.428238630295 2625.99992752075 138 140 135
83.5990086197853 328.298568725586 2625 141 143 138
90.7897055149078 328.418612480164 2625.99992752075 138 140 135
97.9482159018517 328.413218259811 2625.99992752075 121 123 118
105.226427316666 328.78252863884 2628.99994850159 98 100 95
112.563356757164 329.276502132416 2632.99989700317 15 17 12
120.240025222301 330.645471811295 2644.00005340576 31 32 26
128.07260453701 332.264095544815 2657.00006484985 25 26 20
135.160729289055 331.881463527679 2654.00004386902 18 19 13
142.071053385735 331.123262643814 2648.00000190735 5 6 0
149.230033159256 330.989956855774 2647.0000743866 19 20 14
155.910208821297 329.855889081955 2638.00001144409 12 13 7
162.47895359993 328.596532344818 2628.00002098084 12 13 7
171.122759580612 331.462889909744 2651.00002288818 15 16 10
177.738502621651 330.327779054642 2641.99995994568 144 145 139
184.304565191269 329.192340373993 2632.99989700317 140 141 135
191.039144992828 328.431725502014 2627.00009346008 146 149 142
197.966620326042 328.045785427094 2624.00007247925 162 167 163
205.189779400826 328.15957069397 2625 168 174 170
212.498545646667 328.398019075394 2627.00009346008 169 175 171
219.65017914772 328.386008739471 2627.00009346008 168 174 170
227.060124278069 328.748732805252 2630.00011444092 169 175 171
234.574615955353 329.235970973969 2634.0000629425 170 176 172
242.293640971184 329.972863197327 2640.00010490417 172 178 174
250.611454248428 331.459224224091 2651.99995040894 169 175 171
-234.995886683464 336.644113063812 2753.00002098084 187 189 186
-225.848600268364 334.210932254791 2733.00004005432 158 163 159
-217.528626322746 332.877814769745 2721.99988365173 174 178 177
-209.730952978134 332.27801322937 2717.00000762939 170 175 171
-202.108696103096 331.922441720963 2713.99998664856 170 175 169
-194.573804736137 331.688731908798 2711.99989318848 167 172 166
-187.187150120735 331.699252128601 2711.99989318848 161 168 160
-179.998680949211 332.076281309128 2714.99991416931 149 156 148
-173.17470908165 333.186894655228 2723.99997711182 121 126 119
-166.544452309608 334.786474704742 2736.99998855591 75 80 73
-151.075199246407 333.580940961838 2726.99999809265 6 9 0
-142.590492963791 331.142634153366 2707.00001716614 24 27 16
-134.463995695114 329.315394163132 2691.99991226196 22 24 11
-124.435357749462 322.349727153778 2634.99999046326 29 31 18
-117.653869092464 323.457539081573 2644.00005340576 19 22 13
-111.031740903854 325.17671585083 2657.99999237061 17 20 11
-104.176677763462 326.40615105629 2667.99998283386 19 22 13
-96.4676514267921 324.943691492081 2655.99989891052 24 27 18
-87.3119533061981 317.975282669067 2598.99997711182 15 18 9
-69.179855287075 333.037376403809 2721.99988365173 16 19 12
-60.441967099905 325.944721698761 2664.00003433228 15 18 11
-52.4792596697807 321.665585041046 2628.99994850159 18 21 14
-45.1898090541363 320.811927318573 2621.99997901917 26 29 22
-38.0834415555 321.181356906891 2625 16 19 12
-31.0076866298914 322.039783000946 2631.99996948242 4 7 0
-23.8302610814571 322.041362524033 2631.99996948242 0 3 0
-16.6527442634106 322.042524814606 2631.99996948242 29 32 25
-9.47156548500061 321.920901536942 2631.00004196167 66 69 62
-2.29405821301043 321.554154157639 2628.00002098084 114 117 110
4.87265828996897 321.554094552994 2628.00002098084 110 113 106
12.0393540710211 321.553587913513 2628.00002098084 102 105 98
19.1913899034262 321.307986974716 2625.99992752075 100 103 96
26.3424776494503 321.18433713913 2625 104 107 100
33.5263051092625 321.427375078201 2627.00009346008 109 112 105
40.7209061086178 321.669965982437 2628.99994850159 106 109 102
47.8533953428268 321.422725915909 2627.00009346008 110 113 106
54.9747943878174 321.175098419189 2625 105 108 101
62.179759144783 321.416467428207 2627.00009346008 59 62 55
69.3426132202148 321.412742137909 2627.00009346008 26 29 22
76.5343084931374 321.530967950821 2628.00002098084 6 9 2
83.6674720048904 321.404069662094 2627.00009346008 9 12 5
91.0023301839828 322.010844945908 2631.99996948242 20 22 17
98.1775969266891 322.0055103302 2631.99996948242 6 8 3
105.43255507946 322.244465351105 2634.0000629425 12 14 9
112.569749355316 322.115957736969 2632.99989700317 17 20 13
120.15588581562 323.210477828979 2641.99995994568 14 15 9
127.163946628571 322.714179754257 2638.00001144409 7 8 2
134.557202458382 323.196142911911 2641.99995994568 11 12 6
142.615601420403 325.145661830902 2657.99999237061 15 16 10
149.351164698601 324.036568403244 2648.9999294281 9 10 4
155.327901244164 321.459323167801 2628.00002098084 18 19 13
161.993384361267 320.471942424774 2619.99988555908 14 16 11
170.48679292202 323.031395673752 2641.00003242493 0 1 0
177.344739437103 322.410196065903 2635.99991798401 169 171 166
184.174820780754 321.78869843483 2631.00004196167 172 174 169
190.976992249489 321.166813373566 2625.99992752075 166 168 163
198.128461837769 321.156114339828 2625.99992752075 146 151 147
205.357432365417 321.267396211624 2627.00009346008 144 150 148
212.752923369408 321.622878313065 2630.00011444092 157 163 161
219.996705651283 321.733355522156 2631.00004196167 182 188 186
227.41787135601 322.088062763214 2634.0000629425 177 183 181
234.587401151657 322.075575590134 2634.0000629425 169 175 173
242.398574948311 322.918653488159 2641.00003242493 166 172 168
251.664578914642 325.595289468765 2663.00010681152 164 170 166
-235.77681183815 330.234855413437 2762.00008392334 200 202 199
-226.026058197021 327.018886804581 2734.99989509583 183 188 184
-217.700257897377 325.715512037277 2723.99997711182 183 187 186
-209.665134549141 324.770361185074 2716.00008010864 181 186 182
-201.896280050278 324.18355345726 2710.99996566772 169 176 169
-194.297403097153 323.835462331772 2707.99994468689 169 176 168
-187.059327960014 324.084997177124 2710.00003814697 165 172 164
-179.94225025177 324.573308229446 2713.99998664856 148 155 147
-173.247799277306 325.898438692093 2724.99990463257 115 122 114
-166.553631424904 327.34289765358 2736.99998855591 106 111 104
-159.502789378166 328.188985586166 2743.99995803833 217 223 213
-148.812040686607 321.260422468185 2686.00010871887 4 7 0
-141.650199890137 321.627199649811 2688.99989128113 25 28 17
-132.673174142838 317.687600851059 2655.99989891052 22 24 11
-126.52026116848 320.445835590363 2678.99990081787 30 32 19
-118.372432887554 318.179905414581 2660.00008583069 21 24 13
-111.330360174179 318.784356117249 2664.99996185303 16 19 10
-103.948205709457 318.431437015533 2661.99994087219 17 20 11
-95.9645435214043 316.044539213181 2641.99995994568 23 26 17
-87.8543928265572 312.81977891922 2615.00000953674 23 26 17
-80.662876367569 312.585234642029 2612.99991607666 18 21 12
-74.2981284856796 315.819501876831 2640.00010490417 13 16 7
-52.7616888284683 316.188961267471 2642.99988746643 16 19 12
-45.3130006790161 314.516842365265 2628.99994850159 19 22 15
-38.0855835974216 314.040631055832 2625 13 16 9
-30.9387464076281 314.162194728851 2625.99992752075 16 19 12
-23.7138960510492 313.326299190521 2618.99995803833 20 23 16
-16.6030656546354 313.925623893738 2624.00007247925 7 10 3
-9.44329798221588 313.806653022766 2622.99990653992 3 6 0
-2.29069567285478 313.926637172699 2624.00007247925 9 12 5
4.86551597714424 313.926577568054 2624.00007247925 6 9 2
12.0354536920786 314.285039901733 2627.00009346008 6 9 2
19.1997829824686 314.284145832062 2627.00009346008 6 9 2
26.4041796326637 314.761430025101 2631.00004196167 8 11 4
33.5792489349842 314.759761095047 2631.00004196167 10 13 6
40.7851599156857 314.996927976608 2632.99989700317 7 10 3
47.8743091225624 314.396291971207 2628.00002098084 0 2 0
54.9988336861134 314.154118299484 2625.99992752075 0 2 0
62.20693141222 314.390152692795 2628.00002098084 11 14 7
69.4784894585609 314.864993095398 2631.99996948242 16 19 12
76.509490609169 314.262807369232 2627.00009346008 16 19 12
83.6084559559822 314.019083976746 2625 17 20 13
91.1111608147621 315.210491418839 2634.99999046326 12 15 8
98.1457903981209 314.726769924164 2631.00004196167 14 17 10
105.718664824963 315.91734290123 2641.00003242493 18 21 14
113.302886486053 316.987842321396 2650.00009536743 16 17 9
120.571918785572 317.101001739502 2651.00002288818 9 9 1
127.171024680138 315.539181232452 2638.00001144409 13 13 3
134.768411517143 316.488862037659 2645.99990844727 16 16 6
142.194256186485 316.959708929062 2650.00009536743 22 23 17
149.528592824936 317.190915346146 2651.99995040894 18 21 14
155.454710125923 314.551293849945 2630.00011444092 4 6 1
162.373319268227 314.064204692841 2625.99992752075 16 21 17
170.044243335724 315.011948347092 2634.0000629425 0 4 0
177.018046379089 314.643710851669 2631.00004196167 160 165 161
183.974862098694 314.275175333023 2628.00002098084 158 163 159
190.914675593376 313.906282186508 2625 172 176 175
198.290154337883 314.254552125931 2628.00002098084 169 170 174
205.60310781002 314.482867717743 2630.00011444092 167 168 172
213.088005781174 314.94989991188 2634.0000629425 166 170 173
220.259428024292 314.938336610794 2634.0000629425 136 140 141
227.775439620018 315.404623746872 2638.00001144409 141 145 148
235.045284032822 315.511882305145 2638.99993896484 153 157 158
243.329375982285 316.933870315552 2651.00002288818 182 186 185
-237.325891852379 324.827134609222 2779.99997138977 201 203 200
-226.038038730621 319.581151008606 2734.99989509583 189 191 188
-217.551946640015 318.073719739914 2721.99988365173 188 190 187
-209.59909260273 317.267000675201 2714.99991416931 179 181 176
-201.981544494629 316.927313804626 2711.99989318848 171 173 168
-194.451332092285 316.70406460762 2710.00003814697 164 166 161
-187.207415699959 316.947937011719 2711.99989318848 160 165 159
-179.819330573082 316.95768237114 2711.99989318848 154 159 153
-173.130005598068 318.252772092819 2723.00004959106 136 141 135
-166.319221258163 319.430619478226 2733.00004005432 96 103 96
-158.988237380981 319.673091173172 2734.99989509583 226 233 226
-148.321479558945 312.902122735977 2677.00004577637 10 17 9
-138.339042663574 306.948602199554 2625.99992752075 14 21 13
-134.0292096138 313.618659973145 2683.00008773804 25 30 23
-126.857772469521 313.976377248764 2686.00010871887 15 21 11
-119.669504463673 314.333707094193 2688.99989128113 23 26 15
-110.835134983063 310.131698846817 2653.00011634827 21 24 15
-102.821424603462 307.799488306046 2632.99989700317 21 24 15
-95.8245173096657 308.389395475388 2638.00001144409 18 21 12
-88.7327790260315 308.745145797729 2641.00003242493 14 17 8
-81.6552117466927 309.217393398285 2644.99998092651 15 18 9
-73.9644765853882 307.234227657318 2628.00002098084 17 20 11
-67.0016258955002 308.173358440399 2635.99991798401 17 20 13
-52.9043637216091 309.816688299179 2650.00009536743 15 18 11
-45.5740615725517 309.117883443832 2644.00005340576 20 23 16
-38.0006358027458 306.197315454483 2618.99995803833 8 11 4
-30.6576825678349 304.211676120758 2601.99999809265 5 8 1
-23.53410795331 303.862422704697 2598.99997711182 12 15 8
-16.4964143186808 304.79884147644 2607.00011253357 11 14 7
-9.40421782433987 305.384129285812 2611.99998855591 7 10 3
-2.28820368647575 306.436717510223 2621.00005149841 8 11 4
4.87134931609035 307.138115167618 2627.00009346008 7 10 3
12.068192474544 307.95606970787 2634.0000629425 14 17 10
19.2300826311111 307.60446190834 2631.00004196167 18 21 14
26.4758989214897 308.421641588211 2638.00001144409 15 18 11
33.6066298186779 307.835400104523 2632.99989700317 14 17 10
40.8338867127895 308.184087276459 2635.99991798401 19 22 15
48.0044819414616 308.064758777618 2634.99999046326 19 22 15
55.1275461912155 307.711213827133 2631.99996948242 19 22 15
62.3287260532379 307.82487988472 2632.99989700317 16 19 12
69.3503245711327 307.119816541672 2627.00009346008 14 17 10
76.5428319573402 307.232767343521 2628.00002098084 14 17 10
83.8360413908958 307.695984840393 2631.99996948242 13 16 9
90.666651725769 306.522190570831 2621.99997901917 9 12 5
98.0392545461655 307.218462228775 2628.00002098084 10 13 6
105.764478445053 308.849543333054 2641.99995994568 15 18 11
113.351851701736 309.895694255829 2651.00002288818 20 21 13
120.760440826416 310.356914997101 2654.99997138977 11 11 3
127.033337950706 308.012336492538 2634.99999046326 15 15 5
134.622916579247 308.940380811691 2642.99988746643 22 22 12
142.094656825066 309.517413377762 2648.00000190735 35 36 28
149.367541074753 309.626430273056 2648.9999294281 28 29 21
156.586229801178 309.618234634399 2648.9999294281 19 20 14
162.753105163574 307.622700929642 2631.99996948242 0 1 0
170.053407549858 307.847589254379 2634.0000629425 40 42 37
177.027568221092 307.487696409225 2631.00004196167 150 151 146
183.984756469727 307.127505540848 2628.00002098084 177 178 173
190.77941775322 306.533187627792 2622.99990653992 166 167 162
197.998896241188 306.639760732651 2624.00007247925 174 174 174
205.223143100739 306.746006011963 2625 180 181 183
212.69479393959 307.20242857933 2628.99994850159 167 168 170
220.103815197945 307.541608810425 2631.99996948242 163 167 166
227.873787283897 308.347791433334 2638.99993896484 152 156 157
235.681116580963 309.153616428375 2645.99990844727 127 131 130
244.810804724693 311.594665050507 2667.00005531311 134 138 137
-237.423568964005 317.380219697952 2780.99989891052 198 200 195
-226.049795746803 312.142312526703 2734.99989509583 192 193 188
-217.643231153488 310.784161090851 2723.00004959106 191 192 187
-209.532856941223 309.767991304398 2713.99998664856 178 179 174
-201.917633414268 309.436202049255 2710.99996566772 185 186 181
-194.318041205406 309.104084968567 2707.99994468689 180 181 176
-187.21729516983 309.570610523224 2711.99989318848 178 179 174
-179.76251244545 309.466034173965 2710.99996566772 162 164 159
-172.821223735809 310.274332761765 2717.99993515015 145 147 142
-165.658578276634 310.739874839783 2721.99988365173 106 111 105
-159.636199474335 313.488274812698 2746.00005149841 213 218 212
-148.606419563293 306.189924478531 2681.99992179871 0 6 0
-140.506431460381 304.485082626343 2667.00005531311 20 27 20
-132.787421345711 303.4648001194 2657.99999237061 11 18 11
-127.384126186371 307.924419641495 2697.00002670288 25 32 24
-118.429780006409 303.820639848709 2661.00001335144 25 28 17
-111.133560538292 303.712606430054 2660.00008583069 26 29 20
-102.748870849609 300.407081842422 2631.00004196167 24 27 18
-96.5925380587578 303.60946059227 2658.99991989136 21 24 15
-89.9807587265968 305.783897638321 2677.99997329712 18 21 12
-82.0301026105881 303.390651941299 2657.00006484985 12 15 6
-74.0247741341591 300.311803817749 2630.00011444092 14 17 8
-66.6748061776161 299.516260623932 2622.99990653992 17 20 13
-59.226606041193 298.035174608231 2609.99989509583 16 19 12
-52.4280667304993 299.865186214447 2625.99992752075 16 19 12
-45.4213991761208 300.895601511002 2634.99999046326 16 19 12
-37.814062088728 297.58620262146 2605.99994659424 12 15 8
-30.5415168404579 295.989364385605 2592.00000762939 11 14 7
-23.4901122748852 296.219229698181 2594.00010108948 13 16 9
-16.4530146867037 296.905428171158 2599.99990463257 13 16 9
-9.34351980686188 296.335160732269 2595.00002861023 13 16 9
-2.26824753917754 296.678096055985 2598.00004959106 15 18 11
4.83823427930474 297.934144735336 2608.99996757507 12 15 8
11.9680464267731 298.276275396347 2611.99998855591 17 20 13
19.0557017922401 297.704458236694 2607.00011253357 19 22 15
26.1661931872368 297.703266143799 2607.00011253357 13 16 9
33.2382917404175 297.359079122543 2604.00009155273 11 14 7
40.526270866394 298.72739315033 2615.9999370575 16 19 12
47.8066764771938 299.638539552689 2624.00007247925 13 16 9
55.1305338740349 300.549328327179 2631.99996948242 10 13 6
61.8349611759186 298.262387514114 2611.99998855591 8 11 4
69.0900757908821 298.829823732376 2617.00010299683 11 14 7
76.4304623007774 299.625247716904 2624.00007247925 12 15 8
83.617590367794 299.735128879547 2625 11 14 7
90.4294699430466 298.588633537292 2615.00000953674 12 15 8
97.9326218366623 299.725443124771 2625 14 17 10
105.650067329407 301.318526268005 2638.99993896484 16 19 12
113.315179944038 302.568644285202 2650.00009536743 21 24 15
120.493985712528 302.448242902756 2648.9999294281 13 16 7
127.232998609543 301.299959421158 2638.99993896484 12 14 3
134.4263702631 301.293015480042 2638.99993896484 13 15 4
141.458258032799 300.943225622177 2635.99991798401 25 25 15
149.431899189949 302.533864974976 2650.00009536743 27 24 15
156.65365755558 302.525818347931 2650.00009536743 24 22 10
163.503810763359 301.832437515259 2644.00005340576 41 37 26
170.320644974709 301.13872885704 2638.00001144409 76 69 59
177.306070923805 300.787210464478 2634.99999046326 148 140 129
184.274479746819 300.435304641724 2631.99996948242 182 172 162
191.007629036903 299.740642309189 2625.99992752075 193 184 175
197.933793067932 299.388110637665 2622.99990653992 185 180 174
204.921096563339 299.149423837662 2621.00005149841 182 181 176
212.301328778267 299.481093883514 2624.00007247925 183 184 178
219.864338636398 300.040602684021 2628.99994850159 173 175 170
227.971956133842 301.284492015839 2640.00010490417 160 165 161
236.851245164871 303.440898656845 2658.99991989136 145 150 146
-235.471934080124 307.253122329712 2757.99989700317 207 208 202
-226.143971085548 304.813832044601 2736.00006103516 192 191 186
-217.89413690567 303.710907697678 2726.0000705719 194 194 186
-210.006833076477 303.053259849548 2720.00002861023 197 192 186
-202.22595334053 302.506625652313 2714.99991416931 202 193 186
-194.686859846115 302.293926477432 2713.00005912781 186 176 167
-187.296003103256 302.303671836853 2713.00005912781 174 165 156
-179.705515503883 301.978766918182 2710.00003814697 145 136 127
-172.321513295174 301.987767219543 2710.00003814697 141 134 124
-164.997726678848 302.107900381088 2710.99996566772 103 100 91
-158.016666769981 302.896320819855 2717.99993515015 224 224 214
-151.107713580132 303.90727519989 2726.99999809265 14 17 8
-140.724539756775 297.673910856247 2671.0000038147 21 27 17
-134.892731904984 300.913065671921 2700.00004768372 20 27 19
-126.304432749748 298.022121191025 2674.00002479553 8 15 7
-117.456831037998 294.127583503723 2638.99993896484 24 27 16
-109.677046537399 292.573124170303 2625 23 26 17
-103.340104222298 294.919282197952 2645.99990844727 20 23 14
-96.5976491570473 296.37348651886 2658.99991989136 20 23 14
-89.1454890370369 295.709609985352 2653.00011634827 21 24 15
-81.0773223638535 292.704522609711 2625.99992752075 17 20 11
-74.5353624224663 295.160889625549 2648.00000190735 16 19 10
-66.652923822403 292.266458272934 2621.99997901917 17 20 13
-59.365913271904 291.600942611694 2615.9999370575 23 26 19
-52.1313697099686 291.046559810638 2611.00006103516 19 22 15
-45.2169440686703 292.386710643768 2622.99990653992 10 13 6
-37.6999899744987 289.602130651474 2598.00004959106 15 18 11
-30.6020639836788 289.49248790741 2596.99988365173 15 18 11
-23.5819220542908 290.274232625961 2604.00009155273 17 20 13
-16.5045205503702 290.72117805481 2608.00004005432 20 23 16
-9.36202052980661 289.830058813095 2599.99990463257 24 27 20
-2.27535329759121 290.499210357666 2605.99994659424 23 26 19
4.83849178999662 290.833532810211 2608.99996757507 20 23 16
11.9686834514141 291.167557239532 2611.99998855591 21 24 17
19.0274771302938 290.163457393646 2602.9999256134 22 25 18
26.1374749243259 290.273755788803 2604.00009155273 19 22 15
33.2655906677246 290.495127439499 2605.99994659424 19 22 15
40.6213849782944 292.276710271835 2621.99997901917 13 16 9
47.9914210736752 293.612033128738 2634.0000629425 14 17 10
55.321991443634 294.389605522156 2641.00003242493 14 17 10
61.909269541502 291.488349437714 2615.00000953674 13 16 9
68.9353346824646 291.039049625397 2611.00006103516 12 15 8
76.2888640165329 291.926950216293 2618.99995803833 12 15 8
83.5264399647713 292.257130146027 2621.99997901917 9 12 5
90.6763300299644 292.252570390701 2621.99997901917 12 15 8
97.9377999901772 292.58206486702 2625 15 18 11
105.455465614796 293.57984662056 2634.0000629425 16 19 12
112.893536686897 294.242918491364 2640.00010490417 16 19 12
120.090939104557 294.236838817596 2640.00010490417 14 17 8
127.480760216713 294.676214456558 2644.00005340576 12 14 3
134.382486343384 294.000715017319 2638.00001144409 10 12 1
141.680330038071 294.216424226761 2640.00010490417 22 20 8
149.326905608177 295.100480318069 2648.00000190735 26 22 11
156.839191913605 295.649796724319 2653.00011634827 28 22 10
163.512319326401 294.638574123383 2644.00005340576 8 0 0
170.523196458817 294.29566860199 2641.00003242493 57 45 33
177.517116069794 293.952465057373 2638.00001144409 101 87 74
184.564024209976 293.720304965973 2635.99991798401 112 96 83
191.308453679085 293.042242527008 2630.00011444092 95 81 68
198.170363903046 292.586624622345 2625.99992752075 166 160 148
205.244362354279 292.464971542358 2625 189 186 177
212.473973631859 292.565792798996 2625.99992752075 165 165 155
220.210075378418 293.334752321243 2632.99989700317 182 183 177
228.674381971359 294.994533061981 2648.00000190735 171 173 168
239.357471466064 299.327433109283 2687.00003623962 162 167 163
-234.715223312378 298.771649599075 2749.00007247925 207 206 201
-226.733863353729 298.13089966774 2743.00003051758 204 204 196
-218.704402446747 297.381103038788 2736.00006103516 155 152 145
-210.635080933571 296.522170305252 2727.9999256134 103 96 88
-202.683076262474 295.771569013596 2720.99995613098 90 76 67
-194.840207695961 295.129299163818 2714.99991416931 115 98 88
-187.305480241776 294.921457767487 2713.00005912781 127 111 98
-179.714649915695 294.604510068893 2710.00003814697 117 103 90
-172.012329101563 294.069796800613 2704.99992370605 116 104 92
-164.458334445953 293.752133846283 2701.99990272522 98 90 77
-157.443329691887 294.412553310394 2707.99994468689 208 202 190
-149.951741099358 294.202923774719 2706.00008964539 12 12 0
-140.731766819954 290.404945611954 2671.0000038147 32 34 23
-133.950352668762 291.499197483063 2680.99999427795 13 19 9
-126.121982932091 290.30978679657 2670.00007629395 16 22 12
-116.750709712505 285.205602645874 2622.99990653992 23 26 15
-109.264880418777 284.341484308243 2615.00000953674 26 29 20
-102.095626294613 284.238189458847 2614.00008201599 20 23 14
-95.694400370121 286.417990922928 2634.0000629425 15 18 9
-88.0075767636299 284.791588783264 2618.99995803833 12 15 6
-80.9271559119225 285.013437271118 2621.00005149841 10 13 4
-74.2858871817589 286.974757909775 2638.99993896484 20 23 14
-67.1902522444725 287.413388490677 2642.99988746643 18 21 14
-59.5959462225437 285.567969083786 2625.99992752075 7 10 3
-52.4136200547218 285.462111234665 2625 7 10 3
-45.0986288487911 284.485876560211 2615.9999370575 10 13 6
-37.8906093537807 283.94427895546 2611.00006103516 8 11 4
-30.7568553835154 283.83731842041 2609.99989509583 6 9 2
-23.5469229519367 282.751202583313 2599.99990463257 10 13 6
-16.5053810924292 283.622264862061 2608.00004005432 14 17 10
-9.39851999282837 283.840417861938 2609.99989509583 16 19 12
-2.28595011867583 284.710735082626 2618.00003051758 12 15 8
4.84059937298298 283.840656280518 2609.99989509583 11 14 7
11.9463969022036 283.513993024826 2607.00011253357 16 19 12
19.0211609005928 282.969415187836 2601.99999809265 18 21 14
26.1388402432203 283.18578004837 2604.00009155273 22 25 18
33.3056226372719 283.72797369957 2608.99996757507 26 29 22
40.57702049613 284.813553094864 2618.99995803833 23 26 19
47.8299334645271 285.463780164719 2625 24 27 20
54.9478009343147 285.243630409241 2622.99990653992 28 31 24
61.7941096425056 283.826917409897 2609.99989509583 35 38 31
68.7805041670799 283.279865980148 2605.00001907349 33 36 29
76.1763006448746 284.36353802681 2615.00000953674 24 27 20
83.7537795305252 285.881817340851 2628.99994850159 15 18 11
90.9577161073685 285.986125469208 2630.00011444092 14 17 10
97.9428589344025 285.437524318695 2625 20 23 16
105.100564658642 285.4323387146 2625 21 24 17
112.215109169483 285.318076610565 2624.00007247925 18 21 14
119.824178516865 286.399483680725 2634.0000629425 19 25 15
127.05335021019 286.501914262772 2634.99999046326 17 19 8
134.542226791382 287.147641181946 2641.00003242493 16 16 4
142.063289880753 287.792980670929 2647.0000743866 25 19 5
149.278149008751 287.785589694977 2647.0000743866 24 15 0
156.788066029549 288.32146525383 2651.99995040894 22 9 0
163.335114717484 287.117481231689 2641.00003242493 115 96 79
170.402705669403 286.891669034958 2638.99993896484 133 112 93
177.391514182091 286.556780338287 2635.99991798401 138 113 93
184.643402695656 286.656439304352 2637.00008392334 142 117 97
191.609084606171 286.320954561234 2634.0000629425 129 106 88
198.708593845367 286.202490329742 2632.99989700317 115 102 83
205.801993608475 286.08375787735 2631.99996948242 74 67 51
213.051006197929 286.182045936584 2632.99989700317 55 49 35
220.890179276466 287.040859460831 2641.00003242493 179 179 169
229.894801974297 289.312094449997 2661.99994087219 159 160 152
-227.654218673706 291.832745075226 2753.99994850159 162 158 149
-219.754338264465 291.313737630844 2749.00007247925 103 96 86
-211.494818329811 290.264457464218 2739.00008201599 76 66 56
-203.140005469322 289.002865552902 2726.99999809265 117 98 84
-194.706305861473 287.528842687607 2713.00005912781 140 117 103
-186.96953356266 287.008255720139 2707.99994468689 139 118 101
-179.325684905052 286.593317985535 2703.9999961853 131 110 93
-171.893715858459 286.495953798294 2703.00006866455 128 109 94
-164.46653008461 286.398231983185 2701.99990272522 113 100 83
-157.160505652428 286.512196063995 2703.00006866455 110 98 82
-149.903833866119 286.731779575348 2704.99992370605 23 17 3
-141.687244176865 285.042971372604 2688.99989128113 32 30 17
-133.207619190216 282.611727714539 2665.99988937378 32 34 23
-125.892132520676 282.512158155441 2664.99996185303 23 25 14
-117.869436740875 280.716091394424 2648.00000190735 20 23 12
-108.434684574604 275.103151798248 2595.00002861023 19 22 13
-101.866438984871 276.486575603485 2608.00004005432 16 19 10
-94.8636010289192 276.809573173523 2611.00006103516 16 19 10
-88.2472917437553 278.404414653778 2625.99992752075 15 18 9
-80.931268632412 277.87858247757 2621.00005149841 24 27 18
-73.7829580903053 277.882426977158 2621.00005149841 23 26 17
-66.9902861118317 279.370278120041 2634.99999046326 17 20 13
-59.9848106503487 280.221670866013 2642.99988746643 14 17 10
-52.5560677051544 279.058247804642 2631.99996948242 9 12 5
-45.1871380209923 277.89443731308 2621.00005149841 8 11 4
-38.1973087787628 279.062837362289 2631.99996948242 9 12 5
-30.9823378920555 278.746515512466 2628.99994850159 8 11 4
-23.6024726182222 276.309251785278 2605.99994659424 13 16 9
-9.46742203086615 278.74955534935 2628.99994850159 13 16 9
-2.29829177260399 279.067933559418 2631.99996948242 10 13 6
4.86124865710735 277.90156006813 2621.00005149841 17 20 13
11.9974156841636 277.583032846451 2618.00003051758 17 20 13
19.0952401608229 276.946097612381 2611.99998855591 15 18 11
26.240561157465 277.157008647919 2614.00008201599 22 25 18
33.4094576537609 277.473598718643 2617.00010299683 20 23 16
40.656566619873 278.213918209076 2624.00007247925 23 26 19
47.8323698043823 278.31768989563 2625 21 24 17
54.9715533852577 278.209090232849 2624.00007247925 18 21 14
61.1816570162773 273.965179920197 2584.00011062622 13 16 9
69.1008567810059 277.460664510727 2617.00010299683 11 14 7
76.8502131104469 279.683411121368 2638.00001144409 17 20 13
83.853617310524 279.043287038803 2631.99996948242 15 18 11
90.5127078294754 277.448654174805 2617.00010299683 14 17 10
97.5746884942055 277.231872081757 2615.00000953674 17 20 13
104.585357010365 276.908725500107 2611.99998855591 21 24 17
111.70756816864 276.903361082077 2611.99998855591 20 23 16
119.46626752615 278.381735086441 2625.99992752075 19 25 15
127.541944384575 280.389726161957 2644.99998092651 21 23 12
134.854659438133 280.59521317482 2647.0000743866 17 15 3
142.070412635803 280.588328838348 2647.0000743866 21 14 0
148.665249347687 279.415130615234 2635.99991798401 26 15 0
155.849903821945 279.407560825348 2635.99991798401 113 95 75
162.662923336029 278.763771057129 2630.00011444092 124 102 81
170.023754239082 279.073536396027 2632.99989700317 130 105 83
177.063837647438 278.85302901268 2631.00004196167 143 115 94
184.442475438118 279.162138700485 2634.0000629425 141 113 92
191.618531942368 279.152929782867 2634.0000629425 135 108 87
199.02029633522 279.461324214935 2637.00008392334 129 113 90
206.51587843895 279.875367879868 2641.00003242493 116 105 87
214.032486081123 280.289053916931 2644.99998092651 65 58 42
222.32286632061 281.656056642532 2657.99999237061 57 53 41
-228.409111499786 285.267174243927 2763.00001144409 222 218 207
-220.404431223869 284.658342599869 2756.99996948242 223 217 205
-211.427748203278 282.706797122955 2737.99991607666 110 97 81
-203.000798821449 281.374335289001 2724.99990463257 149 124 104
-194.428637623787 279.731690883636 2709.00011062622 164 133 112
-186.70243024826 279.224544763565 2703.9999961853 162 131 110
-179.00276184082 278.71698141098 2698.99988174438 146 118 94
-171.7748939991 278.931945562363 2700.99997520447 137 111 88
-164.474561810493 279.043316841125 2701.99990272522 127 105 82
-157.168194651604 279.154360294342 2703.00006866455 125 107 85
-149.855777621269 279.265105724335 2703.9999961853 23 12 0
-142.273858189583 278.859049081802 2700.00004768372 33 26 10
-134.263500571251 277.523100376129 2687.00003623962 26 22 10
-126.229032874107 275.980174541473 2671.99993133545 32 30 18
-117.608159780502 272.887527942657 2641.99995994568 25 28 17
-109.902620315552 271.65362238884 2630.00011444092 25 28 19
-101.51993483305 268.456757068634 2598.99997711182 23 26 17
-95.8129987120628 272.386729717255 2637.00008392334 22 25 16
-88.5541364550591 272.184669971466 2634.99999046326 20 23 14
-81.3058391213417 271.982222795486 2632.99989700317 22 25 16
-73.84292781353 270.953059196472 2622.99990653992 22 25 16
-66.5359869599342 270.336747169495 2617.00010299683 19 22 15
-59.6473552286625 271.476149559021 2628.00002098084 17 20 13
-52.5586903095245 271.892100572586 2631.99996948242 15 18 11
-45.3100800514221 271.481335163116 2628.00002098084 14 17 10
-38.0250588059425 270.656943321228 2619.99988555908 10 13 6
-31.2431678175926 273.861110210419 2651.00002288818 9 12 5
-24.0927562117577 274.792224168777 2660.00008583069 9 12 5
-16.7918726801872 274.070084095001 2653.00011634827 11 14 7
-9.5975436270237 275.310397148132 2664.99996185303 10 13 6
-2.2992801386863 272.004902362823 2632.99989700317 8 11 4
4.86705638468266 271.075069904327 2624.00007247925 6 9 2
12.0163494721055 270.868092775345 2621.99997901917 12 15 8
19.1473718732595 270.557373762131 2618.99995803833 13 16 9
26.2920670211315 270.55624127388 2618.99995803833 15 18 11
33.4621965885162 270.761400461197 2621.00005149841 21 24 17
40.674090385437 271.172761917114 2625 21 24 17
47.8165447711945 271.067291498184 2624.00007247925 16 19 12
54.8276454210281 270.341634750366 2617.00010299683 11 14 7
77.2036388516426 273.74079823494 2650.00009536743 11 14 7
83.7621912360191 271.567583084106 2628.99994850159 11 14 7
90.3788432478905 269.910573959351 2612.99991607666 15 18 11
96.9451665878296 268.356561660767 2598.00004959106 18 21 14
104.670636355877 270.00430226326 2614.00008201599 19 22 15
112.012468278408 270.515441894531 2618.99995803833 18 21 14
119.881629943848 272.162407636642 2634.99999046326 20 23 14
127.45176255703 272.982627153397 2642.99988746643 26 24 12
134.861290454865 273.389428853989 2647.0000743866 20 17 2
141.91634953022 273.072838783264 2644.00005340576 66 53 36
148.390516638756 271.723181009293 2631.00004196167 105 88 68
155.502796173096 271.612554788589 2630.00011444092 124 100 76
162.299737334251 270.985245704651 2624.00007247925 132 106 81
169.644579291344 271.287083625793 2627.00009346008 133 105 83
176.735922694206 271.175444126129 2625.99992752075 145 114 93
184.10125374794 271.476596593857 2628.99994850159 143 113 89
191.482275724411 271.777391433716 2631.99996948242 137 109 87
199.105352163315 272.387653589249 2638.00001144409 125 105 81
206.760376691818 272.997498512268 2644.00005340576 105 92 73
214.851960539818 274.123251438141 2654.99997138977 106 97 80
223.922774195671 276.384264230728 2677.00004577637 77 69 56
-220.574662089348 277.355223894119 2759.0000629425 210 202 189
-210.974365472794 274.650931358337 2732.00011253357 137 121 105
-202.488899230957 273.253053426743 2717.99993515015 158 131 110
-193.935394287109 271.653741598129 2701.99990272522 169 137 114
-186.227932572365 271.159946918488 2697.00002670288 167 135 112
-178.679659962654 270.866870880127 2694.00000572205 152 122 96
-171.71947658062 271.4783847332 2700.00004768372 140 112 88
-164.482414722443 271.687388420105 2701.99990272522 127 103 79
-157.291993498802 271.996647119522 2704.99992370605 123 102 81
-149.918377399445 272.003918886185 2704.99992370605 27 14 0
-142.280697822571 271.508067846298 2700.00004768372 39 30 15
-134.070083498955 269.805133342743 2683.00008773804 21 17 5
-126.18787586689 268.604576587677 2671.0000038147 26 24 12
-118.237063288689 267.101913690567 2655.99989891052 20 23 12
-110.242262482643 265.297204256058 2638.00001144409 21 24 15
-104.337379336357 268.621057271957 2671.0000038147 21 24 15
-96.0719883441925 265.910476446152 2644.00005340576 19 22 13
-88.7936875224113 265.713751316071 2641.99995994568 18 21 12
-81.3406780362129 264.913260936737 2634.0000629425 18 21 12
-73.7902224063873 263.609528541565 2621.00005149841 18 21 12
-66.615492105484 263.512283563614 2619.99988555908 17 20 13
-59.2189952731133 262.408971786499 2608.99996757507 17 20 13
-52.101943641901 262.411653995514 2608.99996757507 15 18 11
-44.7950288653374 261.307626962662 2598.00004959106 15 18 11
-38.1430312991142 264.327049255371 2628.00002098084 12 15 8
-31.2329083681107 266.541540622711 2650.00009536743 10 13 6
-24.1120476275682 267.749816179276 2661.99994087219 10 13 6
-16.5901444852352 263.626933097839 2621.00005149841 10 13 6
-9.4395475462079 263.62755894661 2621.00005149841 9 12 5
-2.29589943774045 264.432519674301 2628.99994850159 10 13 6
4.86914906650782 264.030128717422 2625 5 8 1
12.0581835508347 264.63320851326 2631.00004196167 9 12 5
19.2506648600101 264.833599328995 2632.99989700317 6 9 2
26.43390186131 264.832496643066 2632.99989700317 7 10 3
33.604271709919 264.730483293533 2631.99996948242 20 23 16
40.8465266227722 265.130996704102 2635.99991798401 13 16 9
48.0011068284512 264.927715063095 2634.0000629425 9 12 5
63.0583688616753 267.839163541794 2663.00010681152 8 11 4
70.4280212521553 268.238246440887 2667.00005531311 11 14 7
75.7506564259529 261.496126651764 2599.99990463257 10 13 6
83.6706832051277 264.107227325439 2625.99992752075 11 14 7
90.6945392489433 263.700753450394 2621.99997901917 16 19 12
97.5096225738525 262.791097164154 2612.99991607666 18 21 14
104.956015944481 263.590842485428 2621.00005149841 17 20 13
113.044388592243 265.798091888428 2642.99988746643 15 18 11
120.205886662006 265.691965818405 2641.99995994568 20 21 13
127.265021204948 265.384376049042 2638.99993896484 26 22 11
134.460151195526 265.378147363663 2638.99993896484 11 5 0
141.440078616142 264.969378709793 2634.99999046326 110 94 78
148.17202091217 264.158070087433 2627.00009346008 116 98 78
155.214577913284 263.949811458588 2625 128 102 79
162.121906876564 263.540089130402 2621.00005149841 135 108 81
169.265136122704 263.532280921936 2621.00005149841 141 111 85
176.273167133331 263.323098421097 2618.99995803833 146 114 89
183.619782328606 263.616293668747 2621.99997901917 144 112 87
191.20030105114 264.210760593414 2628.00002098084 139 111 87
198.888286948204 264.905393123627 2634.99999046326 129 105 81
206.926494836807 266.00182056427 2645.99990844727 123 106 86
215.266659855843 267.399430274963 2660.00008583069 112 99 82
-219.705283641815 268.768697977066 2747.99990653992 147 133 120
-210.752382874489 266.920149326324 2729.00009155273 151 134 116
-202.349230647087 265.657991170883 2716.00008010864 165 137 113
-194.016143679619 264.395415782928 2703.00006866455 166 138 114
-186.305597424507 263.915032148361 2697.99995422363 162 135 108
-178.687945008278 263.532102108002 2694.00000572205 147 120 93
-171.536639332771 263.833612203598 2697.00002670288 138 111 84
-164.185717701912 263.841360807419 2697.00002670288 125 103 80
-157.183051109314 264.435708522797 2703.00006866455 113 95 73
-149.925380945206 264.638453722 2704.99992370605 43 31 15
-142.392754554749 264.351725578308 2701.99990272522 30 22 11
-133.576661348343 261.520892381668 2673.00009727478 26 23 14
-126.052096486092 261.037737131119 2667.99998283386 24 24 16
-118.19813400507 259.771466255188 2654.99997138977 17 20 9
-110.665388405323 259.091913700104 2648.00000190735 17 20 11
-103.521965444088 259.292602539063 2650.00009536743 17 20 11
-96.4399203658104 259.688645601273 2654.00004386902 17 20 11
-88.9323353767395 258.910179138184 2645.99990844727 17 20 11
-81.4063027501106 257.935672998428 2635.99991798401 17 20 11
-74.1034299135208 257.547914981842 2631.99996948242 17 20 11
-66.6186660528183 256.376981735229 2619.99988555908 18 21 14
-59.3126118183136 255.694955587387 2612.99991607666 18 21 14
-51.9846007227898 254.719018936157 2602.9999256134 16 19 12
-45.0213216245174 255.504161119461 2611.00006103516 15 18 11
-38.1738767027855 257.36540555954 2630.00011444092 16 19 12
-31.1636812984943 258.737087249756 2644.00005340576 14 17 10
-24.1675470024347 261.086970567703 2667.99998283386 13 16 9
-16.5592841804028 255.999267101288 2615.9999370575 12 15 8
-9.40398126840591 255.510568618774 2611.00006103516 12 15 8
-2.2881489712745 256.391584873199 2619.99988555908 13 16 9
4.88793198019266 257.859408855438 2634.99999046326 14 17 10
12.0816770941019 257.956862449646 2635.99991798401 12 15 8
19.3320121616125 258.739024400711 2644.00005340576 3 6 0
26.5255253762007 258.542209863663 2641.99995994568 10 13 6
33.784631639719 258.93223285675 2645.99990844727 23 26 19
40.9259647130966 258.441179990768 2641.00003242493 34 37 30
47.7300249040127 256.286203861237 2618.99995803833 30 33 26
54.581493139267 254.913836717606 2605.00001907349 20 23 16
62.2088648378849 257.063895463943 2627.00009346008 14 17 10
69.6127042174339 257.941484451294 2635.99991798401 12 15 8
75.6959766149521 254.219681024551 2598.00004959106 10 13 6
82.6868712902069 253.922432661057 2595.00002861023 12 15 8
91.0101607441902 257.440954446793 2631.00004196167 17 20 13
97.8128015995026 256.458044052124 2621.00005149841 17 20 13
105.441510677338 257.627427577972 2632.99989700317 16 19 12
113.22083324194 258.992195129395 2647.0000743866 14 15 9
120.530053973198 259.182393550873 2648.9999294281 13 13 5
126.836970448494 257.317692041397 2630.00011444092 18 12 0
134.058848023415 257.409453392029 2631.00004196167 21 14 0
141.17830991745 257.305264472961 2630.00011444092 105 88 70
148.122534155846 256.907224655151 2625.99992752075 108 87 66
155.103549361229 256.606727838516 2622.99990653992 131 105 80
162.005737423897 256.208091974258 2618.99995803833 137 110 83
168.950110673904 255.907028913498 2615.9999370575 142 111 83
176.012098789215 255.801290273666 2615.00000953674 145 115 89
183.348134160042 256.086528301239 2618.00003051758 144 114 88
191.063582897186 256.860494613647 2625.99992752075 140 112 88
198.670983314514 257.438540458679 2631.99996948242 147 121 98
206.701368093491 258.505195379257 2642.99988746643 121 103 83
215.762093663216 260.745167732239 2665.99988937378 122 106 90
-217.87616610527 259.100139141083 2724.99990463257 145 131 118
-209.989532828331 258.539140224457 2719.00010108948 155 138 120
-201.762288808823 257.502257823944 2707.99994468689 163 137 112
-193.594202399254 256.465047597885 2697.00002670288 162 136 111
-185.899674892426 255.998015403748 2691.99991226196 155 129 104
-178.364366292953 255.720853805542 2688.99989128113 136 110 85
-171.290025115013 256.109118461609 2693.00007820129 127 101 76
-164.071425795555 256.306856870651 2694.9999332428 120 100 76
-157.073900103569 256.884694099426 2700.99997520447 113 96 76
-149.932235479355 257.272034883499 2704.99992370605 63 54 39
-142.662793397903 257.46887922287 2707.00001716614 23 16 6
-134.032562375069 255.097299814224 2681.99992179871 27 26 21
-125.868871808052 253.391116857529 2664.00003433228 26 27 21
-117.891915142536 251.87474489212 2648.00000190735 19 22 11
-109.709225594997 249.692186713219 2625 17 20 11
-103.214204311371 251.314073801041 2641.99995994568 14 17 8
-96.4080318808556 252.364993095398 2653.00011634827 14 17 8
-88.9028459787369 251.608222723007 2644.99998092651 14 17 8
-81.6880315542221 251.61212682724 2644.99998092651 18 21 12
-74.0787088871002 250.283896923065 2631.00004196167 18 21 12
-66.8506175279617 250.096887350082 2628.99994850159 19 22 15
-59.4742670655251 249.243587255478 2619.99988555908 18 21 14
-52.0069897174835 247.724056243896 2604.00009155273 16 19 12
-44.9544452130795 248.01167845726 2607.00011253357 15 18 11
-37.8998592495918 248.3941167593 2611.00006103516 15 18 11
-31.2358550727367 252.105951309204 2650.00009536743 14 17 10
-24.2592599242926 254.770964384079 2677.99997329712 13 16 9
-16.7879462242126 252.298384904861 2651.99995040894 13 16 9
-9.39001142978668 248.0179220438 2607.00011253357 14 17 10
-2.27515492588282 247.827902436256 2605.00001907349 16 19 12
4.88444929942489 250.491619110107 2632.99989700317 20 23 16
12.0043186470866 249.159350991249 2618.99995803833 15 18 11
19.1354900598526 248.968377709389 2617.00010299683 9 12 5
26.2355878949165 248.586788773537 2612.99991607666 12 15 8
33.607441931963 250.392973423004 2631.99996948242 16 19 12
40.6024195253849 249.249637126923 2619.99988555908 6 9 2
47.5499927997589 248.201176524162 2608.99996757507 8 11 4
54.6888001263142 248.293951153755 2609.99989509583 11 14 7
62.2828006744385 250.193893909454 2630.00011444092 13 16 9
69.4310665130615 250.095754861832 2628.99994850159 13 16 9
75.9325921535492 247.904449701309 2605.99994659424 10 13 6
83.296149969101 248.661831021309 2614.00008201599 13 16 9
90.2879014611244 248.277336359024 2609.99989509583 17 20 13
98.1531888246536 250.175535678864 2630.00011444092 16 19 12
105.366289615631 250.266045331955 2631.00004196167 13 16 9
113.268814980984 251.87811255455 2648.00000190735 14 15 7
120.35359442234 251.587450504303 2644.99998092651 21 18 11
127.132177352905 250.725775957108 2635.99991798401 32 24 13
134.115949273109 250.339388847351 2631.99996948242 110 98 84
140.970021486282 249.762490391731 2625.99992752075 107 89 69
147.90366590023 249.375537037849 2621.99997901917 124 102 79
154.814943671227 248.988300561905 2618.00003051758 138 110 86
161.827519536018 248.790964484215 2615.9999370575 144 114 88
168.764010071754 248.498260974884 2612.99991607666 143 113 85
175.885438919067 248.490527272224 2612.99991607666 148 118 92
183.07626247406 248.577624559402 2614.00008201599 145 118 91
190.708413720131 249.234974384308 2621.00005149841 146 118 94
198.453441262245 249.987050890923 2628.99994850159 145 117 95
206.554189324379 251.11910700798 2641.00003242493 135 112 96
215.852677822113 253.581941127777 2667.00005531311 127 109 95
-226.217910647392 252.686560153961 2736.00006103516 193 181 169
-217.405930161476 251.126021146774 2719.00010108948 151 132 118
-209.303602576256 250.303953886032 2710.00003814697 154 133 116
-201.398581266403 249.666273593903 2703.00006866455 151 127 101
-193.315580487251 248.751148581505 2693.00007820129 152 126 101
-185.907870531082 248.666986823082 2691.99991226196 148 122 97
-178.571254014969 248.674929141998 2691.99991226196 124 98 75
-171.488434076309 249.052092432976 2696.00009918213 105 78 57
-164.261341094971 249.244153499603 2697.99995422363 109 87 66
-157.139033079147 249.620720744133 2701.99990272522 116 97 80
-149.88349378109 249.812260270119 2703.9999961853 75 63 49
-142.405644059181 249.633923172951 2701.99990272522 22 16 4
-133.838638663292 247.422650456429 2677.99997329712 28 28 18
-126.299768686295 246.966451406479 2673.00009727478 30 32 21
-117.006748914719 242.814108729362 2628.00002098084 22 25 14
-110.257498919964 243.743106722832 2638.00001144409 21 24 15
-103.179782629013 244.025036692619 2641.00003242493 17 20 11
-96.1216390132904 244.399040937424 2644.99998092651 15 18 9
-89.0413075685501 244.772776961327 2648.9999294281 13 16 7
-81.6917195916176 244.406968355179 2644.99998092651 11 14 5
-74.4481086730957 244.318053126335 2644.00005340576 14 17 8
-66.9553577899933 243.304744362831 2632.99989700317 19 22 15
-59.1364428400993 240.720182657242 2605.00001907349 18 21 14
-52.0093515515327 240.630269050598 2604.00009155273 15 18 11
-44.5426143705845 238.691851496696 2582.99994468689 14 17 10
-37.9451289772987 241.558372974396 2614.00008201599 15 18 11
-31.2726348638535 245.163932442665 2653.00011634827 14 17 10
-24.1878908127546 246.736139059067 2670.00007629395 13 16 9
-16.7317353188992 244.241952896118 2642.99988746643 13 16 9
-9.3039907515049 238.69788646698 2582.99994468689 16 19 12
4.81417495757341 239.807024598122 2595.00002861023 29 32 25
12.0002813637257 241.932108998299 2618.00003051758 22 25 18
19.1144235432148 241.561770439148 2614.00008201599 17 20 13
26.0962061583996 240.174576640129 2598.99997711182 14 17 10
33.2258827984333 240.450486540794 2601.99999809265 10 13 6
40.6042672693729 242.112174630165 2619.99988555908 10 13 6
48.0624884366989 243.68117749691 2637.00008392334 12 15 8
54.8379607498646 241.830721497536 2617.00010299683 13 16 9
61.9540549814701 241.73566699028 2615.9999370575 15 18 11
68.589061498642 239.977046847343 2596.99988365173 14 17 10
76.4022395014763 242.283925414085 2621.99997901917 10 13 6
82.5669765472412 239.415913820267 2591.00008010864 13 16 9
89.8422449827194 239.966452121735 2596.99988365173 17 20 13
97.3738506436348 241.071105003357 2608.99996757507 16 19 12
105.411067605019 243.191748857498 2631.99996948242 15 16 10
113.3166924119 244.757682085037 2648.9999294281 17 17 9
120.495513081551 244.66010928154 2648.00000190735 19 15 6
127.234309911728 243.730679154396 2638.00001144409 96 84 72
134.223863482475 243.355348706245 2634.0000629425 109 95 82
140.922635793686 242.517784237862 2625 104 81 63
147.7410197258 241.957113146782 2618.99995803833 117 92 70
154.526114463806 241.39615893364 2612.99991607666 140 112 88
161.525383591652 241.204500198364 2611.00006103516 146 116 90
168.577700853348 241.104885935783 2609.99989509583 143 116 87
175.825893878937 241.282165050507 2611.99998855591 147 120 93
183.154359459877 241.551458835602 2615.00000953674 147 120 93
190.716773271561 242.097571492195 2621.00005149841 149 121 97
198.386654257774 242.735728621483 2628.00002098084 148 120 98
206.641435623169 244.020074605942 2641.99995994568 147 126 109
216.266766190529 246.781781315804 2671.99993133545 141 123 111
-216.775447130203 243.004351854324 2710.99996566772 156 137 123
-209.003552794456 242.565095424652 2706.00008964539 149 126 110
-201.183617115021 242.035865783691 2700.00004768372 156 132 106
-193.539202213287 241.68561398983 2696.00009918213 148 122 97
-186.261147260666 241.783291101456 2697.00002670288 134 108 83
-179.109632968903 242.060005664825 2700.00004768372 121 93 71
-171.813875436783 242.157116532326 2700.99997520447 99 72 51
-164.451092481613 242.164269089699 2700.99997520447 102 79 61
-157.029539346695 242.081478238106 2700.00004768372 112 93 76
-149.723693728447 242.177709937096 2700.99997520447 71 62 47
-142.148315906525 241.825312376022 2697.00002670288 23 17 3
-134.094372391701 240.575909614563 2683.00008773804 22 22 10
-125.407487154007 237.981125712395 2654.00004386902 18 20 7
-118.970960378647 239.60043489933 2671.99993133545 22 25 14
