ply
format ascii 1.0
comment KinectMotionCapture
element vertex 791
property float x
property float y
property float z
property uchar red
property uchar green
property uchar blue
end_header
-101.731968227083 -82.8253248927449 2846.65826841442 17 18 13
-105.617212248398 -81.8162365152379 2853.20138681797 18 20 15
-106.938866424803 -80.3712595993635 2861.38512642625 20 25 21
210.510060754762 -94.0652261434696 2739.47455851005 29 31 26
195.809437128515 -95.2737983594773 2737.24685835118 24 27 20
184.971899397591 -95.689728251508 2738.15112687462 18 21 12
200.754792854594 -90.7618093616812 2760.00939041233 18 21 12
218.214945200692 -85.5335624961144 2782.99187921251 19 22 13
199.558004539805 -87.5219606264326 2777.72323385313 20 23 14
167.412954183445 -92.1593203833188 2762.15051073064 21 24 15
156.507507671875 -92.5657163088858 2763.12080456105 18 21 12
164.61857429878 -89.2287667741763 2778.6623434242 17 20 11
168.81971562599 -86.6780959995728 2791.11782313604 16 19 10
153.134631247864 -88.0165378820915 2788.46999241907 15 18 9
146.192016172308 -87.6426170807615 2792.47469001124 15 18 9
152.062399616387 -84.7903570713851 2806.06216934533 15 18 9
160.397464908444 -81.4813217990644 2821.38539993847 12 15 8
134.17941811759 -84.8169705074462 2811.07097040146 11 14 7
116.738875706762 -86.4447764556235 2807.3749468665 10 13 6
118.657155380942 -84.3730373780941 2817.91706204722 11 14 7
112.501863365663 -83.841591848283 2822.53390127539 12 15 8
125.852721729855 -79.6295888513147 2841.24504855579 13 16 9
91.2192541556776 -84.4612119942252 2825.33825392433 16 19 12
108.719728814919 -79.4932060644747 2846.90191840843 19 22 15
118.961642532373 -75.9124471547401 2863.12561616924 20 23 16
105.479482832946 -76.7590347685465 2862.46861863015 22 25 18
75.5079115474073 -80.6425009280028 2850.2944864708 21 24 17
5.84385802809129 -91.7995964631476 2810.59390029709 13 15 10
-21.9721836277738 -95.186501284655 2800.45696959716 10 12 7
-41.6078720306414 -97.0465445868041 2796.14126442657 7 9 4
-51.3446153970207 -97.0850088058218 2798.7304572471 8 10 5
-26.1439814873605 -90.7853197355266 2825.2044628071 11 13 8
-58.3596487588447 -94.8955026858278 2812.45810330088 12 14 9
-56.4162341891517 -92.8253990717664 2822.97550087957 12 15 8
-69.5225577426397 -93.461660438561 2823.33111568195 13 16 9
-58.302158965355 -89.7477281296377 2839.98038966115 13 16 9
-54.5809270241207 -87.3902848249929 2851.52373826359 12 15 8
-38.15769305871 -82.7979668921696 2871.37882656765 12 15 8
-91.8363943542393 -90.5945576253088 2845.0653287527 17 20 13
-92.325669600346 -88.9847481052454 2853.81538875117 14 17 10
-108.085520972769 -90.0530359027794 2852.61878342674 20 22 17
-107.709718936547 -88.2964932415286 2861.9050311192 20 22 19
214.473414758572 -100.691386189466 2743.60311738674 26 28 23
195.883989837967 -102.734689475861 2738.27554285729 28 31 24
188.955486725487 -102.369122735859 2742.26746178813 18 21 12
209.449762464178 -96.4103898523831 2767.79703080531 18 21 12
203.361114497552 -95.8918274946475 2772.3495956352 18 21 12
206.720445657516 -93.46139931067 2784.24152993003 19 22 13
161.17197736129 -100.896042010233 2758.30322638885 19 22 13
168.455409958299 -97.6670711663059 2773.26566796399 17 20 11
164.693734631443 -96.6654835612302 2779.68685159616 17 20 11
156.168683097549 -96.6144425519667 2782.47683484099 16 19 10
150.818099525329 -95.9292578600283 2787.68877342613 16 19 10
158.256589087314 -92.7194953395379 2802.5000801247 16 19 10
162.553368000912 -90.1477702062486 2814.85747847445 15 18 9
155.653462374101 -89.7839953422965 2818.82126451777 13 16 9
151.967201680987 -88.7910139711925 2825.16917014341 12 15 8
150.710450745615 -87.3287003804609 2833.28589752093 11 14 7
128.441016905534 -89.9387745540499 2826.02841962578 11 14 7
119.876391447108 -89.8814620508192 2828.85677343861 12 15 8
90.1627135406216 -93.8792459772944 2816.44310761555 11 14 7
116.554588311625 -87.1124356256623 2844.49897170453 14 17 10
97.3616146038112 -89.0753767575147 2839.75885255152 18 21 14
113.306588331459 -84.3522692904216 2860.06952970561 19 22 15
104.734941484376 -84.2934082302876 2862.90462698514 20 23 16
42.6827024414798 -94.2942771758722 2828.22770411351 17 20 13
-17.9873341173562 -103.951741161464 2794.96129727482 9 11 6
-12.5343067023538 -99.4430273932627 2817.2205257636 7 9 4
-19.7120838761009 -99.0418194259431 2821.45470976439 8 10 5
-28.5609970675682 -98.9466924811294 2824.55977654072 11 13 8
-42.4294744934723 -99.7694339675387 2824.28287376763 10 12 7
-75.5664294820462 -104.107422236167 2811.06812679246 11 14 7
-53.5186242923329 -98.344005705121 2835.08388577098 12 15 8
-85.9414664369233 -102.513104018579 2822.55196164131 12 15 8
-83.1262965796289 -100.269482236798 2833.59495674081 11 14 7
-84.9890364880363 -97.1635690908521 2850.57264842054 17 20 13
-92.2448019974373 -96.7515105380858 2854.88301012172 16 19 12
-102.906226236402 -96.9437592188176 2856.99624467657 21 23 18
-123.809121716041 -98.945838200937 2852.54264051774 19 21 20
178.803389586051 -113.780468694767 2725.69502286599 15 18 11
186.685235381724 -110.322645605008 2741.44631634442 17 20 11
176.609593338889 -110.6102043878 2742.99228515252 15 18 9
191.651058761554 -105.703348472039 2764.17266362731 14 17 8
181.592547900818 -105.992713099579 2765.7018878214 15 18 9
177.037946633069 -105.146924974303 2771.51657641183 16 19 10
181.985554785121 -102.363761507307 2784.61335053111 20 23 14
179.843907881796 -101.038075618918 2792.21207688299 20 23 14
169.765219024129 -101.324220052122 2793.76052434102 19 22 13
159.664036437857 -101.607292918118 2795.33085442777 18 21 12
173.517533607668 -97.072675520104 2814.91243883596 16 19 10
172.242631542138 -95.5945108609157 2823.04484777305 15 18 9
163.760059676404 -95.5586876250268 2825.79489725969 14 17 10
151.237473646713 -96.3195611590157 2825.58926969559 13 16 9
171.767966027647 -90.5367257351636 2849.69196330165 12 15 8
148.740591767056 -93.3689140991885 2841.80271266912 12 15 8
102.923969123484 -100.641924157797 2817.52371044288 12 15 8
130.068447235394 -93.6030305574013 2846.20892382119 10 13 6
159.813471454302 -86.1085515130522 2876.49548693761 13 16 9
110.505736277783 -93.9853106403278 2850.10446980052 17 20 13
137.123540317288 -87.1414722900786 2877.92459808147 19 22 15
107.273065344605 -91.2016464686088 2865.65633286138 17 20 13
55.9215306732233 -99.3418128943477 2838.49961384185 14 17 10
-4.7155021892884 -109.183823160472 2805.22770970449 6 8 3
3.80661036150842 -105.804489795418 2820.35480957723 6 8 3
-4.99947629321884 -105.725361462605 2823.41971355736 7 9 4
-13.8201475434818 -105.644261829927 2826.49880889919 9 11 6
-37.6352469603201 -108.37373947184 2819.37660039166 10 12 7
-37.3441487188053 -106.568218298579 2828.73972120173 9 11 6
-36.1887060015986 -104.610400539258 2838.63927296088 12 15 8
-60.1422895786494 -107.321786137469 2831.65190727546 12 15 8
-102.659136183171 -113.437875146726 2812.42731782724 12 15 8
-99.0410098769501 -111.006740073852 2824.06216023827 11 14 7
-93.6915963333282 -108.271576963696 2836.76703009573 12 15 8
-36.2150530995642 -94.3365861440846 2892.41048823276 18 21 14
-87.5312934001675 -101.953450029128 2867.97519612976 20 22 17
171.842238690499 -124.646196619922 2711.54126015859 25 27 22
149.248236168389 -127.595538371555 2703.23931804486 20 23 16
153.147232747012 -124.909097293741 2715.97442732505 16 19 12
165.713963996223 -120.411517825612 2735.42201634443 13 16 7
166.587133342048 -118.399274482628 2745.59382565664 12 15 6
168.279537852078 -116.226309166275 2756.34493917852 13 16 7
168.429071747974 -114.386546519826 2765.8439124437 14 17 8
186.809380635649 -108.773892694426 2789.27276633261 19 22 13
187.852894448967 -106.782786611776 2799.2782073063 20 23 14
184.156564667026 -105.777715092375 2805.63432476736 20 23 14
147.780962373473 -111.474677168453 2787.33432658698 19 22 13
169.59666055843 -105.239116639076 2812.92769789336 16 19 10
172.317812596841 -102.931071708535 2824.05453236361 15 18 9
175.078738759878 -100.627967227356 2835.14260073638 15 18 11
151.313265194477 -103.690459857171 2826.60342317683 14 17 10
157.31752767978 -100.740191412001 2840.04347303989 13 16 9
160.141291234944 -98.444684253998 2851.07026583442 13 16 9
112.731545499404 -106.179323778508 2825.60733054522 12 15 8
134.208751491346 -100.164974279353 2850.15261517904 11 14 7
141.964446270242 -96.9073959340084 2864.64186525003 14 17 10
126.916003350861 -98.1643914727308 2862.76671173691 17 20 13
125.738601890295 -96.6834648167631 2870.80223075202 19 22 15
68.7832855276387 -106.115643861912 2839.48172994193 20 23 16
31.3248970651063 -111.671531748277 2822.23644157224 11 14 7
18.4490207784096 -112.409479506724 2822.37824803633 6 8 3
5.53923504182885 -113.142931307115 2822.55306258479 6 8 3
-6.57596046958453 -113.712432901733 2823.33185268436 7 9 4
-21.2122250760052 -114.755604971823 2822.43270631579 9 11 6
-26.7358883342252 -114.044782603826 2827.81272635039 10 12 7
-53.9458383800193 -117.460317560455 2818.49507856116 10 12 7
-44.468717015258 -113.890848835251 2834.06298580052 12 15 8
-69.2789441851431 -116.816886682238 2826.54109605721 12 15 8
-61.419752568364 -113.571132154656 2840.92931979332 12 15 8
-84.6469153753189 -116.168634648553 2834.62068498936 13 16 9
-83.4838118867687 -114.189345012708 2844.50945595535 15 18 11
-49.3050601461236 -106.082973870945 2875.97079982824 22 25 18
-56.4796090626594 -105.691150880573 2880.20316521739 20 23 16
-76.4049733832977 -107.648977432836 2876.18956483701 19 21 16
-103.207466971201 -110.850106693883 2867.85286485332 16 18 17
152.444064392434 -134.543232819239 2706.7606546934 15 18 11
146.189026388011 -134.010770612588 2711.47639289892 12 15 8
146.983299549868 -131.966734906092 2721.72151054867 10 13 4
155.665201099023 -128.25015231706 2738.05700161362 9 12 3
153.392971085601 -126.885918822949 2745.7800394469 10 13 4
162.18930607441 -123.183600222985 2762.00400462599 12 15 6
180.553352387019 -117.48744555002 2785.43666610354 13 16 7
169.68108566314 -117.971985965644 2786.38556163579 14 17 8
138.104915202948 -122.77921612888 2771.69028629839 17 20 11
140.682342967652 -120.425661450054 2782.95311477614 18 21 12
179.262545712461 -110.611688772091 2821.12765804292 17 20 11
173.194569589231 -110.101319724986 2825.66090639447 17 20 11
150.259201740434 -113.063752238018 2817.69954206327 16 19 12
157.024355275976 -109.904673899973 2831.76972533015 15 18 11
152.551633635261 -109.061584577579 2837.50384296441 14 17 10
121.390208378305 -113.652395912576 2823.78164221856 13 16 9
120.917009921447 -111.980012777838 2832.50648937473 12 15 8
127.782840712481 -108.833257852377 2846.47852003362 12 15 8
134.708001068124 -105.69392168812 2860.39306988947 13 16 9
123.725891937006 -106.162359165375 2861.44866054862 15 18 11
109.442993081118 -107.280963525938 2860.20976562565 18 21 14
71.323142504677 -113.125423773245 2842.24672262249 19 22 15
30.5817378570863 -119.438624722318 2822.70513544153 9 12 5
-2.64411721326363 -122.418832570957 2817.88011979893 7 9 4
-23.6220761092216 -122.943532361933 2821.7848303132 9 11 6
-24.158512652602 -121.261525934435 2830.57105150564 11 13 8
-22.1683827553942 -119.098332354435 2841.02830141722 11 13 8
-51.9117908198647 -123.063606721619 2830.05660034158 12 15 8
-80.6559914762972 -125.006477367127 2829.13004921964 13 16 9
-69.0575981713133 -119.240948170119 2855.01978482899 17 20 13
-74.5957280321181 -118.527122680473 2860.41372655374 23 26 19
-61.4844779760171 -114.300832683271 2877.94378749603 21 24 17
-69.5268121390744 -114.070807058091 2881.6448807254 19 21 16
-109.085897342711 -119.728330069073 2865.08338974094 17 19 18
191.438918252332 -135.48599292406 2729.10902050025 18 20 15
161.097860626169 -140.270918689151 2714.60087259775 12 15 8
164.244228473163 -137.693433438649 2726.68288548232 11 14 5
143.926133392379 -140.239215201261 2720.31201559827 10 13 4
132.175783108891 -140.90159325536 2720.74189825127 10 13 4
158.19460153891 -133.395240217274 2750.47581803326 11 14 5
155.950456735993 -132.023195811105 2758.16981238794 11 14 5
169.549938994111 -127.261149552888 2777.96968563026 15 18 9
162.617314913913 -126.914036519346 2781.96842419271 14 17 8
160.449548274349 -125.551193270275 2789.58793382911 15 18 9
161.486768234754 -123.514919705534 2799.59294895765 18 21 12
148.970389827129 -124.348753652531 2799.39194065026 20 23 14
151.640699935022 -121.979369826938 2810.56019604718 19 22 13
172.017579940614 -115.916674331396 2834.77406581638 15 18 11
151.46574356105 -118.430306207695 2828.6305527582 17 20 13
144.558700913444 -118.085178070551 2832.60451978875 17 20 13
144.924477275069 -116.232844484867 2841.88656526749 15 18 11
129.102251508342 -117.726009583109 2839.39778600043 13 16 9
127.047083097868 -116.376153973281 2846.90706565625 13 16 9
118.490954294279 -116.361072849283 2849.73322394463 11 14 7
107.470322432612 -116.843037455906 2850.8290675485 17 20 13
93.1490623610563 -117.985892149362 2849.63185006838 16 19 12
86.1708134300669 -117.630548983419 2853.67501621415 18 21 14
24.082076044365 -128.36970600896 2819.14345539226 6 9 2
-15.1907224158427 -134.444479320392 2800.94209969196 9 11 6
-57.1002897511761 -140.994034353075 2781.17853904117 9 11 6
-36.232023794041 -134.992622465228 2804.91351298692 7 9 4
-24.3709273576624 -130.817848496412 2822.27536184104 8 10 5
-14.9237825915725 -127.146609297233 2837.85799465441 12 14 9
-23.755650729254 -127.094778355258 2840.95219672868 13 15 10
-19.2257337505888 -124.419233400462 2853.06274100913 13 16 9
-49.8419770490175 -128.621207568402 2841.57585303315 14 17 10
-98.2109813315137 -136.23878191814 2818.46508279753 16 19 12
-72.6965572291021 -129.477312867031 2844.55923917797 20 23 16
-35.2257917003569 -120.454428418486 2878.28407954076 22 25 18
-87.1990513350309 -128.693567428367 2853.176280023 22 25 18
-71.5745672898285 -123.916536392031 2872.38032897176 22 25 18
-77.0913590589251 -123.204796477421 2877.75338990309 21 23 18
-98.7854306584022 -125.568475603406 2872.72197035262 0 1 0
168.18292822961 -148.200414428937 2711.57142821579 13 15 10
168.192020154256 -146.285940431777 2721.19848228754 11 14 7
140.090659102969 -150.622626004254 2708.65109866783 8 11 4
153.406383678564 -145.75982393465 2728.71785581868 8 11 2
122.827641054675 -150.599654908334 2714.45418544041 9 12 3
151.184554111372 -142.463385165389 2746.02430707598 11 14 5
175.165856729679 -133.491552708316 2783.23288807377 15 18 9
169.833647421572 -132.807106968216 2788.42668995978 14 17 8
174.840394558472 -129.889136616055 2801.44481379412 15 18 9
183.884427473875 -126.119785764076 2817.41324177488 17 20 11
173.820216178738 -126.470660319725 2818.95687988312 19 22 13
196.577124173685 -119.805257851525 2844.96899480142 18 21 12
184.941789730455 -120.501799879149 2845.29005228715 15 18 11
157.177007941737 -124.605431149516 2833.7909044778 16 19 12
150.283828738523 -124.267018843449 2837.75209750002 15 18 11
141.765959108643 -124.267714355728 2840.54259564329 14 17 10
142.962643569935 -122.228693404849 2850.38885410265 12 15 8
111.682692975828 -126.975867178735 2836.8074610689 13 16 9
99.0167471126924 -127.812942634863 2836.75579239147 10 13 6
89.5829645955462 -127.969281509558 2839.06156243275 16 19 12
89.9531281893728 -126.097422118787 2848.3363654196 15 18 11
49.3277208629999 -132.65686118153 2828.71598506958 18 21 14
-13.6685338593843 -143.739059749419 2793.71939445102 7 10 3
-42.312691242187 -147.727910326487 2783.07651506981 9 11 6
-25.6182050805931 -142.473292935877 2803.9816055223 8 10 5
-43.6039888968045 -144.269653099133 2800.85192700241 7 9 4
-15.1575533159645 -136.689287838419 2829.5811574104 8 10 5
-17.338906684448 -135.310490794688 2837.21180090558 11 13 8
-12.83173531866 -132.599322915164 2849.33932902115 13 15 10
-7.44097231504659 -129.727537791564 2861.98294557965 15 18 11
8.05610588855732 -124.866586847426 2881.30110708681 16 19 12
-72.0919137807328 -138.948795543943 2836.85656870843 18 21 14
-91.1332874410662 -140.88258443506 2833.37850909649 20 23 16
-33.457145866 -127.742540475962 2880.43912433852 22 25 18
-76.9683693099425 -134.477104817206 2860.8761290157 28 31 24
-85.9014313488156 -134.421773177541 2864.07063857017 22 25 18
-94.8491200964967 -134.364509155582 2867.27938705746 22 24 19
-112.326074599632 -135.950959866578 2865.03031830016 15 17 16
170.593114879691 -155.243499087077 2714.47010787493 19 21 16
142.540556002684 -159.664662292829 2701.88674873203 7 10 3
154.237443447339 -155.082248918906 2720.76865777605 8 11 2
162.102930603427 -151.390719270078 2736.50165389804 8 11 2
124.477034930375 -157.901334946726 2716.72931669564 9 12 3
128.426484778056 -155.089575211319 2729.39614093295 11 14 5
174.260325398754 -142.995138943062 2774.20076974095 12 15 6
175.242364856524 -140.908419489652 2784.253124044 13 16 7
199.261032947611 -133.757628961275 2811.77470886872 13 16 7
195.917658934615 -130.837899209911 2827.41639129107 15 18 9
201.06572751986 -127.902215953865 2840.29156287863 17 20 11
195.85166530568 -127.231779999837 2845.3701135941 18 21 12
190.638473346892 -126.561306333263 2850.4477945592 17 20 13
155.644093782283 -132.301249404518 2833.61673084051 16 19 12
156.008732738781 -130.410354240394 2842.89420639491 15 18 11
139.416753354352 -132.150752266514 2839.78943545033 15 18 11
134.932253901171 -131.296523722678 2845.53326441242 14 17 10
132.890656146476 -129.925941271164 2853.02600478829 13 16 9
89.3196698349379 -137.329722992601 2830.78744627754 9 12 5
102.72673380046 -132.68693258372 2849.3791103736 13 16 9
94.1243188593486 -132.686286890732 2852.25336503117 13 16 9
35.4601379257997 -143.130394518281 2819.94553596875 17 20 13
-11.1193349444285 -150.976855693728 2796.50881111921 10 13 6
-29.0405699693257 -152.821776388321 2793.32221192067 8 10 5
-49.4976157223239 -155.170629000929 2788.47746322555 7 9 4
-42.6930162182471 -151.892055003494 2802.49081465629 6 8 3
-32.5086921825211 -147.940861739229 2818.71694978656 7 9 4
-14.7610213656906 -142.471366441239 2839.96136276432 9 11 6
-17.7544856341347 -141.253634406624 2847.00466472467 10 12 7
-14.883295358552 -138.852520674105 2857.96909132113 16 19 12
0.595478202848554 -133.921361239574 2877.29471498237 18 21 14
-27.498521487582 -137.778145610992 2867.50324871201 20 23 16
-80.1068960948585 -146.508181800485 2841.6817728218 20 23 16
-67.9670792001006 -142.254396068273 2858.75517023639 19 22 15
-54.0536604175896 -137.675085916761 2876.85339886819 17 20 13
-68.0198036101744 -138.64338937213 2876.69499364062 18 21 14
-99.0135492756177 -142.956886004493 2865.59945406713 11 13 8
-114.796835691418 -144.244812020199 2864.45858251993 20 22 21
150.450661065434 -167.473881331077 2699.43716243044 18 20 15
158.211157110104 -163.723105457552 2715.26565971199 6 9 2
163.693855296648 -160.51754669899 2729.18556099503 9 12 3
149.644096242097 -161.786544363592 2727.73772070955 9 12 3
168.022318343623 -151.856955728601 2770.36868754442 10 13 4
161.867230948798 -151.345614879866 2774.98829504455 12 15 6
182.945317309873 -142.878321035068 2809.48640817687 12 15 6
179.254057542601 -141.844772813501 2815.83328219427 13 16 7
167.580637943858 -142.579252963413 2816.19742819834 17 20 11
191.121373661091 -135.545395897718 2842.79398033242 19 22 13
161.80820456267 -140.15932708699 2830.0740074807 18 21 14
159.745591975223 -138.775539961956 2837.58566425116 16 19 12
133.494375509451 -142.665014368548 2827.38602788801 15 18 11
136.259020110288 -140.224833867771 2838.45014402125 15 18 11
138.252704377757 -137.96477506672 2848.88954775325 15 18 11
130.530300140106 -137.808723407621 2852.28387915714 14 17 10
115.465923936471 -139.223455149333 2850.44819881472 10 13 6
106.887886076634 -139.236528152253 2853.2999364455 13 16 9
99.1140273039743 -139.073309985636 2856.7446415986 13 16 9
64.255535910128 -144.64923383397 2841.17130626575 18 21 14
6.23235798661614 -155.071030489673 2809.64056350442 11 14 7
3.1896883814686 -153.838970680382 2816.73094729465 7 9 4
-5.62386844767815 -153.820832623399 2819.81228360454 7 9 4
-25.2182309226905 -156.049156780037 2815.50997292614 6 8 3
-17.4840326999326 -152.569592870957 2829.98776002578 7 9 4
-8.02287902069798 -148.75312687996 2845.53467948291 9 11 6
-22.6763118684867 -149.939697464303 2844.67411351158 9 11 6
-43.2230596542662 -152.324521671301 2839.92341900501 12 15 8
-33.6755151841572 -148.518782743617 2855.38647442697 15 18 11
-45.052172227213 -149.008553365579 2856.83701002464 18 21 14
-57.2968123756028 -149.66608344967 2857.75701329257 19 22 15
-61.1347080437339 -148.610024820443 2864.24617189878 18 21 14
-58.1991843200749 -146.189351923742 2875.14348575236 17 20 13
-59.4617829777024 -144.626024645273 2883.25109022559 18 21 14
-66.6501863311906 -144.256689566373 2887.50087482093 13 15 10
-66.1828988381608 -142.356783735639 2896.67508708853 19 21 20
141.19693556297 -177.293765287473 2693.07336002921 7 9 4
144.256385190102 -174.585158888122 2705.22230434245 10 13 6
160.645364805126 -168.793685843656 2727.76799175645 10 13 4
146.58828421151 -170.091082760892 2726.33161926462 9 12 3
143.485153976481 -168.846609711373 2733.48020668262 10 13 4
152.205018264642 -164.889826939182 2749.74249870437 11 14 5
152.313255842153 -162.929177844577 2759.26427501795 12 15 6
116.051382778424 -169.270883536647 2740.946634856 12 15 6
147.061379664958 -160.279120474747 2774.00682928499 13 16 7
140.879013085497 -159.766183427167 2778.65328950122 11 14 5
138.678950553725 -158.354306741829 2786.29728447354 11 14 5
127.705947862566 -158.917859055532 2787.35789023448 14 17 8
160.760557781357 -149.623842344593 2821.1772372176 17 20 11
158.673779783687 -148.225981615076 2828.71081052506 16 19 12
160.627850311858 -145.936663200653 2839.1852267277 16 19 12
182.787713152187 -139.191495182109 2864.36151767926 15 18 11
154.129496205131 -143.68748689351 2852.39064557365 14 17 10
151.301603717181 -142.475706995258 2859.27074987352 13 16 9
125.732537407372 -146.239938338198 2849.79212676907 15 18 11
109.842458067459 -147.862593733885 2847.39020355465 12 15 8
102.067717000562 -147.707123640486 2850.83659215881 15 18 11
83.642383702411 -149.849956753133 2846.77769200512 15 18 11
68.4374352191655 -151.278119112283 2845.0832492118 19 22 15
27.6948655212914 -158.168949750113 2825.62819235873 10 13 6
28.8238430720624 -156.05406560971 2835.53047223486 8 10 5
4.37261686274315 -159.396304635042 2827.71360358309 8 10 5
-15.1979455841271 -161.673138355231 2823.39482881722 8 10 5
-29.0228612999344 -162.713526582835 2823.10683671534 8 10 5
-25.4131673304561 -160.070572189792 2834.71908360039 8 10 5
-41.7748278251038 -161.630933746228 2832.77590259964 9 11 6
-51.4989420304155 -161.787556699413 2835.37001828584 9 12 5
-72.9709103227649 -164.383400295819 2830.15236067543 11 14 7
-60.0851846968831 -159.829235659884 2847.85791098237 15 18 11
-56.3720456557881 -157.199132217404 2859.36899690499 17 20 13
-66.9569847923923 -157.526654441106 2861.42661183511 17 20 13
-75.8733486959691 -157.504520884777 2864.60910871462 19 22 15
-82.261520796969 -156.96084756394 2869.45539404835 6 9 2
-96.2976345651958 -157.972930309684 2869.37294119674 15 17 12
-106.114700962744 -158.116773723211 2872.05747097353 14 16 15
153.717604938636 -182.001504441532 2704.00819033415 9 11 8
141.216540355961 -182.959157503826 2703.81027558337 9 11 6
111.488047648419 -187.96819860156 2690.14421296931 9 12 5
131.780979624621 -181.178215154919 2715.75086084884 9 12 3
141.207443179198 -176.978693305686 2732.69285978372 10 13 4
164.88080255397 -169.483453205358 2760.50643177203 12 15 6
165.020114820936 -167.50751247389 2769.99509036236 13 16 7
123.25197493938 -175.240132844212 2747.43179022208 14 17 8
141.587452219892 -169.051790379003 2770.82007603009 14 17 8
118.69395207974 -172.374390121927 2762.87036900457 12 15 6
106.077832268079 -173.315074991652 2762.78453574754 10 13 4
109.407595595476 -170.608866631599 2774.66507114762 12 15 6
99.1647880999391 -170.999762738892 2776.39197309085 15 18 9
144.299241125299 -158.856148094381 2819.0496790999 17 20 13
171.168215243304 -150.915281344837 2847.87549862132 18 21 14
182.057698217335 -146.616705855471 2864.76696687824 17 20 13
155.824612700814 -150.647853519899 2854.5702654601 16 19 12
141.651254855962 -151.956701994269 2853.2507126908 15 18 11
132.311957145594 -152.177727575563 2855.47255643118 16 19 12
118.881333967574 -153.296820563028 2854.8046585397 13 16 9
112.761151687934 -152.792047163055 2859.39057541051 16 19 12
78.8115871110069 -158.393618095303 2844.33536225757 16 19 12
57.8529712255445 -161.107751098289 2838.62542124101 19 22 15
55.7344410510581 -159.692811165091 2846.18800063058 9 12 5
14.0691196391702 -166.865115841956 2826.27394229263 8 10 5
-3.80695076144733 -168.83570233255 2823.06106730429 8 10 5
-31.6773568154565 -172.93905054126 2813.08401127511 8 10 5
-52.1810061155596 -175.425838261836 2808.30592733991 8 10 5
-47.7940419443623 -172.567927419128 2820.53113443082 8 10 5
-39.1896488770858 -168.827859549013 2835.52354997405 8 10 5
-43.0566848386964 -167.756777527973 2842.03908702972 9 12 5
-39.374648093542 -165.092662598885 2853.57636895111 9 12 5
-65.0399477710884 -168.624132481389 2845.57581427893 12 15 8
-52.9218516310475 -164.196228646661 2862.64538398652 13 16 9
-78.6839249288858 -167.714997441632 2854.73904973468 15 18 11
-96.9279213331382 -169.636737360562 2851.88464904693 15 18 11
-106.754391755262 -169.792515811259 2854.58028115242 18 21 14
-103.858105067681 -167.31171638333 2865.5076712878 13 15 10
-87.3007144261608 -162.030277271741 2885.12768822001 19 21 18
170.125486788935 -185.684034568386 2718.01632017231 13 13 11
133.449499167136 -190.45926878798 2708.38050967904 10 12 7
98.1727260842136 -196.850876450698 2690.50927332288 13 16 9
161.151850932087 -175.906036674998 2767.99274736597 15 18 11
135.990738126213 -179.85919760037 2758.13694411122 18 21 14
133.734670562285 -178.418220991948 2765.83225195246 19 22 15
135.470564186237 -176.052498012701 2776.51202848492 17 20 13
103.766640805052 -181.46406339815 2762.03293416853 15 18 11
89.5129437008184 -182.792988909404 2760.7964646907 14 17 10
131.281774561006 -171.19660508479 2801.20885078414 16 19 12
132.334809894632 -169.029805899535 2811.17920722556 14 17 10
159.978211051894 -160.792748529003 2840.60880388015 14 17 10
163.579423614184 -158.090611141323 2852.22072570715 15 18 11
159.945822420942 -157.046008840637 2858.50837227813 15 18 11
144.972230007753 -158.568687806165 2856.59849684231 16 19 12
146.204176476937 -156.424046877045 2866.39412901991 19 22 15
151.540715845051 -153.369271375708 2879.06454455213 16 19 12
122.637541984119 -157.988644825984 2867.35515405025 16 19 12
87.0757203689982 -164.051908072602 2851.13535525677 13 16 9
66.1371696237825 -166.81946070259 2845.41338465688 20 23 16
37.7255693362506 -171.2137450099 2834.5998334125 10 13 6
-11.3989191030801 -180.133045778986 2809.59784607358 9 11 6
-20.2470121793934 -180.141514217489 2812.71707197386 9 11 6
-55.6080858750958 -185.941832711988 2797.67597372699 7 9 4
-49.6066113913312 -182.683587169382 2811.07327323629 7 10 3
-32.7346413202152 -177.085149737523 2831.75096524899 9 12 5
-32.434931059746 -175.106372910601 2841.07992708699 9 12 5
-40.4655487672958 -174.931692353794 2844.77756567977 13 16 9
-49.3445206338934 -174.93530808241 2847.92707528886 13 16 7
-41.4439577935277 -171.345806282018 2862.22341109158 13 16 7
-77.2457855808009 -177.088231451335 2847.611431565 13 16 7
-81.9738175916687 -176.187630793391 2853.59023817873 13 16 7
-96.8429612981669 -177.433131567564 2852.95258613522 11 12 4
-116.83844321034 -179.744526348634 2849.06087078957 20 21 13
-77.442389495745 -169.566251011812 2883.53726173154 21 22 16
-89.7705152398265 -170.275763366104 2884.54785038698 12 14 9
114.219044304145 -206.9473223922 2674.65038310544 2 2 2
135.138581248373 -199.769404696771 2700.99437579396 12 13 8
98.3634814641943 -206.651369047827 2681.84931802844 11 13 8
81.8018543204886 -208.585651688211 2678.74272507946 14 17 10
98.1712924177547 -202.563327155674 2701.27403560234 14 17 10
129.608875271921 -192.96341249088 2735.23665562099 14 17 10
161.23019544182 -183.386880263002 2769.02061552493 15 18 11
144.772855607531 -185.333513896638 2765.81228920746 19 22 15
175.849404909724 -175.976779699344 2798.75245352944 20 23 16
122.033651388965 -186.761093101232 2767.34865959293 18 21 14
125.366120424077 -183.995342995337 2779.21770794121 16 19 12
87.9957457472429 -190.798459998336 2760.65211334027 15 18 11
135.365513939049 -177.730926237901 2805.20462929833 17 20 13
146.864913868527 -173.11214654336 2822.8600242783 15 18 11
139.93697557306 -172.79947062954 2826.8595374205 15 18 11
158.010333779671 -166.703641115021 2849.10487539971 15 18 11
157.59781200339 -164.906450217797 2857.75068534031 16 19 12
157.209648220741 -163.11213667972 2866.37307054758 18 21 14
156.0331055841 -161.506540255322 2874.38931060051 15 18 11
161.392663765246 -158.419285345233 2887.03206766868 14 17 10
143.943578246059 -160.525873124343 2883.41529131213 10 13 6
106.796579744358 -167.065241959162 2866.00580832082 8 11 4
61.2962411430429 -175.432607350897 2842.99138592311 18 21 14
35.3407009926259 -179.347047157247 2833.91907564281 4 7 0
-35.8593281588204 -191.370465808143 2802.95700042845 8 10 5
-33.9937928531526 -188.993623196162 2813.50605953566 9 11 6
-26.2824044039229 -185.336665510727 2827.98027835493 10 13 6
-25.1633718140658 -183.153743749697 2837.88271563563 13 16 9
-45.6930564082874 -185.733119581712 2833.14383177281 14 17 10
-45.3964575390042 -183.734490801755 2842.47294915825 13 16 9
-56.8000786746681 -184.29445526685 2843.96063511784 13 16 7
-50.5967802784228 -181.023575419859 2857.15531531188 12 15 6
-59.4871824782457 -181.035804358267 2860.31744843948 12 15 6
-66.7050398881321 -180.682510684422 2864.5988522609 11 14 5
-79.8481773322099 -181.598788342988 2865.03241008647 15 15 7
-83.7037183895801 -180.516860436952 2871.53492951523 15 15 7
-110.48272973063 -184.322948015665 2863.26432388844 20 21 13
-136.506316781754 -187.935751252487 2855.63191275093 10 12 7
131.320644637646 -208.398371438084 2698.97577853123 16 17 12
177.368551390332 -194.984606478687 2744.78974961903 16 19 12
116.351891398698 -207.938417777924 2706.68710639565 15 18 11
95.110958755916 -211.065873052682 2699.90168962607 16 19 12
142.284847505039 -197.503150200747 2745.99243735259 15 18 11
169.200852127908 -188.952093501278 2776.09827839704 14 17 10
160.675036794457 -189.026546765438 2778.90723026293 15 18 11
152.134632125861 -189.098790552625 2781.73068083655 15 18 11
134.834213149113 -191.266885548731 2777.97570498747 17 20 13
127.836835520549 -190.951192126301 2782.04338858548 18 21 14
127.2240357666 -189.112638071574 2790.88230190394 19 22 15
153.864766670217 -180.817918944337 2819.88213324242 19 22 15
192.703934630571 -169.697307701762 2857.60639961274 14 17 10
148.868215395089 -178.119601113831 2834.3640132323 15 18 11
156.475267331058 -174.407651770673 2848.93371200862 15 18 11
160.102080577762 -171.648521546295 2860.51145061918 16 19 12
158.098644675869 -170.215818680342 2867.95745218294 19 22 15
156.11136720502 -168.785080834632 2875.38736077296 16 19 12
157.398333327214 -166.603414746859 2885.12288531951 18 21 14
140.756650029453 -168.56087649303 2882.09955301865 16 19 12
117.514775482713 -172.013044394067 2874.51493704598 19 22 15
85.9857106774355 -177.328732719572 2861.26494430895 18 21 14
51.0449545110641 -183.377091348708 2845.84346260759 14 17 10
6.07544374958646 -191.650938738443 2823.70500771571 10 12 7
-38.2530238693208 -199.713940430915 2802.31607176463 10 12 7
-26.4571117723693 -195.074073215013 2819.6739090526 9 11 6
-36.1577053976956 -195.286097635683 2822.25319460987 9 12 5
-44.2131395857444 -195.123738399729 2825.97729742048 11 14 7
-53.9468968329384 -195.331274136872 2828.58851367705 12 15 8
-41.1331255058904 -190.528919926884 2846.32883335576 10 13 6
-44.9875248178904 -189.441799277197 2852.82945152925 10 13 4
-37.0781064979209 -185.766257925179 2867.10427710165 10 13 4
-35.8383150832431 -183.576387454039 2876.88577206784 10 13 4
-47.2195338868806 -184.1573384876 2878.35431398621 11 14 5
-57.7814052179875 -184.550587021423 2880.39839872241 15 15 7
-78.5343479471634 -187.148314537782 2875.88392585889 18 18 10
-100.205240814554 -189.920724432873 2870.88989971398 23 24 16
-81.9396992346277 -184.061540992488 2891.56246363119 15 17 12
183.624223520904 -202.982615097358 2741.17712405821 20 21 16
182.135274149445 -201.312766441826 2749.49375432334 20 23 16
154.816303004838 -206.077809331601 2737.65000414459 18 21 14
143.094804326181 -206.935119462025 2738.08004760323 18 21 14
139.2154797025 -205.84401457068 2744.60516595249 18 21 14
175.592717881567 -194.850805192745 2781.95883845217 17 20 13
172.620746111326 -193.580202805775 2788.97332167108 15 18 11
118.904939833918 -204.706237612876 2757.52044707689 15 18 11
188.179433487248 -185.820709619861 2819.13785130763 17 20 13
148.637545836368 -193.446947307436 2798.59919227334 19 22 15
160.058568011709 -188.704506500921 2816.31414046346 20 23 16
169.960395113922 -184.357783777071 2832.76234014339 19 22 15
165.48684465804 -183.484075305949 2838.49241746456 17 20 13
161.018136283499 -182.610724934308 2844.21807729632 18 21 14
153.327367212162 -182.505482638811 2847.58850411416 20 23 16
140.774209652292 -183.548648376156 2847.45495719583 20 23 16
137.103050349404 -182.481604184528 2853.77692046521 21 24 17
131.002835740202 -181.989020618526 2858.34447295425 19 22 15
138.745031714045 -178.250235521791 2872.7760053905 22 25 18
117.977355273319 -181.19273697503 2866.91021143994 18 21 14
106.138319484754 -182.031026451979 2867.45449758395 12 15 8
79.5046754196918 -186.28821165853 2857.68896497586 16 19 12
47.8380591968466 -191.671769396513 2844.58559389939 0 3 0
-4.5546327845889 -201.780691841913 2817.33683144206 7 9 4
6.43895348026913 -197.276421653627 2834.0945220056 6 8 3
-30.5124992921755 -203.753345622633 2817.89887705026 7 9 4
-39.3929235402628 -203.788343024156 2821.05412925121 7 10 3
-56.6063848797516 -205.707836529107 2818.59296930875 10 13 6
-38.8531116440558 -199.707207659006 2839.75331769176 11 14 7
-41.0485093133475 -198.236404765579 2847.38397111885 14 17 10
-21.4478239090332 -191.882083449946 2869.49135495511 15 18 9
-16.0034478923485 -188.73293055033 2882.04073816292 19 22 13
-70.2579417532792 -198.895795246996 2855.2314979759 20 23 14
-72.4399077713955 -197.426272844834 2862.84900283087 22 25 16
-68.687373656084 -194.650424494846 2874.29976567074 19 19 11
-84.3806520779826 -196.173086105266 2873.10420867341 26 26 18
-104.365836037522 -198.621761220757 2869.22255728204 16 17 9
-53.7644086405717 -185.611796888986 2910.5744966131 18 20 15
-83.1034042959873 -190.109092512827 2900.69708770605 13 18 14
185.261264013218 -210.08230275428 2743.43466802 23 24 19
181.432299587472 -208.992740606717 2749.91000596511 23 26 19
170.56197010766 -209.682677790063 2750.88733533793 19 22 15
148.671348065429 -213.132283347293 2743.37743625753 18 21 14
181.804397322582 -202.772197360063 2778.37823656236 19 22 15
174.092926755117 -202.674134137241 2781.77028133568 18 21 14
168.743852920797 -201.984525461082 2786.98006686583 15 18 11
176.877362705105 -197.956325708791 2802.39749070363 15 18 11
120.684133099814 -209.822748688616 2769.26309735051 16 19 12
175.015419491284 -194.430271656943 2819.31229461145 18 21 14
158.539960112198 -196.485849278702 2816.13840098568 18 21 14
150.81971727902 -196.385176467327 2819.53877105248 16 19 12
142.285998135101 -196.478017627999 2822.35862708407 18 21 14
120.057630565044 -199.881565834129 2815.17730704921 20 23 16
113.074893656254 -199.576605953353 2819.23237645083 22 25 18
123.065043975909 -195.188846809528 2835.58646686324 23 26 19
131.508858506522 -191.198750393088 2850.70104731521 23 26 19
127.832818848098 -190.125105619211 2857.02688128661 27 30 23
137.195759404913 -185.954502765426 2872.61932439449 27 30 23
104.996271677869 -191.654488392859 2858.67496118513 25 28 21
83.3070155944498 -194.82742840626 2852.34112100205 9 12 5
-53.2040708050854 -222.907982862279 2775.24627514406 74 77 70
-14.3595902032967 -211.787480714089 2811.54803494729 8 10 5
-19.9102578029788 -211.067946825387 2816.95358313321 7 9 4
-11.3843792813051 -207.086793665038 2831.98833248027 7 9 4
-43.457162236864 -212.502912850654 2819.29310354136 7 10 3
-69.618050301858 -214.496014153755 2820.05943685017 10 13 6
-88.5994086709712 -216.821727736934 2816.57970746517 11 14 7
-75.8110072711267 -211.896527495582 2834.32706326684 12 15 6
-62.9364219841801 -206.982369009084 2851.99046916113 16 19 10
-59.232586287731 -204.170382763437 2863.48391124364 17 20 11
-91.7538636109576 -209.527396963775 2851.22530815078 19 22 13
-98.1908520614692 -208.990808067968 2856.12111591613 21 21 13
-98.6995038225427 -207.128380583969 2864.85308025566 24 24 16
-87.2944225682706 -202.621646103884 2881.20178599044 18 19 11
-85.1741706497418 -200.202302556232 2891.49196395794 21 23 18
-77.046327912301 -196.467347538011 2905.54110954097 17 22 18
171.310635717002 -221.186783422897 2733.42302861069 23 24 19
182.292190025136 -216.276044890566 2751.54950055911 18 21 14
166.724421669855 -218.186870802833 2748.86977140682 19 22 15
173.878634275529 -214.288662652365 2763.86161736194 18 21 14
191.532453478024 -205.717471595643 2796.07674732729 17 20 13
187.017341401932 -204.833747146962 2801.84661559461 20 23 16
185.679083136009 -203.154043297013 2810.01248861289 13 16 9
190.720604446665 -199.886083619259 2822.94435290915 12 15 8
179.078521574571 -200.794624583675 2823.30310719278 13 16 9
167.406372853947 -201.698975526282 2823.69143586706 15 18 11
145.293829822853 -205.174131664628 2816.40602181591 14 17 10
133.53577171952 -206.066990669499 2816.87762343182 13 16 9
119.333641708828 -207.548394362214 2815.61248327643 15 18 11
111.542435897933 -207.445556954987 2819.08300070281 17 20 13
120.719770814739 -203.202716334891 2834.84873840267 18 21 14
133.209954698255 -198.181482930083 2852.8780349469 17 20 13
135.224794632035 -195.72658979483 2863.26763436001 12 15 8
116.916273978109 -198.184093933251 2859.13924576398 15 18 11
89.5672707743889 -202.790132260211 2848.71872637665 13 16 9
100.571818351956 -198.179271998275 2865.4497782283 5 8 1
-63.8052982095969 -233.323184878687 2768.89164048286 136 139 132
-62.8942957704113 -231.025984115856 2778.98342654988 10 12 7
-45.4311461480952 -224.836611497681 2800.40397572626 10 12 7
-41.1054637345885 -221.774120726394 2812.66013752636 9 11 6
-35.9026396232012 -218.523370481864 2825.43436930372 9 12 5
-28.1532132178302 -214.69703061828 2839.84544341629 9 12 5
-42.851793727567 -216.111308237677 2839.06336474102 9 12 5
-49.2352675956842 -215.58453208427 2843.90748205401 9 12 5
-89.1265869008628 -222.789233714722 2826.48732960827 10 13 4
-89.7164696571702 -220.900054501652 2835.296003633 10 13 4
-75.1354686139165 -215.54354820208 2854.03335327767 10 13 4
-83.2331340584869 -215.397860417492 2857.80185638353 15 18 9
-100.640317692971 -217.365876587394 2855.54023717243 20 20 12
-115.558854788894 -218.750744572582 2854.97223190771 21 21 13
-121.177569760093 -218.020450384892 2860.44376177198 24 25 17
-119.134927389493 -215.566320138132 2870.80586570891 26 28 23
-123.881433460461 -214.647056166437 2876.8002589078 16 21 17
161.25795683363 -231.369984899636 2726.48938758052 23 24 19
172.213840969583 -226.398928410187 2744.63243542166 22 25 18
162.104170899518 -226.920123596402 2746.24638808023 21 24 17
172.387399844815 -222.165742504276 2763.67284552274 20 23 16
178.026082615937 -218.63645786229 2777.39000526322 19 22 15
182.141744962079 -215.518553477131 2789.84619214497 18 21 14
214.782252953953 -205.133419853561 2823.91548185989 17 20 13
202.722765750614 -204.184667889111 2832.91634932135 13 16 9
203.860300536944 -201.897787314202 2842.78504858015 13 16 9
181.065298170364 -205.645586051913 2834.80037603515 15 18 11
162.990182672136 -208.177537317884 2830.45121592209 17 20 13
154.486161603476 -208.295056326226 2833.24522870104 16 19 12
140.33500228378 -209.812340613259 2831.93477703218 16 19 12
160.017910667023 -202.923146447673 2855.29836757896 14 17 10
109.48139218301 -213.429311658639 2827.6820190244 13 16 9
143.01572162653 -203.157359666312 2860.8804590204 11 14 7
140.179363016472 -201.876432968675 2867.75875043792 12 15 8
112.110992712963 -206.766441636846 2856.67729674759 16 19 12
108.423300060852 -205.679327661768 2863.01271157193 12 15 8
122.744785200081 -200.225888206918 2881.99343766762 6 9 2
-51.386852358446 -238.263389529067 2778.5454292399 8 11 4
-47.9747637750019 -235.35471159645 2790.31428952932 10 12 7
-35.4332878466677 -230.278882149067 2808.28458304356 10 12 7
-41.8476008694171 -229.751035695966 2813.15882806116 10 12 7
-22.5396664865154 -223.11547112994 2835.51535035975 10 13 6
-40.5445696645934 -225.348810757856 2832.46958086487 10 13 6
-14.4197921146105 -217.160069257671 2859.16326848025 10 13 6
-40.7929205191446 -221.354095797777 2850.54695230652 13 16 9
-51.3478781677361 -221.811577915188 2852.59366534938 13 16 7
-74.5179086732675 -225.202217658509 2846.34586050661 12 15 6
-80.9392464503462 -224.672453669042 2851.22679779807 11 14 5
-72.1824074100907 -220.627822656388 2866.02248009511 12 15 6
-83.6467161809367 -221.271538161826 2867.58280814075 14 14 6
-91.7480983387677 -221.132752929785 2871.35602219208 12 12 4
-128.732952228918 -227.605099750946 2856.60977785765 15 16 8
-129.261339932592 -225.706719428763 2865.35602646614 11 13 8
-139.149483962062 -225.945240089949 2868.12513063801 15 17 12
-159.315833599741 -228.506085521334 2864.43995816685 9 14 10
111.459723028485 -252.140345386741 2688.3206669375 29 30 25
144.169567002794 -239.182311224979 2733.27678164672 22 25 18
145.770688671436 -236.628146236335 2744.06253707641 21 24 17
160.001495240545 -230.794632132787 2764.49438062533 20 23 16
191.689557635715 -220.463945405353 2798.10026296528 19 22 15
202.994877307707 -215.479652602598 2815.8943598322 17 20 13
180.285943138954 -219.298256454239 2807.83502310135 17 20 13
172.595171819018 -219.225358276595 2811.21023259856 16 19 12
190.392287630684 -212.623543095302 2833.655098899 13 16 9
177.150490609904 -213.981426219353 2832.83498691991 14 17 10
169.475678288534 -213.909861785551 2836.19454602239 15 18 11
169.816680341386 -211.804436149149 2845.46378586141 16 19 12
178.231661850937 -207.672658849475 2860.58605755687 16 19 12
157.67791264665 -210.847222808531 2854.54212943511 16 19 12
138.668282570043 -213.607198939244 2849.73774877074 15 18 11
133.370709908698 -212.920839518802 2854.89687311338 14 17 10
146.758388429224 -207.58913441529 2873.40596595189 9 12 5
126.849783313244 -210.539187663685 2868.10546478818 10 13 6
66.059730133774 -223.553283285454 2834.03743560016 8 11 4
56.5524395240473 -223.856770109324 2836.43794866664 9 12 5
42.1060073217561 -225.363396014142 2835.4191320309 9 12 5
20.2192873292666 -228.670789371292 2829.30158641606 16 19 12
-32.2320537847922 -239.384915815521 2802.20051230115 10 12 7
-36.9991373755902 -238.458487636437 2808.2142804147 10 12 7
-27.6875257447173 -234.133300710338 2823.83450860445 10 12 7
-32.4118419526194 -233.212011717604 2829.80690548605 10 13 6
-31.309360246234 -230.895077151982 2839.70563316273 11 14 7
-41.0126350646953 -231.171658759196 2842.29712270839 12 15 8
-23.1590659951504 -224.880531482155 2863.31460246607 15 18 11
-42.8862007946353 -227.544688578658 2859.20855258678 15 18 9
-60.1597442672928 -229.605002827896 2856.82786833525 14 17 8
-61.499466021754 -227.892609620662 2864.99002530455 14 17 8
-63.6623253934436 -226.380738575576 2872.58229786624 15 18 9
-66.6540210272943 -225.06852386583 2879.61021689016 16 16 8
-65.3968686729165 -222.770629280301 2889.35850626966 15 15 7
-98.0748617770022 -228.364224455061 2877.29049082858 16 17 9
-119.811384166186 -231.381631815853 2872.39784628744 10 12 7
-112.61714415792 -227.702303313587 2885.96538543877 15 20 16
190.252193387871 -238.781101860459 2751.22240293634 26 27 22
126.278516549975 -253.739073956229 2710.68402228964 23 26 19
149.732776133813 -245.314622011337 2738.57816434641 22 25 18
156.058138907019 -241.488594329108 2752.9864915198 21 24 17
155.358964491731 -239.541263123924 2761.89509893848 21 24 17
169.675568431404 -233.650809960574 2782.23332886194 21 24 17
183.299017812023 -227.980200792615 2801.87511719605 21 24 17
177.986452481221 -227.293690888345 2807.04910723964 17 20 13
167.905501564762 -227.848639650533 2808.63953011792 16 19 12
176.925485872928 -223.440175100456 2824.5373779957 15 18 11
174.034673768064 -222.13700925736 2831.46611776055 13 16 9
155.943584357803 -224.752405625384 2827.14549096991 11 14 7
153.040841344613 -223.447204982281 2834.08577756054 13 16 9
159.805710632065 -219.675270318958 2848.06600103475 16 19 12
146.466695582903 -221.046224676773 2847.34435991763 19 22 15
121.771380788342 -225.284400158947 2838.48538453863 18 21 14
139.934762354722 -218.649799337102 2860.56169782688 16 19 12
126.530181034871 -220.011678907625 2859.90348589421 13 16 9
100.059569764573 -224.638967745313 2850.0310983079 11 14 7
25.3320503145353 -241.298661189469 2806.25284931502 13 16 9
-1.45309288500872 -245.884781536785 2796.68637405719 17 20 13
2.00522094452715 -242.922402000595 2808.40139492036 10 13 6
-62.7214519557788 -256.848201192491 2772.70926158569 18 21 14
-53.5689664493018 -252.453727957801 2788.47760172513 10 12 7
-33.6090494856132 -245.430538921812 2811.54631427326 9 11 6
-34.2241247255792 -243.489180701079 2820.37229277213 9 11 6
-31.4959863586428 -240.741195045902 2831.4271666679 10 13 6
-56.1749785155388 -244.669116757592 2823.92303661434 12 15 8
-53.4313660585015 -241.922845982039 2834.96279796835 13 16 9
-48.1413761621186 -238.576616153505 2847.63636099185 14 17 10
-64.5759035580644 -240.473142611508 2845.8152229269 15 18 9
-77.7019974562645 -241.558539112022 2846.25685195045 15 18 9
-79.9236374222092 -240.027830924617 2853.90504823176 15 18 9
-74.5390051483223 -236.693443818333 2866.4863803245 15 18 9
-70.7937931013021 -233.766406797512 2877.92173062491 17 17 9
-68.6993996756979 -231.245148529251 2888.22252350694 15 15 7
-67.4185497468103 -228.928380411407 2897.94415350281 20 21 13
-78.0208899090193 -229.41046454663 2900.04155424962 19 21 16
-91.2046028980402 -230.487683228405 2900.53919120408 21 26 22
-119.811029902161 -235.144690061755 2891.37484536168 13 18 14
152.925740619605 -256.408988604774 2722.87713924554 30 31 26
163.859061224533 -251.264254933405 2741.01692359491 23 26 19
175.658110004666 -245.918720347025 2759.68459594064 22 25 18
161.634358429162 -247.543130719229 2758.26312184498 20 23 16
154.652365181794 -247.266156843716 2762.32158909916 20 23 16
165.810362841563 -242.149216565643 2780.24237366312 21 24 17
183.378387312743 -235.361575249093 2802.88726602961 20 23 16
193.131027869684 -230.687107508803 2819.43516958408 20 23 16
170.369981514859 -234.616771562281 2811.44365783169 20 23 16
169.834062921992 -232.67262554373 2820.19062057454 19 22 15
174.114385066198 -229.476706358099 2832.47176728925 16 19 12
160.827747261944 -230.881772657428 2831.70315652373 14 17 10
121.81991867244 -238.957573353417 2812.11786132267 12 15 8
154.254114323758 -228.46717623373 2844.95921718315 12 15 8
148.966786142546 -227.781872417481 2850.10832462341 13 16 9
143.680369926119 -227.096447693577 2855.25650859906 14 17 10
150.550097358326 -223.296735693214 2869.12816306516 15 18 11
120.113016034273 -229.043102430845 2856.27471582973 14 17 10
111.541111106052 -229.181754404192 2859.13926172774 12 15 8
111.932557396221 -227.042854623141 2868.35346222944 15 18 11
60.8101032636159 -237.923699714092 2841.37433395828 18 21 14
21.7722547058972 -245.680914689149 2823.18833367474 14 17 10
-56.7772598366818 -261.133161809031 2787.27832590595 11 13 8
-62.4280776825925 -260.398555184171 2792.78109702304 10 12 7
-45.7269655190555 -254.119483824668 2813.52785606646 9 11 6
-35.5582983902249 -249.494720793724 2829.66998541937 9 12 5
-41.1172799908091 -248.771603133565 2835.08325985123 12 15 8
-50.8434859176972 -249.071374578009 2837.70060993236 13 16 9
-55.5748325315473 -248.142611228835 2843.67854556239 16 19 12
-77.0511459153345 -251.295971584732 2838.54794126759 17 20 11
-80.1328746446877 -249.955499166034 2845.66075016724 14 17 8
-88.2498642705585 -249.837904666958 2849.45293248812 13 16 7
-83.7283105760109 -246.668887906084 2861.49850887391 14 17 8
