ply
format ascii 1.0
comment KinectMotionCapture
element vertex 761
property float x
property float y
property float z
property uchar red
property uchar green
property uchar blue
end_header
59.0681405957589 856.961759296918 2854.15597287003 163 155 152
77.8056356711865 856.029605957673 2698.23713388898 112 93 79
88.873888515578 852.939450509083 2716.04313222776 119 97 84
110.722086532839 847.406251886892 2741.92673886546 130 108 95
124.44670393133 843.731776599861 2761.43235594583 139 115 103
132.470719491221 841.360078393734 2776.48682628868 135 111 101
132.266797395941 840.859833565675 2785.26539150124 234 223 217
132.917400995844 840.168581321758 2794.64054019663 254 246 243
130.263847008199 840.227360990026 2801.51793671895 255 250 247
131.796631261144 839.341601945484 2811.46306216474 248 240 237
127.503074038488 839.773940741571 2817.07963778975 255 249 244
123.213682419929 840.205872334727 2822.69213709272 255 250 244
114.725386829267 841.583854744074 2825.24949978313 255 254 248
107.064493143434 842.774013247011 2828.42990975987 255 252 247
97.7034330754498 844.345184422855 2830.40847794505 255 251 246
87.4767108073407 846.10872101704 2831.80098280727 255 250 245
80.6206827805758 847.114132540737 2835.62636412702 255 250 245
70.3559496380972 848.88251997843 2837.05589739684 254 244 242
60.0685114998423 850.653579797219 2838.50791992834 253 245 242
48.0495347600436 852.809574362647 2838.78799838115 255 250 247
41.9929261301326 853.631089363563 2843.26397140769 240 234 234
42.7971754166796 852.921705984871 2852.48922743875 217 213 212
119.641567463398 839.233489488321 2731.44333668313 88 79 72
125.059023869465 837.474846803574 2744.74482150628 96 87 82
135.466626813324 834.602737431885 2761.75771852983 255 250 247
145.12289485093 831.906398859979 2778.0734762149 255 253 251
149.059786001283 830.496426099541 2789.95983232577 255 252 252
148.894155928769 830.007347543463 2798.69838478154 255 254 252
147.921533247271 829.700794373836 2806.79474417944 254 254 252
142.803913331914 830.320359209108 2811.78504499564 254 255 255
141.860842523543 830.010093594223 2819.85226980247 250 250 250
138.427373959302 830.255840924539 2826.05958997209 250 252 251
133.324529832048 830.87342509929 2831.03551095303 254 255 255
125.700061550111 832.050971840889 2834.18161397804 254 255 255
118.907091576147 833.042936756307 2837.94670296401 254 255 255
109.572986140194 834.597160080311 2839.90067184424 255 255 255
100.219919130481 836.153655874321 2841.87313397744 255 255 255
88.302836450894 838.275386352507 2842.05743218131 255 255 255
77.2054783555323 840.212914369723 2842.87186611629 255 254 255
64.3767563018463 842.529916947079 2842.51532740446 255 254 255
50.6593909724882 845.039633375054 2841.59583226125 252 250 253
39.472025138684 846.988390360212 2842.49798557451 249 247 250
34.2642045421684 847.6193853934 2847.57616762225 253 253 255
36.7964588320366 846.549585053386 2857.97291508731 205 205 205
172.358733811391 820.816437801608 2764.00326497644 114 111 104
162.295028667562 822.52846486314 2765.24150451084 194 191 186
161.242482574333 822.24526833336 2773.41343909492 254 250 247
165.149195268367 820.868407553618 2785.32486892274 248 247 245
167.448402719746 819.850348693704 2795.94505013333 255 253 254
164.820553226269 819.921868454031 2802.79503873292 251 251 253
163.862753621731 819.626773554809 2810.87498506891 252 254 253
161.262838975584 819.69465374611 2817.69777187886 250 251 253
157.008987364926 820.127235244466 2823.2748833729 252 255 255
151.924659996837 820.742426118678 2828.23277066704 254 255 255
145.167180603075 821.724445819587 2831.96374903859 248 252 253
140.079771279813 822.339966254392 2836.92464805086 247 251 252
132.471065306415 823.507198264104 2840.05696122535 249 253 254
128.221083833805 823.939173932411 2845.63031915652 250 254 255
119.753014147645 825.292670141669 2848.17121627445 252 253 255
110.423241228225 826.832843421859 2850.12295949205 252 253 255
95.9844678186403 829.484588695917 2848.48193211774 252 253 255
82.3537865003194 831.956369504421 2847.48196533814 254 252 255
66.9801830447776 834.803715801956 2845.32308111323 253 251 254
54.9772890256062 836.914268790705 2845.59424327389 254 253 255
43.7997899639377 838.842852919158 2846.48958027597 252 251 255
35.169522477966 840.216514932077 2849.18822386787 255 254 255
24.8044062121675 841.964698583227 2850.7207630159 245 246 248
20.4493616204648 842.41027294004 2856.39644029722 201 203 202
191.097579439121 811.115475441933 2752.49708737009 201 201 201
199.785930211155 808.712715428292 2768.3137011079 252 252 252
200.386083677082 808.084079485844 2777.72969287011 255 255 255
192.839963019777 809.236712213713 2780.80167782603 252 252 252
190.198623973068 809.318188182273 2787.66359022815 252 252 252
187.569317280998 809.398147281343 2794.5137785169 253 253 253
183.305596562263 809.834862410083 2800.10007923239 254 254 255
179.871413490882 810.091432141797 2806.30650937196 254 254 255
174.791209209736 810.70622117304 2811.26036177203 254 254 255
175.514410550987 810.061719277799 2820.55651015595 252 252 252
171.279477176696 810.494451491401 2826.11481328597 253 253 253
167.049048708307 810.926543783297 2831.66907539998 253 255 254
159.483487761614 812.080388923181 2834.76018565667 254 254 254
151.906723544788 813.235646413278 2837.86221218147 253 255 254
145.996156004414 814.030023228041 2842.19717525929 253 255 254
141.763201293317 814.462329093228 2847.75357656162 253 255 254
135.006899762375 815.438598267297 2851.48423522333 254 255 255
124.865358451465 817.142747166511 2852.80093161122 254 255 255
115.547485266597 818.667726490428 2854.7434417186 254 255 255
102.817121256869 820.92403400461 2854.29820271895 255 255 255
90.0523635619259 823.184382545174 2853.88651989521 255 255 255
73.8444558105398 826.179839314654 2851.11765003056 250 250 252
61.002956806282 828.44962644132 2850.78077744252 255 255 255
48.9829583886321 830.540707189866 2851.07146467032 254 253 255
36.9326863832487 832.635473429611 2851.39200714628 249 249 251
23.9915696866828 834.917818949253 2851.15220027432 252 253 255
9.29235788046201 837.572086644592 2849.76941926509 254 255 255
-3.72159016275386 839.863554743895 2849.6005866837 146 146 144
211.928732886182 800.490986978098 2751.80291130947 180 180 182
204.382637025188 801.636245476688 2754.87596155015 244 244 246
206.564180116631 800.681420447584 2765.60397711897 252 252 254
209.594455211712 799.546873809439 2776.93266135467 252 252 254
211.032945137253 798.758460930621 2786.95669689873 250 250 252
206.781357399235 799.196594945681 2792.53073967423 252 252 254
204.172767820017 799.282021052723 2799.35954754227 253 253 255
201.57618987537 799.365873933544 2806.17666020176 253 253 255
196.52211130847 799.977487341039 2811.10503873718 254 254 255
190.643471740098 800.76577521869 2815.40919680906 254 254 255
184.761390974774 801.554202069763 2819.71675150017 254 254 255
183.020605573902 801.45714840414 2827.12769673904 254 254 254
177.972185558065 802.067635679577 2832.05062269143 254 254 254
172.924148735124 802.678015678634 2836.97318398301 254 254 254
163.7025070385 804.177844421661 2838.82351420287 254 254 254
155.298770496269 805.501765763076 2841.30489871041 254 254 254
149.395945129246 806.292395019026 2845.6327275832 254 254 254
145.170749517061 806.726081479567 2851.18121993422 255 255 255
140.107281121173 807.338170998287 2856.11885233959 254 254 254
128.288707267704 809.382676133397 2856.21674369488 254 254 254
118.132136499379 811.072385369591 2857.55049873205 254 254 254
107.104470242811 812.944576518575 2858.30538440147 254 254 254
97.7505864771322 814.460250912075 2860.28469097059 253 255 254
81.5601349249184 817.418551574087 2857.50364065657 253 255 254
67.0281566986204 820.022311375031 2855.96225927505 254 254 254
54.1659605811629 822.270471513996 2855.64913568571 254 254 254
39.5534559418111 824.884265011164 2854.18623524682 253 253 253
26.6184300932268 827.141370619649 2853.94411052062 253 253 253
10.2015386397962 830.127510003274 2851.38380382502 251 251 249
-2.81018815497891 832.394284984755 2851.21641514313 255 255 253
-15.8562282056436 834.665313690619 2851.08280917497 255 255 253
230.79086088524 789.878238830698 2758.7302465255 235 237 236
225.705966792946 790.49503433899 2763.68845942093 255 255 255
215.763885987833 792.14473056539 2764.81513665926 236 236 238
214.72612431582 791.900227739111 2772.96700902403 245 245 247
214.521530933241 791.480559985628 2781.73433157837 251 251 253
216.786722389672 790.539203101287 2792.3769546563 248 248 250
212.548777771441 790.978198774772 2797.93766010143 251 251 253
209.95332059803 791.069825225229 2804.75217304632 252 252 254
206.5489710563 791.333425261741 2810.92793897395 254 254 255
202.329569599302 791.769742500065 2816.47028881541 254 254 255
197.28939575735 792.379426089563 2821.38514497966 254 254 255
190.595749468213 793.337522961134 2825.05660976041 253 253 255
188.868389206514 793.249214325688 2832.45293112597 255 255 255
182.171558735795 794.207489776546 2836.12719361017 255 255 255
176.300368567265 794.991536284698 2840.42458119045 255 255 255
165.417087435159 796.827245058349 2841.04148237601 254 254 255
157.853909421223 797.964278520281 2844.13271110391 254 254 255
151.956893312557 798.751226985586 2848.45531531651 254 254 255
150.259147864287 798.659008025867 2855.82280667878 255 255 255
142.679793688697 799.797903843525 2858.92982331896 254 254 255
130.867113689208 801.820142343026 2859.02515298914 254 254 255
118.177372120562 804.022738440027 2858.54751382898 254 254 255
108.846357812143 805.522084882621 2860.50652395298 254 254 255
101.196938058958 806.669518735498 2863.6818548296 253 254 255
87.5711202756859 809.059722219372 2862.68911558075 253 254 255
69.6365539294885 812.342481775631 2858.75822352161 252 253 255
54.2122242634817 815.098806416655 2856.66316413464 253 253 253
39.6000340876794 817.682781013323 2855.20435864927 253 253 253
30.1048212222494 819.202532448904 2857.32340451863 253 253 253
14.5579993380491 821.974050267138 2855.34807401214 255 255 255
0.692474685923816 824.393941891178 2854.58897933343 255 255 253
-15.8085343466583 827.35548124282 2852.11583851139 255 255 253
-22.8155842324531 828.352098185387 2856.09248660491 254 253 251
232.708031454525 782.908522394184 2752.18861374184 222 224 223
235.671892582972 781.836127861558 2763.57406197413 251 253 252
234.636600897513 781.605125397533 2771.7211484161 243 243 245
226.335017303164 782.896944899292 2774.10583817418 253 253 255
222.075894310758 783.341748829066 2779.6863777582 248 248 250
219.448130753918 783.445749579105 2786.53148034534 255 255 255
220.909528287935 782.697070255888 2796.52723353537 253 253 255
216.680851886003 783.137564158544 2802.07817622509 250 250 252
212.456493129254 783.577277878114 2807.62494674004 250 250 252
209.878967898173 783.674473538326 2814.42116771635 251 251 253
207.313454301662 783.770095972316 2821.20569348411 251 251 253
202.284867461247 784.378200898508 2826.10927691029 250 250 252
194.775625995156 785.501063698257 2829.14904026653 250 250 252
190.571168739209 785.937606822429 2834.67685475159 251 250 255
184.708976912523 786.717819418506 2838.96553565393 250 249 254
177.17780144143 787.842916628664 2842.0267495565 250 249 254
167.131447118522 789.486875126437 2843.25815781522 252 251 255
160.408799348746 790.442449406586 2846.95845649089 253 252 255
153.678817908378 791.398889243615 2850.66590968093 253 252 255
150.303850387788 791.66314890266 2856.8124013353 253 252 255
144.409559966785 792.446923248054 2861.1327680333 253 252 255
134.289638083058 794.099520486627 2862.43561532333 253 252 255
122.454114946287 796.102892267484 2862.5560792173 254 253 255
112.284829272587 797.761581620578 2863.90738291064 254 253 255
103.792927370712 799.07428145914 2866.47763761486 253 254 255
91.0253889308592 801.262082049345 2866.0797765093 253 254 255
73.9527170934049 804.328446208631 2862.74156508273 253 254 255
58.5385004642793 807.051285923499 2860.64175020009 253 254 255
43.0781998449761 809.779712420177 2858.58653383505 253 253 253
31.0113874004556 811.811521229484 2858.9328062923 253 253 253
18.9138385814105 813.847099947437 2859.30870539098 255 255 255
6.785843951985 815.886621743296 2859.71459268624 255 255 255
-10.5668854461101 818.987688881858 2856.64969131421 255 255 255
-23.6354794803697 821.212806694132 2856.54492955319 255 254 255
-28.0430376539993 821.674849016375 2862.27031963956 253 252 250
237.04691291055 775.417103523231 2747.57002159332 201 203 200
235.969913679057 775.204849781443 2755.75609103409 230 232 231
235.718445497787 774.823642133363 2764.56427656968 227 229 228
235.490639189848 774.439333592524 2773.34942382586 234 234 236
230.429068449176 775.052893977618 2778.28495443815 248 248 250
226.17951045772 775.498968777753 2783.85580800074 247 247 249
222.747827439269 775.777100772695 2790.0565686577 248 248 250
223.40114820725 775.216298843702 2799.40973866545 253 253 255
219.178124151065 775.65867480673 2804.95479032459 249 249 251
214.959460257218 776.100265226709 2810.49562838099 249 249 251
209.923963302229 776.709359220293 2815.40592746937 249 249 251
208.181629861683 776.644389806884 2822.81400573804 249 249 251
203.97982832754 777.083382707879 2828.33848313415 249 249 251
198.955432119353 777.69066449416 2833.2380268603 248 248 250
193.102595128419 778.46697216062 2837.51833326134 247 246 251
187.246168965922 779.243627399442 2841.80181454976 246 245 250
179.720850141865 780.359848588129 2844.85852458734 246 245 250
171.349595264612 781.647242244997 2847.31305309721 248 247 252
163.800001838042 782.766228788906 2850.39345945564 249 248 253
157.916537161086 783.545748904752 2854.70370480303 249 248 253
153.710490373615 783.984569361465 2860.23242328565 249 248 253
146.981599849313 784.935197625937 2863.93998996979 250 249 254
138.556248652345 786.228952270759 2866.4469589316 251 250 255
126.730699103912 788.20947109393 2866.56123440407 252 251 255
116.571045834682 789.850683771189 2867.90521818044 253 252 255
104.688312867872 791.838175597548 2868.07524702585 253 254 255
93.6270266119412 793.657523257619 2868.87132809622 253 254 255
77.4146626055408 796.513268008562 2866.12719489201 252 253 255
63.7203779637483 798.857792538658 2865.20919557521 252 253 255
47.4140112219335 801.72509298391 2862.55670055031 253 253 253
32.7773242475384 804.252669283269 2861.1302185498 253 253 253
23.269517541149 805.746751736867 2863.26590199572 255 255 255
11.1512479145652 807.763301082533 2863.6651896955 242 242 242
-4.46003339559597 810.478138295325 2861.7622457206 255 255 255
-21.852890951592 813.546419277109 2858.74170014023 250 248 249
-30.6040481671284 814.880644221241 2861.5665556442 255 255 253
-30.655767526885 814.473901247371 2870.1801617572 248 247 245
238.191310775772 768.570711570876 2740.36062690587 205 207 204
237.895879500454 768.21138053428 2749.20923509011 226 228 227
238.427911908621 767.685387611799 2758.67770147617 222 223 225
238.18195257327 767.319466038135 2767.4781573712 233 234 236
237.959677446844 766.950322818303 2776.25557065455 227 226 231
233.71326005799 767.398950136902 2781.82292829122 223 222 227
230.282656652369 767.682384199438 2788.02149539141 226 225 230
228.487414589831 767.635288835546 2795.47947092715 254 253 255
226.707929199402 767.586043224201 2802.92177981819 255 254 255
223.309937769659 767.864940209299 2809.0889711643 249 248 253
218.281604416647 768.473190085856 2813.99228145015 250 249 254
211.61134160032 769.412430553891 2817.64297522294 250 249 254
209.04942573182 769.523344113771 2824.42166837187 249 248 253
204.024433744967 770.130759976245 2829.32178389865 248 247 252
199.826861308921 770.57169642294 2834.84177448262 247 246 251
193.975899662565 771.344937168746 2839.1206719283 245 244 250
189.783155077553 771.785029112801 2844.63599320196 242 241 247
183.929241181518 772.558347192456 2848.9178108453 240 239 245
176.402360299597 773.666568636477 2851.9772543882 239 238 244
168.027805289457 774.943292188154 2854.4366370157 239 238 244
161.315228493286 775.886569691507 2858.12875252394 241 240 246
154.59531856503 776.830653715026 2861.82803073742 242 241 247
148.710774828942 777.607420390923 2866.1397545637 243 242 248
141.133856641595 778.721360144087 2869.24804072698 246 245 251
131.853253604541 780.173708885569 2871.16427579499 247 246 252
122.553520299046 781.628482339265 2873.09881128896 249 248 254
111.534583382559 783.423621167721 2873.85641689396 250 251 255
101.341023039445 785.05277400547 2875.23585333495 250 251 255
86.0004825258414 787.701813779141 2873.07378457955 249 250 254
70.6137293935818 790.35657448794 2870.95642224391 249 250 252
52.6071883746519 793.52688588186 2867.11328404607 249 250 252
36.2627490546772 796.363899528781 2864.50307202966 249 250 252
27.6245761230123 797.672794869306 2867.21947617389 251 251 253
15.5164926705376 799.666464457472 2867.61236831236 246 246 246
2.51190497366682 801.834981909706 2867.45241282063 248 248 248
-17.4676600662758 805.376890179366 2862.67977615092 254 254 254
-28.8174595532227 807.213090834927 2863.75986425932 254 254 254
-37.5797858062206 808.53799148728 2866.59718890885 253 253 253
-39.3702384684036 808.489892599497 2874.05021897763 252 251 247
242.237671534198 760.712813323713 2744.58880921636 218 220 219
242.753585236116 760.207709406835 2754.07053217209 229 230 232
242.493067485328 759.859793649125 2762.88244569514 228 229 233
241.45086006043 759.669689819213 2771.03069261034 233 234 238
239.620781617392 759.638203249551 2778.52061637192 234 233 238
237.806691778366 759.604465186999 2785.99499598302 229 228 233
234.385774961427 759.891854319939 2792.18369744178 224 223 228
231.786406276729 760.016275757546 2798.99758533242 238 237 242
228.383859562946 760.301054202962 2805.16843086566 247 246 251
224.172183253919 760.747129890056 2810.70166722651 248 247 252
219.964802792989 761.19248711076 2816.23074393572 251 250 255
213.298500262129 762.125613245461 2819.8787466243 247 246 251
210.740106307063 762.244115610502 2826.65248299704 247 246 251
204.069023288894 763.177549557454 2830.30518728567 247 246 251
201.525276735038 763.293897502792 2837.06503483677 243 242 247
194.849096801855 764.227692190646 2840.722409278 243 242 248
190.658178018711 764.670148591729 2846.2355680377 237 236 242
183.973431659049 765.604656362886 2849.90168151565 239 238 244
178.116057204739 766.375580197228 2854.18728941293 234 233 239
170.581939840389 767.476340341481 2857.2550216667 235 234 240
163.875132221184 768.41334747872 2860.9423350543 236 235 241
157.161075965695 769.351209452912 2864.63672010036 237 236 242
148.754925656544 770.62082995468 2867.12852715452 237 236 242
140.33376840748 771.892165413195 2869.634982852 240 239 245
131.051123303288 773.331221797506 2871.55487248546 242 241 247
124.2945288766 774.27413850204 2875.2910893194 245 244 250
114.979783859489 775.717182621594 2877.24226525538 246 247 251
104.794153322232 777.32900141638 2878.6163892459 246 250 253
91.1695335938481 779.61114091394 2877.63843212083 247 251 254
72.3709983573637 782.900346547432 2873.14761189643 248 249 253
53.5108183907691 786.197041672426 2868.71656101474 247 248 252
36.3086549787388 789.166274280075 2865.52129263687 248 249 253
28.5325372148257 790.296467943134 2868.8253224456 249 250 252
17.2900142897641 792.100169759299 2869.80334881448 249 249 251
5.15538571813146 794.075485253374 2870.22531337578 249 249 251
-13.0829677555733 797.234095924989 2866.61409773399 251 251 253
-28.7703156747927 799.893715802199 2864.79485012444 252 252 254
-39.2752882492413 801.545320984298 2866.48020506798 252 252 252
-48.0563919562722 802.861620631368 2869.33744723177 255 254 252
244.190757037529 753.679364537311 2738.02093198576 199 201 198
244.684306913435 753.195962998431 2747.52131710734 230 232 231
242.800381481552 753.182514705255 2755.06238351745 230 231 233
243.343361318778 752.692468952555 2764.51466596862 232 233 238
243.108462730928 752.357055131046 2773.29962934543 236 237 242
242.896993545997 752.018700698931 2782.06142375776 233 232 237
241.09060568392 751.994651999488 2789.52706095026 232 231 236
237.677018501479 752.286555285482 2795.70747894176 231 230 235
235.08523182152 752.417804776015 2802.51282860638 227 226 231
230.874784458679 752.86649706976 2808.04445787219 232 231 236
229.120719339931 752.835262568881 2815.4591998654 247 246 251
224.924816613383 753.281708498331 2820.97671810402 252 251 255
219.091140369198 754.047875731943 2825.23949635183 251 250 255
213.253875491958 754.814331501202 2829.50545767788 246 245 250
205.763319412812 755.902346887638 2832.53181660113 243 242 247
201.56960925383 756.347913682934 2838.04762536538 243 242 247
195.72214510615 757.115124512853 2842.32360312011 239 238 244
190.702303618541 757.721242415969 2847.21879596282 239 238 244
183.184838191921 758.811929489398 2850.27181923373 233 232 238
177.325281144915 759.580311008468 2854.55963238891 238 237 243
171.462556272999 760.348842968986 2858.85090684788 236 235 241
163.919203581465 761.44245276844 2861.9288667359 229 228 234
156.364712472545 762.537348804735 2865.01769713181 230 229 235
146.271785023051 764.121795194473 2866.3038112153 231 230 236
138.689149712075 765.220003379324 2869.42009968578 235 234 240
131.941789610421 766.156212880771 2873.14813802014 237 236 242
126.035107683053 766.929945551528 2877.48195598028 240 241 246
118.42500545503 768.031426433315 2880.62537364424 243 244 249
106.542909276304 769.954044280026 2880.80402065354 243 246 251
93.7763463209316 772.044495337955 2880.41924125384 244 247 252
73.2719396084889 775.618795993386 2874.74608322531 243 246 251
56.1298533765817 778.542878737516 2871.49816829158 244 245 249
39.7937494086822 781.308786615006 2868.89018854901 244 245 249
32.0252775402508 782.429773793654 2872.18764874288 246 247 249
19.927158701595 784.378858134364 2872.57689771064 247 247 249
7.79850955675787 786.33183723619 2872.99622592176 247 247 249
-9.56597906224044 789.283426615603 2869.96509437744 248 248 250
-25.2454183191695 791.90968863244 2868.14258578453 249 249 251
-37.4851211937819 793.876549883823 2868.67014021535 250 250 252
-46.2623382607013 795.181404394335 2871.52487663225 253 252 250
-56.8049645620943 796.821703868295 2873.24963110398 252 251 249
248.227592968252 745.850428325386 2742.25462985681 208 210 207
249.53026991901 745.229566306371 2752.38876574861 231 232 234
249.261058015594 744.91498949492 2761.20472305403 229 230 234
249.015594096833 744.597182997357 2769.99757560583 233 234 239
246.377000288243 744.74317859416 2776.84722597304 235 236 241
245.365548529752 744.575687564809 2784.96125205281 235 234 239
242.755041071071 744.717729649147 2791.78359658679 236 235 240
239.345357067324 745.014435033921 2797.95976675804 236 235 240
235.943692152129 745.30990664777 2804.12781836462 232 231 236
232.550424077968 745.60407079317 2810.28806286919 231 230 235
230.799857178315 745.583022712866 2817.69748768863 237 236 241
227.427021289289 745.874316212543 2823.8378670115 244 243 248
221.599025136477 746.63699584554 2828.09552031046 250 249 254
215.767418553524 747.40002573088 2832.35636921078 246 245 250
207.457734125238 748.637140930449 2834.75718848868 242 241 246
201.613799424675 749.401240182378 2839.03045918211 242 241 246
194.108673192507 750.482659825925 2842.07226133062 238 237 243
187.423220543286 751.406419409941 2845.74032689992 234 233 239
179.897796139538 752.489985178756 2848.80196823649 234 233 239
174.865246330882 753.097233417055 2853.70961356682 240 239 245
171.506493851546 753.385631071461 2859.83643586034 236 235 241
166.478792075486 753.992150200566 2864.73937478466 226 225 231
158.930072579293 755.078180935316 2867.8237841715 227 226 232
148.000680320076 756.805774976454 2868.50245369819 228 227 233
140.421988922705 757.895289301449 2871.61611075285 232 231 237
132.832073535132 758.986159619923 2874.74071298046 235 234 240
126.927540862892 759.756777801341 2879.07319486064 237 238 243
117.618868947964 761.17187168086 2881.02247114964 239 240 245
106.587227779446 762.911825102246 2881.80084864378 240 243 248
93.8208866892518 764.977953034035 2881.41944387609 241 244 249
75.8846640102173 768.018618489357 2877.52597798233 240 243 248
60.4642744094535 770.580438983432 2875.45575368031 241 242 246
44.1381411706336 773.31012137799 2872.84322696693 241 242 246
33.7942221354868 774.908990347859 2874.37644775426 240 241 245
22.5639898017573 776.673271715187 2875.34843355138 240 241 245
8.71014962434735 778.929585021536 2874.60191282047 241 242 246
-8.65208161628273 781.843208742416 2871.57415097381 242 242 244
-25.1986614530999 784.600151213965 2869.17650196356 243 243 245
-35.6954285806075 786.21817117688 2870.85867265771 243 243 245
-47.9615920785768 788.166726650961 2871.41520846458 244 242 243
-55.882203199038 789.298991576973 2874.86207833861 255 253 254
251.466232036126 738.199396602584 2745.83740764667 220 222 219
252.776280485017 737.599128910766 2755.96117969928 224 225 227
250.911166358288 737.604537931208 2763.48077910258 224 225 229
249.865447852671 737.455106506379 2771.62616336714 232 232 240
246.422993586498 737.761781017252 2777.83340146093 232 232 240
245.411271315224 737.607651045121 2785.94572140546 234 233 239
241.991121065987 737.911100998477 2792.13128786891 235 234 240
241.013351973393 737.752336875721 2800.21057673053 248 247 253
239.242338540572 737.744762600795 2807.6386516791 254 253 255
236.671920682068 737.889180826169 2814.42083545486 251 250 255
232.479050367982 738.340728572708 2819.93458841674 238 237 243
228.290624712034 738.791539092986 2825.44403672911 240 239 245
224.927754762654 739.086706515523 2831.57394716248 251 250 255
217.457859146003 740.156136770403 2834.58253681538 252 251 255
208.326865134627 741.537332605831 2836.36038643571 240 239 245
200.830889551932 742.609578904213 2839.39445767043 237 236 242
194.981582098169 743.371407035728 2843.67339925782 236 235 240
186.63654283377 744.601539321817 2846.11035848219 233 232 237
180.774674253478 745.364656138787 2850.40158298676 242 241 246
174.074626141373 746.28459470547 2854.08470681116 237 236 241
170.713806708534 746.578442188938 2860.21277613771 227 226 231
164.007022320026 747.498935126165 2863.90250724843 224 223 228
158.133507270528 748.263166352674 2868.20513215985 224 223 228
148.044574454184 749.814735269693 2869.49213878968 226 225 230
141.310156069472 750.738476035921 2873.20883083943 230 229 234
135.414875468065 751.50509734313 2877.53271601276 233 232 237
128.667788048415 752.430317304861 2881.26176997704 235 236 241
119.36327613045 753.83136985149 2883.20932847243 236 237 242
109.187612627585 755.393400799028 2884.58091367254 237 240 245
96.4272751970334 757.434535686441 2884.19724114313 237 240 245
81.9207617107578 759.797971601008 2882.66609266377 236 239 244
65.6563834793191 762.485077188016 2879.99853514871 235 238 243
51.9214940634356 764.699799920082 2879.14004162191 236 239 244
37.2867536866397 767.078870152202 2877.73391359507 238 239 244
23.4733797581197 769.303251228848 2876.95192885042 238 239 243
8.75603261717339 771.692571487587 2875.62597777009 238 239 243
-6.00328086742019 774.087110264025 2874.34126643673 238 239 243
-19.935359997949 776.326161173399 2873.67498951758 238 239 243
-31.2915673287293 778.087335728638 2874.7725295345 239 239 241
-41.8013247057734 779.690835860458 2876.46974576316 243 241 242
-51.4587642232938 781.135862857271 2878.76092933561 247 245 246
-55.8719059786044 781.613809998026 2884.48985111789 156 155 151
251.826888524838 731.442992308949 2737.97573243554 218 220 217
252.311208647773 731.017010587548 2747.47679621431 221 223 220
252.823080963649 730.587437536788 2756.95103105509 224 225 227
252.560995893953 730.303982347485 2765.75531154712 224 225 229
252.322637011829 730.017359188765 2774.53649980864 231 231 239
248.08005040005 730.479007438308 2780.09812893914 234 234 242
247.879556813301 730.187197975666 2788.84248293606 237 236 242
244.464991082794 730.495310074912 2795.02181482673 233 232 238
245.115670880228 730.047117727838 2804.36096371025 238 237 243
241.727320206337 730.351571189699 2810.51480440718 250 249 255
239.162316274629 730.503339701888 2817.29018786242 252 251 255
232.523672611149 731.411868156994 2820.91436041312 243 242 248
227.515942050396 732.017166911263 2825.79764799627 239 238 244
222.508723311017 732.622224235835 2830.68046301643 245 244 250
217.502058910165 733.227034770749 2835.56276404565 249 248 254
210.021037029984 734.28943512575 2838.58344125885 238 237 243
202.528876732416 735.353121717592 2841.61498897992 234 233 239
195.025579094476 736.417976472847 2844.65742359058 233 232 237
187.51125040905 737.483985991607 2847.71064152093 245 244 249
181.651234837743 738.244156641333 2852.00046140241 241 240 245
174.953086303065 739.158371635236 2855.68254485991 204 203 208
169.084421721923 739.91927881712 2859.98084447689 205 204 209
162.373689725122 740.834903249887 2863.67521518383 221 220 225
156.4963112814 741.5966730773 2867.98204029654 221 220 225
148.930692650022 742.668381913968 2871.08534754472 222 221 226
142.198447753286 743.586351538729 2874.80107210296 226 225 230
135.458723365376 744.505159172453 2878.52376220716 228 227 232
127.863514948701 745.580362396413 2881.65593608064 229 230 234
118.557171098417 746.968083057129 2883.60728415881 231 231 239
110.935901820244 748.046335791465 2886.76488613671 232 235 242
99.8873468600219 749.750576516354 2887.56499975499 232 235 242
83.6771100759011 752.396111036948 2884.85016100984 231 234 239
64.8433729330114 755.517519525838 2880.41875930158 230 233 238
48.5274447240367 758.175978386027 2877.80662564998 230 233 238
35.6084473999592 760.212288998072 2877.58121776605 232 233 238
21.791494102601 762.41005461968 2876.8067211402 232 233 237
7.9362753664558 764.612644207858 2876.06950968057 233 234 238
-6.82463746503492 766.977664318839 2874.79074936819 232 233 237
-20.7583407138165 769.189912251597 2874.13004669071 231 232 236
-29.5023920717368 770.457740061159 2876.95732159853 231 229 232
-40.8813013090117 772.202906527956 2878.07977093267 239 237 240
-51.4117009463346 773.792733548568 2879.79950611081 239 237 238
-64.596260712515 775.862273612838 2879.83323220108 232 231 229
257.445511404633 723.367968594516 2743.50888274389 215 215 217
257.145265216916 723.105835491909 2752.34790639513 220 222 221
255.26913583157 723.134228789127 2759.874709205 225 226 230
254.210860060832 723.013316122885 2768.02868580138 225 226 231
252.368748168406 723.037008192819 2775.52240357726 231 231 239
249.737184900477 723.206058821813 2782.36166498998 236 236 244
249.540243293539 722.929900065306 2791.10017865091 241 240 246
246.938743423188 723.094747943561 2797.91020783013 234 233 239
247.594927476749 722.66467275319 2807.2412131981 226 225 231
243.398732183556 723.122241704693 2812.75737798192 242 241 247
240.022367014134 723.430314491177 2818.89878196113 247 246 252
233.385348479022 724.333225978904 2822.52183307866 242 241 247
229.198469827678 724.789030731401 2828.02900704725 234 233 239
225.016224710714 725.244061408877 2833.53203209764 237 236 242
219.192113300758 725.997831804034 2837.78680672898 243 242 248
210.065103907517 727.351622492247 2839.56508787538 236 235 241
201.746065879991 728.557307100579 2841.97984084326 231 230 236
194.240822991291 729.614269387547 2845.02537362005 234 233 238
189.216733557815 730.220510029951 2849.92476659499 248 247 252
183.360527323096 730.977428917427 2854.21128435797 228 227 232
174.996855735205 732.187986738407 2856.66930101041 189 188 193
166.618493635105 733.400206587485 2859.1419977536 204 203 208
159.063534473667 734.462610837019 2862.23609520446 220 219 224
153.178358183433 735.222592172044 2866.55092803242 220 219 224
147.289844835101 735.982935227439 2870.86902114629 221 220 225
141.397721056629 736.743628535178 2875.19030986152 224 223 228
133.809899904542 737.809762779004 2878.31648846336 226 225 230
127.907358049352 738.571638475286 2882.64828556826 228 227 233
119.451068467683 739.792974695714 2885.19701805693 229 230 235
110.979814463256 741.016020512926 2887.76035776094 230 233 240
99.0775037241511 742.854797395375 2887.97146978543 231 234 239
82.0095364607472 745.61928369595 2884.67354190496 230 233 238
64.8880008140882 748.390169329442 2881.42786240233 229 232 237
47.7124713710455 751.167815807978 2878.23446244574 229 232 237
33.930159472451 753.334383514793 2877.430177437 230 231 236
20.9733723037528 755.351032005136 2877.24553932241 231 232 236
7.11640135938518 757.526893733302 2876.51401819749 231 232 236
-7.6463634709758 759.86244006753 2875.2411153167 230 231 235
-18.9734409664046 761.582084357569 2876.31586713156 229 230 234
-26.8419533699702 762.6828375989 2879.71565962278 227 227 229
-36.4681095638155 764.096723168774 2881.98071892367 235 235 237
-53.1150901370099 766.761181330832 2879.69643846939 236 234 237
-66.3034221995549 768.806914834398 2879.73709126301 239 237 238
257.023425529993 716.722111038305 2734.99123419339 197 198 200
255.901267121685 716.623286374284 2743.20538259615 217 216 221
256.394492234754 716.233686211024 2752.69222640967 219 218 223
255.315836172722 716.128859703503 2760.86372556736 224 223 229
257.463919533897 715.443494586562 2771.58514108562 227 226 232
255.629277686516 715.476977265044 2779.06999394867 232 231 237
254.616355540507 715.363320195591 2787.17786135121 233 232 238
252.815710465977 715.392045290057 2794.62965808509 241 240 246
251.031116694175 715.418628925115 2802.06583214485 231 230 236
250.074046215294 715.29734117731 2810.11936582722 219 218 224
244.256815865452 716.048651947188 2814.36767099569 229 228 234
242.512743337227 716.06958347829 2821.76478008205 241 240 246
235.064279183612 717.112724426131 2824.75597352345 227 226 232
231.70015868806 717.424219996248 2830.88437463258 223 222 228
225.060407217674 718.321507124506 2834.5113087151 224 223 229
220.88218052548 718.778579913138 2840.00970374516 234 233 239
212.583880430695 719.971153724423 2842.40580140935 229 228 234
203.443626777198 721.31294633225 2844.19866977101 228 227 233
194.284730131675 722.656722334579 2846.01009559651 244 243 249
189.260577460975 723.262911980213 2850.90955890425 180 179 185
182.571476257153 724.165313056712 2854.58440432029 178 177 183
175.875380684542 725.068346971318 2858.26643955673 235 234 240
167.498735234166 726.269572152084 2860.73871880655 214 213 219
159.945656827339 727.323660573389 2863.83217771607 214 213 219
154.062397321821 728.080687701225 2868.145543779 219 218 224
148.175823093799 728.837955796023 2872.46216579556 217 216 222
141.441426862769 729.745300435666 2876.18125918673 220 219 225
135.546095177995 730.503554609384 2880.50643174528 222 221 227
128.799114946335 731.412367724605 2884.23780419505 228 227 233
120.344881316194 732.62247655795 2886.78615449636 226 227 231
108.467593622493 734.436680166003 2886.97638802807 227 228 232
94.8519335014004 736.555997640492 2886.0135989044 227 228 232
77.774406298448 739.284021081138 2882.730215538 227 228 232
62.3590621011498 741.716109722862 2880.67449322887 225 226 230
46.0379487892126 744.305167281808 2878.07776594317 224 225 229
31.3901618022223 746.597029262849 2876.69714489256 225 226 230
15.8369823760598 749.045904537019 2874.77581394632 224 225 229
4.56535058058449 750.739571053456 2875.79934686507 224 225 229
-7.60053033476993 752.588990084036 2876.27061506601 224 225 229
-18.0580979122493 754.137025705207 2877.92420368266 225 226 230
-29.4097475304507 755.840838708455 2879.02569583594 225 226 230
-39.9148487478262 757.394807731387 2880.72560910548 223 224 228
-57.4443239037885 760.178496040574 2877.88312733617 228 229 231
-71.5190745628771 762.354627733149 2877.36782478672 238 238 238
257.07112311979 709.67026673603 2735.98612928982 215 216 218
259.131948770078 709.020550809483 2746.78892407013 218 217 222
259.632592488227 708.64870853117 2756.2657764915 220 219 224
259.361199938538 708.414899072977 2765.07196183137 224 223 229
261.518629948263 707.752414943678 2775.78071418948 227 226 232
261.300475634656 707.511435247203 2784.53475509 231 230 235
257.884207245861 707.836273264995 2790.71330566207 231 230 235
255.28362113773 708.017340313938 2797.52003027556 238 237 243
251.885852557584 708.339315417462 2803.68063340164 231 230 236
250.118955821938 708.374223479859 2811.09800369616 214 213 219
243.488345323076 709.266007588162 2814.71633616078 225 224 230
240.926755522968 709.441274000456 2821.4851941955 241 240 246
235.925826629873 710.045833234096 2826.36183692295 236 235 241
232.563696579585 710.362313064607 2832.48786266099 218 217 223
225.925526104889 711.25416569559 2836.11369216576 224 223 229
220.926197528662 711.857874526769 2840.98887144401 226 225 231
211.803026394469 713.184291556567 2842.7673869572 220 219 225
203.487545689886 714.368076092889 2845.18150642989 235 234 240
193.499890659615 715.843531778187 2846.37953006539 204 203 209
188.473720039613 716.449798911915 2851.28098577391 175 174 180
183.447995849731 717.056009766034 2856.18200648882 219 218 224
176.753567384134 717.953480390011 2859.86287067329 217 216 222
169.215506455552 718.997714827989 2862.94287341934 213 212 218
160.827924976635 720.189396398111 2865.42776069064 211 210 216
156.627195401203 720.650544378088 2870.94789910491 222 221 227
150.746428816015 721.404308792382 2875.25927188874 211 210 216
145.706404065835 722.011614833434 2880.17433140328 219 218 224
138.128254845912 723.060313349249 2883.29348262649 224 223 229
131.387106489933 723.962966131839 2887.01997443197 225 224 230
122.088743165052 725.309169136729 2888.96953402185 224 225 229
110.215268974235 727.101322439568 2889.15890187231 225 226 230
94.895921146716 729.489525016089 2887.01434009017 225 226 230
76.1070677391986 732.476487279928 2882.55823926253 224 225 229
64.1190577200237 734.282489955566 2882.85929595245 222 223 227
48.6618326849939 736.687425487781 2880.84917515202 221 222 226
32.2969494962333 739.24691448342 2878.30028222179 221 222 226
13.2914798041517 742.260241170596 2874.05538791664 221 222 226
0.283184469843434 744.234628902055 2873.92780645165 221 222 226
-8.42226251130729 745.46484927992 2876.72264284663 222 223 227
-15.4040073653308 746.396948541613 2880.68369835458 222 223 227
-28.4921103875471 748.381443231142 2880.63421114146 221 222 226
-38.9951082647153 749.918989636164 2882.33446301884 223 224 228
-54.7720092536639 752.363353907325 2880.63561977394 227 228 230
-64.4550188105697 753.757340055622 2882.96007643061 238 238 238
240.047019477981 705.858733560601 2713.77849517532 198 200 199
257.118851122795 702.617416129637 2736.98114291679 217 218 220
263.158286994726 701.299861520529 2751.01670962856 218 217 222
263.668428053529 700.945737906911 2760.48185008135 218 217 222
261.806928164098 701.004483902974 2767.98963946988 222 221 227
261.564834423631 700.782784509836 2776.76494079675 225 224 229
261.346341770225 700.557945956098 2785.51693201986 226 225 230
257.12440360885 701.027651460061 2791.05720391717 225 224 229
255.329047768913 701.077115446476 2798.50068316374 227 226 231
250.312166326867 701.68462925361 2803.39273032345 222 221 226
248.541176585845 701.73060872431 2810.8125286835 205 204 209
241.906721782114 702.617557236032 2814.43573114075 212 211 216
240.156186023312 702.660604344314 2821.83565179598 219 218 223
233.518784113393 703.547347735244 2825.461473248 236 235 240
229.331429389051 704.011114327056 2830.96794320774 227 226 231
223.50655860367 704.757065592893 2835.224965416 217 216 221
218.501298884431 705.36152213889 2840.10592389502 207 206 211
211.846938795154 706.249446838649 2843.7487483149 226 225 230
205.185184787521 707.138139790732 2847.39846361566 224 223 228
195.201165627453 708.597051665099 2848.59498410433 191 190 195
188.517452289766 709.488146088786 2852.26648824999 222 221 226
181.826346110737 710.379890691369 2855.94489965824 197 196 201
177.631712080126 710.84321867239 2861.45866290319 218 217 222
170.095553703239 711.879075565443 2864.53801458477 216 215 220
162.548278167542 712.916216015355 2867.62821606024 212 211 216
156.670809097569 713.666970097096 2871.93675928855 212 211 216
152.474350060372 714.130174336237 2877.45235308102 215 214 219
147.438194909732 714.736933583956 2882.36365084183 226 225 230
139.863988526399 715.777056313341 2885.48015426751 223 222 227
131.430656767165 716.963065480902 2888.0113106221 218 217 222
121.282134711138 718.440828556701 2889.36839871892 218 219 223
109.407110882854 720.211699525216 2889.56278874401 219 220 224
94.0858071993409 722.567846789461 2887.42456907495 219 220 224
77.0070514093399 725.220767852526 2884.15384365425 219 220 224
59.8747266975748 727.880147285223 2880.93535842054 217 218 222
45.2675299160692 730.107864430604 2879.52391127454 216 217 221
30.6184959579014 732.340606903653 2878.1536041642 216 217 221
12.473223114374 735.164792826433 2874.49972375448 215 216 220
0.328611770874065 736.968424277364 2874.95663834042 216 217 221
-10.1115671928631 738.481775964088 2876.59808607693 217 218 222
-17.0968358575752 739.408822319336 2880.56372544035 218 219 223
-30.1887531548029 741.36945677141 2880.52121454938 220 221 225
-41.5685860615258 743.038964739391 2881.65576339402 224 225 229
-53.8503146888374 744.859823033824 2882.24629134981 226 227 229
-66.1624885880223 746.684565369449 2882.86681569303 235 235 235
-83.7793705361376 749.403851564555 2880.12064876477 216 216 214
251.182428139657 696.836526012712 2723.89242991412 202 204 203
259.54817446343 695.157117519912 2739.92248359915 217 218 220
267.184620207884 693.605047140269 2755.24101370526 220 219 224
268.501635129467 693.132630162082 2765.33897166787 219 218 224
265.851807338073 693.336946898472 2772.19115770711 221 220 226
263.214185200983 693.539371105238 2779.03150306626 224 223 228
261.392238319001 693.603450360875 2786.49922748026 222 221 226
257.975532861584 693.938957866877 2792.67663512223 219 218 223
256.18182113955 693.999064850179 2800.11690870512 228 227 232
249.54804932778 694.880973878488 2803.7401777747 221 220 225
246.152186727477 695.213100254338 2809.89705003901 205 204 209
238.698368768254 696.233269635026 2812.89695507611 209 208 213
236.940038022199 696.287900776165 2820.30324199591 218 217 222
231.929096339289 696.893722281057 2825.18964100852 209 208 213
228.556688950132 697.222125160109 2831.32377223262 227 226 231
221.90885796152 698.104273381562 2834.96096692 206 205 210
215.253589998889 698.987254252015 2838.60508572536 196 195 200
209.416249326603 699.731475290952 2842.87474644243 224 223 228
202.748570663006 700.615548976848 2846.53102773967 185 184 189
196.073666237224 701.500297709574 2850.19438455395 212 211 216
188.561192079027 702.525666751662 2853.25210539804 194 193 198
183.535342491713 703.131657538813 2858.15328316026 195 194 199
178.509981851672 703.737586686391 2863.05398450091 215 214 219
171.812145883288 704.624518678512 2866.7397899912 205 204 209
163.430394482619 705.79394165297 2869.22217771933 211 210 215
156.714300089041 706.682880565568 2872.92581747378 207 206 211
150.833369922284 707.431299438709 2877.23814276517 221 220 225
146.637440990768 707.896913540317 2882.75285397824 221 220 225
139.061310615252 708.929141121434 2885.87243485607 215 214 219
131.474084339503 709.962649579428 2889.00284481381 213 212 217
120.475705747013 711.566496459749 2889.76830856557 214 215 219
110.302672908182 713.031015144245 2891.1516937473 215 216 220
95.8375747709401 715.211910734777 2889.6063985943 216 217 221
79.6187319191177 717.683818591998 2886.92542990463 216 217 221
62.4923619626143 720.304943159535 2883.70668556328 214 215 219
46.1719929931137 722.789119277635 2881.1247205657 213 214 218
31.5249319644315 724.992082687416 2879.75651779776 212 213 217
15.1090707851815 727.487871296168 2877.26799949704 212 213 217
0.374001939828172 729.701634645496 2875.9855935657 213 214 218
-10.9333794822732 731.343138928159 2877.05233594754 214 215 219
-19.6592480353606 732.554115303854 2879.87029552045 215 216 220
-31.8855072683792 734.346398209273 2880.40996497774 215 216 220
-43.2689088236966 735.997427068812 2881.55078874734 216 217 221
-55.5540987448917 737.797067117108 2882.14822770863 219 220 222
-69.6239433517767 739.891616125092 2881.64011126197 232 232 232
-86.3692626614592 742.428420484531 2879.47234980302 234 234 232
256.3614073386 689.119993545298 2719.89012713892 197 199 198
260.733651442006 688.15340732028 2732.69554831312 210 212 211
264.358999904996 687.313559879681 2744.8066688027 218 219 221
269.619152934239 686.202176098784 2758.16869362108 220 219 224
270.14391999137 685.88372585723 2767.61369989051 216 215 220
266.698098054249 686.229036716095 2773.81857169598 216 215 220
263.260379162973 686.573221157536 2780.01522569914 216 215 220
259.831228796872 686.915899580536 2786.203931461 208 207 212
256.410161295053 687.257336192665 2792.38445651626 203 202 207
254.612502388222 687.328542132185 2799.82734713312 226 225 230
249.593303761272 687.936348057295 2804.72165211678 218 217 222
245.385908892634 688.408891723327 2810.24672498831 200 199 204
238.743287115797 689.285914647962 2813.87916652602 200 199 204
236.169360215593 689.486795628955 2820.65648966145 233 232 237
230.339263076246 690.228393409502 2824.91934515968 188 187 192
226.143845402641 690.698483658567 2830.43288711344 190 189 194
218.668937907825 691.712112573384 2833.45470104914 189 188 193
211.182998827016 692.726955288421 2836.48729011367 184 183 188
204.511029428431 693.606249657346 2840.14887639713 179 178 183
197.004878287365 694.623109704296 2843.20123817551 139 138 143
191.973945207585 695.230036190579 2848.10732562497 178 177 182
186.112952098329 695.97399570956 2852.40051221414 203 202 207
181.913698469438 696.443272227557 2857.9179835973 189 188 193
176.884405531141 697.049638134986 2862.82252521534 208 207 212
171.01922825175 697.793712353311 2867.11984979479 206 205 210
164.312216680627 698.676258006262 2870.81541509325 207 206 211
157.597998990375 699.559653136204 2874.51801062221 206 205 210
150.876808189911 700.44367842427 2878.22777525758 224 223 228
143.304024872318 701.467464295151 2881.3452801385 208 207 212
134.874077377949 702.63164113834 2883.87630267606 205 204 209
127.277231505105 703.658224601343 2887.01728854716 209 208 213
117.969247977721 704.965259777388 2888.98185228634 209 210 214
108.642513011394 706.274527894698 2890.96504429584 211 212 216
93.3197151147644 708.566351632078 2888.83781539167 212 213 217
77.0953242307355 711.00399039281 2886.16742093749 212 213 217
60.8211053960064 713.447674883156 2883.54561281875 211 212 216
45.3566887822956 715.756703252962 2881.55647055699 211 212 216
30.7081524302109 717.930237261898 2880.19442030159 209 210 214
16.8810244052278 719.967769953861 2879.4537096877 209 210 214
4.7467102183365 721.727043003346 2879.90729303926 210 211 215
-8.28562360255525 723.631752604945 2879.81388054396 212 213 217
-20.4828621006583 725.398840326032 2880.3287936617 213 214 218
-35.3245891039409 727.596211404695 2879.15472362833 213 214 218
-46.7154708860393 729.229254272376 2880.30563369545 211 212 216
-58.1330959581341 730.865668556693 2881.48260195097 216 217 219
-73.0854534320939 733.076796419643 2880.41669420568 231 231 231
-92.4751122774206 736.008647929363 2876.56534740471 229 229 227
-133.949108236338 742.530562820482 2858.68802834519 204 204 202
258.779827846495 681.637481880288 2722.84557757523 205 207 206
263.157200235788 680.702577108169 2735.64088593884 213 215 214
266.788058788434 679.891565377374 2747.74261076462 216 217 219
271.257654116249 678.944680625534 2760.44811102274 222 221 226
269.392985150207 679.036304919539 2767.95452579511 212 211 216
266.744562222336 679.256543040188 2774.80296361047 213 212 217
262.505073877916 679.737024541335 2780.35873256932 209 209 211
259.877149064943 679.954147829461 2787.18727582446 206 206 208
257.261450087835 680.169493981411 2794.0039413038 198 198 200
254.657913709369 680.383012000413 2800.80879934014 225 224 229
251.257103452544 680.726789277534 2806.9688627024 226 225 230
247.053614736871 681.201481070201 2812.49007705611 195 194 199
241.227833667329 681.940424901726 2816.74870104373 199 198 203
