ply
format ascii 1.0
comment KinectMotionCapture
element vertex 792
property float x
property float y
property float z
property uchar red
property uchar green
property uchar blue
end_header
80.6205570697784 -106.682017445564 2765.00010490417 14 17 10
87.1476083993912 -105.445727705956 2733.00004005432 14 17 10
93.6727151274681 -104.402266442776 2706.00008964539 14 17 10
100.983679294586 -104.323200881481 2703.9999961853 14 17 10
108.403548598289 -104.359745979309 2704.99992370605 15 18 11
114.544302225113 -103.23877632618 2676.00011825562 15 18 11
122.939579188824 -104.162380099297 2700.00004768372 17 20 11
129.679620265961 -103.658422827721 2687.00003623962 17 20 11
137.877926230431 -104.311659932137 2703.9999961853 17 20 11
146.168440580368 -104.964725673199 2720.99995613098 17 20 11
152.011021971703 -103.881761431694 2693.00007820129 18 21 12
160.363063216209 -104.534506797791 2710.00003814697 19 22 15
168.992906808853 -105.302818119526 2730.00001907349 18 21 14
173.853442072868 -103.756681084633 2690.00005722046 20 23 16
179.707497358322 -102.904751896858 2667.99998283386 26 29 22
189.715951681137 -104.405455291271 2707.00001716614 20 23 16
-145.92045545578 -114.290878176689 2766.99995994568 20 23 14
-137.271046638489 -113.385066390038 2744.99988555908 23 26 15
-130.017682909966 -113.594368100166 2750 15 18 7
-123.805686831474 -114.79489505291 2779.00004386902 19 22 15
-116.974912583828 -115.540944039822 2796.99993133545 17 20 13
-109.107173979282 -115.295417606831 2790.99988937378 15 18 11
-102.144487202168 -116.041205823421 2809.00001525879 11 14 7
-93.2668745517731 -114.556044340134 2773.00000190735 9 12 5
-85.4816362261772 -114.268720149994 2766.00003242493 9 10 4
-78.1850516796112 -114.642232656479 2775.00009536743 10 11 5
-70.6100165843964 -114.643797278404 2775.00009536743 13 14 8
-62.6258030533791 -113.901540637016 2756.99996948242 14 15 9
-55.1193244755268 -113.944076001644 2757.99989700317 16 17 11
-47.6761907339096 -114.15172368288 2763.00001144409 17 18 12
-40.3798632323742 -114.854998886585 2779.99997138977 12 13 7
-32.7664352953434 -114.773139357567 2778.00011634827 16 19 12
-25.4991836845875 -116.219766438007 2812.99996376038 10 13 6
-17.647972330451 -115.104712545872 2786.00001335144 4 6 1
58.9815862476826 -116.215921938419 2812.99996376038 0 1 0
72.1463412046433 -112.784162163734 2730.00001907349 16 19 12
80.0357833504677 -113.402254879475 2744.99988555908 14 17 10
87.4966010451317 -113.359197974205 2743.99995803833 14 17 10
95.5747067928314 -114.059597253799 2760.99991798401 14 17 10
102.550148963928 -113.43789100647 2746.00005149841 15 18 11
110.084503889084 -113.476984202862 2746.99997901917 15 18 11
115.868911147118 -111.822292208672 2707.00001716614 16 19 12
122.937113046646 -111.530661582947 2700.00004768372 16 19 10
129.918336868286 -111.197590827942 2691.99991226196 16 19 10
138.487070798874 -112.186186015606 2716.00008010864 16 19 10
145.735800266266 -112.059339880943 2713.00005912781 16 19 10
151.217743754387 -110.651947557926 2678.99990081787 16 19 12
159.472286701202 -111.309610307217 2694.9999332428 20 23 16
168.184846639633 -112.214893102646 2717.00000762939 18 21 14
177.081406116486 -113.161280751228 2740.00000953674 18 21 14
181.589901447296 -111.340470612049 2696.00009918213 22 25 18
-149.292394518852 -124.659232795238 2831.00008964539 26 29 22
-137.668162584305 -121.227696537971 2753.00002098084 21 24 13
-130.487680435181 -121.538899838924 2759.99999046326 22 25 14
-122.733861207962 -121.321499347687 2755.00011444092 19 22 15
-116.972401738167 -123.17369133234 2796.99993133545 18 21 14
-109.261207282543 -123.088121414185 2795.00007629395 19 22 15
-100.79687833786 -122.07754701376 2772.0000743866 20 23 16
-92.9958075284958 -121.771410107613 2765.00010490417 19 22 15
-84.1818451881409 -119.967706501484 2723.99997711182 18 19 13
-77.7889341115952 -121.599026024342 2760.99991798401 16 17 11
-70.2013820409775 -121.512584388256 2759.0000629425 14 15 9
-62.7380311489105 -121.646195650101 2762.00008392334 15 16 10
-55.1581121981144 -121.559411287308 2759.99999046326 13 14 8
-47.7959476411343 -122.000992298126 2769.99998092651 11 12 6
-40.5097119510174 -122.838795185089 2789.00003433228 14 15 9
-33.1313572824001 -123.72050434351 2809.00001525879 7 10 3
-25.5892779678106 -124.337792396545 2822.99995422363 10 13 6
-17.5145678222179 -121.783681213856 2765.00010490417 6 8 3
58.4771074354649 -122.836209833622 2789.00003433228 5 7 4
65.4982477426529 -121.733769774437 2763.99993896484 10 12 7
70.8498880267143 -118.076741695404 2680.99999427795 19 21 16
87.4947234988213 -120.847828686237 2743.99995803833 13 16 9
94.9495881795883 -120.801776647568 2743.00003051758 13 16 9
103.406868875027 -121.944613754749 2769.00005340576 15 18 11
109.641350805759 -120.488993823528 2736.00006103516 16 19 12
115.86644500494 -119.20940130949 2707.00001716614 17 20 13
123.207680881023 -119.16272342205 2706.00008964539 16 19 10
131.122082471848 -119.644328951836 2717.00000762939 15 18 9
138.943001627922 -119.993634521961 2724.99990463257 15 18 9
145.141810178757 -118.977747857571 2701.99990272522 15 18 9
150.593653321266 -117.477402091026 2667.99998283386 15 18 11
158.818036317825 -118.1785389781 2684.00001525879 20 23 16
171.709582209587 -122.137635946274 2773.9999294281 18 21 14
177.465438842773 -120.901048183441 2746.00005149841 25 28 21
186.166167259216 -121.689610183239 2763.99993896484 19 22 15
-161.892548203468 -136.494934558868 2918.99991035461 101 103 100
-147.23239839077 -130.55981695652 2792.00005531311 13 16 9
-139.065220952034 -130.048751831055 2780.99989891052 17 20 11
-130.248352885246 -128.836035728455 2755.00011444092 23 26 17
-122.062847018242 -128.137499094009 2740.00000953674 20 23 16
-117.095217108727 -130.94624876976 2799.99995231628 18 21 14
-108.281463384628 -129.545882344246 2769.99998092651 18 21 14
-100.321888923645 -129.033878445625 2759.0000629425 19 22 15
-92.1865031123161 -128.194287419319 2740.9999370575 19 22 15
-85.0142985582352 -128.664061427116 2750.99992752075 20 21 15
-77.3927271366119 -128.478899598122 2746.99997901917 18 19 13
-70.4542100429535 -129.509598016739 2769.00005340576 18 19 13
-62.8955960273743 -129.511177539825 2769.00005340576 18 19 13
-55.2967339754105 -129.419013857841 2766.99995994568 15 16 10
-47.484278678894 -128.718644380569 2752.00009346008 13 14 8
-41.0316661000252 -132.134109735489 2825.00004768372 9 10 4
-32.953679561615 -130.685016512871 2793.99991035461 7 10 3
-25.3530163317919 -130.826026201248 2796.99993133545 11 14 7
65.5441433191299 -129.37031686306 2766.00003242493 10 12 7
80.1196992397308 -128.524988889694 2747.99990653992 13 16 9
86.9188010692596 -127.494111657143 2726.0000705719 13 16 9
94.9474200606346 -128.287047147751 2743.00003051758 14 17 10
102.284215390682 -128.097653388977 2739.00008201599 14 17 10
108.476743102074 -126.598626375198 2707.00001716614 14 17 10
114.494159817696 -125.09948015213 2674.99995231628 13 16 9
125.390335917473 -128.791183233261 2753.99994850159 11 14 5
132.71164894104 -128.601104021072 2750 9 12 3
138.073086738586 -126.633897423744 2707.99994468689 9 12 3
144.816249608994 -126.069456338882 2696.00009918213 9 12 5
152.283549308777 -126.159533858299 2697.99995422363 8 11 4
161.240443587303 -127.418413758278 2724.99990463257 11 14 7
169.848799705505 -128.303006291389 2743.99995803833 11 14 7
179.464876651764 -129.841968417168 2776.99995040894 12 14 9
185.892581939697 -129.04292345047 2759.99999046326 18 20 15
-152.871251106262 -143.472671508789 2898.9999294281 12 15 8
-142.21216738224 -140.754297375679 2844.00010108948 18 21 14
-131.474405527115 -137.63964176178 2780.99989891052 17 20 11
-122.639037668705 -136.256948113441 2753.00002098084 20 23 16
-114.666908979416 -135.715454816818 2742.00010299683 19 22 15
-107.887960970402 -136.609122157097 2759.99999046326 20 23 16
-99.9194979667664 -136.017724871635 2747.99990653992 20 23 16
-91.6125476360321 -134.832158684731 2723.99997711182 18 21 14
-85.1667672395706 -136.418297886848 2756.00004196167 19 20 14
-78.2923921942711 -137.558817863464 2779.00004386902 20 21 15
-70.4016163945198 -136.966660618782 2766.99995994568 22 23 17
-63.0530640482903 -137.413829565048 2776.00002288818 20 21 15
-54.9356937408447 -136.078774929047 2749.00007247925 13 14 8
-47.1035279333591 -135.139510035515 2730.00001907349 10 11 5
-39.9413593113422 -136.130630970001 2750 10 11 5
-33.3067029714584 -139.794707298279 2823.99988174438 10 12 7
-25.0895377248526 -137.02329993248 2767.99988746643 8 10 5
-17.7671052515507 -138.855442404747 2805.0000667572 0 1 0
66.4666891098022 -138.848751783371 2805.0000667572 9 11 8
73.7269222736359 -138.104513287544 2789.99996185303 10 12 7
79.4180557131767 -134.835660457611 2723.99997711182 10 12 7
85.8645141124725 -133.299127221107 2693.00007820129 12 14 9
92.8683057427406 -132.801935076714 2683.00008773804 15 18 11
99.8171344399452 -132.304579019547 2673.00009727478 15 18 11
107.552483677864 -132.846474647522 2684.00001525879 11 14 5
114.063389599323 -131.903320550919 2664.99996185303 9 12 3
121.153123676777 -131.702452898026 2661.00001335144 9 12 5
130.68163394928 -134.025514125824 2707.99994468689 11 14 7
136.99908554554 -132.982894778252 2687.00003623962 12 15 8
143.523648381233 -132.2370916605 2671.99993133545 11 14 7
153.803840279579 -134.856373071671 2724.99990463257 10 13 6
161.828309297562 -135.347411036491 2734.99989509583 13 15 10
169.659078121185 -135.640278458595 2740.9999370575 16 18 13
176.681786775589 -135.289669036865 2733.99996757507 18 20 15
186.022907495499 -136.670812964439 2762.00008392334 16 18 13
-144.908741116524 -151.333048939705 2898.00000190735 18 21 14
-132.227465510368 -146.06237411499 2796.99993133545 16 19 10
-122.546836733818 -143.663465976715 2750.99992752075 18 21 14
-114.538557827473 -143.039882183075 2739.00008201599 19 22 15
-107.37706720829 -143.4605717659 2746.99997901917 22 25 18
-99.6624380350113 -143.14991235733 2740.9999370575 21 24 17
-91.2402719259262 -141.690075397491 2713.00005912781 17 20 13
-83.8358327746391 -141.692370176315 2713.00005912781 18 19 13
-78.0931860208511 -144.775912165642 2772.0000743866 20 21 15
-70.5015957355499 -144.725635647774 2770.99990844727 20 21 15
-62.3927675187588 -143.473878502846 2746.99997901917 18 19 13
-55.0941489636898 -143.997713923454 2756.99996948242 10 11 5
-46.9988062977791 -142.275467514992 2723.99997711182 8 9 3
-40.521290153265 -145.723834633827 2789.99996185303 9 10 4
-32.3741361498833 -143.374383449554 2744.99988555908 10 12 7
-25.3245569765568 -145.934477448463 2793.99991035461 8 10 5
86.6594165563583 -141.952693462372 2717.99993515015 7 9 4
93.2812988758087 -140.749141573906 2694.9999332428 10 13 6
100.748136639595 -140.903279185295 2697.99995422363 12 15 6
108.03060233593 -140.79612493515 2696.00009918213 15 18 9
115.430101752281 -140.845447778702 2697.00002670288 16 19 10
122.060611844063 -140.006795525551 2680.99999427795 14 17 10
130.051001906395 -140.734612941742 2694.9999332428 15 18 11
135.415092110634 -138.694584369659 2655.99989891052 14 17 10
141.586393117905 -137.646645307541 2635.99991798401 13 16 9
151.316627860069 -139.992654323578 2680.99999427795 15 18 11
161.705926060677 -142.703831195831 2733.00004005432 21 23 18
169.345363974571 -142.856240272522 2736.00006103516 23 25 20
177.388221025467 -143.321707844734 2744.99988555908 27 29 24
185.210078954697 -143.578127026558 2750 18 20 15
-147.643119096756 -153.849840164185 2799.99995231628 24 26 21
-133.878529071808 -155.615836381912 2832.00001716614 24 27 18
-122.766315937042 -151.443168520927 2756.00004196167 20 23 16
-114.953674376011 -151.061743497849 2749.00007247925 18 21 14
-106.944218277931 -150.350391864777 2736.00006103516 21 24 17
-99.8052060604095 -150.847807526588 2744.99988555908 20 23 16
-92.0449495315552 -150.410816073418 2736.99998855591 16 19 12
-84.3279957771301 -149.973586201668 2729.00009155273 18 19 13
-77.358640730381 -150.910064578056 2746.00005149841 19 20 14
-70.2198371291161 -151.681467890739 2759.99999046326 18 19 13
-62.7999231219292 -151.958107948303 2765.00010490417 15 16 10
-54.5930974185467 -150.146096944809 2732.00011253357 10 11 5
-39.0388146042824 -147.730499505997 2687.99996376038 10 11 5
-32.7624566853046 -152.677834033966 2778.00011634827 10 12 7
-25.3782588988543 -153.887748718262 2799.99995231628 8 10 5
-18.1398615241051 -157.40579366684 2864.00008201599 6 8 5
74.2251127958298 -154.373660683632 2809.00001525879 14 16 13
80.2301988005638 -151.239037513733 2752.00009346008 7 9 4
88.1555825471878 -151.951149106026 2765.00010490417 7 9 4
94.4555997848511 -149.97024834156 2729.00009155273 8 11 4
101.492263376713 -149.363070726395 2717.99993515015 10 13 4
108.628764748573 -148.975521326065 2710.99996566772 16 19 10
115.812204778194 -148.697704076767 2706.00008964539 18 21 12
123.195543885231 -148.694455623627 2706.00008964539 16 19 12
129.130721092224 -147.042527794838 2676.00011825562 17 20 13
136.431187391281 -147.038921713829 2676.00011825562 17 20 13
141.206666827202 -144.452661275864 2628.99994850159 17 20 13
151.086881756783 -147.086068987846 2677.00004577637 19 22 15
160.459160804749 -149.004876613617 2711.99989318848 23 25 20
168.907642364502 -149.934440851212 2729.00009155273 19 21 16
187.158301472664 -152.671843767166 2779.00004386902 15 17 12
-141.00082218647 -162.644922733307 2819.9999332428 17 20 11
-131.700277328491 -160.687804222107 2786.00001335144 25 28 19
-125.747308135033 -162.825554609299 2822.99995422363 25 28 21
-115.201346576214 -158.906862139702 2755.00011444092 18 21 14
-107.449360191822 -158.563956618309 2749.00007247925 15 18 11
-99.4388312101364 -157.759383320808 2734.99989509583 15 18 11
-92.6476866006851 -158.915787935257 2755.00011444092 15 18 11
-85.3762179613113 -159.379810094833 2763.00001144409 13 14 8
-77.9762119054794 -159.67059135437 2767.99988746643 13 14 8
-70.6503614783287 -160.191878676414 2776.99995040894 10 11 5
-62.8208592534065 -159.559279680252 2766.00003242493 9 10 4
-54.6914711594582 -157.888069748878 2736.99998855591 12 13 7
-47.5828014314175 -159.100964665413 2757.99989700317 14 15 9
-40.6497605144978 -161.467418074608 2799.00002479553 10 11 5
-33.2804284989834 -162.795305252075 2822.00002670288 9 11 6
-25.3594163805246 -161.411643028259 2798.00009727478 10 12 7
-17.8100019693375 -162.219896912575 2812.00003623962 11 13 10
72.5847780704498 -158.460587263107 2746.99997901917 7 9 6
80.6652158498764 -159.612059593201 2766.99995994568 9 11 6
88.854506611824 -160.763308405876 2786.99994087219 8 10 5
96.11427038908 -160.18383204937 2776.99995040894 7 10 3
101.414732635021 -156.66238963604 2716.00008010864 7 10 1
108.58565568924 -156.313300132751 2710.00003814697 8 11 2
115.937359631062 -156.252413988113 2709.00011062622 9 12 3
122.736848890781 -155.499190092087 2696.00009918213 11 14 7
129.513144493103 -154.803454875946 2684.00001525879 13 16 9
134.897917509079 -152.607992291451 2645.99990844727 21 24 17
143.565982580185 -154.161274433136 2673.00009727478 22 25 18
154.638230800629 -158.021107316017 2740.00000953674 20 22 17
163.412973284721 -159.285366535187 2762.00008392334 16 18 13
181.449666619301 -161.92838549614 2808.00008773804 13 15 10
191.530629992485 -163.999110460281 2844.00010108948 15 17 12
-140.246748924255 -169.430419802666 2805.0000667572 25 26 18
-133.965417742729 -171.186208724976 2834.00011062622 24 25 17
-123.115628957748 -166.961684823036 2763.99993896484 25 27 22
-116.494208574295 -168.294206261635 2786.00001335144 22 24 19
-107.602544128895 -166.304111480713 2753.00002098084 14 16 11
-100.235767662525 -166.548863053322 2756.99996948242 12 14 9
-93.0821225047112 -167.216256260872 2767.99988746643 11 13 8
-79.044371843338 -169.517084956169 2805.99999427795 10 12 7
-71.2079703807831 -169.09646987915 2799.00002479553 10 12 7
-62.9779845476151 -167.527720332146 2773.00000190735 10 12 7
-55.4891191422939 -167.771175503731 2776.99995040894 10 12 7
-48.1334626674652 -168.558120727539 2789.99996185303 10 12 7
-40.7937839627266 -169.707372784615 2809.00001525879 15 18 11
-25.3677275031805 -169.105216860771 2799.00002479553 14 16 11
-17.6321398466825 -168.199598789215 2783.99991989136 17 19 16
72.5826397538185 -165.95421731472 2746.99997901917 6 8 5
80.0506547093391 -165.891483426094 2746.00005149841 11 13 8
88.4374380111694 -167.580485343933 2773.9999294281 10 13 6
96.1114466190338 -167.758926749229 2776.99995040894 9 12 5
102.457240223885 -165.762439370155 2743.99995803833 8 11 4
109.023205935955 -164.369881153107 2720.99995613098 8 11 4
123.416118323803 -163.758873939514 2710.99996566772 7 10 3
128.737315535545 -161.157697439194 2667.99998283386 10 13 6
135.556742548943 -160.610139369965 2658.99991989136 16 19 12
143.508091568947 -161.391213536263 2671.99993133545 14 17 10
154.577314853668 -165.433615446091 2739.00008201599 13 16 9
164.354845881462 -167.784437537193 2778.00011634827 16 18 13
169.021874666214 -164.940848946571 2730.99994659424 12 14 9
182.995244860649 -171.035528182983 2832.00001716614 14 16 11
191.255733370781 -171.513170003891 2839.99991416931 16 18 13
-148.368388414383 -177.644073963165 2813.99989128113 19 21 16
-140.242487192154 -177.080407738686 2805.0000667572 25 28 19
-133.394122123718 -178.157866001129 2822.00002670288 23 26 17
-124.180868268013 -176.015377044678 2788.00010681152 16 18 13
-115.947090089321 -175.072103738785 2773.00000190735 13 15 10
-110.022500157356 -177.727326750755 2815.00005722046 11 13 8
-101.577840745449 -176.404744386673 2793.99991035461 6 8 3
-85.2165818214417 -174.137622117996 2757.99989700317 8 10 5
-78.0560225248337 -174.961015582085 2770.99990844727 7 9 4
-70.9259435534477 -176.036730408669 2788.00010681152 7 9 4
-64.0661492943764 -178.122520446777 2821.00009918213 7 9 4
-56.2267079949379 -177.682399749756 2813.99989128113 7 9 4
-48.4770089387894 -177.431493997574 2809.99994277954 8 10 5
-41.1846227943897 -179.074630141258 2835.99996566772 6 9 2
-33.5850231349468 -179.8335313797 2848.00004959106 9 11 6
-25.5119483917952 -177.750691771507 2815.00005722046 7 9 4
73.1352567672729 -174.773097038269 2767.99988746643 9 11 8
80.0773575901985 -173.444777727127 2746.99997901917 13 16 9
87.8608897328377 -174.010366201401 2756.00004196167 12 15 8
103.760913014412 -175.456553697586 2779.00004386902 11 14 7
116.358377039433 -171.661555767059 2719.00010108948 12 15 8
123.958639800549 -171.910360455513 2723.00004959106 9 12 5
130.615189671516 -170.896276831627 2707.00001716614 10 13 6
172.234982252121 -175.67053437233 2782.99999237061 19 21 16
-148.680031299591 -185.712844133377 2819.9999332428 14 16 11
-140.43802022934 -184.993088245392 2809.00001525879 15 18 9
-132.066369056702 -184.009596705437 2793.99991035461 14 17 8
-125.023171305656 -184.869959950447 2806.99992179871 10 12 7
-117.490403354168 -185.071468353271 2809.99994277954 9 11 6
-110.83972454071 -186.787605285645 2835.99996566772 8 10 5
-102.81066596508 -186.264172196388 2828.00006866455 6 8 3
-85.6773182749748 -182.647719979286 2773.00000190735 7 9 4
-77.9126882553101 -182.189345359802 2766.00003242493 7 9 4
-63.473641872406 -184.104144573212 2795.00007629395 8 10 5
-55.88523671031 -184.237822890282 2796.99993133545 7 9 4
-48.9412285387516 -186.874330043793 2836.99989318848 7 9 4
-41.299469769001 -187.336936593056 2844.00010108948 9 12 5
-25.8192550390959 -187.668472528458 2848.99997711182 6 8 3
73.2914358377457 -182.717844843864 2773.9999294281 8 10 7
80.3662836551666 -181.595578789711 2756.99996948242 12 15 8
87.8899618983269 -181.592851877213 2756.99996948242 11 14 7
96.5899452567101 -183.829262852669 2790.99988937378 11 14 7
103.682927787304 -182.90388584137 2776.99995040894 11 14 7
110.659062862396 -181.912481784821 2762.00008392334 11 14 7
117.167748510838 -180.328086018562 2737.99991607666 12 15 8
123.317398130894 -178.414225578308 2709.00011062622 10 13 6
131.817296147346 -179.924875497818 2732.00011253357 11 14 7
138.759896159172 -179.261893033981 2721.99988365173 13 16 9
171.301260590553 -182.27119743824 2767.99988746643 20 22 17
183.88856947422 -187.401682138443 2845.99995613098 16 18 13
195.621103048325 -191.280588507652 2904.99997138977 18 20 15
-140.833333134651 -193.201169371605 2816.99991226196 5 11 1
-131.589353084564 -190.94243645668 2783.99991989136 6 12 2
-126.177027821541 -194.307506084442 2832.99994468689 7 9 4
-118.74083429575 -194.791778922081 2839.99991416931 8 10 5
-110.953308641911 -194.727078080177 2838.99998664856 8 10 5
-102.843604981899 -194.044783711433 2828.9999961853 9 11 6
-94.5526957511902 -192.882061004639 2812.00003623962 10 12 7
-86.4777639508247 -191.993415355682 2799.00002479553 9 11 6
-78.9522677659988 -192.270591855049 2802.99997329712 10 12 7
-70.8449855446815 -191.038429737091 2785.00008583069 11 13 8
-63.744030892849 -192.549824714661 2806.99992179871 11 13 8
-55.4837733507156 -190.493941307068 2776.99995040894 10 12 7
-48.4738312661648 -192.759439349175 2809.99994277954 9 11 6
-40.964100509882 -193.515539169312 2821.00009918213 7 10 3
-33.0993570387363 -192.556411027908 2806.99992179871 10 12 7
-25.3109056502581 -191.597044467926 2792.99998283386 12 14 9
-17.9090816527605 -193.998754024506 2828.00006866455 11 13 10
73.2889994978905 -190.283000469208 2773.9999294281 3 5 2
80.101266503334 -188.496917486191 2747.99990653992 9 12 5
89.9272188544273 -193.5014128685 2821.00009918213 9 12 5
95.9292128682137 -190.137207508087 2772.0000743866 9 12 5
103.716835379601 -190.54539501667 2778.00011634827 10 13 6
110.455080866814 -189.101353287697 2756.99996948242 11 14 7
116.821527481079 -187.245637178421 2730.00001907349 11 14 7
124.587886035442 -187.72166967392 2736.99998855591 9 12 5
131.1374604702 -186.41422688961 2717.99993515015 11 14 7
146.609261631966 -187.227919697762 2730.00001907349 17 20 13
152.700483798981 -185.57696044445 2706.00008964539 18 21 14
170.367419719696 -188.789367675781 2753.00002098084 18 20 15
180.328994989395 -191.389366984367 2790.99988937378 20 22 17
-145.928636193275 -197.382524609566 2767.99988746643 6 11 5
-139.528706669807 -199.027597904205 2790.99988937378 5 11 1
-132.199302315712 -199.460208415985 2796.99993133545 7 13 3
-125.103816390038 -200.320467352867 2809.00001525879 9 11 6
-118.025995790958 -201.323121786118 2822.99995422363 10 12 7
-109.777063131332 -200.328692793846 2809.00001525879 10 12 7
-102.33112424612 -200.760304927826 2815.00005722046 10 12 7
-95.0537696480751 -201.619580388069 2826.99990272522 10 12 7
-87.0617851614952 -200.980931520462 2818.00007820129 10 12 7
-79.1748687624931 -200.484603643417 2811.00010871887 11 13 8
-71.4530274271965 -200.344607234001 2809.00001525879 13 15 10
-63.287653028965 -198.777884244919 2786.99994087219 13 15 10
-55.2421025931835 -197.210848331451 2765.00010490417 11 13 8
-48.1271557509899 -198.995783925056 2789.99996185303 10 12 7
-40.3963774442673 -198.426768183708 2782.00006484985 11 14 7
-32.9802967607975 -199.497923254967 2796.99993133545 11 14 7
-25.2375304698944 -198.643043637276 2785.00008583069 11 14 7
-17.8324673324823 -200.854927301407 2815.99998474121 9 11 6
72.8373378515244 -196.634918451309 2756.99996948242 6 8 5
80.0693556666374 -195.919021964073 2746.99997901917 9 12 5
88.6490345001221 -198.340952396393 2780.99989891052 9 12 5
96.6180041432381 -199.122205376625 2792.00005531311 10 13 6
103.414587676525 -197.549700737 2769.99998092651 11 14 7
109.810270369053 -195.477768778801 2740.9999370575 13 16 9
115.74774980545 -192.906454205513 2704.99992370605 14 17 10
123.627722263336 -193.686738610268 2716.00008010864 12 15 8
130.602270364761 -193.040490150452 2707.00001716614 12 15 8
138.240844011307 -193.392366170883 2711.99989318848 11 14 7
143.38219165802 -190.39249420166 2670.00007629395 18 21 14
152.131006121635 -192.241340875626 2696.00009918213 20 23 16
160.42947769165 -193.376809358597 2711.99989318848 21 23 18
173.579499125481 -200.002238154411 2805.0000667572 19 21 16
177.673950791359 -196.074634790421 2750 19 21 16
-147.399589419365 -207.001447677612 2796.0000038147 11 16 10
-140.873536467552 -208.635449409485 2818.00007820129 12 18 8
-133.423432707787 -209.010571241379 2822.99995422363 12 18 8
-125.544726848602 -208.719104528427 2819.00000572205 13 16 9
-117.39469319582 -207.909062504768 2808.00008773804 14 17 10
-109.069712460041 -206.654414534569 2790.99988937378 13 16 9
-102.581940591335 -208.953648805618 2822.00002670288 10 13 6
-96.0926786065102 -211.622878909111 2858.00004005432 11 14 7
-87.5220596790314 -209.775060415268 2832.99994468689 11 14 7
-78.8340494036675 -207.260474562645 2799.00002479553 10 13 6
-71.2469816207886 -207.411333918571 2801.00011825562 10 13 6
-63.1945580244064 -206.080883741379 2782.99999237061 10 13 6
-55.3599894046783 -205.194428563118 2770.99990844727 13 16 9
-47.659695148468 -204.603895545006 2763.00001144409 14 17 10
-41.1064065992832 -209.641069173813 2831.00008964539 11 14 7
-32.9673178493977 -207.05059170723 2796.0000038147 5 8 1
-25.3544226288795 -207.199767231941 2798.00009727478 13 16 9
-17.9584715515375 -210.014566779137 2835.99996566772 7 9 4
81.5529748797417 -207.185372710228 2798.00009727478 11 14 7
89.1877487301826 -207.182258367538 2798.00009727478 11 14 7
97.3758324980736 -208.363592624664 2813.99989128113 11 14 7
103.560224175453 -205.398172140121 2773.9999294281 13 16 9
108.724728226662 -200.951710343361 2713.99998664856 15 18 11
115.572489798069 -199.985101819038 2700.99997520447 16 19 12
123.350217938423 -200.64714550972 2710.00003814697 13 16 9
130.887091159821 -200.864657759666 2713.00005912781 13 16 9
137.879133224487 -200.267493724823 2704.99992370605 12 15 8
145.20289003849 -200.188398361206 2703.9999961853 17 20 13
150.99710226059 -198.110148310661 2676.00011825562 18 21 14
158.176004886627 -197.956532239914 2674.00002479553 17 19 14
171.655118465424 -205.353498458862 2773.9999294281 22 24 19
185.636073350906 -204.082354903221 2756.99996948242 16 18 13
-145.759969949722 -212.243348360062 2765.00010490417 11 16 10
-139.268726110458 -213.860675692558 2786.00001335144 12 18 8
-133.891135454178 -217.473641037941 2832.99994468689 12 18 8
-125.272899866104 -215.943187475204 2812.99996376038 14 17 10
-117.181345820427 -215.180069208145 2802.99997329712 15 18 11
-109.065696597099 -214.263081550598 2790.99988937378 12 15 8
-101.851150393486 -215.111508965492 2802.00004577637 12 15 8
-94.7778895497322 -216.420322656631 2819.00000572205 12 15 8
-86.4993631839752 -214.965045452118 2799.99995231628 11 14 7
-78.6621421575546 -214.430764317513 2792.99998283386 11 14 7
-70.710189640522 -213.435485959053 2779.99997138977 10 13 6
-63.5782182216644 -214.973568916321 2799.99995231628 10 13 6
-56.2569238245487 -216.204255819321 2815.99998474121 12 15 8
-48.9170737564564 -217.741772532463 2835.99996566772 13 16 9
-40.8725626766682 -216.131135821342 2815.00005722046 12 15 6
-33.1547372043133 -215.90219438076 2812.00003623962 9 12 5
-25.3806617110968 -215.058743953705 2801.00011825562 15 18 11
-17.983129248023 -218.053966760635 2839.99991416931 8 10 5
82.4243277311325 -217.116758227348 2828.00006866455 10 13 6
89.981310069561 -216.729640960693 2822.99995422363 10 13 6
103.071093559265 -211.962535977364 2760.99991798401 11 14 7
109.441787004471 -209.732234477997 2732.00011253357 13 16 9
116.851836442947 -209.651216864586 2730.99994659424 14 17 10
123.937390744686 -209.032595157623 2723.00004959106 13 16 9
130.785807967186 -208.106637001038 2710.99996566772 13 16 9
138.587683439255 -208.715736865997 2719.00010108948 12 15 8
146.540001034737 -209.478035569191 2729.00009155273 13 16 9
158.66531431675 -215.843364596367 2812.00003623962 15 18 11
164.347305893898 -203.857451677322 2655.99989891052 19 21 16
189.601808786392 -216.124624013901 2815.99998474121 21 23 18
-146.176189184189 -220.415398478508 2773.00000190735 12 17 11
-139.313414692879 -221.533700823784 2786.99994087219 12 18 8
-133.177161216736 -224.003121256828 2818.00007820129 11 17 7
-126.292377710342 -225.438982248306 2835.99996566772 15 18 11
-117.67852306366 -223.77435863018 2815.00005722046 16 19 12
-109.569519758224 -222.904279828072 2803.99990081787 15 18 11
-102.319791913033 -223.782896995544 2815.00005722046 13 16 9
-94.2027270793915 -222.753211855888 2802.00004577637 13 16 9
-86.1253663897514 -221.643760800362 2788.00010681152 12 15 8
-70.1987892389297 -219.423815608025 2759.99999046326 10 13 6
-63.0762502551079 -220.857456326485 2778.00011634827 10 13 6
-56.8141117691994 -226.106986403465 2844.00010108948 10 13 6
-48.7082153558731 -224.518969655037 2823.99988174438 12 15 8
-41.0307012498379 -224.679723381996 2825.99997520447 13 16 7
-33.1652499735355 -223.647609353065 2812.99996376038 12 15 8
-25.5518425256014 -224.205300211906 2819.9999332428 16 19 12
-17.8368054330349 -223.967626690865 2816.99991226196 10 12 7
82.5086086988449 -225.064352154732 2831.00008964539 9 12 5
89.2766490578651 -222.676023840904 2801.00011825562 10 13 6
96.572682261467 -221.877411007881 2790.99988937378 11 14 7
103.104487061501 -219.568133354187 2762.00008392334 12 15 8
110.078528523445 -218.451052904129 2747.99990653992 12 15 8
115.906111896038 -215.346440672874 2709.00011062622 12 15 8
124.342285096645 -217.170104384422 2732.00011253357 12 15 8
131.697416305542 -217.006176710129 2730.00001907349 12 15 8
138.633400201797 -216.206103563309 2720.00002861023 12 15 8
150.561615824699 -222.877398133278 2803.99990081787 12 15 8
158.151522278786 -222.791999578476 2802.99997329712 13 16 9
164.093628525734 -210.777968168259 2651.99995040894 18 20 15
177.719205617905 -218.639761209488 2750.99992752075 20 22 17
184.00651216507 -217.202335596085 2733.00004005432 23 25 20
-158.666238188744 -235.283195972443 2861.99998855591 8 10 5
-146.223172545433 -228.054717183113 2773.9999294281 15 17 12
-140.157714486122 -230.526760220528 2803.99990081787 13 16 7
-134.022578597069 -233.163073658943 2835.99996566772 13 16 7
-125.441327691078 -231.606140732765 2816.99991226196 15 18 11
-118.55174601078 -233.173161745071 2835.99996566772 15 18 11
-110.385790467262 -232.273325324059 2825.00004768372 15 18 11
-103.151723742485 -233.346477150917 2838.00005912781 13 16 9
-94.5015847682953 -231.130421161652 2811.00010871887 14 17 10
-86.1219614744186 -229.242876172066 2788.00010681152 14 17 10
-78.2054215669632 -228.341683745384 2776.99995040894 14 17 10
-71.9509124755859 -232.620492577553 2828.9999961853 12 15 8
-64.1635805368423 -232.376545667648 2825.99997520447 11 14 7
-55.9528917074203 -230.323240160942 2801.00011825562 10 13 6
-48.6200451850891 -231.805488467216 2819.00000572205 10 13 6
-41.1306954920292 -232.958495616913 2832.99994468689 13 16 7
-33.894881606102 -236.413702368736 2875 10 13 4
-26.067279279232 -236.579388380051 2877.00009346008 13 16 7
-17.9437343031168 -233.044326305389 2834.00011062622 14 16 11
82.2721943259239 -232.122927904129 2822.99995422363 9 12 5
88.6675640940666 -228.74827682972 2782.00006484985 10 13 6
95.2886641025543 -226.442322134972 2753.99994850159 12 15 8
103.772342205048 -228.576123714447 2779.99997138977 12 15 8
109.313145279884 -224.378600716591 2729.00009155273 10 13 6
116.543315351009 -223.962977528572 2723.99997711182 10 13 6
124.655991792679 -225.191429257393 2739.00008201599 10 13 6
130.389824509621 -222.226619720459 2703.00006866455 10 13 6
138.933762907982 -224.112153053284 2726.0000705719 10 13 6
148.515403270721 -227.394908666611 2766.00003242493 10 13 6
156.847700476646 -228.53983938694 2779.99997138977 11 14 7
161.470338702202 -224.423140287399 2730.00001907349 14 16 11
168.294638395309 -223.59462082386 2720.00002861023 13 15 10
171.575397253036 -218.326941132545 2655.99989891052 17 19 14
-151.119336485863 -243.512809276581 2867.00010299683 15 17 12
-140.102073550224 -238.082721829414 2802.99997329712 13 16 7
-134.111687541008 -241.061225533485 2838.00005912781 13 16 7
-126.104176044464 -240.556925535202 2832.00001716614 14 17 10
-117.710925638676 -239.202857017517 2815.99998474121 15 18 11
-110.225014388561 -239.632248878479 2821.00009918213 14 17 10
-101.293928921223 -236.748442053795 2786.99994087219 13 16 9
-94.9347540736198 -239.895522594452 2823.99988174438 14 17 10
-86.2728878855705 -237.26586997509 2792.99998283386 15 18 11
-72.4057480692863 -241.859793663025 2846.99988365173 13 16 9
-64.6831467747688 -242.032572627068 2848.99997711182 12 15 8
-56.0904256999493 -238.551944494247 2808.00008773804 10 13 6
-48.3766086399555 -238.299265503883 2805.0000667572 10 13 6
-41.1725714802742 -240.934744477272 2835.99996566772 12 15 6
-33.3394147455692 -240.256637334824 2828.00006866455 9 12 3
-25.5316607654095 -239.408299326897 2818.00007820129 10 13 4
-17.8290344774723 -239.239260554314 2815.99998474121 13 16 9
80.6659981608391 -235.144287347794 2767.99988746643 10 13 6
88.2496312260628 -235.225766897202 2769.00005340576 11 14 7
97.0493257045746 -238.280102610588 2805.0000667572 11 14 7
103.693477809429 -235.982403159142 2778.00011634827 11 14 7
110.670551657677 -234.703779220581 2763.00001144409 10 13 6
116.880856454372 -232.065826654434 2732.00011253357 9 12 5
124.83299523592 -232.995226979256 2743.00003051758 9 12 5
133.085817098618 -234.348997473717 2759.0000629425 10 13 6
138.265639543533 -230.436250567436 2713.00005912781 10 13 6
148.348361253738 -234.677240252495 2763.00001144409 10 13 6
156.615734100342 -235.77518761158 2776.00002288818 11 14 7
161.582171916962 -232.031673192978 2732.00011253357 14 16 11
168.968468904495 -231.940001249313 2730.99994659424 13 15 10
177.446842193604 -233.29184949398 2746.99997901917 15 17 12
184.732630848885 -233.029752969742 2743.99995803833 18 20 15
191.861286759377 -232.597544789314 2739.00008201599 18 20 15
-162.533700466156 -257.015496492386 2931.99992179871 128 128 128
-142.645299434662 -250.190824270248 2854.00009155273 15 16 8
-133.964344859123 -248.530998826027 2835.00003814697 16 17 9
-125.787258148193 -247.659832239151 2825.00004768372 14 17 10
-117.455214262009 -246.349930763245 2809.99994277954 15 18 11
-109.009183943272 -244.60132420063 2789.99996185303 14 17 10
-101.071618497372 -243.816718459129 2780.99989891052 14 17 10
-93.9223095774651 -244.960650801659 2793.99991035461 15 18 11
-87.535671889782 -248.471483588219 2834.00011062622 16 19 12
-79.0155753493309 -246.020078659058 2805.99999427795 16 19 12
-72.1738412976265 -248.829007148743 2838.00005912781 15 18 11
-64.6350160241127 -249.620988965034 2846.99988365173 14 17 10
-56.4476102590561 -247.782319784164 2825.99997520447 12 15 8
-48.3573190867901 -245.855584740639 2803.99990081787 12 15 8
-40.4594913125038 -244.366928935051 2786.99994087219 11 14 5
-33.0079272389412 -245.508342981339 2799.99995231628 13 16 7
-25.1681916415691 -243.580624461174 2778.00011634827 7 10 1
-17.9612338542938 -248.754754662514 2836.99989318848 9 12 5
81.6534236073494 -245.668172836304 2802.00004577637 13 16 9
88.6921063065529 -243.99870634079 2782.99999237061 12 15 8
97.2182527184486 -246.361970901489 2809.99994277954 10 13 6
102.68135368824 -241.185039281845 2750.99992752075 9 12 5
111.827477812767 -244.775012135506 2792.00005531311 9 11 6
120.041728019714 -245.997458696365 2805.99999427795 10 12 7
124.964319169521 -240.732252597809 2746.00005149841 8 11 4
131.970882415771 -239.850178360939 2736.00006103516 10 13 6
142.234936356544 -244.665876030922 2790.99988937378 11 14 7
146.140962839127 -238.611176609993 2721.99988365173 10 13 6
158.019632101059 -245.529875159264 2801.00011825562 10 13 6
164.414316415787 -243.682324886322 2779.99997138977 15 17 12
172.982946038246 -245.077729225159 2796.0000038147 15 17 12
180.410876870155 -244.807422161102 2792.99998283386 14 16 11
189.57208096981 -246.815651655197 2815.99998474121 16 18 13
-150.263339281082 -257.688581943512 2851.0000705719 17 19 14
-141.139820218086 -255.254417657852 2823.99988174438 12 15 6
-133.580595254898 -255.531549453735 2826.99990272522 14 17 8
-124.802321195602 -253.367781639099 2802.99997329712 13 16 9
-116.238057613373 -251.384377479553 2780.99989891052 13 16 9
-108.574755489826 -251.208513975143 2779.00004386902 13 16 9
-101.030938327312 -251.303434371948 2779.99997138977 14 17 10
-93.817412853241 -252.302050590515 2790.99988937378 14 17 10
-85.5860561132431 -250.497996807098 2770.99990844727 16 19 12
-78.3926844596863 -251.676797866821 2783.99991989136 15 18 11
-71.3823810219765 -253.759324550629 2806.99992179871 15 18 11
-63.6787489056587 -253.581494092941 2805.0000667572 14 17 10
-56.1255924403667 -254.036128520966 2809.99994277954 14 17 10
-48.1310375034809 -252.320677042007 2790.99988937378 14 17 10
-40.6609699130058 -253.226727247238 2801.00011825562 12 15 8
-33.0654345452785 -253.589957952499 2805.0000667572 10 13 6
-25.9552672505379 -259.015649557114 2865.00000953674 9 12 5
-18.0744100362062 -258.112549781799 2855.00001907349 12 14 9
74.0849375724792 -253.577381372452 2805.0000667572 0 1 0
81.8247422575951 -253.845155239105 2808.00008773804 12 14 9
89.2619043588638 -253.208637237549 2801.00011825562 11 13 8
133.0746114254 -249.383002519608 2759.0000629425 9 11 6
139.578953385353 -247.569337487221 2739.00008201599 9 11 6
152.469754219055 -256.691962480545 2839.99991416931 9 11 6
157.900094985962 -252.979576587677 2799.00002479553 10 12 7
165.590107440948 -253.062963485718 2799.99995231628 13 15 10
173.099368810654 -252.874970436096 2798.00009727478 13 15 10
183.116093277931 -256.211221218109 2835.00003814697 13 15 10
190.506517887115 -255.751341581345 2829.99992370605 15 17 12
-148.833751678467 -262.940526008606 2823.99988174438 16 18 13
-140.234068036079 -261.270999908447 2805.99999427795 11 14 5
-132.440745830536 -260.997712612152 2802.99997329712 13 16 7
-125.108480453491 -261.655241250992 2809.99994277954 13 16 9
-116.776280105114 -260.170787572861 2793.99991035461 13 16 9
-109.273165464401 -260.455191135406 2796.99993133545 13 16 9
-102.225705981255 -261.949837207794 2812.99996376038 13 16 9
-93.3762937784195 -258.694976568222 2778.00011634827 13 16 9
-86.2308517098427 -260.002732276917 2792.00005531311 15 18 11
-78.1921073794365 -258.609533309937 2776.99995040894 15 18 11
-70.3366249799728 -257.588505744934 2766.00003242493 14 17 10
-63.1538033485413 -259.081542491913 2782.00006484985 14 17 10
-56.0432001948357 -261.319279670715 2805.99999427795 14 17 10
-48.4565459191799 -261.69416308403 2809.99994277954 14 17 10
-40.7462529838085 -261.416792869568 2806.99992179871 12 15 8
-33.6533412337303 -265.888750553131 2855.00001907349 11 14 7
-25.9088166058064 -266.355723142624 2859.99989509583 10 13 6
-17.978647723794 -264.494091272354 2839.99991416931 13 15 10
73.8175436854362 -260.288000106812 2795.00007629395 4 6 1
81.9085314869881 -261.77453994751 2811.00010871887 7 9 4
95.8951860666275 -258.134722709656 2772.0000743866 6 8 3
102.709725499153 -256.267845630646 2752.00009346008 6 8 5
115.742579102516 -269.113510847092 2890.00010490417 7 9 6
120.844043791294 -263.0555331707 2825.00004768372 9 11 8
127.001121640205 -259.884029626846 2790.99988937378 9 11 6
131.670072674751 -254.198312759399 2730.00001907349 9 11 6
141.254439949989 -258.10295343399 2772.0000743866 9 11 6
150.691509246826 -261.355310678482 2806.99992179871 10 12 7
157.780379056931 -260.417431592941 2796.99993133545 10 12 7
164.932414889336 -259.665459394455 2789.00003433228 12 14 9
173.524871468544 -261.147618293762 2805.0000667572 13 15 10
182.591438293457 -263.187944889069 2826.99990272522 13 15 10
190.834879875183 -263.924539089203 2835.00003814697 15 17 12
-150.777012109756 -274.17778968811 2861.00006103516 17 19 14
-140.027850866318 -268.53021979332 2802.00004577637 11 14 5
-133.096218109131 -269.973963499069 2816.99991226196 13 16 7
-125.726118683815 -270.650744438171 2823.99988174438 12 15 8
-118.944257497787 -272.76486158371 2845.99995613098 12 15 8
-110.557392239571 -271.236628293991 2829.99992370605 13 16 9
-94.7501212358475 -270.191788673401 2819.00000572205 13 16 9
-86.9990140199661 -270.004242658615 2816.99991226196 14 17 10
-79.7089636325836 -271.349996328354 2831.00008964539 14 17 10
-71.5285167098045 -269.628167152405 2812.99996376038 14 17 10
-63.4687170386314 -268.001824617386 2796.0000038147 14 17 10
-56.2004148960114 -269.729912281036 2813.99989128113 14 17 10
-48.8509275019169 -271.553546190262 2832.99994468689 14 17 10
-41.2088856101036 -272.130757570267 2838.99998664856 13 16 9
-33.6282253265381 -273.474484682083 2852.9999256134 11 14 7
-25.6086960434914 -270.983576774597 2826.99990272522 11 14 7
-17.9145224392414 -271.2721824646 2829.99992370605 14 16 11
73.9198178052902 -268.285065889359 2799.00002479553 0 2 0
80.3022608160973 -264.159977436066 2756.00004196167 12 14 9
88.3935317397118 -265.881329774857 2773.9999294281 11 13 8
96.7210605740547 -267.985731363297 2796.0000038147 10 12 7
104.08591479063 -267.310202121735 2789.00003433228 9 11 8
118.314869701862 -265.095591545105 2766.00003242493 7 9 6
128.087446093559 -269.78611946106 2815.00005722046 9 11 6
135.233029723167 -268.725872039795 2803.99990081787 9 11 6
142.776742577553 -268.527865409851 2802.00004577637 8 10 5
149.772152304649 -267.371237277985 2789.99996185303 9 11 6
157.096400856972 -266.885101795197 2785.00008583069 10 12 7
163.801476359367 -265.440404415131 2769.99998092651 12 14 9
172.15621471405 -266.678541898727 2782.99999237061 12 14 9
180.90409040451 -268.395394086838 2801.00011825562 12 14 9
184.162631630898 -262.158870697021 2736.00006103516 14 16 11
186.856031417847 -255.634993314743 2667.99998283386 17 19 14
-142.819821834564 -281.680107116699 2858.00004005432 12 15 6
-132.570371031761 -276.561468839645 2805.99999427795 13 16 7
-125.809326767921 -278.538733720779 2825.99997520447 12 15 8
-109.966300427914 -277.465581893921 2815.00005722046 12 15 8
-101.85295343399 -276.287764310837 2802.99997329712 13 16 9
-94.4432243704796 -276.982367038727 2809.99994277954 13 16 9
-87.5508338212967 -279.450923204422 2835.00003814697 13 16 9
-79.6207711100578 -278.76490354538 2828.00006866455 13 16 9
-72.0082893967628 -279.162764549255 2832.00001716614 13 16 9
-64.6460801362991 -280.743211507797 2848.00004959106 14 17 10
-56.1578460037708 -277.197301387787 2812.00003623962 14 17 10
-48.7796701490879 -278.87561917305 2828.9999961853 14 17 10
-41.3375794887543 -280.750721693039 2848.00004959106 14 17 10
-33.4027111530304 -279.372423887253 2834.00011062622 12 15 8
-25.6618484854698 -279.275238513947 2832.99994468689 12 15 8
-17.8883615881205 -278.586208820343 2825.99997520447 15 17 12
79.8614621162415 -270.187675952911 2740.9999370575 15 18 11
88.1345048546791 -272.648006677628 2766.00003242493 14 17 10
96.6819599270821 -275.502234697342 2795.00007629395 12 14 9
104.37960922718 -275.694578886032 2796.99993133545 10 12 7
110.285721719265 -271.451145410538 2753.99994850159 8 10 7
128.21801006794 -277.748078107834 2818.00007820129 9 11 6
136.143088340759 -278.23469042778 2822.99995422363 8 10 5
142.566338181496 -275.764256715775 2798.00009727478 8 10 5
149.013742804527 -273.589193820953 2776.00002288818 9 11 6
155.848279595375 -272.3009288311 2763.00001144409 9 11 6
163.498312234879 -272.490590810776 2765.00010490417 11 13 8
171.591624617577 -273.36972951889 2773.9999294281 11 13 8
178.958341479301 -273.065984249115 2770.99990844727 12 14 9
186.981156468391 -273.747354745865 2778.00011634827 14 16 11
187.617897987366 -263.983279466629 2678.99990081787 16 18 13
-139.265209436417 -282.271236181259 2786.99994087219 11 14 5
-132.044419646263 -283.087998628616 2795.00007629395 13 16 7
-125.402718782425 -285.322457551956 2816.99991226196 12 15 8
-119.434557855129 -289.481073617935 2858.00004005432 12 15 8
-110.859513282776 -287.460893392563 2838.00005912781 12 15 8
-100.50368309021 -280.173003673553 2766.00003242493 12 15 8
-94.3378880620003 -284.330695867538 2806.99992179871 12 15 8
-86.4349454641342 -283.524721860886 2799.00002479553 12 15 8
-79.110212624073 -284.642994403839 2809.99994277954 13 16 9
-71.6997310519218 -285.659581422806 2819.9999332428 13 16 9
-64.1436353325844 -286.270678043365 2825.99997520447 13 16 9
-56.6743724048138 -287.489205598831 2838.00005912781 14 17 10
-48.8635450601578 -287.086546421051 2834.00011062622 14 17 10
-40.9727469086647 -285.974413156509 2822.99995422363 14 17 10
-33.7782464921474 -290.332198143005 2865.9999370575 13 16 9
-25.6515555083752 -286.889374256134 2832.00001716614 12 15 8
-17.9254785180092 -286.89044713974 2832.00001716614 13 15 10
72.8829652070999 -279.580503702164 2759.99999046326 0 1 0
81.2269672751427 -282.413065433502 2788.00010681152 10 13 6
88.2577449083328 -280.585646629334 2769.99998092651 10 13 6
97.8879779577255 -286.658763885498 2829.99992370605 11 14 7
105.531454086304 -286.451280117035 2828.00006866455 12 14 9
111.561894416809 -282.191872596741 2786.00001335144 11 13 8
117.491118609905 -278.236120939255 2746.99997901917 10 12 7
125.254601240158 -278.838008642197 2753.00002098084 8 10 5
135.027498006821 -283.592134714127 2799.99995231628 8 10 5
142.916262149811 -284.091889858246 2805.0000667572 8 10 5
148.46995472908 -280.135035514832 2766.00003242493 8 10 5
153.359219431877 -275.367826223373 2719.00010108948 9 11 6
161.716759204865 -276.980698108673 2734.99989509583 10 12 7
180.564478039742 -283.14197063446 2796.0000038147 11 13 8
185.559019446373 -279.183954000473 2756.99996948242 13 15 10
193.071469664574 -279.175013303757 2756.99996948242 14 16 11
200.947001576424 -279.672056436539 2762.00008392334 16 18 13
-148.700624704361 -293.492078781128 2822.00002670288 18 20 15
-140.008002519608 -291.419088840485 2802.00004577637 10 13 4
-132.557675242424 -291.841745376587 2805.99999427795 12 15 6
-125.48565864563 -293.200194835663 2819.00000572205 11 14 7
-119.888417422771 -298.406690359116 2868.99995803833 12 15 8
-111.361898481846 -296.540200710297 2851.0000705719 12 15 8
-102.170132100582 -292.488932609558 2812.00003623962 12 15 8
-92.5857573747635 -286.564856767654 2755.00011444092 12 15 8
-86.0910564661026 -290.001839399338 2788.00010681152 12 15 8
-78.2617926597595 -289.173752069473 2779.99997138977 12 15 8
-71.3402852416039 -291.88197851181 2805.99999427795 13 16 9
-64.1404911875725 -293.965727090836 2825.99997520447 13 16 9
-56.372057646513 -293.656677007675 2822.99995422363 14 17 10
-48.6197620630264 -293.347179889679 2819.9999332428 14 17 10
-41.5077283978462 -297.510415315628 2859.99989509583 14 17 10
-33.2698225975037 -293.66335272789 2822.99995422363 13 16 9
-25.414802134037 -291.896373033524 2805.99999427795 12 15 8
73.19625467062 -288.343995809555 2772.0000743866 0 1 0
81.5725848078728 -291.252672672272 2799.99995231628 11 14 7
89.9738892912865 -293.744891881943 2823.99988174438 12 15 8
97.8140160441399 -294.156312942505 2828.00006866455 12 15 8
105.974085628986 -295.399457216263 2839.99991416931 12 14 9
112.917877733707 -293.313801288605 2819.9999332428 12 14 9
118.640169501305 -288.523614406586 2773.9999294281 10 12 7
126.79535150528 -289.869666099548 2786.99994087219 8 10 5
134.201183915138 -289.447277784348 2782.99999237061 8 10 5
142.399862408638 -290.688574314117 2795.00007629395 8 10 5
148.194402456284 -287.145376205444 2760.99991798401 8 10 5
152.957007288933 -282.042056322098 2711.99989318848 9 11 6
160.585597157478 -282.450437545776 2716.00008010864 10 12 7
170.152753591537 -286.082178354263 2750.99992752075 10 12 7
178.231060504913 -287.009626626968 2759.99999046326 11 13 8
187.703818082809 -290.016442537308 2789.00003433228 13 15 10
193.762540817261 -287.719547748566 2766.99995994568 14 16 11
199.045941233635 -284.48674082756 2736.00006103516 16 18 13
211.782604455948 -291.755259037018 2805.99999427795 15 17 12
-150.537446141243 -304.909199476242 2857.00011253357 17 19 14
-143.548563122749 -306.624114513397 2872.99990653992 12 15 6
-134.535104036331 -303.962886333466 2848.00004959106 12 15 6
-127.304404973984 -305.250197649002 2859.99989509583 11 14 7
-119.924232363701 -306.323736906052 2869.99988555908 11 14 7
-111.278228461742 -304.088145494461 2848.99997711182 11 14 7
-103.291310369968 -303.453147411346 2842.99993515015 11 14 7
-95.0342863798141 -301.857084035873 2828.00006866455 11 14 7
-86.3028913736343 -298.339277505875 2795.00007629395 11 14 7
-79.2994275689125 -300.691723823547 2816.99991226196 11 14 7
-71.5146735310555 -300.268590450287 2812.99996376038 12 15 8
-63.9784038066864 -300.912499427795 2819.00000572205 12 15 8
