ply
format ascii 1.0
comment KinectMotionCapture
element vertex 769
property float x
property float y
property float z
property uchar red
property uchar green
property uchar blue
end_header
-8.97778235081836 496.510146752987 2791.64863008771 130 132 129
-16.4159189050679 495.84496684501 2788.72327015286 146 148 145
-22.3882069647416 495.37690233858 2784.39146024446 153 155 152
-31.2691475398907 494.51600629628 2782.88955727852 154 156 153
-36.5099835745941 494.146230864659 2777.85345377732 151 153 150
-42.4787123065449 493.678081304624 2773.52422367074 148 150 147
-45.5672807714507 493.600275859137 2766.34441938347 147 149 146
-51.5469236831625 493.130973281655 2762.0072715148 143 145 142
-57.5275478013326 492.661486663831 2757.66941141642 130 130 128
-62.7955754701717 492.288881096535 2752.61358178414 122 122 120
-67.3574153736731 492.012641982471 2746.83483974262 110 110 108
-69.8013457650586 492.025793994472 2738.88777144036 120 121 116
-72.9752178917697 491.94036565284 2731.64579561969 116 117 112
-78.9874572556637 491.467585985792 2727.28500027504 118 117 113
-85.7034573023019 490.898278023381 2723.64887596385 117 116 112
-98.0196066274255 489.56045552593 2725.82977876056 117 116 112
-120.77135318789 486.786867005816 2738.96573827686 123 122 118
-146.898167950607 483.542752130488 2755.82783866307 129 129 129
-161.796397904156 481.837324736264 2761.07580958747 123 123 123
-167.646692783516 481.376230526955 2756.83247044488 130 130 130
-172.119132544968 481.105257697937 2751.11885762601 119 119 119
-177.288360895318 480.738300674157 2746.13438386215 152 152 152
-183.833171831288 480.180979008687 2742.6224189036 149 149 149
-190.37429340983 479.623751696536 2739.11283443987 157 157 157
-195.550753395192 479.255606813942 2734.12340676975 164 164 164
-199.375655175309 479.075532225787 2727.64433736398 173 173 173
-201.186077615414 479.176623703387 2718.92162681985 176 176 176
-204.371893737505 479.087340548266 2711.67126749366 177 177 177
-203.545615317963 479.559262316631 2699.92139500738 185 187 184
166.895698422171 506.536683963516 2800.62150529991 196 200 201
166.877328742838 506.843558177092 2790.72886111808 160 162 161
151.489614620361 505.176971199637 2794.38715462749 152 154 153
131.567082002672 502.924312472393 2802.16560711516 145 147 146
110.197940388759 500.481319963787 2811.3647855266 144 146 145
94.2361227747597 498.731207251296 2815.84151271792 140 142 141
82.1196445024182 497.474637365164 2816.9328307303 135 135 135
69.2819023991236 496.123027963653 2818.73554995739 145 145 145
60.2497318101887 495.261824789133 2817.12431004838 174 174 174
48.9805340878151 494.109959702862 2817.59503905753 234 234 234
44.4828882397736 493.834709084231 2811.86283766371 194 194 194
35.4940108299573 492.976733934493 2810.28270377772 139 139 139
29.5004508404517 492.507229947638 2805.93546610217 137 139 136
17.5657747466347 491.264432164439 2807.15864615204 146 148 145
8.6266049767616 490.410095553093 2805.61456482498 147 149 146
0.441975471704659 489.653259821694 2803.38292307055 144 146 143
-5.52276956048736 489.185657025075 2799.0565836024 145 147 144
-11.4885671921647 488.717849468527 2794.72948004527 157 159 156
-17.4555145396424 488.249844220502 2790.40154203327 162 164 161
-24.1525799911786 487.686092520606 2786.7788774807 163 165 162
-31.57356739134 487.027017069187 2783.86627473093 163 165 162
-36.0871173635613 486.749462394272 2778.12253242757 165 167 164
-42.7785756519836 486.185761666369 2774.50393288538 167 169 166
-47.3054201543071 485.906901369366 2768.75084095722 175 177 174
-53.9967216272264 485.342989305961 2765.13235402348 171 173 170
-59.2526616238938 484.968256296527 2760.08527622682 144 144 142
-64.5140113901772 484.592965547793 2755.03427394764 132 132 130
-68.3573688987895 484.405585753778 2748.54178858812 128 128 126
-70.7960671594696 484.404977048186 2740.5981489913 115 116 111
-73.9651870148259 484.308518047253 2733.35985679811 109 110 105
-79.2680823841749 483.929353818912 2728.27871760471 106 105 101
-84.5762459397714 483.549603090816 2723.19346194291 108 107 103
-91.991910518938 482.889166532804 2720.28471092541 114 113 109
-109.177645396205 480.924754994642 2727.57851327171 119 118 114
-136.040754753475 477.663594088247 2745.14210275773 118 118 118
-154.44419963257 475.526590176095 2754.02236018049 120 120 120
-163.084049549602 474.692688565144 2752.69566018689 126 126 126
-168.258990728149 474.322356227578 2747.70702797532 122 122 122
-172.752017140354 474.04369646088 2741.97845251813 151 151 151
-179.995332401901 473.395598678301 2739.19440922039 150 150 150
-187.913811538293 472.655932924542 2737.15579251746 157 157 157
-193.777585109763 472.192402555012 2732.90267004367 162 162 162
-197.606585364198 472.003392835342 2726.42058430821 171 171 171
-200.773418322854 471.904505306632 2719.18393763427 174 174 174
-204.632851641658 471.712686642412 2712.67977609311 176 176 176
-205.146871838139 471.974911914353 2702.42759811801 184 186 183
175.046585032048 499.835762657096 2794.14506574141 196 200 201
171.931499809419 499.73468961984 2786.94592103564 142 146 145
158.062491256447 498.290877983941 2789.23591728877 133 135 134
141.942571927531 496.563534711289 2793.59814850458 133 135 134
122.066467674424 494.363234215443 2801.41081758635 134 136 135
106.069726883846 492.64546650737 2805.86239205549 128 130 129
91.6451484069913 491.122289161882 2808.98427844058 127 129 128
78.023653248589 489.697707393833 2811.45379983871 134 134 134
68.213151156487 488.750279366889 2810.51293069596 126 126 126
56.1694571152165 487.520640215711 2811.6568534832 132 132 132
46.4075898798679 486.576917756871 2810.75096507844 174 174 174
36.6665334429692 485.634757139587 2809.86046525367 215 215 215
27.6913368531733 484.788211032918 2808.29030677644 207 209 208
18.7327554215204 483.942921323633 2806.73219934583 185 187 186
9.05012179008668 483.005090334389 2805.88407338996 163 165 164
0.865016653995632 482.25595289564 2803.65212583381 169 171 170
-5.09979743561617 481.787851618124 2799.32573377956 182 184 183
-11.0656649499752 481.319560449778 2794.99857711339 193 195 194
-17.0325867143433 480.851094259702 2790.67065531238 195 197 196
-23.7299685372243 480.289557323269 2787.04777263368 195 197 196
-31.878473310365 479.542772547993 2784.84236937843 198 200 199
-36.3896004980759 479.25946963603 2779.10035428731 200 202 201
-42.3563032719678 478.790543236103 2774.77258890611 202 204 203
-48.3240345725822 478.321414026411 2770.44407689667 207 209 208
-55.0113862087733 477.760057759324 2766.8287607065 202 204 203
-59.5464410379707 477.474368362938 2761.06938786942 186 188 187
-64.0915936713411 477.18772193064 2755.30298454804 169 171 170
-67.2226908355591 477.083145803959 2748.09192022323 134 134 132
-69.6630576663515 477.068252999755 2740.14729316958 124 124 122
-73.541189091805 476.86913936625 2733.62954002141 121 121 119
-78.8440531170123 476.486796318974 2728.54840744871 111 111 109
-84.152162080966 476.103883591205 2723.4631753454 109 108 104
-90.1665982636681 475.62973108103 2719.1007805262 105 104 100
-105.263615436807 473.979548756375 2724.20492617996 104 103 101
-127.964418288915 471.34068722479 2737.3784982964 116 116 116
-149.171690752311 468.890140186236 2749.16505410272 131 131 131
-159.211594734613 467.885736990435 2749.29263467283 111 111 111
-164.397648230408 467.511378239324 2744.29622098778 152 152 152
-170.276575948823 467.046844254195 2740.03210786596 151 151 151
-176.841686486964 466.49269204926 2736.50514886949 155 155 155
-185.452642940529 465.670948630301 2735.19916147079 157 157 157
-191.323209297692 465.206509506484 2730.94111015867 160 160 160
-196.515998495953 464.830649187311 2725.93980601342 164 164 164
-201.037446593116 464.542910601715 2720.19028660723 174 174 174
-205.568749291035 464.254189874535 2714.43391289291 176 176 176
-206.077090065025 464.494595377547 2704.18544705393 182 184 181
176.217949949367 492.499257847043 2783.84113370808 144 148 147
165.404221485349 491.453614267941 2783.40754350649 125 129 128
151.556843090956 490.038335081274 2785.71336444566 123 127 126
132.414289739791 487.977273424125 2792.82317439695 126 130 129
115.626631270487 486.199638846354 2797.93612915346 123 125 124
104.206619979223 485.073418821961 2798.2976600853 126 128 127
89.7924944872903 483.580616665487 2801.42727791856 124 126 125
76.9331194796208 482.275553054471 2803.21484523223 138 140 139
62.6090014610936 480.789709338574 2806.41004112671 125 125 125
51.3299434852494 479.674340538442 2806.87380708857 118 118 118
41.5751039252137 478.744286231158 2805.97308242751 123 123 123
32.5860381859941 477.907131480186 2804.39291747695 184 186 185
22.8706491704402 476.980014618179 2803.52110071326 201 203 202
13.176398964553 476.054465453541 2802.6643213875 194 196 195
4.97978957085854 475.312192609509 2800.42406892003 201 203 202
-3.20472456733323 474.570705448664 2798.19258854104 193 195 194
-11.3770047902755 473.830119755668 2795.96998135441 172 174 173
-18.8055153484437 473.180680908856 2793.05197371816 145 147 146
-24.766868192085 472.712083361267 2788.72808828127 133 135 134
-32.1840799238842 472.06331051176 2785.81798030176 138 140 139
-37.4180276301237 471.684444485412 2780.78682425122 148 150 149
-43.3803708982774 471.215393303547 2776.46221853672 155 157 156
-47.9021576804464 470.925043360682 2770.71244038349 172 174 173
-53.1524567098729 470.544524103816 2765.66942253588 187 189 188
-57.6919192650376 470.252513609329 2759.90711690359 205 207 206
-62.9552088861132 469.870692636027 2754.85438082838 191 193 192
-64.6641170487547 469.932093362436 2746.20505910892 147 149 148
-67.8201378817507 469.813977942672 2738.97615298256 127 127 125
-71.7023404077119 469.60587165142 2732.45540305717 125 125 123
-77.7148449925309 469.13177107054 2728.09440875753 115 115 113
-83.0252764141364 468.745484262064 2723.00777044174 111 111 109
-90.4439808405324 468.094942955154 2720.09686589551 111 111 109
-103.444704366393 466.743174030711 2723.01676670939 111 111 109
-125.457152071504 464.256648117796 2735.45478266583 117 117 117
-144.591572244637 462.127349407602 2745.04021615572 123 123 123
-154.64572624249 461.137892759815 2745.15754229265 116 116 116
-160.534923127631 460.67234762621 2740.88597971105 146 146 146
-167.800452157372 460.032900870755 2738.08617147486 147 147 147
-174.372480780792 459.480533168507 2734.55420644959 154 154 154
-184.357449112444 458.495800109989 2734.72171067836 158 158 158
-189.54931035732 458.117162198213 2729.72106515728 161 161 161
-195.425286624275 457.651732181079 2725.45908706702 165 165 165
-199.272200971043 457.443915641833 2718.96391976347 172 172 172
-203.807592461591 457.149043232446 2713.20425635962 174 174 174
-204.991623785319 457.281229317112 2703.70075097471 179 181 178
185.121582252624 485.779076690591 2776.67494690595 139 144 140
174.282849024759 484.747403853274 2776.22330098198 120 125 121
160.409767134499 483.356942049579 2778.51061461339 119 124 120
141.240401680787 481.339800666528 2785.6012103642 135 140 136
124.426196924445 479.597903480664 2790.69539664467 133 138 134
109.189376865369 478.040061316184 2794.46333281777 140 142 139
96.2724725026258 476.754652918605 2796.20929543173 135 137 134
83.3941866288064 475.472268497638 2797.98326872952 137 139 136
71.3061868575577 474.281951083483 2799.09527251992 137 139 136
60.0017805128878 473.183258468845 2799.54074737643 126 128 125
48.7271845016139 472.086831464129 2800.00784385556 123 125 122
38.2273256158649 471.081266991916 2799.80198741814 118 120 119
29.9816975217024 470.342983949849 2797.52622045773 110 112 111
20.2666912735707 469.429011863707 2796.65474775119 103 105 104
11.3112468548753 468.60475219919 2795.09902092955 107 109 108
0.899572137198934 467.605793933712 2794.95712453924 130 132 131
-8.75244280946497 466.696526152312 2794.13104492265 127 129 128
-17.6517247866463 465.876368193285 2792.61605222938 156 158 157
-23.6153854546806 465.407090799707 2788.29049035778 171 173 172
-31.7627953050215 464.675868373523 2786.08595966181 185 187 186
-36.99666187107 464.293797690368 2781.0548461993 189 191 190
-43.6822126623371 463.737371394596 2777.4405659743 191 193 192
-47.4806528885123 463.527970432765 2770.98053056985 191 195 194
-52.0122106712615 463.230775291019 2765.22392901452 182 186 185
-56.5534452569612 462.932696246215 2759.46001358405 159 161 160
-61.1047303265695 462.633678934921 2753.68910206783 150 152 151
-64.9536047822439 462.41978896729 2747.19248307639 120 122 119
-67.39681838696 462.376366487779 2739.24535335011 115 117 114
-71.9864813580373 462.07391154748 2733.44660346182 111 113 110
-77.2912844127756 461.685023406539 2728.36373761601 112 112 110
-84.7115543624393 461.039597794568 2725.45172410055 111 112 107
-92.124086226731 460.39460488641 2722.54532228004 101 102 97
-105.119850325037 459.070241935375 2725.46895710545 99 99 97
-124.342462057966 456.985880396191 2734.99068626718 114 114 114
-143.482313044459 454.907905167836 2744.57273728514 104 104 104
-154.924374478194 453.765326047337 2746.1535318423 141 141 141
-160.811408255874 453.299582750715 2741.88353633972 139 139 139
-168.762826454666 452.581255220884 2739.82085501279 151 151 151
-176.016444526796 451.947657442723 2737.02971091019 142 142 142
-184.628933943278 451.146998891065 2735.72271903296 157 157 157
-189.137401010396 450.848970947162 2729.98285221186 164 164 164
-192.97648446936 450.633379855173 2723.49332230636 167 167 167
-195.47599011326 450.582962532232 2715.50534984928 169 169 169
-200.022440839759 450.281364601839 2709.73792978021 170 170 170
-201.216400128333 450.393229696595 2700.22682999486 183 185 182
-199.761654252048 450.833130642509 2687.69734815916 179 181 176
188.641814403192 478.383811241812 2774.24893884611 139 144 140
178.560574028816 477.454822277761 2773.11189914219 147 152 148
160.849679949101 475.653037482534 2778.79049500548 132 137 133
143.966351000387 473.943557046186 2783.83444140392 133 138 134
125.622102687221 472.064569253047 2790.28884532475 145 150 146
114.932059444597 471.060325995184 2789.9451268805 139 141 138
101.998364269385 469.797738663738 2791.67903306938 142 144 141
89.1031937678282 468.538122900959 2793.44088166792 142 144 141
75.4947264501973 467.19511626023 2795.92026041995 130 132 129
63.4286115630074 466.027870435867 2797.048245892 102 104 101
52.8914650273729 465.035386206364 2796.81542509543 98 100 97
43.1251562616692 464.130734852059 2795.90651483338 106 108 107
34.1226168809978 463.313364471701 2794.31697724134 116 118 117
23.6550575839347 462.326118891405 2794.13433377684 137 139 138
12.4738294403621 461.255398331529 2794.66953930108 139 141 140
3.53211316195257 460.442586479505 2793.12382228673 142 144 143
-5.39312826858529 459.630944978399 2791.59005416925 164 166 165
-15.0340659867316 458.735668829949 2790.77237001941 167 169 168
-23.1939292130039 458.011328302613 2788.55855198661 164 166 165
-30.6142178317321 457.372338574326 2785.64655753656 151 153 152
-36.5756715132644 456.902508109532 2781.32259275517 149 151 150
-43.2614199625838 456.34833606623 2777.70818066186 148 150 149
-48.5016685828048 455.962313096139 2772.67242069298 156 160 159
-51.5907768992225 455.827139725981 2765.49193447598 167 171 170
-57.5652308382941 455.355837888637 2761.15853807766 183 185 184
-61.3972845371089 455.134707480514 2754.67407613759 179 181 178
-65.9557987271331 454.82904511018 2748.89759594214 143 145 142
-67.6840579182649 454.854924186912 2740.23436080202 121 123 120
-73.6869635277719 454.380839496439 2735.88032508492 114 116 113
-78.9849956899484 453.989333451101 2730.80235434342 107 108 103
-86.399139572511 453.349422599361 2727.89480967809 106 107 102
-92.4028621456188 452.874808711157 2723.54017904614 104 105 100
-105.398072957288 451.577509722931 2726.46435204516 105 106 101
-122.531175883674 449.791037230525 2733.79720971222 111 111 111
-140.289162284093 447.928007735903 2741.91172486617 113 113 113
-152.433723975601 446.724479896366 2744.2179899063 144 144 144
-160.398195789289 446.013140779671 2742.14617561006 142 142 142
-168.350191686999 445.30260782553 2740.08311497792 149 149 149
-175.604260507938 444.674081627886 2737.29166980645 143 143 143
-182.850397836138 444.045988866257 2734.50597653876 157 157 157
-186.681603087034 443.822641990946 2728.02211842984 162 162 162
-190.526976467024 443.597953171772 2721.52798274457 164 164 164
-193.709551085936 443.452444837294 2714.27968846159 167 167 167
-198.260089779803 443.144680355595 2708.50897922591 169 169 169
-200.130171089754 443.156535724488 2699.74256869536 180 182 179
-198.67609668429 443.56583824826 2687.21244510908 177 179 174
198.319976292299 471.646697962226 2766.4091026763 185 191 187
182.072261978895 470.049594003723 2770.67935226838 201 206 202
159.758531175862 467.779066288507 2780.4299824925 177 182 178
142.114544215076 466.023058663245 2786.15731262456 186 191 187
127.578455465964 464.609539189365 2789.1992127493 115 120 116
114.607304766935 463.368193045273 2790.9057797434 128 133 129
103.187195698396 462.297850861366 2791.2678173037 131 136 132
91.0428496892859 461.145954448585 2792.33916911373 131 133 130
81.1886045416559 460.247751471075 2791.36683903109 121 123 120
67.6060539849677 458.933594670266 2793.86515152634 116 118 115
55.5617766615719 457.789401666273 2795.0090842815 123 125 122
45.7878580580884 456.897347571775 2794.09501577027 124 126 123
35.2918225677139 455.923881124486 2793.89179909955 125 127 124
24.8209326236797 454.952297809768 2793.70711498747 143 145 142
13.6365964912217 453.900014923909 2794.23986637766 144 146 143
6.90177328911901 453.344834955564 2790.59016832044 137 139 136
0.170561449324147 452.78984757374 2786.9427947153 138 140 137
-10.9510661005663 451.742226575709 2787.52102850864 117 119 116
-22.0428600695599 450.69688800686 2788.12090086242 95 97 94
-30.9213090770832 449.899148854584 2786.62112398912 46 48 45
-36.8806179470873 449.429014192921 2782.29871248656 29 31 28
-43.5645117153343 448.877243150917 2778.68595152971 20 22 19
-48.8024183835773 448.48814350875 2773.65157923082 173 178 174
-51.8886574331612 448.341791512503 2766.47311638464 176 181 177
-57.8609906334677 447.870183528128 2762.14125580442 184 189 185
-60.9758398195126 447.721289752451 2754.94203998513 181 186 182
-66.9590888501037 447.248558488826 2750.60226059695 152 154 149
-68.6819648876578 447.257955802956 2741.94254985934 134 136 131
-75.3884469928732 446.703537953862 2738.31310625135 126 128 123
-78.562566763017 446.549469201024 2731.07089770847 111 113 108
-85.9770618022893 445.914578254059 2728.16312390895 108 109 104
-91.9809048793891 445.439521461027 2723.80840367769 102 103 97
-105.676854323239 444.089616303719 2727.45936645632 103 104 99
-123.507295470221 442.267257598622 2735.52156362379 125 125 125
-139.179443211847 440.688078750384 2741.44447560739 123 123 123
-149.942487989402 439.66654963709 2742.28278586548 144 144 144
-159.294808586495 438.804860528216 2741.67420207404 151 151 151
-169.31421842029 437.866013597351 2741.81697134517 144 144 144
-177.250191476234 437.16445117476 2739.76586592751 147 147 147
-181.071346193547 436.933419947045 2733.28925474211 159 159 159
-183.543669077554 436.857329663443 2725.32115208621 161 161 161
-186.718073707419 436.701330609281 2718.07843278806 161 161 161
-191.942571625138 436.310355329016 2713.05406575513 165 165 165
-196.497336568693 435.99639358007 2707.28026143047 169 169 169
-201.061956938266 435.681464558638 2701.49960227476 177 179 176
-198.931293681948 436.137926414267 2688.22486015069 175 177 172
197.994074206807 463.773174874705 2767.36829945899 203 209 205
180.97901212896 462.128956974878 2772.31708026841 201 207 203
154.074241077262 459.423555047049 2786.14787896721 178 183 179
138.734843125009 457.954721026613 2789.84219955725 138 143 139
126.491321039515 456.816507122423 2790.84172581759 141 146 142
118.075815864481 456.088344732406 2788.44286259899 135 140 136
105.889313314261 454.954566237452 2789.48404048055 120 125 121
93.7370916518634 453.823449966669 2790.54978831696 104 109 105
81.618777196331 452.694941556625 2791.64042389758 111 113 110
67.2846911919684 451.326737013906 2794.82869517499 111 113 110
54.4934209514305 450.123422998876 2796.66614846954 107 109 106
44.723297293479 449.244809618254 2795.75460459815 116 118 113
35.7174314941533 448.448069737828 2794.16246563478 104 106 101
25.2456111999444 447.49237758898 2793.97718758389 75 77 72
14.7990747343973 446.538599288642 2793.81024801399 49 51 46
8.79881561849016 446.065192008233 2789.4581342278 6 8 3
2.06300245551017 445.512072260986 2785.80743448521 10 12 7
-7.59942533986724 444.641506750793 2784.97429688403 14 16 11
-20.1616768102049 443.45561067775 2786.97785899791 14 16 11
-30.5011547882725 442.509852704459 2786.88827455785 11 13 8
-35.734725661914 442.118097605718 2781.8573263956 8 10 5
-42.4208926748397 441.568417248097 2778.24263362788 7 9 4
-46.939623771556 441.254472489993 2772.49524557088 10 15 9
-52.1872884576438 440.861251621858 2767.45377860179 10 15 9
-57.4404820744756 440.467533463235 2762.40859555095 11 16 10
-59.8400618184556 440.385223126699 2754.49319444387 13 18 11
-65.1128685125879 439.989711564307 2749.43348989377 13 18 11
-68.2601043014128 439.826588876518 2742.21072426272 16 19 12
-77.0914282738999 439.041987412803 2740.745175878 12 15 8
-81.6703722337007 438.722417943586 2734.95410974127 11 14 5
-86.2590643894796 438.401943851726 2729.15567787013 11 14 5
-90.8577107381145 438.080539294026 2723.35031975619 5 8 0
-108.054401786601 436.37617587424 2730.63720245812 4 7 0
-126.576027195667 434.523906413191 2739.43352500576 79 79 79
-138.764571456141 433.365641128026 2741.70813540676 129 129 129
-146.757753140843 432.667842752108 2739.61528282183 133 133 133
-157.501046070755 431.666519379608 2740.46830843888 141 141 141
-168.214192851274 430.667418719677 2741.34290442444 153 153 153
-175.466737149748 430.04923679533 2738.55232233059 155 155 155
-177.92422909522 429.960367930393 2730.59490621251 160 160 160
-179.722934587468 429.944892526956 2721.88009909969 159 159 159
-183.587506994115 429.701457089687 2715.37195067495 157 157 157
-190.17523733345 429.156644522034 2711.82864140897 163 163 163
-195.409423526509 428.761598473584 2706.79723051924 167 167 167
-198.630304515702 428.590015398966 2699.52103505725 176 178 175
-195.833940519177 429.087313263304 2685.49404381975 176 178 173
190.738115968188 455.18802874877 2774.4160647474 178 184 180
175.278376029858 453.742070386041 2778.0229682562 165 171 167
153.745579167059 451.66598023159 2787.10566239492 102 107 103
136.879962954913 450.071298613771 2792.16303061276 68 73 69
126.164072731499 449.112756514365 2791.80080662591 53 58 54
116.991344784708 448.313641160628 2790.08769369858 67 72 68
104.051291261002 447.12291836415 2791.81735459298 75 80 76
91.149901518536 445.935182983182 2793.57476434235 78 83 79
83.5533756104976 445.298046899109 2790.53502110926 58 60 57
72.2138364136389 444.271202836576 2790.95539133853 8 10 7
60.15602330314 443.168734662412 2792.08972305724 0 1 0
47.3864869237883 441.991213282182 2793.94306233637 6 8 3
35.3989366693419 440.894193630113 2795.12865117378 3 5 0
30.8594694366517 440.573420687256 2789.36590198616 11 13 8
7.09149715470225 438.244914592576 2801.76713774283 13 15 10
6.27420610108365 438.31198235846 2792.52916036923 17 19 14
-2.65739282511945 437.531236140142 2790.99094005816 18 20 15
-4.97945849092973 437.441703206166 2783.1316939767 19 21 16
-8.0548753873364 437.273764250506 2775.96096699811 21 23 18
-37.363055156814 434.356823606728 2794.22388956383 26 28 23
-0.46819609420945 438.379896932051 2748.11767622398 28 30 25
-31.1447805111695 435.317099779743 2767.85853647801 30 32 27
-37.8608709183299 434.767190878682 2764.22215044559 32 37 31
-61.1188805695864 432.478160322036 2776.99326894778 34 39 33
-64.1919053247402 432.309817718343 2769.82427403888 26 31 24
-70.143378588327 431.838794360898 2765.50753823321 21 26 19
-69.6811250337086 432.043440014889 2754.72745917666 18 23 16
-77.0756620386093 431.420591187036 2751.83421437788 21 24 17
-76.670622014644 431.620467483397 2741.01263585422 16 19 12
-82.6615274297087 431.145831475216 2736.66729654164 13 16 7
-84.4300063266874 431.117371345242 2727.97463003962 15 18 9
-85.5240726393369 431.160811993778 2718.53559822104 16 19 10
-109.734085471857 428.757989841958 2733.08638065893 18 21 14
-127.554494045372 427.028912377163 2741.15632314089 66 66 66
-138.350002883392 426.042566570362 2741.97157219614 136 136 136
-145.650929962975 425.426066083839 2739.14592490854 146 146 146
-156.397433774918 424.443291537494 2739.99642236512 146 146 146
-165.048703502267 423.682263342267 2738.66181302552 154 154 154
-172.310484282837 423.068426320107 2735.86455721648 155 155 155
-174.776176322015 422.964793615745 2727.90112189371 156 156 156
-178.628412933104 422.713888829686 2721.4018781167 155 155 155
-183.174458928379 422.389222344085 2715.63434012212 154 154 154
-189.085041661051 421.919062079246 2711.3472511067 160 160 160
-192.295770889838 421.737099445088 2704.07836229796 164 164 164
-195.525003820872 421.553488445151 2696.79605141128 174 176 173
-192.064708498713 422.085942314601 2682.01520512659 176 178 173
158.835452106959 444.196543590282 2803.10883546623 209 215 211
169.574675487965 445.398290039462 2783.72714758265 118 124 120
133.449327031498 442.17586978589 2785.9306931503 49 54 50
106.037489137978 439.56108937337 2800.62940391916 47 52 48
94.6427011021034 438.548629070795 2801.01009041956 43 48 44
81.7684342187226 437.387182637372 2802.78729526701 40 45 39
64.41738665603 435.775718723006 2808.7280100398 24 26 21
60.5833786844783 435.649257605587 2792.36143445967 15 17 12
73.173987264588 437.045005191398 2770.61772798384 28 31 24
-34.5989478089088 426.971832344731 2812.24689762032 23 26 19
-29.2751973882659 428.031169751021 2766.70656477528 25 28 21
-77.9696918326951 423.363738087114 2794.3748248205 23 28 21
-72.3814537354446 424.060734053394 2778.66732984578 24 29 22
-62.5740993948971 425.187212757104 2758.60972896174 24 29 22
-72.1133237360956 424.351914670485 2757.86608281023 26 32 22
-76.6565271058646 424.023520441496 2752.10058661379 30 33 24
-75.5417290430209 424.270340991243 2740.5587279922 24 27 18
-87.8915032930099 423.148512029727 2742.71664389015 18 21 12
-89.6413789631334 423.104566430752 2734.03709035032 17 20 11
-95.6299835764285 422.629429759299 2729.69341640208 14 17 8
-107.916683200834 421.512202723454 2731.89707975185 14 17 10
-125.744222259777 419.828819194685 2739.96208464155 56 56 56
-135.850003497399 418.931741106019 2740.04245300621 137 137 137
-143.851075624624 418.248981690172 2737.94425112342 156 156 156
-153.221493470694 417.425810050623 2737.32274334856 148 148 148
-161.882139370799 416.674601513703 2735.98109228272 157 157 157
-169.153298216834 416.065138154183 2733.17735474437 157 157 157
-170.94282957575 416.016814997766 2724.46903177624 152 152 152
-174.80576059826 415.756440735727 2717.96198742741 153 153 153
-180.04253444259 415.355300292869 2712.92866982474 155 155 155
-185.96209975714 414.884038939876 2708.63506356678 161 161 161
-188.505682231685 414.759463584444 2700.61476324947 161 161 161
-190.399264228479 414.702079278317 2691.83126033391 167 169 166
-188.965234196478 414.987526715989 2679.28568432609 172 174 171
182.301465659559 438.873346207853 2773.15796080202 41 46 40
122.326456797933 433.627620434529 2776.58915194677 40 43 36
63.3239912876631 428.034291754823 2820.24742227233 37 40 33
-54.740811274171 417.542727352777 2842.06242856841 22 25 18
-91.3484750895466 414.090785321044 2867.38263368313 22 25 18
-72.970882491743 415.98059908637 2839.95536150003 22 25 18
-31.7498325008432 420.310775232385 2769.81398464438 26 29 22
-52.8995791960822 418.359030596609 2780.41002648803 27 30 23
-60.2838648191564 417.747442118339 2777.52397569359 28 31 24
-46.8540770919659 419.165842907954 2753.91835509797 27 30 23
-60.7243255811925 417.921942882954 2757.44379619279 27 30 23
-70.9815947887167 417.029892991359 2757.41407868694 32 35 28
-101.828415161678 414.125436039488 2778.26736991698 31 34 27
-107.719196458324 413.657940364518 2773.99464888179 20 23 16
-86.7661509349242 415.816340085555 2742.25996582811 16 19 12
-94.8555133770155 415.134986471088 2740.09776753253 15 18 11
-114.867122512585 413.285625288756 2750.2840570684 14 17 10
-109.598066038539 413.911996352831 2734.34511727132 14 17 10
-122.538379680619 412.754001374417 2737.3097920024 52 54 51
-133.34937873489 411.803984124681 2738.11370140359 141 143 142
-142.743917270463 410.992360542514 2737.47476651934 140 142 141
-150.735470705707 410.318034391171 2735.38350765566 145 147 146
-158.026008094479 409.712228737404 2732.56574072511 162 164 163
-164.621963844059 409.174456771948 2729.01650434575 153 155 154
-169.161309702114 408.838862259668 2723.25376807102 153 154 156
-173.710586505523 408.502354100808 2717.48412249129 148 149 151
-178.94949803018 408.097903931706 2712.44923847412 149 150 152
-184.19353578029 407.692923571119 2707.41034118416 160 161 163
-186.065399945729 407.620574960859 2698.64221171387 160 162 161
-188.638041668543 407.479421876647 2690.60105623489 169 169 167
-188.549128787294 407.601472254418 2679.54991619537 173 173 171
-187.832024919671 407.786233103451 2667.71944621983 190 191 186
245.734763735613 436.963705626995 2717.85207408509 3 8 2
128.818459318555 426.538732016592 2771.37826003812 41 44 37
87.1534184225649 422.749462685659 2799.20603357108 39 42 35
84.0883709048543 422.548489022102 2792.04265624909 33 36 29
114.032730044047 425.420161271407 2754.47862593958 23 24 18
68.9211815657358 421.305695601714 2785.98178301344 21 22 16
-43.3026825754199 411.343622421714 2831.79604512922 19 22 15
-95.3436021957546 406.565378727849 2871.85917184485 18 21 14
-72.5627337533437 408.775371884378 2840.21474133456 18 21 14
-60.1554512078077 410.017846174653 2818.33706706742 19 22 15
-49.3122872120484 411.115550896833 2797.79516433262 20 23 16
-35.6746453823296 412.476110417816 2774.33992863432 20 23 16
-44.5398184277104 411.731513501472 2772.85004496521 17 20 13
-49.0696440495624 411.392652949394 2767.09448804676 17 20 13
-45.7154166377052 411.792654972608 2753.4714110818 21 24 17
-47.427436645008 411.718424119668 2744.81914651905 23 26 19
-64.1444950506134 410.237017938038 2751.22011232986 23 26 19
-99.9934729678207 406.959129722471 2777.09089218319 27 30 23
-99.509622099101 407.089735392615 2766.32638893045 22 25 18
-106.132250174099 406.553282748577 2762.7578238958 20 23 16
-95.1419321559133 407.671950495855 2741.08766580493 18 21 14
-74.4278509821801 409.706320275346 2709.17912415833 12 15 8
-107.080752628256 406.722740844497 2732.42815212347 10 13 6
-122.122709073701 405.394079480068 2737.57384104084 131 133 130
-130.152577907689 404.724774512987 2735.4548319602 119 121 118
-139.556854964764 403.925669936806 2734.80890082512 141 143 142
-144.101989186151 403.584139943452 2729.0419383779 152 154 153
-153.479644005718 402.786888768756 2728.41561013579 137 139 138
-158.715734081316 402.379963760856 2723.38275891171 134 136 135
-166.010562684764 401.778624425543 2720.56160933383 150 151 153
-170.568446155494 401.435549200802 2714.7856913338 151 152 154
-175.816001160785 401.027281776607 2709.74422766088 153 154 156
-179.713136108925 400.746646613241 2703.21228553094 159 160 162
-183.624628915055 400.464694366139 2696.67022288908 157 158 160
-184.856078990561 400.436455041039 2687.13123557569 166 166 166
-184.777114262798 400.532632399383 2676.07304733248 171 171 169
-182.062492475927 400.878937303709 2661.98603461361 181 182 177
187.668266257548 423.829861444215 2759.68058015575 30 35 29
89.0913542957388 415.337838124353 2798.10327004517 31 34 27
94.305513825879 415.86548510482 2783.35877637713 27 30 23
90.4431564213608 415.582141007432 2776.85203150947 18 19 13
45.3556181708867 411.672425833361 2798.49304370091 22 25 18
14.0067593446798 408.988771869127 2807.86730185896 19 22 15
8.03389419217693 408.514984949299 2803.5350446185 17 20 13
-21.5430111564683 405.926149254419 2821.60482419325 16 19 12
-25.9769360132756 405.58948662306 2815.91879891891 15 18 11
-34.086675191505 404.923240405879 2813.74190561438 16 19 12
-48.7630554230078 403.667818010596 2817.91764839462 18 21 14
-61.9301812020865 402.547189699179 2820.71809143672 20 23 16
-61.2492994560161 402.669008192295 2810.09637556303 21 24 17
-54.8137388747472 403.307880587254 2793.76749722617 22 25 18
-62.8979369914515 402.643270338239 2791.60912746872 16 19 12
-57.2905191071371 403.208706283344 2775.91516443055 15 18 11
-49.6012247604423 403.961896776181 2758.02565024155 19 22 15
-66.3260549472287 402.520655661002 2764.42089108929 19 22 15
-77.2789570666261 401.597811864825 2765.12206956911 17 20 13
-90.3355169249107 400.485274340739 2768.00270518821 20 23 16
-101.931259206014 399.503651781302 2769.47290849612 18 21 14
-98.6508664809738 399.861139028466 2755.79609184526 17 20 13
-91.2015170584337 400.594667267198 2737.73253686687 15 18 11
-90.8604702020921 400.68842222754 2726.86403080483 12 15 8
-104.562933380011 399.516529199256 2730.51146778217 11 14 7
-118.91550070669 398.285412522487 2734.92207256088 103 105 102
-126.259125902365 397.685895755551 2732.06585300061 119 121 118
-135.675400642206 396.899152462429 2731.41158157861 135 137 136
-139.540130397498 396.613241361517 2724.90310394086 130 132 131
-146.175376306164 396.077140639984 2721.32539375187 124 126 125
-151.433512237214 395.665293121632 2716.2765360832 129 131 130
-161.489468584809 394.819752315376 2716.39299014343 149 150 152
-168.790200523213 394.222918775088 2713.56787841182 151 152 154
-174.722445036942 393.749629556654 2709.26507046025 152 153 155
-177.943455535058 393.521563149058 2701.98849501526 159 160 162
-181.183020356731 393.291889082654 2694.69846100205 158 159 161
-182.42031449055 393.243560838742 2685.15542992876 163 163 163
-184.360742217138 393.131753200264 2676.337397402 168 168 168
-180.305764928672 393.563432329963 2660.75210169271 179 180 175
177.526619819987 415.05280170615 2789.33797585094 96 101 95
78.8850435481474 406.796994485121 2827.71498568313 26 29 22
137.263228074048 411.838979962067 2765.07434626407 21 24 17
82.7207387778386 407.202523958948 2804.56008102435 28 31 24
56.3249467287004 404.977800639273 2818.76228419617 26 29 22
45.065628170216 404.050506335258 2819.24131231734 20 21 15
60.7100714480673 405.469844825307 2784.88989782007 19 22 15
30.8190690689698 402.943491728061 2802.73229824095 22 25 18
15.9106094072321 401.702361806745 2806.74016856061 29 32 25
-39.6433899924964 396.97086880863 2849.19726656663 36 39 32
-28.5060486596072 397.965038829862 2828.8680948379 37 40 33
-24.8265311128995 398.319162709169 2815.48059525189 33 36 29
-21.2055067021739 398.668573286459 2802.05096334652 34 37 30
-39.5770055791629 397.1282405752 2809.72236473602 34 37 30
-57.8747356067215 395.593704731993 2817.44727210107 33 36 29
-70.2848016327904 394.564829429577 2819.56195203246 33 36 29
-63.817987049354 395.15904360124 2803.25550418606 34 37 30
-71.1517727750417 394.566537297886 2800.40645297695 33 36 29
-64.7952779234953 395.151802295392 2784.02028115026 32 35 28
-75.7449880177612 394.248126006358 2784.72387068442 30 33 26
-85.2333671632284 393.469944289288 2784.01707812903 28 31 24
-85.4251682942004 393.491979778756 2773.99726702241 24 27 20
-90.6324955757407 393.082231973886 2768.98525226355 23 26 19
-89.4632312922181 393.221684216707 2757.48233352605 20 23 16
-81.270057526531 393.966516122175 2738.72301331411 17 20 13
-83.0319358729308 393.853893493996 2730.03441091541 14 17 10
-86.2262927936905 393.617874682694 2722.77711693697 13 16 9
-101.344231530935 392.353794582439 2727.86805178631 13 16 9
-110.821035258727 391.575744061788 2727.16965116277 3 5 2
-119.580963303014 390.859299007548 2725.75620443571 110 112 109
-129.711568536562 390.024344883977 2725.81889202609 117 119 116
-134.976524642914 389.609032344374 2720.76507271577 121 123 120
-143.003817736626 388.955185649809 2718.64800914343 124 126 125
-148.270524104759 388.539511857753 2713.59262472417 130 132 131
-156.966928981591 387.827521257056 2712.22554433656 142 144 143
-164.281187682927 387.234689635937 2709.39035255931 149 151 150
-172.26800882513 386.583583926464 2707.30264185196 147 148 150
-177.52969791814 386.167789253687 2702.25118842724 156 157 159
-180.768778327054 385.926773233324 2694.96144812595 159 160 162
-180.657440676951 385.975467611994 2683.92619271734 161 161 163
-182.601462362667 385.846506130908 2675.10546796532 166 166 166
-181.226237364434 386.004770050125 2662.51691320099 180 180 178
99.736733708347 400.972086206767 2829.21503021633 27 32 26
119.514270670868 402.643707164006 2781.8041128314 32 35 28
52.171186813323 397.1310985092 2833.00308061153 41 44 37
52.2266549218484 397.151493495732 2823.16251194414 33 36 29
28.9617817491648 395.256961083418 2834.69561651484 28 29 23
-7.68315620431093 392.263306597567 2858.75579102193 25 28 21
-6.81369048740432 392.350244672216 2848.27031254006 26 29 22
-22.2699708008045 391.1117500234 2843.235223968 29 32 25
-10.3703976602936 392.104921567943 2822.22356865676 32 35 28
-58.3477259273761 388.178638227117 2857.82598608361 35 38 31
-62.6686820217279 387.838921760727 2852.22154433075 30 33 26
-29.590957239698 390.572534643556 2810.75248624712 31 34 27
-36.9692600749441 389.981769029318 2807.87117245219 32 35 28
-39.2359723483193 389.811052284038 2800.05134753717 31 34 27
-53.1563598304676 388.682383904432 2803.541025477 31 34 27
-61.9563681290412 387.97443903027 2802.09856677335 26 29 22
-59.9023125329134 388.158799305428 2790.00194850256 27 30 23
-64.380637406928 387.806083192044 2784.28365539415 27 30 23
-78.9217834826963 386.625781129066 2788.55781279922 24 27 20
-88.4001528538405 385.86165392879 2787.85864220878 21 24 17
-95.7164772695758 385.275199799931 2785.02227973136 19 22 15
-87.3726753326198 385.976814410557 2766.37193419122 22 25 18
-83.3735127457598 386.321168810955 2751.98077152582 23 26 19
-76.6091509546338 386.893097630834 2734.65516696837 21 24 17
-75.5640016050427 386.994535074327 2723.06208211407 18 21 14
-85.1036146663971 386.224965611214 2722.31819262244 15 18 11
-95.3227790941167 385.399311562313 2722.31672886972 15 18 11
-106.912950130652 384.460648060329 2723.7911884878 11 13 10
-117.076496537151 383.639227953849 2723.82977039435 65 67 64
-125.827244990701 382.933932331053 2722.42332909961 118 120 117
-133.869493412394 382.286827483533 2720.29545823964 126 128 125
-140.52066858412 381.754103799605 2716.70621769326 121 123 120
-145.794104376084 381.334728785342 2711.64623070065 129 131 130
-154.497671556724 380.63275212698 2710.27371445173 141 143 142
-163.867240816549 379.875763231869 2709.6531570638 149 151 150
-171.854591512143 379.232455998409 2707.56510197271 145 147 146
-176.437918213417 378.869426315594 2701.77063855861 155 157 156
-179.002445656374 378.67260420637 2693.73478884266 158 160 159
-180.916028190955 378.529350495831 2684.93605768794 160 160 162
-182.185311137681 378.439149242834 2675.36962514646 165 165 165
-179.469401218299 378.677287771176 2661.28299833832 175 177 174
54.8298298725682 389.921360004666 2879.35842685495 33 38 32
97.1748783608177 393.232280548502 2822.37794748984 38 40 35
95.6904466296415 393.109404937981 2813.89071460716 37 40 33
86.6002241843522 392.389584589383 2812.23781332346 41 44 37
66.1917218209815 390.781620811283 2820.90257258461 44 47 40
24.7690707508226 387.524761457276 2848.90875643666 39 42 35
1.58201928357693 385.698935885964 2860.49862363613 42 43 37
-5.77465403708732 385.115274152664 2857.63273104345 43 46 39
0.319559156837457 385.586902302909 2842.29118115896 39 42 35
-18.9757827980626 384.066476034117 2850.52800644476 32 35 28
-9.23725243746087 384.82383534673 2831.65397503261 31 34 27
-19.5790298982277 384.005772726116 2831.5633704506 29 32 25
-43.1807137482745 382.147534482309 2844.08782871673 25 28 21
-64.4701840103372 380.470715343521 2854.58368003976 27 30 23
-62.1913220416488 380.642611883268 2842.65026005179 22 25 18
-48.2586572366321 381.728427159245 2819.40750117063 20 23 16
-57.0527522375208 381.031573323316 2817.96938532096 23 26 19
-54.1974023974732 381.248300113343 2805.21876966163 29 32 25
-57.1949339389193 381.005889633919 2798.10412622606 33 36 29
-63.1016935089117 380.535247482342 2793.81980626199 32 35 28
-58.9233533516353 380.855361354483 2779.5587049352 31 34 27
-69.8907086923779 379.987722443803 2780.24968559004 28 31 24
-82.260407430951 379.010091625463 2782.39388819303 28 31 24
-91.0222866128287 378.315294999864 2780.97913669826 28 31 24
-86.2466987844801 378.68175660209 2765.91589660829 31 34 27
-82.247787513215 378.987162969948 2751.52464895641 33 36 29
-77.6044546203505 379.342895511498 2736.36548009643 30 33 26
-80.0784992629211 379.140546552378 2728.39548977592 24 27 20
-74.8447358650994 379.542249211399 2712.42953280791 14 17 10
-89.2993509313582 378.400609301711 2716.76690869688 12 15 8
-109.288947525495 376.825149522976 2726.97054295841 14 16 13
-116.660041817254 376.238601895503 2724.0941816784 7 9 6
-121.941505136355 375.815731262817 2719.02835765405 123 125 122
-127.920082431971 375.338121006088 2714.69194019319 129 131 128
-136.657758038836 374.644224687272 2713.29473894671 129 131 128
-145.378930633963 373.951518827315 2711.90980159255 127 129 128
-154.768262175268 373.206408665312 2711.27497827315 140 142 141
-162.770714285944 372.56986131612 2709.17601008414 149 151 150
-169.399316072483 372.040833322363 2705.60315218583 145 147 146
-173.310456350143 371.724554049862 2699.0608767492 153 155 154
-175.2070265938 371.5659083389 2690.27469468074 156 158 157
-177.130824335268 371.404986794772 2681.46846881348 162 162 164
-179.082011104368 371.241741882278 2672.64237628727 168 168 168
-175.703458661054 371.495652582468 2657.80115644619 173 173 173
11.1265791258619 379.273194601076 2909.37932127338 36 38 33
54.1420690438446 382.467007386179 2861.53040587018 27 29 24
64.9471163376885 383.24782912094 2842.19430307911 38 41 34
69.5903944445848 383.566894159891 2828.27023988171 38 41 34
69.6364019962643 383.541555156502 2818.42228692606 37 40 33
20.6614254507009 379.847810380115 2853.30296015567 39 42 35
15.5179832763368 379.434505025998 2848.33694457766 45 46 40
26.1022804084754 380.197588317747 2828.84101991163 43 46 39
43.3120703331724 381.455644024147 2803.03405592793 41 44 37
45.4880118396495 381.588875404465 2791.02583085382 37 40 33
-15.5075517225285 376.999262384449 2838.18478687825 33 36 29
-21.3880911018811 376.530654745007 2833.91948479515 31 34 27
-25.0550269938765 376.227437571981 2827.55430449138 27 30 23
-32.4164304137402 375.648055555879 2824.68529910348 28 31 24
-47.8419735717923 374.466281279354 2829.55366183879 31 34 27
-62.4798183394653 373.343560443977 2833.75830643574 34 37 30
-56.6423430484402 373.7498928641 2818.23001655361 34 37 30
-51.6035620363529 374.096183969772 2803.35746865181 29 32 25
-58.2321912082069 373.571226695309 2799.78490599731 26 29 22
-59.0748069040472 373.478001029829 2790.52746385525 26 29 22
-60.6702194079629 373.32836842198 2781.9596431125 26 29 22
-64.4482271693088 373.015720046168 2775.51389666934 25 28 21
-78.2670354528925 371.954147885984 2779.07725691658 25 28 21
-84.8986123352233 371.428620332715 2775.50226003825 24 27 20
-78.0031958610108 371.911349064254 2758.27120800138 24 27 20
-78.2837646461472 371.858777065902 2748.18637494921 26 29 22
-82.8450594681354 371.486979959656 2742.40783850586 26 29 22
-89.5315796140288 370.956732542126 2738.79298817618 23 26 19
-82.8587112961987 371.421350243324 2721.4005144954 16 19 12
-93.7849100815222 370.575050764927 2722.12143850403 14 17 10
-109.570955285278 369.367068272854 2727.96336949234 5 7 2
-117.636611003204 368.733906752296 2725.81860080949 5 7 2
-120.831143108511 368.463140188534 2718.56100383181 122 124 121
-125.428110156782 368.087860373557 2712.75629571272 123 125 122
-133.483493547112 367.455217371065 2710.61897628576 116 118 115
-143.589057178044 366.670109352662 2710.70006954864 118 120 117
-152.983627697296 365.937920049737 2710.06151382901 133 135 132
-160.308018224089 365.359557476875 2707.21934504087 146 148 147
-165.581808957537 364.933507208952 2702.15906693213 146 148 147
-169.5035942632 364.607740057149 2695.60902662954 153 155 154
-171.410215295505 364.431422005954 2686.81517453899 154 156 155
-174.692734455741 364.152676160117 2679.49375345082 164 165 167
-175.977737153792 364.021994553231 2669.91572028515 165 166 168
-173.275724808128 364.186821758405 2655.81864749294 163 165 164
133.759725877682 380.962387638441 2830.31020744151 69 74 68
113.07280612732 379.435412446702 2838.77354622027 32 37 31
109.418815105384 379.073439631432 2822.53627585549 27 32 26
11.0914220820684 372.012574675285 2900.67121335228 40 42 37
24.3061981975421 372.905320114329 2879.37713696117 37 40 33
43.475237902812 374.221290527245 2852.52069504688 39 42 35
50.4029536607904 374.664212096068 2836.54789244819 35 38 31
31.6269446209301 373.276554352749 2843.92682911677 33 36 29
25.7012122723523 372.804001795672 2839.62874570403 34 35 29
41.505822679254 373.877345657897 2815.2728637104 31 32 26
55.6877434359278 374.834140376896 2792.2098477964 33 36 29
36.9710665671268 373.451075520194 2799.63211336289 33 36 29
6.44385063104647 371.229282274309 2818.25018276075 34 37 30
-20.2362735170984 369.28202314997 2833.4827095661 34 37 30
-18.7364282793907 369.336908601258 2822.21900766978 32 35 28
-23.1709575775481 368.970090698127 2816.53209700358 36 39 32
-37.1570846227232 367.925353940665 2819.97454406144 28 31 24
-62.8039605123503 366.053851709108 2834.7214416744 28 31 24
-70.823569658188 365.433217751203 2832.61011658891 30 33 26
-51.9187505231875 366.721052892219 2804.32695640459 26 29 22
-49.1181052724747 366.866457331341 2791.53632295923 23 26 19
-76.7355128346585 364.856933241433 2808.55944536622 23 26 19
-58.8145667979776 366.072540945746 2780.79772535903 23 26 19
-69.781944472048 365.242337194012 2781.48887944043 23 26 19
-82.868642063328 364.262394135737 2784.34833919082 22 25 18
-88.0567704999025 363.841334327224 2779.35018478687 21 24 17
-81.8594377834099 364.224929896708 2762.84761143637 23 26 19
-75.7381749984714 364.60236295338 2746.28986215474 24 27 20
-88.7959679434776 363.624447838777 2749.17028577201 23 26 19
-99.6947093584146 362.799281631103 2749.91122125858 21 24 17
-105.641893435274 362.323736624679 2745.59757187286 14 17 10
-94.7683998822428 363.034625381125 2723.84036527604 12 15 8
-115.443212211281 361.519951524643 2734.78291102701 9 11 6
-110.256259733929 361.82879141658 2718.78254945554 19 21 16
-115.555185748951 361.398150862434 2713.70402699406 129 131 126
-121.551529849386 360.918249947007 2709.35471839459 126 128 123
-133.067662547325 360.04970900338 2710.88291069194 116 118 115
-144.549576743001 359.183831010799 2712.43621667723 119 121 118
-153.255186477695 358.513427784601 2711.06237966295 133 135 132
-156.478263999625 358.228497044406 2703.78401775923 145 147 144
-161.762887597261 357.798429752975 2698.71557185201 142 144 143
-165.016574532887 357.510817673529 2691.41500694955 150 152 151
-170.995211263136 357.031664198691 2687.07853858656 153 155 154
-174.277198690348 356.741595168318 2679.75744560885 168 169 171
-176.905456348383 356.49708754047 2671.67515496336 163 164 166
-173.527136986338 356.673289994796 2656.83337254911 167 169 168
159.599199757479 375.209442055992 2818.13438214897 186 191 187
141.128327848397 373.883110034161 2824.49979323327 32 37 31
115.033784988853 372.040714643441 2837.68727830874 59 64 58
113.599403147801 371.870779907894 2829.23579481876 46 51 45
109.077799157303 371.491399507048 2823.48599269532 45 50 44
58.784504015053 368.013285046092 2858.6468230021 28 30 25
52.8542221866934 367.539923319777 2854.34543747578 34 37 30
55.2641824924538 367.630546831133 2842.50664180622 47 50 43
35.6977005406218 366.235132452103 2850.54754513169 38 41 34
16.2090341030092 364.845890464363 2858.64518432549 37 40 33
26.1156006852841 365.442348010346 2839.89185648031 43 44 38
35.9286213000152 366.031304859873 2821.0709716514 40 43 36
43.4061824754735 366.46154858871 2804.26166288516 39 42 35
28.4501572864015 365.378505517871 2808.235558203 37 40 33
