ply
format ascii 1.0
comment KinectMotionCapture
element vertex 754
property float x
property float y
property float z
property uchar red
property uchar green
property uchar blue
end_header
17.4613367609449 836.82368604485 2834.77079864903 252 253 255
2.58429794494308 833.669311576616 2838.79175564951 253 254 255
-12.2404975756174 830.518979808124 2842.85031092982 254 255 255
-27.0133679088147 827.37250645438 2846.94682190725 253 254 255
-35.8184947536007 826.028763978337 2845.49743222001 251 252 254
-44.6066677710359 824.686275463754 2844.0603390756 250 251 253
-54.1132244401272 823.120358107125 2843.33667368612 246 247 249
-65.0639500938932 821.107440681436 2844.03390849448 244 245 247
-74.5234454764649 819.544917607151 2843.34437602865 249 249 251
-81.047687479683 818.880055138028 2839.84648273602 249 249 251
-90.473135274709 817.320040964406 2839.18135032406 248 248 250
-96.2571943341859 816.879786243326 2834.98613249696 248 248 250
-102.041896756175 816.439359915077 2830.79044741341 248 248 250
-107.827311457919 815.998696652779 2826.59424478296 248 247 252
-117.918163984831 814.218768850853 2826.68096348076 247 248 252
-124.407147685755 813.555697667132 2823.20893323414 249 250 252
-129.466026602106 813.338406734845 2818.30521221822 250 252 251
-134.530259337765 813.120513210418 2813.39790152921 249 249 249
-139.599534149501 812.901972246337 2808.48693245223 252 250 251
-146.793149421996 812.015848649888 2805.73771208953 255 254 255
-151.866036113643 811.796596876547 2800.82412108334 254 250 251
-154.135710867421 812.464786829562 2793.00639783087 252 248 249
-155.728471298421 813.352648656552 2784.44575474622 254 250 249
-160.836334582005 813.130015336481 2779.50649685687 255 254 253
-166.644847458333 812.685091111835 2775.2935282841 231 227 224
-170.374322715791 812.903949638126 2768.88565627599 231 227 224
-172.044791957116 813.784679771434 2760.26864429291 221 221 221
-175.119767039664 814.221254171369 2753.10100509692 230 230 230
126.542116194082 851.038250120812 2815.10778534417 243 244 246
118.919402050758 850.126983484625 2812.04737469813 252 253 255
106.735274696222 847.873409975496 2813.08460242723 253 254 255
93.8263734579445 845.399046008084 2814.83034438255 253 254 255
74.141933008478 840.916470119271 2822.77009999407 253 254 255
56.0457673940422 836.88635512373 2829.39344847419 253 254 255
39.5249044590971 833.307938492894 2834.69068769114 253 254 255
26.8177376472321 830.848961362785 2836.58274917477 252 253 255
13.4011685787012 828.170200072355 2839.19447320224 251 252 254
1.52032326599549 825.939990556231 2840.45138042202 251 252 254
-14.7902209319826 822.377487314519 2845.9014592613 251 252 254
-28.814280012019 819.486540710217 2849.30676268371 250 251 253
-36.1345050747586 818.598295826009 2846.46604391436 247 248 250
-44.1836872826225 817.48873200287 2844.33050968191 246 247 249
-54.4261633056204 815.714623382811 2844.30734274689 242 243 245
-66.8419987975057 813.277455024184 2846.41070698742 240 241 243
-76.2956957260315 811.728963535392 2845.72544901741 239 240 242
-83.5421541074666 810.846027034695 2842.93793770059 239 240 242
-92.2333978785161 809.521188855746 2841.57120003788 238 238 240
-97.2867951304191 809.302380811889 2836.67173959006 241 241 243
-103.789180839598 808.641499467494 2833.18971055659 243 243 245
-110.288027615344 807.98055671166 2829.71054113745 240 240 242
-118.218334575747 806.878900897037 2827.66151664146 241 241 243
-123.989856957546 806.438885117064 2823.47538812983 245 245 247
-131.188410135582 805.558515108162 2820.72261731708 247 247 249
-138.379060607962 804.678317714407 2817.97587069566 249 249 251
-143.435201750133 804.457973020903 2813.0744133598 249 249 251
-147.789672496343 804.456775762397 2807.44739078709 254 254 255
-153.562555752333 804.015574347764 2803.26026974325 255 255 255
-156.52733352339 804.451288331571 2796.17280504892 242 242 244
-160.2104006672 804.66613973665 2789.79855497593 229 229 231
-164.605167848754 804.660781860255 2784.14229958293 226 226 228
-169.70510024341 804.435634966806 2779.20907270949 231 231 233
-173.423325455435 804.646980994299 2772.80931804712 231 231 233
-174.390748261964 805.730779463179 2763.46765690331 229 229 231
-178.834546990838 805.720493583593 2757.77583253396 223 223 225
-177.106910008187 807.672049488835 2745.45183211543 217 217 219
150.750617148202 849.064156090447 2804.23914133463 216 217 219
133.113871364844 845.27550369076 2809.96142500423 251 252 254
117.833947614145 842.155643097992 2813.69049693713 252 253 255
104.891339153173 839.703043433857 2815.41191404787 254 255 255
90.4686570421203 836.81164737197 2818.52824485146 254 255 255
70.0349329227747 832.157864729744 2827.15929265044 253 254 255
54.969928870602 829.054578615997 2831.04424841242 252 253 255
38.4512448198993 825.514455053177 2836.343261111 251 252 254
25.7470609774266 823.080154797269 2838.23761000603 250 251 253
11.5848092914383 820.208781115542 2841.54283379992 249 250 252
-3.27610570726722 817.121062231771 2845.5755224463 249 250 252
-21.0617423274198 813.158103449966 2852.42432018086 248 249 251
-34.3259422008817 810.518032786106 2855.14669586521 246 247 249
-41.6288430951708 809.636568296115 2852.31857009931 243 244 246
-48.9236489389491 808.755640107863 2849.49631532477 241 242 244
-59.1515726363572 806.998950347824 2849.48349143407 237 238 240
-68.6209057731799 805.462933229274 2848.78696162813 236 237 239
-75.8760647414887 804.584798673383 2845.99346187001 234 235 237
-81.6654986292407 804.144228018901 2841.79434611492 234 235 237
-91.0883735013097 802.611486229015 2841.13121700973 235 235 237
-98.3170434924527 801.734900137536 2838.35692751974 237 237 239
-105.537430354713 800.858855225865 2835.58835091081 240 240 242
-112.749879569978 799.983224735241 2832.82582504774 239 239 241
-119.954275278165 799.108007693244 2830.06913943801 240 240 242
-126.434863707408 798.450863717515 2826.60293064846 243 243 245
-132.911779872467 797.793778260879 2823.13938425799 247 247 249
-138.673887468266 797.354047233047 2818.96008216798 247 247 249
-144.436724814491 796.913958368217 2814.7802492538 250 250 252
-148.786857306114 796.907447252648 2809.15663913571 251 251 253
-153.850844226688 796.683290183012 2804.24918044018 241 241 243
-157.515297395151 796.891703600263 2797.88839142549 226 226 228
-161.893943872359 796.882225351897 2792.24409588162 228 228 230
-167.677953976847 796.439345868849 2788.04890024809 231 231 233
-172.071121799407 796.42826266448 2782.39377526464 234 234 236
-173.699591658676 797.279764734652 2773.80676700701 233 233 235
-176.046690817203 797.913135262135 2765.93303526098 227 227 229
-181.862156050866 797.466691917968 2761.71501908137 226 226 228
-184.243516220528 798.096858356376 2753.81614009085 221 221 223
150.428544112554 841.247898568075 2805.20110946162 230 231 233
133.557852676091 837.718749143153 2810.24500008022 254 255 255
116.747890456212 834.194290845162 2815.33323284246 249 250 252
101.522785571471 831.111361468981 2819.10193672806 251 252 254
83.3108948738626 827.159575371804 2825.641790377 250 251 253
65.1686358114696 823.213191238373 2832.23214884633 248 249 251
51.6277993450345 820.579327212821 2834.75401619857 247 248 250
37.3771672367056 817.731024101725 2837.99528799516 246 247 249
24.6759597615331 815.321519672807 2839.89192011811 247 248 250
10.5162943586632 812.480227416451 2843.19917113218 245 246 248
-4.34232283685665 809.425265418021 2847.23398590223 244 245 247
-21.381896216131 805.722998067761 2853.38990462617 243 244 246
-33.9032799830914 803.327095105239 2855.41666920993 241 242 244
-41.9464226160526 802.234281231132 2853.28589251303 237 238 240
-51.4525858958832 800.709200769198 2852.56271914675 236 237 239
-60.9372741726255 799.185730176002 2851.85482714578 232 233 235
-69.6676045845877 797.879900857046 2850.46014550357 230 231 233
-75.4564224836369 797.439559335965 2846.26147745244 228 229 231
-82.7036851061982 796.567192081871 2843.47343665938 228 229 231
-91.3963711857659 795.263983808578 2842.10576299618 228 228 230
-97.8988054567083 794.608426088068 2838.62402020148 230 230 232
-105.842039115773 793.522272103499 2836.56570338558 232 232 234
-112.332476450215 792.867436935001 2833.09236660902 239 239 241
-120.255225153278 791.782524253617 2831.04890606234 242 242 244
-128.165466888081 790.698385800882 2829.01451600549 246 246 248
-133.922618795717 790.259115982875 2824.83880873571 245 245 247
-139.680503754826 789.819547804261 2820.66256855002 253 253 255
-144.729818684603 789.594189576899 2815.76573980963 249 249 251
-151.198386439547 788.93970259505 2812.30855299863 225 225 227
-156.958425708592 788.499302711339 2808.13074689494 221 221 223
-162.016583875415 788.272511157371 2803.22750024321 235 235 237
-167.079992968401 788.045005859125 2798.32073794482 237 237 239
-172.846567790276 787.603419340781 2794.13818806887 236 236 238
-175.830236765414 788.014840532788 2787.03690568977 232 232 234
-176.057280986332 789.277368990439 2776.99753497954 231 231 233
-177.703598804134 790.110707267047 2768.3977908297 230 230 232
-180.75534442054 790.516065439185 2761.24683305311 226 226 228
-182.451493823501 791.344948594951 2752.61094235766 229 229 231
-178.695348289925 793.871586232419 2738.05466513891 213 213 213
159.329376767595 834.768781704581 2807.91529063757 217 218 220
143.188439570121 831.490937085116 2812.25443195693 254 255 255
130.169640973788 829.08139407404 2813.920835303 254 255 255
111.8401084616 825.164049125885 2820.37558234117 250 251 253
95.1044076792855 821.683474052979 2825.51757660447 249 250 252
79.9490656842616 818.63852801128 2829.33733996774 249 250 252
64.0882055876291 815.382237628003 2833.8796243311 247 248 250
55.0829787767739 814.066853709264 2832.2853215498 246 247 249
39.3152519342839 810.817749695333 2836.89515659702 245 246 248
28.110455929764 808.861916697511 2837.40849952987 244 245 247
12.4424233371787 805.620291591492 2842.09064294857 242 243 245
-1.67574429418349 802.812053793576 2845.42814401016 241 242 244
-20.2130854539078 798.72141425526 2852.9664049828 240 241 243
-32.7383599559097 796.349522190969 2854.99076518665 238 239 241
-44.4847260689905 794.194621180925 2856.34583517762 234 235 237
-54.7205666195689 792.469910190583 2856.32743416988 233 234 236
-63.4597373090644 791.174357572554 2854.92639607535 228 229 231
-70.7147727865629 790.306976549153 2852.1327458301 226 227 229
-75.767968425881 790.080179166927 2847.23339106797 224 225 227
-82.2844414654975 789.426520725787 2843.74118641346 224 225 227
-90.2510370709058 788.346957784782 2841.66596740902 226 226 228
-97.4805901235571 787.481054042208 2838.8910918771 230 230 232
-104.701787829037 786.615697329928 2836.12198160846 234 234 236
-111.915209794769 785.750622434771 2833.35880404398 244 244 246
-121.274578909133 784.249133366735 2832.74186991902 245 245 247
-131.328736037585 782.536940596992 2832.85553298558 243 243 245
-137.075000454185 782.098433299549 2828.68772215271 246 246 248
-139.976142828519 782.506861568522 2821.646249908 249 249 251
-145.023461973289 782.278747933435 2816.7511484751 234 234 236
-152.197047615011 781.41557550248 2814.01656427138 223 223 225
-158.657827472735 780.764109179766 2810.56503837351 235 235 237
-163.709399761569 780.534983452234 2805.66655414223 235 235 237
-168.065835674556 780.516132413828 2800.03831203534 235 235 237
-173.828211932504 780.074706794541 2795.85880660297 234 234 236
-177.503114986199 780.264888204326 2789.49034989474 233 233 235
-177.722537766001 781.505988615898 2779.45639559255 234 234 236
-179.361496295521 782.323493527752 2770.86190614872 234 234 236
-181.716841814095 782.928464519479 2762.98175811405 226 226 228
-184.095062822505 783.531353724531 2755.08531108096 225 225 227
-179.645365783026 786.230070490331 2739.79763913548 213 213 213
149.753191096504 824.387674820737 2816.9773810134 230 231 233
139.020236921238 822.641282767729 2816.59879638836 251 252 254
122.946887450555 819.403923383597 2820.98713855896 244 245 247
106.930067429841 816.171024027716 2825.41648272516 244 245 247
90.9696871701362 812.94245794665 2829.88676322749 243 244 246
77.3457576339229 810.356647534298 2832.34863804117 243 244 246
64.5228974423766 807.986755757624 2834.15728215973 242 243 245
54.0059077603412 806.257191696728 2833.93504556482 241 242 244
38.2405149512741 803.043585360313 2838.54675240541 240 241 243
25.5364146380477 800.682717020078 2840.44153379971 239 240 242
10.6241015462372 797.689003764297 2844.43773350557 237 238 240
-1.99548806578864 795.334612912082 2846.39351684344 237 238 240
-19.0442922370579 791.713267560094 2852.54315385515 236 237 239
-32.3155978972653 789.154171556 2855.26078855565 234 235 237
-43.3228769097218 787.232203038049 2855.91748730154 232 233 235
-55.038315032415 785.101255569799 2857.29509898219 231 232 234
-61.5681931440837 784.449498359085 2853.79318633498 226 227 229
-71.028946053816 782.954851514388 2853.10279159034 223 224 226
-76.0799096842297 782.725307502832 2848.20504094687 221 222 224
-83.3237866844414 781.863919023203 2845.41980455038 221 222 224
-88.3782803105868 781.633839708986 2840.51919774925 220 220 222
-96.3373983171354 780.562888208117 2838.44944303444 216 216 218
-105.729455856558 779.072741424232 2837.80916430048 214 214 216
-112.218275332701 778.423175288406 2834.33702703262 236 236 238
-120.858228730391 777.144910310493 2833.0077067586 246 246 248
-129.481430548726 775.867714036628 2831.69082995217 248 248 250
-135.946092804682 775.219447723078 2828.23621135262 248 248 250
-140.27214654346 775.198566835099 2822.62968917358 232 232 234
-146.026686353929 774.758851444126 2818.45587321187 230 230 232
-154.611047531995 773.483726306612 2817.16716330518 233 233 235
-161.768231337797 772.626960831576 2814.44450159485 227 227 229
-166.808973137549 772.395795405877 2809.5541527618 235 235 237
-169.052179411574 772.997065750573 2801.75527811416 235 235 237
-174.112008576896 772.763876084873 2796.85108218928 236 236 238
-177.088272765787 773.15385167934 2789.75505907158 234 234 236
-180.082846424295 773.542164771129 2782.64575460771 231 231 233
-182.403905945223 774.13629172117 2774.79040629722 228 228 230
-183.368535539412 775.143187205987 2765.45038048387 226 226 228
-182.989817823079 776.561900517018 2754.61589400743 227 227 229
-179.910682808017 778.805431272603 2740.80273452975 221 221 221
143.257331167142 814.91981498385 2823.33665003932 244 245 247
130.236410061177 812.55897046665 2825.00176140034 245 246 248
114.187445274962 809.358895108685 2829.40796940005 241 242 244
102.782336604037 807.425668030808 2829.77621590958 242 243 245
86.8330528635415 804.233309486329 2834.25472391381 241 242 244
77.0216611321324 802.725850122407 2833.3100787064 240 241 243
62.68357896198 799.960626356535 2836.48867137718 238 239 241
52.1722358858563 798.247829795239 2836.27061305809 238 239 241
35.6577079539981 794.860340267699 2841.57370621441 238 239 241
23.7124858537512 792.733947976561 2842.78447118175 237 238 240
7.30655128938285 789.354707670142 2848.16603329458 234 235 237
-3.80965974624825 787.443570158668 2848.74381975333 234 235 237
-19.3645741383892 784.281248127452 2853.5083666553 234 235 237
-31.8927929250179 781.958047727914 2855.53083911727 233 234 236
-43.6417996264571 779.846366554409 2856.88421380638 224 225 227
-53.8797248194309 778.15398732025 2856.8644653636 234 235 237
-61.1481184491547 777.296467614102 2854.06147593526 227 228 230
-70.6098066764302 775.815187356672 2853.37047086337 223 224 226
-77.1239691470216 775.167043655321 2849.88026359992 224 225 227
-83.634346794393 774.519016977037 2846.39250615132 212 213 215
-90.1409865613836 773.87117362112 2842.90745930054 217 217 219
-98.8192672033397 772.601284879878 2841.55069169352 223 223 225
-108.203264651668 771.125282797116 2840.91603306028 218 218 220
-116.124859915338 770.0648987776 2838.87353290894 214 214 216
-123.315650119466 769.212052731374 2836.12682353296 243 243 245
-131.214542431878 768.153029953579 2834.10078813045 248 248 250
-136.2448176441 767.920969509178 2829.2177277396 252 252 254
-139.856750430322 768.101077283835 2822.89486849717 236 236 238
-146.32119000153 767.454990145957 2819.44071684153 227 227 229
-154.196648242088 766.396790400653 2817.43167346663 229 229 231
-162.059488605873 765.339453126171 2815.43148695145 235 235 237
-164.989029275209 765.722788551046 2808.36930107644 236 236 238
-167.936970753646 766.104364458004 2801.29376714991 233 233 235
-171.601800898916 766.27905182416 2794.93253402758 233 233 235
-176.673446645875 766.041798205176 2790.01975142578 234 234 236
-181.055902775934 766.008939861401 2784.37228128144 232 232 234
-184.756004751142 766.179993146372 2777.98546044952 222 222 224
-185.710929286422 767.168437340703 2768.65237658107 229 229 231
-184.634731064647 768.767732975527 2757.08938666387 222 222 224
-182.918020451422 770.567610333444 2744.75669720521 217 217 217
-179.200979446259 772.97590435069 2730.17176732255 210 210 210
158.308383410104 810.130131215752 2820.63693197081 230 231 233
135.987377468719 805.291991267423 2830.36898835269 245 246 248
126.063618564583 803.78928947448 2829.34290988177 240 241 243
113.093447392192 801.456872000662 2831.04495494127 238 239 241
102.456298332637 799.750562634495 2830.7360245159 236 237 239
87.2696884739068 796.801063404043 2834.53360459439 235 236 238
73.6558090251966 794.270314545056 2837.00304382861 234 235 237
59.3271452991631 791.535715327415 2840.18832477288 233 234 236
47.3139272678198 789.425860075351 2841.34988180203 233 234 236
33.8274302503705 786.90484353413 2843.91200705227 233 234 236
21.887509516334 784.800567717693 2845.12672711741 232 233 235
5.48592368593814 781.459736517502 2850.51163627 230 231 233
-8.6135898002524 778.742456763103 2853.86341531696 230 231 233
-23.4101712127752 775.822691769866 2857.94359147248 231 232 234
-35.1839309100779 773.730901435911 2859.27912293766 230 231 233
-43.2203824954622 772.670891271483 2857.15336288121 225 226 228
-51.9827350231758 771.406040558837 2855.7353808116 222 223 225
-58.5196921461353 770.758967324998 2852.22836016329 210 211 213
-67.9889153769395 769.290678724583 2851.53225308886 218 219 221
-74.5097753888828 768.64461081718 2848.03690667204 226 227 229
-81.0269921609743 767.998688693299 2844.54420205596 211 212 214
-88.2680093907438 767.14807667035 2841.76109335297 213 213 215
-98.4016569587154 765.479151142744 2841.81735126061 205 205 207
-108.509469052422 763.812128986856 2841.89205301884 223 223 225
-115.708755944905 762.964240404651 2839.13920932268 190 190 192
-122.181309769091 762.320920832786 2835.67889501313 197 197 199
-128.650382708511 761.677714378339 2832.22139912122 238 238 240
-134.401584657518 761.238418750907 2828.05000497269 235 235 237
-139.441418563211 761.002566883067 2823.15999607665 228 228 230
-144.486578914403 760.766054896856 2818.26641705998 226 226 228
-152.367108067795 759.715569509926 2816.2537367469 229 229 231
-160.23519917017 758.665793024765 2814.25007663317 230 230 232
-166.684388805183 758.022812873593 2810.80670124219 234 234 236
-170.326183154217 758.191121749651 2804.46213495186 233 233 235
-173.981952224977 758.358089414045 2798.10743129401 233 233 235
-177.651644570894 758.523660290706 2791.74262728185 233 233 235
-182.029793121222 758.485605092493 2786.09854794792 231 231 233
-186.417342120443 758.44647927563 2780.44735412805 226 226 228
-187.364753868784 759.416324452903 2771.1196222315 227 227 229
-186.968279831309 760.786978473084 2760.29776426141 221 221 223
-185.926739539639 762.355894658342 2748.70949619314 220 220 220
-183.563457551041 764.323865998635 2735.61133492297 208 208 208
151.790242986181 800.702874160736 2826.97996057481 241 242 244
135.657338692142 797.566974418966 2831.32564409609 244 245 247
123.427095722213 795.462011759436 2832.33019437468 236 237 239
112.765690393004 793.770037068084 2832.00345819271 236 237 239
102.129906288566 792.080088596236 2831.6956001236 233 234 236
86.9436606071892 789.163238991306 2835.49360957882 232 233 235
73.3303975855279 786.659723505697 2837.96363361656 231 232 234
58.2437881053903 783.750527337536 2841.83391024656 230 231 233
47.7459628384391 782.071266761187 2841.6258211422 230 231 233
34.2578227093489 779.577240801696 2844.18689197837 230 231 233
20.8132082343928 777.086611059594 2846.77923821558 229 230 232
2.16523225276255 773.172543284951 2854.23819201556 228 229 231
-11.1776177146579 770.689560164718 2856.9043482477 228 229 231
-25.2222999717662 768.006374797236 2860.29575384055 229 230 232
-34.0189716635648 766.749915943002 2858.85293558291 229 230 232
-42.0582230694315 765.697654761218 2856.72518512696 222 223 225
-49.3465205445984 764.849336252166 2853.90781358217 224 225 227
-56.62648839588 764.001592561442 2851.09618879404 212 213 215
-66.1010796336936 762.546371194827 2850.39625652489 195 196 198
-74.0904209143729 761.497585723553 2848.30470458898 249 250 252
-81.3375943750665 760.651931177957 2845.51686373639 225 226 228
-90.0319535655361 759.402486643703 2844.14854400035 205 205 207
-98.7093344080565 758.15419808325 2842.7922436093 204 204 206
-106.646804116071 757.108838118253 2840.73831183427 211 211 213
-114.57183742359 756.064216793222 2838.69339921273 200 200 202
-120.328229871384 755.62476952467 2834.51824159277 192 192 194
-128.234968844349 754.581212038056 2832.48659631332 227 227 229
-134.700588186602 753.940605013911 2829.0313226973 227 227 229
-141.162516143477 753.300147673611 2825.5787258035 240 240 242
-145.491211422009 753.262036162499 2819.97049591644 235 235 237
-151.952511151435 752.621151765107 2816.51835227499 227 227 229
-159.821216404414 751.579390941949 2814.51428755129 224 224 226
-166.270785411008 750.938889297687 2811.07064969989 229 229 231
-171.314580653123 750.69869416827 2806.17804162408 232 232 234
-174.965674843838 750.857676415956 2799.82668643883 233 233 235
-180.02422105311 750.615748599356 2794.92337629572 231 231 233
-183.698807925051 750.772349727343 2788.55497870365 228 228 230
-186.695121489812 751.127095202721 2781.444242918 226 226 228
-186.949340537763 752.277135113475 2771.38460281905 222 222 224
-187.927498687341 753.224983133693 2762.03447078014 217 217 219
-188.937278544559 754.170090211492 2752.66140160711 221 221 221
-187.244600857297 755.907519663123 2740.31067937956 209 209 209
153.780999927585 793.555966921413 2825.91682901394 243 244 246
139.956569695749 791.063244898471 2828.23382810552 241 242 244
126.944930012911 788.776447582919 2829.90574835488 228 229 231
115.506344965892 786.89751450331 2830.25029661179 230 231 233
101.802927548972 784.414177661243 2832.65506801323 226 227 229
88.9057014429015 782.136290658495 2834.40997423859 226 227 229
72.2438587988714 778.85169460917 2839.60679699197 226 227 229
59.4352851119506 776.580690721976 2841.42600411225 225 226 228
48.1779067892214 774.715710123751 2841.90168918578 224 225 227
36.1964401326942 772.651662095818 2843.08678996378 223 224 226
19.7383943679275 769.382669350916 2848.43113398097 223 224 226
2.59132671773976 765.917151230621 2854.5103269954 221 222 224
-12.9955966546209 762.858400874631 2859.25219451547 222 223 225
-25.5449220978328 760.606935262925 2861.25943518546 226 227 229
-35.0832700320416 759.160708177067 2860.51332988426 226 227 229
-40.8959516069036 758.718134713033 2856.29735124002 229 230 232
-46.7093520636139 758.275443267738 2852.0808508654 219 220 222
-54.7329553007736 757.232276201923 2849.96449016438 226 227 229
-63.4783852346836 755.990154822033 2848.55889077272 201 202 204
-70.7429254769847 755.148600162821 2845.75877561327 214 215 217
-79.4591303913459 753.908398256827 2844.37437178449 254 255 255
-87.4308188618838 752.868749812205 2842.29566302823 198 198 200
-96.840975178706 751.43143359514 2841.6422372245 209 209 211
-104.783435328649 750.39364514802 2839.58472612285 209 209 211
-113.434473902994 749.157826285095 2838.24758496564 210 210 212
-119.193241301723 748.718037259493 2834.070703962 189 189 191
-126.386158066829 747.880851049138 2831.32253231675 212 212 214
-134.285481756084 746.845720722992 2829.29630521993 215 215 217
-141.460147380591 746.009505236138 2826.5613691329 244 244 246
-146.496377285856 745.767970951006 2821.67394407112 235 235 237
-152.245745033649 745.327868013285 2817.50387548501 225 225 227
-159.407318656402 744.491906583074 2814.7784313563 223 223 225
-167.967652585344 743.261285030647 2813.50707025768 227 227 229
-172.303503255655 743.216071418769 2807.89332282386 231 231 233
-176.649132182126 743.169807170301 2802.2727760788 231 231 233
-178.913485682735 743.713802605674 2794.4582812466 228 228 230
-183.284826936212 743.665067037167 2788.81908256925 226 226 228
-185.58820005028 744.20542349817 2780.97628315441 224 224 226
-187.914496799709 744.743694272173 2773.11714981969 223 223 225
-188.887401701038 745.672700483686 2763.77073053507 218 218 220
-189.205939592742 746.795245407723 2753.66432506613 219 219 219
-187.50975589175 748.502709001549 2741.31628711679 215 215 215
-182.455571198254 751.185385458005 2725.23170329558 198 198 198
184.393241346842 792.674202085003 2809.81474952823 207 211 212
158.094446356425 786.998175365282 2822.83474977661 237 238 240
143.485815842316 784.331527083176 2825.8174210063 239 240 242
125.846301427566 780.869071086153 2831.53964436203 224 225 227
111.341728250499 778.21058376166 2834.5977903129 225 226 228
97.6499558871971 775.755313990903 2837.01114562747 223 224 226
88.579185351346 774.499512441151 2835.36992507462 223 224 226
75.7215908633206 772.249092030417 2837.15370022939 223 224 226
61.3853769119665 769.603566985304 2840.33425350947 222 223 225
47.0968855281502 766.961628794834 2843.5491255883 221 222 224
32.8560681185097 764.323373496502 2846.79857620301 220 221 223
15.6545412484186 760.894517444993 2852.83847626733 220 221 223
0.0179863813714043 757.867353698283 2857.5445248501 218 219 221
-13.3192893819687 755.439039663033 2860.21499885143 218 219 221
-22.8861361847765 754.004294313923 2859.44799779243 218 219 221
-33.1751347561315 752.373058043004 2859.39182934588 217 218 220
-40.4743760572806 751.534576976825 2856.56657421667 211 212 214
-47.765618598971 750.696624411736 2853.74712023586 215 216 218
-55.7852442432312 749.661864503888 2851.63339108371 204 205 207
-65.261518485596 748.233481127694 2850.93237470835 227 228 230
-73.9842236678956 747.003655873776 2849.54331125641 184 185 187
-81.2301938750704 746.168653946893 2846.75669110261 167 168 170
-88.4679323999356 745.334248775886 2843.97574681665 247 247 249
-95.6978038455714 744.500222437242 2841.2008019402 197 197 199
-102.919695652942 743.666633434936 2838.43164388902 191 191 193
-110.133350826433 742.833551973916 2835.66816484329 216 216 218
-117.339187066221 742.000845444934 2832.91065028559 188 188 190
-125.970572299499 740.776894658029 2831.58781636889 185 185 187
-133.87048276555 739.749722467655 2829.56120421458 185 185 187
-141.045657187531 738.918753090176 2826.82592586198 223 223 225
-146.792213373604 738.478967536032 2822.65789704458 212 212 214
-153.955546164242 737.648469153855 2819.93091085192 215 215 217
-161.111010225127 736.818319865844 2817.20992511464 220 220 222
-166.851118492076 736.378250123553 2813.04656909194 222 222 224
-171.189045368625 736.327312141002 2807.43128757684 225 225 227
-176.235874090849 736.080777396717 2802.53644835516 224 224 226
-179.893807937409 736.222268184394 2796.18004635973 221 221 223
-184.955390927836 735.974060229319 2791.27450297901 220 220 222
-186.559020696727 736.695182329369 2782.70484143276 220 220 222
-188.189818712075 737.413924267021 2774.11547298885 219 219 221
-187.783204161953 738.711227835254 2763.30059455829 217 217 219
-189.475006825607 739.42466925316 2754.66697569474 212 212 212
-188.458895849662 740.908899683836 2743.05984442277 214 214 214
-185.442791285322 742.968839622088 2729.20006290254 195 195 195
180.959760798645 784.042111434891 2813.45779506386 207 211 212
159.312710844187 779.622370120464 2822.44549916597 233 234 236
145.472089737497 777.182613712196 2824.75102942811 238 239 241
126.286568157364 773.366173384495 2831.8207994542 221 222 224
112.547744849027 770.934335142191 2834.20016521991 221 222 224
98.8522109709269 768.505884338883 2836.61092957549 221 222 224
88.2525002644439 766.867429936324 2836.32948271 221 222 224
75.395489274277 764.641442630399 2838.11409909034 221 222 224
61.0599810773045 762.025806436574 2841.29502090273 220 221 223
47.5284223288122 759.609922521685 2843.82471798293 219 220 222
31.7770287687127 756.609391464958 2848.44765244616 217 218 220
14.5775355368229 753.221445442785 2854.48923395557 218 219 221
0.443281961523212 750.62112734482 2857.81612712737 215 216 218
-14.3912710744152 747.828806949282 2861.86971685176 215 216 218
-24.7000566340947 746.212416774346 2861.79898511649 215 216 218
-34.240182213384 744.792990140064 2861.051726912 213 214 216
-41.5353809092485 743.960094025735 2858.22943064251 209 210 212
-48.8224442138558 743.127786866633 2855.41274039792 216 217 219
-56.8383638782906 742.101283470278 2853.30203408752 194 195 197
-65.5764089841737 740.88120837347 2851.90189978407 191 192 194
-72.8329603069589 740.050815817308 2849.10763250112 231 232 234
-79.3511573970498 739.415149956764 2845.6142691816 151 152 154
-87.3218785957817 738.391621086324 2843.53634327013 255 255 255
-95.2801409717794 737.36886254421 2841.46745292701 208 208 210
-103.949565778853 736.1532411963 2840.11708550171 197 197 199
-111.159436993198 735.325704220378 2837.35667208965 206 206 208
-117.641975999324 734.691941289354 2833.88916771488 188 188 190
-124.838030413059 733.865105421664 2831.1387739477 181 181 183
-133.455596166569 732.652699462491 2829.82601654364 179 179 181
-140.631208818258 731.82701178307 2827.09044726181 220 220 222
-147.088320664759 731.194322962597 2823.64138101828 209 209 211
-154.249926786944 730.369311531281 2820.91567431692 209 209 211
-159.991630458354 729.929232031067 2816.75116170206 212 212 214
-165.734113676239 729.488820531727 2812.58608229568 220 220 222
-170.074272512018 729.432006559613 2806.96944749968 222 222 224
-175.822721789033 728.990603920518 2802.8000381494 221 221 223
-180.874795228553 728.740537617251 2797.90137903218 218 218 220
-185.931913597361 728.489783412903 2792.99876477668 218 218 220
-188.915985744554 728.812183530747 2785.89673922027 218 218 220
-192.608974953758 728.9417832551 2779.51486461376 214 214 216
-192.185749109263 730.215579096312 2768.71190899372 213 213 215
-192.48918405158 731.295266950448 2758.61652937261 208 208 208
-189.408837475844 733.324833766122 2744.80316441158 207 207 207
-187.068246822236 735.15913176862 2731.68758214958 202 202 202
174.41893969376 774.656659848773 2819.78459371114 215 219 220
160.531220699197 772.240401268257 2822.0563952074 232 233 235
145.914809954227 769.632896387784 2825.03372595469 225 226 228
127.496498647933 766.056874913145 2831.42584422106 211 212 214
112.218719655719 763.263378942309 2835.15782955929 215 216 218
96.9927148121963 760.473848638036 2838.92766164672 215 216 218
87.161919650367 759.045959839265 2837.96964799613 216 217 219
75.0692219909332 757.038429466503 2839.07410684238 216 217 219
63.0108652959365 755.033442119581 2840.20347306755 216 217 219
48.7165721515712 752.450817967281 2843.41473424067 216 217 219
35.224449979034 750.065043443598 2845.9731722464 213 214 216
18.0139799874173 746.717062592686 2852.00670442288 214 215 217
2.36884986643737 743.759881088146 2856.70689109493 211 212 214
-13.9680139220089 740.614079682491 2862.14000097834 209 210 212
-24.2778385018396 739.013795909253 2862.06859761728 205 206 208
-33.81875826314 737.607807039605 2861.32083175823 202 203 205
-41.1143437421395 736.780137047265 2858.49828157274 207 207 207
-49.8801536184386 735.568865300222 2857.07806458538 194 194 194
-57.8922290207258 734.550649131302 2854.9701870391 200 200 200
-66.6266265570759 733.341533799317 2853.57275245001 194 194 194
-72.413977263365 732.900026645185 2849.37514209406 168 168 168
-78.9324333612202 732.266849042362 2845.8816036178 222 222 222
-86.9037156134609 731.251250519659 2843.80331115544 144 144 144
-93.410596978726 730.618652136369 2840.31816638371 236 236 236
-101.361445721537 729.60435049292 2838.25469317736 234 234 234
-107.856842491007 728.972304513548 2834.77817110927 194 194 194
-116.506613957015 727.768551241657 2833.44211092447 181 181 181
-123.705181361822 726.94681863484 2830.68962680844 178 178 178
-132.325866090603 725.744954120905 2829.37495626415 164 164 164
-140.216895262778 724.734214037778 2827.35486558118 212 212 212
-147.384776777016 723.914220532625 2824.62463513097 200 200 200
-153.836382687226 723.284277891281 2821.1795741681 201 201 201
-159.578269037602 722.844004360588 2817.01492814256 201 201 201
-164.617030114723 722.592835857884 2812.12591385809 212 212 212
-169.661020898456 722.340915099638 2807.23310463736 216 216 216
-176.10913488784 721.710359185596 2803.79057193607 210 210 210
-183.251063670898 720.890775800746 2801.07945172892 214 214 214
-188.299402239224 720.637805411208 2796.18319091274 209 209 209
-190.581431765617 721.138319603845 2788.35595658818 211 211 211
-194.958239394519 721.071655773645 2782.71240993143 211 211 211
-194.525167149932 722.321495830054 2771.9167653132 211 211 211
-196.191302396274 723.003799033765 2763.30159558704 210 210 212
-193.779977496776 724.810998072582 2750.23715282784 208 208 210
-191.42235067925 726.613697608363 2737.13376039218 204 204 206
-185.040299761985 729.537156185955 2719.54292148516 190 192 191
172.534892262014 766.472708116781 2822.08275855597 213 217 218
157.877786174706 763.89184846952 2825.03101782151 228 229 231
143.268533887329 761.31482528345 2828.01369228327 218 219 221
127.936763975963 758.549645671327 2831.70697635695 208 209 211
113.424928244046 755.980185721685 2834.76030846802 213 214 216
98.1948598399804 753.222916474877 2838.52735820232 213 214 216
86.8342373355029 751.425745310889 2838.92854283332 213 214 216
74.7424614499086 749.439946745096 2840.03377996898 214 215 217
61.9259034500663 747.265838176192 2841.84798436134 214 215 217
49.9050657309903 745.28542793012 2843.00467338071 213 214 216
40.1825540631142 743.879305581776 2842.12526699713 212 213 215
26.7189377815393 741.522784813819 2844.7045177076 212 213 215
7.29612229084697 737.647789010509 2852.837008348 208 209 211
-11.3005659287606 733.968646961127 2860.33462616333 205 206 208
-23.8557152904675 731.814271197282 2862.33813672974 200 201 203
-32.6537596663479 730.611391316657 2860.8948892492 196 197 199
-39.9517651464139 729.788891862232 2858.07031646606 188 188 188
-47.9811935223111 728.777484683512 2855.94989386775 199 199 199
-55.2611699160521 727.95612755354 2853.13869101717 189 189 189
-63.2679998843595 726.946222506876 2851.03465809538 195 195 195
-69.0642426583055 726.503726148928 2846.83059667931 162 162 162
-76.3221995934598 725.683754147493 2844.03506874311 159 159 159
-84.3006645595992 724.675579416096 2841.95160698112 163 163 163
-92.2667462223403 723.668228638932 2839.87712631354 168 168 168
-99.4965212821279 722.849892860105 2837.10233078503 238 238 238
-108.161635972766 721.655949221718 2835.75519765698 165 165 165
-116.090463181644 720.650929416915 2833.70773534489 183 183 183
-121.854980950073 720.209748518102 2829.52667872542 167 167 167
-130.480674638164 719.018311366682 2828.20813541927 148 148 148
-138.376719975555 718.015170589466 2826.18444690306 197 197 197
-146.260378708501 717.012794290089 2824.16974157298 197 197 197
-152.006046133214 716.572244322115 2820.00235316575 199 199 199
-157.752498055973 716.131451569604 2815.83439482939 192 192 192
-164.203834338596 715.503621804633 2812.38954002745 213 213 213
-169.247857603684 715.248800839997 2807.49669257018 211 211 211
-175.696301168599 714.620697594992 2804.05393337581 206 206 206
-181.4437528741 714.178748460256 2799.8852444183 209 209 209
-186.496693245046 713.922518056725 2794.9859256216 206 206 206
-189.475563746539 714.223084994721 2787.8875602598 208 208 208
-194.545329846007 713.964943466821 2782.97573997618 209 209 209
-196.177115732842 714.633610160926 2774.38569623919 208 208 208
-198.522386110243 715.114562649604 2766.5122237112 207 207 209
-196.784973375187 716.704385029222 2754.19347769259 206 206 208
-194.414667563871 718.475133118914 2741.09911468973 205 205 207
-185.979410455281 721.904768662784 2721.2938482899 188 190 189
174.533671997992 759.251830788116 2821.02506821703 212 216 217
159.870718921919 756.700418762592 2823.96894355661 217 218 220
142.16560845293 753.395988344365 2829.64441536344 205 206 208
127.606719315993 750.852618323667 2832.66376960768 200 201 203
111.559230591657 747.935280660946 2837.07247975832 207 208 210
96.3339109088848 745.210956492802 2840.84313881534 211 212 214
87.269714183789 743.998692683597 2839.20660980841 212 213 215
75.938043211536 742.222745962196 2839.62888952896 210 211 213
64.6364216497872 740.449114090537 2840.07296443364 208 209 211
53.364756508536 738.677729791576 2840.53876677125 208 209 211
43.6326898233856 737.284305610598 2839.65249807045 210 211 213
28.6534968406329 734.578834702989 2843.60138064338 210 211 213
9.9735883977643 730.939580935182 2851.03887238487 205 206 208
-6.38737613197415 727.868049850512 2856.45459284338 202 203 205
-18.9573535158087 725.736948302207 2858.44776662561 194 195 197
-29.2567765414908 724.169709087245 2858.38407095034 188 189 191
-38.0475109867926 722.978025919716 2856.94617930804 187 187 187
-46.0819073823786 721.974221947233 2854.82219379797 182 182 182
-54.1036892022386 720.971339921966 2852.70706305588 188 188 188
-61.3782666633427 720.155528261946 2849.89980209568 184 184 184
-67.9118180026177 719.526385231957 2846.39534119267 201 201 201
-75.1726317602077 718.711359994436 2843.59806181826 181 181 181
-80.9683683210427 718.268456566782 2839.39436530499 142 142 142
-88.217586574326 717.45407197535 2836.60549500412 190 190 190
-96.1826624626125 716.454648630454 2834.53148912089 139 139 139
-104.857511186818 715.270620928087 2833.17764428737 217 217 217
-114.235022370774 713.902563684794 2832.54823444749 158 158 158
-120.721626913441 713.275919863339 2829.07811341524 156 156 156
-129.350339536868 712.094872543593 2827.75743424498 135 135 135
-134.396802516522 711.838170749667 2822.86251418276 181 181 181
-143.003067533781 710.658384728496 2821.55840862701 199 199 199
-149.466345401474 710.03266436844 2818.10490779975 199 199 199
-156.632631210805 709.222787708695 2815.37617983093 196 196 196
-163.79069950745 708.413327425484 2812.65311654443 227 227 227
-168.83473118113 708.155608204623 2807.76024831135 195 195 195
-175.283579840911 707.530011254561 2804.31720814995 198 198 198
-181.031212574855 707.087838351149 2800.14838682762 205 205 205
-185.388787542472 707.011959180737 2794.51903013699 204 204 204
-186.982927541185 707.66753442314 2785.95591591989 203 203 203
-189.98642482293 707.954784864311 2778.83963062885 205 205 205
-193.008115714212 708.240371830387 2771.70985349912 206 206 206
-197.421749825466 708.1589654712 2766.0398303426 204 204 206
-199.107056959627 708.806348617401 2757.41058562884 204 204 206
-194.679614306926 711.091747130635 2742.10468746502 207 207 209
-186.239176950273 714.464209294524 2722.30288674312 195 197 196
188.133158514908 753.797259476559 2819.73978464766 212 216 217
171.094447733357 750.711807644273 2824.66412187308 211 215 216
154.891204871229 747.817638704672 2828.96003987942 209 210 212
140.289404047222 745.300764240452 2831.94871520816 201 202 204
127.276222941777 743.160244271609 2833.62025897098 196 197 199
112.765191289553 740.650454275422 2836.67477069369 202 203 205
99.8339255306222 738.516211900301 2838.40572843661 211 212 214
87.7051376546256 736.570859062537 2839.48463413316 212 213 215
78.6571993259071 735.370636379585 2837.85995217542 211 212 214
65.82899425484 733.244305349309 2839.66595535994 205 206 208
54.5540181916233 731.491621490069 2840.12945226096 204 205 207
39.5338817273467 728.815523929128 2844.04909728917 208 209 211
26.8243340892895 726.698227549611 2845.94086906442 209 210 212
8.14850526383903 723.105625246617 2853.38126002949 203 204 206
-3.71771232713414 721.180079806735 2854.65060885756 200 201 203
-18.5344675139649 718.519323264952 2858.71776701945 188 189 191
-27.3469464405363 717.336801311742 2857.26386426496 182 183 185
-38.3681064518999 715.603066300329 2857.91145381832 173 173 173
-47.1403657082552 714.423473997965 2856.48672200036 183 183 183
-55.1585328877726 713.428751468952 2854.37454739467 170 170 170
-60.9585194591076 712.98574271831 2850.16776942461 173 173 173
-66.7593660478232 712.542544809039 2845.96036705147 172 172 172
-73.2917959947468 711.915852505037 2842.45673148311 195 195 195
-80.5494014411468 711.106195272702 2839.66180507196 181 181 181
-87.0725227962625 710.479958349373 2836.16491980706 153 153 153
-95.7647139871269 709.305508217417 2834.79825708462 163 163 163
-103.718154053372 708.314804558224 2832.73302490105 236 236 236
-111.659254010177 707.324831738349 2830.67674202801 180 180 180
-116.717462486097 707.06461980256 2825.77358410235 148 148 148
-124.642575792562 706.075464129129 2823.72889443232 131 131 131
-131.128750003081 705.450995588347 2820.25880189823 175 175 175
-140.45563929111 704.09938673939 2819.66646674242 190 190 190
-148.343542988192 703.112498661602 2817.64876259815 190 190 190
-156.219122395978 702.126190781986 2815.63999553302 199 199 199
-163.377699490097 701.32197660815 2812.91658998095 224 224 224
-169.123909315055 700.880307311033 2808.74880270659 187 187 187
-174.170966060251 700.619146731529 2803.85372410345 196 196 196
-179.921044312898 700.176596482383 2799.6831280611 203 203 203
-183.585002520042 700.275449968049 2793.32214291177 203 203 203
-185.182826026665 700.914177768424 2784.75627310557 201 201 201
-188.190284789304 701.190024807745 2777.637058292 203 203 203
-192.594069423145 701.104029064328 2771.9738575087 204 204 204
-196.320708434315 701.196848804789 2765.56740314475 204 204 206
-198.007714003983 701.827436192711 2756.93713660203 204 204 206
-192.215561760748 704.430793010771 2740.15178833081 205 205 207
-185.139052432563 707.386693274286 2721.82950484069 197 199 198
198.711039950193 748.561468983699 2811.32474224453 206 210 211
173.093176271517 743.48662461332 2823.60637261051 208 212 213
154.558829248205 740.075565276176 2829.91520967503 197 198 200
139.184962478597 737.404795488059 2833.57816056513 196 197 199
127.715787014605 735.656064898688 2833.9008982002 188 189 191
113.971543889636 733.359346307466 2836.27701943284 194 195 197
101.802654498025 731.432461676536 2837.32694823002 210 211 213
88.9042795356225 729.32523978581 2839.08218055438 210 211 213
79.0918406975041 727.952537385457 2838.13745884754 209 210 212
66.2621925084563 725.85046492313 2839.94253875947 200 201 203
52.7139910841337 723.568881098289 2842.46085146522 199 200 202
36.1883107190542 720.56086661224 2847.75748762358 204 205 207
22.7352264185914 718.286450640872 2850.3447890689 210 211 213
7.82362694577099 715.651078855899 2854.3433211626 203 204 206
-4.04153223956349 713.747325677124 2855.61325315658 197 198 200
-17.3652049467323 711.482586946547 2858.2944168448 180 181 183
-26.9248425379323 710.128910901419 2857.53334700617 171 172 174
-38.6890988836348 708.232644924079 2858.87646354613 165 165 165
-47.4598771191403 707.063836871933 2857.45285997614 170 170 170
-56.2141220806824 705.896109710571 2856.04154168123 169 169 169
-59.0680649910524 706.176825294985 2849.03334396828 169 169 169
-65.6067053176437 705.552328711031 2845.52551196195 182 182 182
-70.6795036514281 705.28913216121 2840.61146794228 138 138 138
-78.672874327157 704.303796786719 2838.51731639915 155 155 155
-85.2008688557815 703.679624936789 2835.0172034038 156 156 156
-94.6225778796195 702.335439458637 2834.35587452176 144 144 144
-102.57884183911 701.352482831928 2832.28863447796 126 126 126
-109.802748966902 700.549976581538 2829.51817291826 173 173 173
-114.147430856701 700.466080347837 2823.89782760986 142 142 142
-120.648534290882 699.843090845127 2820.41692005455 134 134 134
-129.286409740457 698.682580390862 2819.08999705636 174 174 174
-138.618456534884 697.344075342132 2818.49369501041 178 178 178
-145.802505364261 696.543603182122 2815.75213788491 181 181 181
-154.392020115709 695.386074096227 2814.45999321306 202 202 202
-161.555718522523 694.586653109247 2811.73319386759 213 213 213
-169.413517706424 693.609273116486 2809.73706681069 184 184 184
-173.75830941492 693.523526286352 2804.11692699575 199 199 199
-178.810610877413 693.258834147867 2799.21802849707 202 202 202
-181.084953648956 693.704847025479 2791.39579592822 204 204 204
-183.382316346913 694.148766415444 2783.55715959653 200 200 200
-187.776413858427 694.058148621695 2777.90095780334 200 200 200
-193.558489360139 693.611781490319 2773.70714693902 203 203 203
-197.280429418499 693.696617764235 2767.30405850842 204 204 206
-197.592801251435 694.665025700549 2757.20163668985 204 204 206
-192.480855063999 697.045029424928 2741.15739231124 202 202 204
-186.079545443329 699.772584504686 2723.57922768246 198 200 199
206.954474776329 742.709551687869 2804.91969323577 212 216 217
177.424457180329 736.7939723346 2820.53653887216 199 203 204
155.001185445573 732.519336258188 2830.1976093332 204 205 207
141.171177420855 730.24300254906 2832.51166101314 211 212 214
129.696574282263 728.512771046932 2832.83055771259 175 176 178
117.48343670552 726.604038209889 2833.84820752147 196 197 199
104.538305432273 724.51755337268 2835.56965023552 208 209 211
90.8678348961263 722.253576413095 2837.999416635 210 211 213
81.8121172051733 721.07414167279 2836.36920054658 207 208 210
68.9744764560452 718.995827072467 2838.16860681939 194 195 197
52.3880355681485 716.021245835802 2843.42136572406 197 198 200
36.6175768341117 713.230902368409 2848.03154407741 204 205 207
24.6690661480016 711.342482486599 2849.24142493287 210 211 213
12.7550347086505 709.45663634657 2850.47601908961 200 201 203
0.12650455459795 707.394126904028 2852.42709415167 196 197 199
-13.9562286518122 704.976526922218 2855.79226104166 175 176 178
-24.2698344042165 703.456661084535 2855.71881843763 170 171 173
-36.0420277529183 701.581409254445 2857.05628771553 161 161 161
-44.820275531732 700.422670715377 2855.62761479528 170 170 170
-52.8437131383095 699.443522207089 2853.511403953 162 162 162
-57.177284479192 699.35602575209 2847.89938915981 172 172 172
-63.7204010508325 698.733665424227 2844.38802857145 166 166 166
-69.5288249232862 698.289315976132 2840.17512743085 173 173 173
-78.9829509696953 696.956375281129 2839.4906501914 146 146 146
-86.2354973237549 696.157423341437 2836.69915097165 181 181 181
-94.2047537856794 695.181569207908 2834.62252836109 164 164 164
-99.2722411755891 694.915139017514 2829.71261245597 133 133 133
-102.90456827148 695.002186588398 2823.37449757495 132 132 132
-106.550945608435 695.087946573525 2817.02619085245 179 179 179
-115.937495702904 693.759106176508 2816.39072163153 133 133 133
-127.443363976238 691.902233353551 2817.92134873351 167 167 167
-137.492270047507 690.400405744589 2818.03988394449 164 164 164
-143.969736768613 689.781123393698 2814.57612992438 179 179 179
-152.564443606173 688.633927577659 2813.28027373855 216 216 216
-160.437737657188 687.663517460823 2811.27324390262 189 189 189
-169.001091168902 686.51823430378 2810.0001260998 192 192 192
-172.645459921396 686.602315306755 2803.6535614157 201 201 201
-177.6998412528 686.334486998463 2798.75284481332 204 204 204
-179.279952907613 686.941641198468 2790.19965477997 203 203 203
-182.968629028842 687.021505500386 2783.82094938028 198 198 198
-188.054095179918 686.750412177343 2778.8976821908 200 200 200
-194.523596755842 686.129306082088 2775.43998751381 200 200 200
-198.240930851399 686.206091612415 2769.04019726533 203 203 205
-197.177992637825 687.501441767575 2757.46605534143 207 207 209
-194.111888530273 689.31534461604 2743.64127333075 198 198 200
-189.062432063338 691.646224912449 2727.55148000029 197 199 198
-182.727691360317 694.318859544684 2709.92477995957 188 190 187
211.302660255561 735.908470093931 2801.86185924245 213 217 218
184.089418770743 730.609348478777 2815.45590343964 182 186 187
