ply
format ascii 1.0
comment KinectMotionCapture
element vertex 792
property float x
property float y
property float z
property uchar red
property uchar green
property uchar blue
end_header
180.998945208276 359.150556138382 1819.52777554536 31 32 26
109.675230068185 354.219974092615 1849.31702501432 27 30 23
72.7640022203357 351.856590281285 1883.06852920395 30 33 26
69.7278476343488 351.508801272565 1870.98461786527 37 40 33
71.3622027309335 351.436999268155 1852.40697461004 31 34 27
63.54873630141 350.804148304712 1846.73962053275 34 37 30
45.226252242522 349.549841594124 1855.68333369424 33 36 29
23.4941063883771 348.095859841256 1869.56481311331 31 34 27
49.3787513696069 349.451219429454 1816.69858474946 29 32 25
29.9863476997388 348.135366086685 1827.33674634132 28 31 24
6.65827110194339 346.589996985993 1843.76624297516 27 30 23
-3.94958598900352 345.79379595377 1842.24782569488 25 28 21
21.4075109380856 347.105778910586 1788.99924125398 24 27 20
-12.5957473476221 344.938018530004 1821.15438114497 27 30 23
-23.1851975295916 344.142868052051 1819.64931274709 27 30 23
-26.9858834957248 343.744148507465 1808.24624942804 23 26 19
-19.0226270205065 344.029840232871 1779.43675516538 28 31 24
-33.0011362773994 343.036390824477 1782.88498430107 26 29 22
-49.1591475473316 341.917368572221 1789.69275638021 24 27 20
-43.0506121950651 342.090695997413 1763.24386488812 20 23 16
-47.5551730486432 341.646972523789 1752.56535631716 19 22 15
-72.4565078444406 340.023794275859 1772.79441138342 18 21 12
-93.3816384800421 338.633138952535 1787.26152859485 22 25 16
-85.8011741606024 338.886714983722 1758.17437745695 24 27 18
-93.5737618063413 338.254397570252 1752.53665998496 17 20 11
-112.179580016605 337.00009781826 1763.7450514671 20 23 14
-123.682938553856 336.154807143535 1764.04758516414 20 23 16
-101.534448580041 336.265369431406 1619.53781183839 148 150 145
-109.004920464773 335.64338060377 1612.88412021615 90 92 91
-118.044087292217 334.93256640442 1608.7979081219 116 118 117
-128.112641917568 334.16382516073 1606.43554516825 117 118 120
-138.162648171575 333.396455008793 1604.0869297467 121 122 124
-145.618315411943 332.775139873674 1597.44367926247 127 128 130
-155.6420687373 332.0096500585 1595.11410467344 139 141 140
349.121837308967 360.432650419823 1752.43569732217 0 1 0
335.798072707195 359.479994290324 1752.65336709268 211 209 212
322.509396668702 358.530043411785 1752.89619253714 218 214 215
311.107296977915 357.686163818191 1750.80206482196 210 206 207
300.342064723405 356.878190135745 1747.93446666706 110 106 103
290.206879780555 356.105580216669 1744.28874574949 143 139 136
273.978571558823 354.994570709229 1748.5755253958 27 26 21
195.019148404813 350.20100787437 1818.52977572831 36 37 29
173.698056581471 348.816758717792 1830.23951693759 35 36 30
127.803443580326 346.078511891497 1874.76856547647 44 45 39
99.567853210853 344.119058564295 1880.22759449821 30 33 24
106.049670801295 344.27200987817 1855.28423668698 30 33 24
73.889329241263 342.304052328829 1882.6005861829 36 39 30
72.0332505945054 341.998739288384 1868.90227896739 32 35 26
67.1905692841608 341.529025500866 1859.21385912162 31 34 25
59.3947375431116 340.897588207903 1853.55929596688 34 37 28
22.9837629762502 338.709004715963 1887.67432983391 33 36 27
48.4572756695409 339.887107092903 1835.74420168701 33 36 27
69.6210073264605 340.824659944165 1789.33474269625 34 37 28
24.1704148656563 338.151873820395 1836.65637050747 34 37 28
-7.76416625549192 336.216668089884 1865.37187556414 34 37 28
-8.57611034198413 335.963792906665 1849.96038164696 33 36 27
-16.8598498947878 335.307431346335 1845.18703408988 30 33 24
-13.2014757404866 335.292175408561 1823.13649086745 29 32 23
-23.2211661822423 334.541507185031 1820.80964214672 28 31 22
-23.6345664927979 334.304838126234 1804.45210657608 28 31 22
-42.6448169639999 333.074138562807 1815.36773049788 28 31 22
-41.420955243507 332.923228638821 1796.49211113676 25 28 19
-47.5133943974841 332.381436601766 1788.36742332685 25 28 19
-36.4091612107789 332.750997225692 1754.42450619737 25 28 19
-49.2312940539332 331.850182640197 1756.24111875189 24 27 18
-53.7523135552123 331.388658943495 1745.55058879433 24 27 18
-76.3998682091884 329.971324990538 1762.47435330859 24 27 16
-87.4551239732071 329.166654894203 1761.86660091395 25 28 19
-68.0160513065906 329.96204910486 1714.20617975354 24 27 18
-89.4362747453212 328.612703439056 1729.54963949693 27 30 21
-93.4769626739591 328.173892102803 1717.97239056055 19 22 13
-117.831454737844 325.513587917558 1647.19342129082 152 154 149
-102.693957894434 326.052197159913 1603.82390960172 80 84 83
-111.758045671998 325.345221869966 1599.71994570075 83 85 84
-124.45015341684 324.45305136936 1601.6308600079 106 108 107
-133.996539068698 323.722320314926 1598.41188990966 111 113 112
-140.437364494915 323.149768882759 1590.03478813069 126 126 126
-149.455500361014 322.446042837166 1585.96385773205 149 151 148
364.673817494088 350.8893474318 1734.01838050308 12 8 5
342.589748790685 349.504877044463 1745.17502236869 219 199 200
329.897164997115 348.606716954888 1744.61519350409 142 122 123
317.235088821811 347.710893899039 1744.07749210058 59 39 40
305.218738325902 346.848963981675 1742.77302606876 42 24 22
293.841620983353 346.02039834538 1740.69679168215 38 24 21
276.989440654246 344.912746440754 1745.76636675985 34 29 23
240.117138476914 342.786596155048 1777.07721737493 40 40 30
194.964719072946 340.245521085255 1819.67492886999 25 28 17
168.205455863502 338.645732116084 1838.55754492738 32 35 26
118.110173225345 335.868483257785 1888.68708620511 41 42 34
114.499263085881 335.448791028032 1877.42148920205 42 45 38
113.246988356923 335.146908157175 1862.92557860063 39 42 35
86.9460461035541 333.58371060245 1882.14062664286 29 32 25
83.9099958822342 333.191943664496 1870.05656820346 38 41 34
72.5671828747485 332.383114071726 1869.24063283461 35 38 31
70.0794142057757 332.017244549962 1856.31942441677 34 37 30
30.6116178069553 329.807435536312 1894.39387301357 37 40 33
38.1141036173682 329.939783724204 1867.71994728282 36 39 32
40.8458499446329 329.831797879151 1847.46756981352 37 40 33
37.7009601453202 329.430489327807 1835.30456291114 30 33 26
2.18173259232968 327.430362133689 1868.83196115845 29 32 25
-8.38808645903577 326.665016012973 1867.34127475104 31 34 27
-11.4861581851533 326.267137207219 1855.21251911842 30 33 26
-10.6236540535154 326.061974717685 1837.30970575864 28 31 24
-32.0032281981202 324.768001957082 1851.44787688833 25 28 21
-7.96504217915817 325.690322291982 1799.71128532358 25 28 21
-9.56250608827602 325.358638125555 1784.96498876932 26 29 22
-26.3812166901662 324.287496751668 1792.52937943501 24 27 20
-48.7259448346624 322.951461981334 1808.4377500388 23 26 19
-35.2739295428972 323.344800071935 1771.25646970517 23 26 19
-42.5361580828232 322.736597003165 1764.7538079553 21 24 17
-50.9084519145333 322.074906148953 1759.91623851766 20 23 16
-73.5983932324806 320.728758428681 1776.80963660694 21 24 17
-41.303402014059 322.007881976635 1710.06299706032 22 25 16
-40.4781898216058 321.779976575694 1690.89829262847 21 24 17
-71.8316371020435 320.024303017403 1721.27102000333 18 21 14
-67.2222640621531 319.97467298987 1696.20429769223 19 22 15
-74.0495004789907 319.382556539221 1688.78172139125 24 27 20
-100.573572337861 316.20697959705 1601.60575001043 96 102 98
-111.210892192182 315.433330217682 1600.0663832498 100 105 101
-122.34496267597 314.637624833006 1599.40183626786 114 115 110
-131.898657077402 313.914937560043 1596.17790312143 133 134 129
-137.830144271797 313.357480289227 1586.93448236819 129 128 124
-145.831236782716 312.705456557014 1581.13101702651 144 147 140
346.89636332521 339.357159139944 1740.83477023147 160 130 128
330.470625830669 338.301870641774 1744.97871142247 157 126 124
315.954709142583 337.338066709475 1746.8021814964 119 89 87
307.020775223666 336.636948209829 1741.55726746476 59 35 31
295.025158696613 335.792903485045 1740.26792252147 61 42 38
276.946670334614 334.666358514837 1746.91879277374 40 33 25
213.287227057382 331.425117204566 1813.15057039275 40 40 30
196.122752517052 330.351309597342 1819.2292592663 28 34 22
157.875770210964 328.305839351851 1853.24909346683 27 30 19
134.901115900256 326.971480706019 1867.46578901014 33 35 24
107.838595973114 325.453116478279 1887.36372238559 29 32 25
102.431219303385 324.93154160776 1878.50071676521 33 36 29
96.4105938952868 324.38121383341 1870.42804503707 31 34 27
76.7338306066576 323.208364298226 1880.86049813822 39 42 35
60.6912438344507 322.203596467588 1886.51778046804 31 34 27
70.6146186051741 322.376547839015 1856.65857347826 29 32 25
55.5891894281793 321.138368129867 1844.52471647877 27 30 23
46.6178968246624 320.453547518621 1840.48813399763 31 34 27
26.0585703197833 319.250616966303 1852.75101355762 28 31 24
8.48516429506985 318.184295830388 1861.00337044996 26 29 22
-8.43732027895006 317.149555468834 1868.49271752692 22 25 18
-3.50723431693445 317.085536693419 1844.89345060477 22 25 18
-20.3716984089215 316.055295002596 1852.42488075403 21 24 17
-8.72699832153034 316.282544956587 1818.87303878339 21 24 17
14.0977438458592 316.994601943251 1768.72609858457 22 25 18
-10.1553781881245 315.638965461233 1786.95633880881 24 27 20
-18.5405934332934 314.979610821962 1782.10941419619 25 28 21
-44.2775289770598 313.56671733295 1802.96912068763 25 28 21
-26.3740865816844 314.047904934758 1759.13433784702 24 27 20
-59.2201746868313 312.332431470984 1790.89558939034 23 26 19
-64.2045667350923 311.821907897609 1781.10393921977 22 25 18
-55.9863674814292 311.875833400231 1751.24304784714 21 24 17
-93.4464747528159 309.975694547903 1790.77477615607 21 24 17
-68.9030727423725 310.720630785774 1735.69812359534 21 24 17
-49.5198626164495 311.236742279142 1687.99549738797 17 20 13
-104.220634434397 306.109225473823 1608.79194621379 66 72 68
-112.752189875443 305.436088908613 1603.83886666196 94 99 95
-122.838374635907 304.700063017745 1601.46388895683 132 129 124
-131.352726066667 304.028121424257 1596.52358148899 140 137 132
-136.252689790423 303.501531389739 1585.55801720366 147 144 139
-144.771609234145 302.829022678457 1580.61410093615 148 149 141
346.227522489965 328.963363544663 1742.76733987085 170 139 136
334.143650636783 328.128807806742 1741.41406482178 135 101 99
318.997390137185 327.165044173688 1744.01562204787 100 69 67
306.976817544618 326.335399810481 1742.70825886077 60 35 31
292.529347245325 325.4042346192 1744.58151250431 82 61 58
188.269896753249 320.386484850895 1846.83442753757 35 36 28
159.670497349222 318.87950259954 1868.08866956897 36 39 30
140.287621822115 317.762190872563 1877.49941286106 27 30 23
140.86092985224 317.476303189103 1860.62187729275 29 30 24
109.57358726775 315.870218684407 1886.10284207667 13 16 9
91.5868335165206 314.50928871683 1877.9974080413 22 25 18
84.9798366796932 313.926829225662 1870.73453702641 27 30 23
39.9425737196379 311.777430529892 1915.88837401572 24 27 20
57.4782779964176 311.865976263587 1859.4337714335 21 24 17
52.0333342308557 311.329697637005 1850.54316366918 15 18 11
19.0500636786912 309.371106404896 1863.67671546651 27 30 23
19.4140355559629 309.067214641705 1846.64733645932 28 31 24
8.78026498487205 308.32432213961 1845.11069843949 26 29 22
-8.71123387762096 307.311288848979 1853.42270149516 27 30 23
-9.56440409782311 306.956093323341 1837.98080360114 27 30 23
-16.1598108181511 306.373537602477 1830.72662849865 26 29 22
-26.1638736738301 305.657494840512 1828.41128393336 26 29 22
-9.05518141517825 305.995754260615 1786.46971905681 24 27 20
-35.997379903224 304.621122321376 1808.92626625607 25 28 21
-33.1063581049087 304.402208338554 1787.55345799573 25 28 21
-53.7276556977857 303.277743762592 1801.00684746634 24 27 20
-56.467244961665 302.840419983775 1787.90243251821 22 25 18
-67.547144087722 302.084254850476 1787.27735578874 21 24 17
-53.7974536847399 302.268727657681 1749.07577192289 21 24 17
-69.3146122870993 301.343267814886 1755.11435005682 22 25 18
-88.5960974035387 300.279324853945 1767.06893700311 20 23 16
-69.3945847906412 300.308412503776 1701.94043680227 17 20 13
-101.574929710626 296.279334566404 1605.71964270101 14 13 9
-110.115612286606 295.608572747843 1600.75995872283 106 101 98
-118.130799462539 294.956497515203 1594.94627559683 147 136 134
-128.734673927409 294.213634288115 1593.43101557367 156 142 139
-134.674156469361 293.634330608964 1584.18198264302 160 146 143
-144.224801779794 292.92902935336 1580.96034791133 132 125 119
360.162244976577 319.496384191267 1742.94008347867 18 11 3
346.180004547598 318.604063532442 1743.91575230972 146 113 108
334.717557967452 317.809599405413 1741.77783366863 108 73 69
323.894587108672 317.040299858001 1738.86857545941 88 54 52
312.473127190911 316.248979766676 1736.76067932677 54 26 22
296.166029917808 315.274143678421 1740.99103285351 71 47 43
169.314343509924 309.460142358148 1856.50526119805 32 35 28
163.800046068616 308.907987200518 1847.56459153337 26 28 23
156.460864366955 308.287550391591 1841.00578835096 28 29 24
131.113249132272 307.00446643948 1858.44297458924 20 21 16
77.194766558796 304.680875031721 1914.44943434261 23 26 19
46.9394833334955 302.894164408303 1923.38566088045 30 33 26
66.4827317745917 303.25659844572 1880.73900692736 25 28 21
57.5484133742932 302.586061004366 1876.72930018228 26 29 22
41.5813132241736 301.664239821894 1882.44143003951 22 25 18
25.6763265433184 300.747353439442 1888.19861227192 17 20 13
23.2278975990683 300.310020977026 1875.3055600862 21 24 17
27.1213708050877 300.094379119114 1853.42443018944 26 29 22
14.1661916686382 299.283511482102 1855.1447557686 26 29 22
-5.65770702259494 298.23464555028 1866.70650638399 27 30 23
-6.46272077295618 297.850477201446 1851.29937138961 27 30 23
-14.1761902044437 297.225099799982 1845.7045451253 26 29 22
-18.4750609978015 296.716997029848 1835.17481957481 25 28 21
-36.4046149847479 295.741648594726 1844.40478910965 24 27 20
-26.0227076000046 295.732520979603 1812.40669219596 22 25 18
-36.0290727085526 295.027243497602 1810.0897332067 25 28 21
-46.5776518056051 294.304523049936 1808.61495447991 25 28 21
-44.2701991504235 294.012626759746 1788.05377145316 24 27 20
-74.2758939783543 292.642614763455 1815.70006243052 22 25 18
-64.8028438298636 292.585961123856 1784.27820588784 21 24 17
-51.7586043972711 292.259696778373 1729.50598448645 22 25 18
-66.1902571910495 291.407740366508 1733.8614735208 21 24 17
-86.0146573554772 290.384313468394 1746.65773161347 19 22 15
-84.5855236083828 290.047219473333 1726.69493863692 18 21 14
-49.7367298843143 290.771362612217 1654.38627969009 18 21 14
-86.2555238100675 289.21829465073 1693.36681300815 14 15 9
-99.9770633892496 286.39535488901 1604.35753805646 19 14 10
-103.297349826956 285.885100421072 1590.83179392601 31 21 19
-112.900121213419 285.184444594551 1587.5723954194 44 30 27
-124.560945299324 284.423219774776 1587.76120478987 115 97 93
-132.062996321644 283.786395330793 1581.08454563154 111 93 89
-138.541157107369 283.179331437123 1572.67990936425 130 117 111
360.738235057254 309.138996454539 1743.30516876959 153 145 134
348.621937802231 308.334478828407 1741.92854000369 120 83 75
339.632938103952 307.6367295603 1736.64372467925 90 51 44
332.501913208707 307.001527080106 1729.00070738787 73 36 30
320.43504992167 306.200786383389 1727.65993349123 63 32 29
304.099288530583 305.259235495761 1731.86967638322 67 42 38
213.730681398899 301.485093281264 1815.79075552041 44 45 39
176.534996738939 299.878828094647 1848.10484922222 34 37 30
160.716824342154 298.978871628913 1852.69001410603 45 47 44
149.776061338282 298.239581821602 1850.93055449147 29 29 27
148.461483379633 297.811296226115 1836.38913317153 25 25 23
72.9392934426887 295.004148189468 1921.19641852291 18 21 14
56.3100853930449 294.096790332702 1927.66397659952 29 32 25
49.2453271883977 293.495425933264 1921.3042054721 32 35 28
63.4662354253726 293.563686199882 1885.91399656639 24 27 20
37.4149115533275 291.980774001637 1889.25324435413 15 18 11
15.6780643782017 290.92296469667 1903.13332237685 18 21 14
19.678733219052 290.661050038658 1881.32966650259 23 26 19
23.5907138517533 290.391875966938 1859.46168188318 26 29 22
6.60291207401142 289.484214073981 1866.90432280272 26 29 22
-6.28258184329034 288.703733124339 1868.67531859896 23 26 19
-25.4382298059925 287.737510987622 1879.48658592953 23 26 19
5.20951015734772 288.256981152675 1818.95307420614 22 25 18
-17.9457386027087 287.17168649642 1835.51018779565 22 25 18
-18.3011870487042 286.761470246311 1819.19378371764 22 25 18
-11.3719326833635 286.560449419864 1792.10262169922 24 27 20
-22.5596060887314 285.829219007869 1791.39954339394 25 28 21
-52.1096223103081 284.166207845617 1800.8479540731 24 27 20
-69.8582559426064 283.254846541898 1810.20910626446 23 26 19
-94.7246792079355 282.147709982152 1830.46637777412 22 25 18
-83.6074748638991 282.05112851366 1796.53050261181 22 25 18
-42.9811800134245 282.762865432969 1717.29409607271 21 24 17
-54.1656242310962 282.031415780268 1716.59306308699 19 22 15
-49.5232914624766 281.732340692214 1691.54897049823 19 22 15
-71.5697643878284 280.706823761075 1707.67512550953 19 22 15
-79.4503646570828 280.06702941057 1701.95906950949 16 19 12
-103.475296994508 278.998343218227 1721.59121940356 22 23 17
-105.726607483256 276.315176979037 1614.96013021147 106 97 90
-89.6807176036034 276.265131042842 1569.77607710748 34 21 15
-107.145953915539 275.375734841682 1579.34278132195 51 33 29
-121.939465415926 274.55621461786 1584.67115218232 100 76 72
-127.386145696306 273.966322787763 1574.54397739071 118 94 90
-130.28507403852 273.436230143779 1560.08854762244 139 122 115
351.316848046237 298.484340119471 1756.18349478039 142 134 123
349.819478093238 298.01144621566 1741.50904321587 119 80 73
342.068771578419 297.352442879995 1734.652016044 83 44 37
333.69495183805 296.67495504879 1728.57822379861 70 31 24
322.240830434383 295.908123906918 1726.44677469917 64 33 28
305.89861246195 295.001649810074 1730.65201474841 66 38 34
218.549176875989 291.644600789821 1810.58809633062 44 39 33
164.939490303635 289.705986476345 1864.3499911447 31 34 27
163.075475863791 289.234977056721 1850.64509181859 50 52 49
140.074400022466 288.173330237632 1864.84372069264 25 25 25
117.784393436321 287.137181313742 1878.3229113674 14 16 11
131.492860563498 287.094245411378 1843.79599084087 19 22 15
82.462849973802 285.334001480424 1893.46788526182 27 30 23
88.3656219649955 285.07525345333 1869.33771622913 28 31 24
82.3352346689794 284.490730596522 1861.25779469528 22 25 18
49.7716228569112 283.198913562645 1889.52026639349 21 24 17
38.5302793679894 282.480586301973 1888.77834685627 18 21 14
30.8249422229192 281.856364326867 1883.1894217124 17 20 13
33.6077298289052 281.504845408736 1862.97281161229 20 23 16
23.5407371695806 280.817385206676 1860.61199266565 27 30 23
8.86559426825118 280.012963714562 1864.79121129845 33 36 29
-27.0687615781073 278.672102987132 1899.25575565342 33 36 29
-28.9313852359276 278.200433300754 1885.55186119051 32 35 28
-24.5508195029278 277.881917386166 1862.78827735504 29 32 25
7.06635185351878 278.231392722129 1800.48629834446 29 32 25
-22.3070987512182 277.069289026501 1826.12189649011 29 32 25
-12.5315024882586 276.867144813721 1794.91833066701 31 34 27
-38.3439649837278 275.801117929423 1815.72504300707 24 27 20
-58.4092052891108 274.880120311175 1828.34752424329 23 26 19
-71.6771467788626 274.125119450597 1831.07673580032 23 26 19
-79.8957883039815 273.49065527308 1826.35069010733 21 24 17
-86.4480461741999 272.894975951284 1819.12743357648 20 23 16
-69.2891400894178 272.841893622988 1775.98554539882 21 24 17
-61.6690172865442 272.560861141274 1746.9244356444 19 22 15
-47.3447173137154 271.956449990387 1689.37334421345 19 22 15
-58.5468303932797 271.240206771768 1688.65987419327 19 22 15
-77.1017463810566 266.487431582814 1550.43741200912 25 12 6
-104.512028628899 265.451360725803 1576.26146006772 35 18 11
-120.871604417783 264.637305237994 1584.15998954848 86 62 58
-127.352152009218 264.014428712759 1575.7535429407 129 106 100
-129.219456591178 263.476707384346 1559.57555287597 132 115 108
368.139371579839 288.581829185594 1736.21503475486 139 131 118
355.999008567565 287.807911142051 1734.82111520086 102 64 55
346.366962411669 287.097922609992 1730.30511641092 80 40 32
331.796606201545 286.266275362835 1732.08979151319 81 42 35
320.350557921726 285.513663814067 1729.96426681855 54 24 16
302.173548288331 284.598565353373 1736.54478791689 61 36 31
166.690872940989 280.410681407884 1879.15880959443 32 31 26
172.16207109662 280.088652463516 1855.95049957697 34 35 29
129.739138981505 278.636102041635 1895.59224173301 28 30 27
154.479278715467 278.761272911321 1846.8305469359 30 30 30
133.335631092812 277.814373723513 1858.67113649692 23 23 21
110.494440012449 276.834308193856 1872.98608247161 13 16 9
118.763157873427 276.564686496688 1845.63054202061 16 19 12
88.9008953515997 275.433395459727 1869.67690941879 29 32 25
69.8535672992673 274.5517250371 1879.33179732893 25 28 21
89.7962665962502 274.531644982132 1835.73773968749 20 23 16
76.056290634138 273.766619948732 1838.12471260738 16 19 12
56.5102161112288 272.879224018804 1848.65335066262 18 21 14
41.1326901574243 272.085862067873 1853.55848947904 20 23 16
26.9741755120081 271.321606362043 1856.87709530134 23 26 19
17.4916239430614 270.657693885937 1853.70503281838 25 28 21
-18.4814241696369 269.448657221363 1888.14249051564 24 27 20
-19.2257970793908 268.970511530212 1872.77913382401 22 25 18
-28.5991870076789 268.31532100978 1869.68624912241 23 26 19
-32.8333660556444 267.7631871479 1859.20319697258 23 26 19
-31.9881941579541 267.309260622286 1841.28655906764 22 25 18
-42.5110266662414 266.630437271108 1839.83066693996 24 27 20
-46.256978835497 266.082931292439 1828.46652768573 27 30 23
-65.7316008023154 265.235687656973 1840.28220323223 27 30 23
-75.0610952693447 264.583802981213 1837.22115603203 27 30 23
-76.589856332101 264.076565534798 1822.52377442532 25 28 21
-82.0450523556673 263.494838089409 1813.62579885017 24 27 20
-84.7587218684067 262.961144246508 1800.53998002644 23 26 19
-82.0161187553683 262.521372188958 1779.05846120405 22 25 18
-33.3807980820382 262.875761811223 1687.09884207038 21 24 17
-119.097805318524 259.408986428796 1748.45598603994 21 22 16
-71.8368916259946 256.477775567838 1543.0871036037 20 11 2
-93.023787196322 255.630361650945 1558.6019556046 20 7 0
-114.617639586469 254.784770231781 1575.05713625946 65 45 38
-124.736499513435 254.102980024475 1572.65904082026 92 72 65
-131.237819471081 253.470534522311 1564.23748741215 128 114 105
355.952156513227 277.42584751436 1735.96960057695 95 58 49
346.94266131022 276.73401787835 1730.66995760784 84 45 38
330.515308171967 275.891913787168 1734.81380740528 84 47 39
318.458931757933 275.14097896668 1733.48088794326 56 26 18
305.814704175955 274.379944440471 1732.95680809643 65 40 35
162.38108260097 270.084728422619 1869.80647551384 36 37 31
173.24178755351 269.80057972817 1839.38940724534 34 35 30
158.037965409017 269.019811118711 1843.18549481871 40 39 37
127.268303067691 267.954459030847 1867.80914486881 15 17 12
109.167117203243 266.638595785834 1859.6209848243 14 17 10
104.288033838338 266.055670214008 1849.90560291233 27 30 23
73.9370500912604 265.024116273885 1874.83293320473 25 28 21
98.5905860151299 264.955798831493 1824.77273524884 21 24 17
79.531206229924 264.125371068978 1834.41944063182 16 19 12
75.7714464354669 263.557883252621 1823.04489624644 17 20 13
48.078246449109 262.591307416166 1844.95909331702 19 22 15
11.2439043074515 261.485058816886 1880.00773786277 22 25 18
4.71576488478931 260.881003279273 1872.80192288208 24 27 20
-4.70280980994331 260.23054256089 1869.67630673638 25 28 21
-26.1642355304963 259.393142043964 1883.75745454029 23 26 19
-32.6497688367096 258.792450328211 1876.58254268109 24 27 20
-37.4349466744417 258.216810004939 1866.93497731401 25 28 21
-41.1072533610426 257.656193184694 1855.62415883283 23 26 19
-42.5494359164489 257.125984792086 1840.98971795842 26 29 22
-62.6195632215503 256.326041113676 1853.60926966632 25 28 21
-70.2542107908401 255.707237728513 1848.07161635075 24 27 20
-61.1311667837218 255.319266879102 1817.6293913289 24 27 20
-70.4359291440391 254.151576187526 1797.29167510761 20 23 16
-88.6464267937328 253.389482335337 1807.55409939139 18 21 14
-67.7428922612577 253.129470860849 1758.47958431742 17 20 13
-86.4887613204945 252.361508211703 1769.58891334361 18 21 14
-13.5395292076126 252.712185167585 1639.67447217642 23 26 19
-73.8924926145017 246.351251861259 1547.72113936247 34 27 17
-91.9468702126405 245.601439543477 1558.09680061179 23 13 4
-113.028316690599 244.83174507249 1573.68878305148 97 78 71
-126.250951464111 244.13527805349 1576.45113489946 59 40 33
-135.314265189459 243.475259607937 1572.34767549411 110 97 89
356.787477944499 267.604108843993 1752.58204795412 134 128 114
352.166419993305 266.988166446786 1741.81821582813 110 76 67
345.655620555684 266.340045985638 1733.38971114593 78 44 35
332.94473820454 265.592732501125 1732.81738133423 64 30 21
321.497142639923 264.867127698604 1730.69087177431 78 49 41
308.842977575599 264.124375340956 1730.15968063724 57 32 27
294.995427507863 263.365551077306 1731.23366557115 44 34 25
229.968110847896 261.846568620909 1798.9529338992 35 31 22
198.159925665954 260.841975523089 1824.05937544145 34 35 27
172.577642931802 259.938640047441 1841.32836970221 36 37 31
148.933050570075 259.071331557351 1856.29681518547 46 45 41
128.408048743908 258.255175689225 1867.35120542139 18 19 13
109.173255926021 257.462912303788 1876.87094346357 11 14 7
125.212805939047 257.149999787692 1839.09177171315 11 14 7
106.015554802755 256.36073653336 1848.63844524073 26 29 22
99.3344500539339 255.738925313911 1841.32194697166 26 29 22
76.7202787881089 254.91467849892 1855.80225370727 23 26 19
82.4202568966781 254.449342009439 1831.52402864993 19 22 15
63.4333916668401 253.677069240393 1841.22359594814 18 21 14
1.19209793065211 251.33545049874 1878.84503676 25 28 21
2.74151591854777 250.815967594229 1860.20384766704 26 29 22
-12.4332749128528 250.110583869838 1865.25639912733 24 27 20
-39.5629736805454 249.283197037682 1887.57950079975 25 28 21
-32.9221731342952 248.813332045155 1861.51290733246 25 28 21
-18.44563909127 248.413902652037 1823.83527035313 24 27 20
-21.1035054500057 247.8356704797 1810.78967883122 27 30 23
-63.7857061968392 246.876970684282 1856.42145069686 22 25 18
-62.4385311431976 246.34098706957 1837.63327332842 22 25 18
-68.4254710793915 245.734868193637 1829.58473832482 22 25 18
-51.0604556539771 244.762947472912 1769.29562391528 22 25 18
-67.1408691337176 244.064665555015 1776.1617794213 21 24 17
-70.0757396265921 242.899278870385 1745.62042244373 20 23 16
-10.2002484504489 242.146200683388 1617.3391698205 20 23 16
-102.411608730905 240.359152503441 1724.63696234299 18 19 13
-74.902870033478 236.256220766773 1550.64296625087 24 17 7
-94.5167095262016 235.553680760374 1563.59378410043 80 70 61
-110.919132067735 234.869422122518 1571.46191050244 65 46 40
-125.699837514073 234.195596844917 1576.80030271831 66 45 40
-141.965260980522 233.522418923555 1584.76779879957 113 98 93
347.131870545438 256.573933848033 1749.23202644339 136 103 94
341.262452392505 255.926229552603 1740.03343822097 65 32 23
332.89966914053 255.248780249937 1733.96764675671 63 30 21
323.303386972197 254.557520760686 1729.47766891089 58 31 24
308.800673694948 253.813288837452 1731.31182259462 63 40 34
189.660901092698 251.396168018987 1852.43378770668 30 30 20
196.279766050373 250.898894070206 1827.58648493755 32 33 25
179.178483263316 250.159457015812 1833.7126765144 28 29 23
141.633098033168 249.227925271494 1867.01142462 39 35 32
128.346050279804 248.539103494751 1868.4920842197 19 20 14
137.853755015084 248.060533703182 1839.56328569646 11 14 7
130.329928452166 246.848165603619 1816.81127165428 25 28 21
79.7406746694103 245.850370023529 1869.0621037245 26 29 22
69.5868249212435 245.200045928538 1866.63850832224 23 26 19
51.8102896892372 244.492008641655 1874.74542729556 22 25 18
54.016234399362 243.93865584834 1855.34466577064 20 23 16
47.9808198090548 243.320529633814 1847.26092963624 19 22 15
26.243259770605 242.593045383458 1861.14245852767 23 26 19
16.1893501318868 241.950807983551 1858.79135280427 25 28 21
-1.34287144694412 241.262553842329 1867.07548016422 26 29 22
-24.5436062076512 240.54570850249 1883.60148624957 24 27 20
-41.9024585619505 239.871495701309 1892.01136378242 25 28 21
-45.5063540274612 239.278091328107 1880.74997197995 24 27 20
-42.3280983949763 238.717372894751 1859.58394882598 23 26 19
-16.0466660921412 238.262693196324 1804.52582411817 25 28 21
-40.0301742221625 236.965662776498 1805.66011934962 20 23 16
-63.2778935557172 235.082265431755 1788.79781169497 22 25 18
-53.3548898877492 234.508110537986 1756.46418370894 22 25 18
-62.8237465155499 233.870185786324 1753.30218061403 19 22 15
-56.9404873560475 233.270197913868 1726.68577013071 19 22 15
-86.6301559590865 232.58747724743 1754.56493100594 20 23 16
-88.6553749776375 231.346773487505 1722.21225056378 19 22 15
-68.4625616972765 230.743325395478 1672.62077891243 21 22 16
-106.272028509523 226.215886062945 1603.19476699047 147 140 130
-96.0455684500128 225.537094325375 1567.3751866479 165 152 144
-110.884627392422 224.894723411769 1572.6714364917 57 36 31
-125.148408110093 224.255895800335 1577.14969911599 97 76 71
347.704742090087 246.251167993729 1749.59502640765 150 126 116
339.351383641638 245.574258632699 1743.53606991951 115 90 83
331.616376519207 244.901642511444 1736.69035462077 97 72 65
322.643124179482 244.220349485042 1731.41703824673 66 43 37
311.215894406657 243.523528409438 1729.30514360214 89 70 63
185.326534629428 241.525761099775 1859.1228938652 27 24 15
191.96695136112 240.964015377465 1834.29059339773 28 28 18
177.90917607305 240.283239109126 1836.44790801769 24 24 16
162.688914067775 239.599912860651 1840.23227707288 25 24 19
135.497808295678 238.863147191887 1860.04124925298 24 25 19
157.563783561532 238.359896629551 1814.27854795584 11 14 7
162.698836593523 237.76789145926 1790.82519168175 8 11 4
132.064231638369 237.027095505174 1815.54868613119 22 25 18
100.413595586431 236.295625401402 1842.00575845106 23 26 19
60.6791099782167 235.550700253895 1879.89429827412 21 24 17
59.395888559568 234.94276799041 1865.37469803342 25 28 21
53.3786627317645 234.317859420031 1857.30411296716 21 24 17
38.013141741982 233.668696467024 1862.21868483454 19 22 15
44.2103847498547 233.071198180117 1837.06523166012 21 24 17
13.8244204871554 232.396427066559 1863.20404763478 24 27 20
-3.12255335123179 231.756629507655 1870.67764238453 26 29 22
-20.5729053307877 231.12187709009 1879.02138976095 25 28 21
-35.0860043501435 230.496012650353 1883.31898188865 25 28 21
-39.8535530929038 229.880796709625 1873.68429024745 24 27 20
-42.3712973698136 229.264582443297 1860.73978934919 22 25 18
-40.9688974179263 228.645247385902 1841.99122349655 24 27 20
-25.5503729242641 228.0159996355 1802.52492368726 22 25 18
-29.95740970049 227.384225477312 1791.91645436447 21 24 17
-36.0676521469203 226.751921548041 1783.77840210734 20 23 16
-40.5624898721799 225.471798886813 1755.81101479595 22 25 18
-87.6185183460678 224.912777972322 1809.3900486693 17 20 13
-69.4399945770869 224.232316437623 1764.51375757586 18 21 14
-78.3187720177128 223.604866403547 1760.54453190395 19 22 15
-128.658539408562 222.459355729489 1803.09429731325 19 22 15
-99.9623575380464 216.265011513556 1594.1317981621 156 147 138
-97.5753303219207 215.542440535689 1571.15604572219 88 73 66
-106.177910304428 214.891704553351 1566.1518869049 77 53 49
-125.113502411637 214.320153722715 1578.35971313851 107 83 79
341.787994257809 235.256582107019 1741.54475552471 138 123 116
330.951186587463 234.572553047321 1738.62589862733 131 114 107
320.131625504549 233.889949158457 1735.719551368 86 69 62
304.412092903306 233.198971200649 1739.14224423282 81 64 57
224.314640955241 231.760688357922 1809.52383946664 36 27 22
210.755229620501 231.099075015151 1810.80690023274 30 27 20
186.331269672573 230.431590562664 1826.4467087746 29 30 22
169.269682788693 229.777731329384 1832.60181575033 23 26 17
174.523857888798 229.134689727821 1809.23455509602 18 24 14
129.226915446915 227.844720495392 1836.91251287289 10 13 6
139.15142800494 227.191559352 1807.04994626666 19 22 15
80.2170035895315 226.594041458921 1870.54490425279 22 25 18
71.2445787602967 225.964270799194 1866.50777983592 23 26 19
77.5696732719084 225.311006575471 1841.44672647957 23 26 19
52.7406262227195 224.708062564268 1859.26298442817 21 24 17
50.2164334856094 224.066494967468 1846.3139749609 16 19 12
32.5368599752758 223.459966459312 1854.4916977175 19 22 15
20.72431423997 222.843078240387 1854.57125191976 21 24 17
5.48132272242086 222.239719569135 1859.5748800242 24 27 20
3.51459256718201 221.594835185158 1845.79463917297 23 26 19
-7.08369301744094 220.979244036405 1844.28407530654 24 27 20
-20.5111731979792 220.377340380496 1846.89870380645 24 27 20
-25.3729456368212 219.740836917402 1837.19530509461 21 24 17
-20.637374507062 219.056189615345 1813.45188661357 22 25 18
-4.72678957296901 218.305516629201 1773.1069347237 20 23 16
-24.93187533203 217.737448854424 1785.62953218831 21 24 17
-46.1575414709063 217.183877938981 1799.88302479722 21 24 17
-52.2380894046364 216.545905779877 1791.76647001536 21 24 17
-77.6985663761298 215.358256829863 1795.53574293986 18 21 14
-95.3211218980885 214.805254296629 1804.99040147889 17 20 13
-106.834181394166 214.212954527036 1805.28718419266 23 26 19
-99.2097648373362 213.471161520635 1776.22685322923 22 25 18
-53.3517822854592 210.97106039392 1651.36144679246 22 25 18
-95.7440360800412 206.278485942563 1588.4933203312 68 59 52
-101.192071707367 205.595036675722 1578.36498360982 98 87 81
-109.257764482128 204.942372407489 1572.5146849138 71 60 54
333.381295941601 224.248715258341 1736.62984012093 78 67 61
318.852399075751 223.584350640369 1738.44541730615 81 68 62
296.989735561948 222.941771558142 1749.76631834444 103 90 84
272.773962531887 222.313891589163 1764.32191552429 36 25 21
251.725013492532 221.685991829408 1774.99743879808 33 24 19
221.646639921693 221.096480411015 1797.65455579915 28 25 18
196.57502048891 220.502050017927 1814.06026882111 27 28 20
184.305291982651 219.867002074514 1813.80830949336 22 28 18
162.442525212407 219.275999622651 1826.36443355386 18 26 15
164.398515333286 217.894384213839 1790.72162521178 9 12 5
130.181293221389 217.380406122717 1820.25966715687 19 22 15
88.3096563643826 216.246303333874 1844.24571944607 23 26 19
52.815603487987 215.782987561911 1876.56411497733 23 26 19
60.3052415173941 215.055367440202 1849.87651970692 21 24 17
57.1722586538734 214.391023032086 1837.72081206793 16 19 12
58.0743275584803 213.694367427073 1819.84448502393 19 22 15
21.8345551926626 213.27342544973 1854.09258047289 20 23 16
18.706263404253 212.609578691651 1841.94027601505 23 26 19
7.49437974181344 212.009415918331 1841.22031106117 21 24 17
-3.69069224419949 211.411468130681 1840.51979368307 23 26 19
-18.8419311361823 210.851498887129 1845.59015499988 23 26 19
-29.9577797935593 210.25922990688 1844.93984785428 20 23 16
27.4384278691571 209.007359005088 1744.50172365813 21 24 17
-0.805229427040643 208.567267937843 1768.48962248501 19 22 15
-37.3121265118697 208.227600091566 1805.01455845233 20 23 16
-48.9815526907802 207.641948799062 1805.19802129653 21 24 17
-54.4912395604236 206.990820652466 1796.26019261593 22 25 18
-63.902566088097 206.382894742692 1793.1400462684 21 24 17
-68.8786682085458 205.723753310132 1783.35394734169 17 20 13
-117.244828822711 204.168204947269 1805.10021378983 22 25 18
-86.2802069800042 203.033693562987 1739.84730328992 18 21 14
-108.706589602394 202.603290798286 1756.93610465394 20 23 16
-64.6685678965464 201.245006409671 1670.28127019148 22 25 18
-93.4470366946101 197.071824814377 1604.9334481109 79 70 63
-98.8574321948457 196.378001972717 1594.83205049971 70 61 56
-110.027403228242 195.782125146017 1594.14249061425 48 41 35
318.189220002201 213.291227516342 1740.38289568034 70 63 55
296.327722078254 212.709119586127 1751.70494797791 50 41 34
210.770829273457 211.88717642947 1829.2479185233 30 27 20
234.976262584459 210.981633848284 1781.32871396838 25 25 17
226.824107934006 210.320740455657 1775.41569553134 23 24 16
205.386847791479 209.773281409694 1787.04516787675 19 25 15
169.607437178553 209.361807328535 1817.92163297712 18 24 14
171.196029573314 208.625007836912 1799.30774149637 12 15 8
148.575613335376 207.386854458693 1796.4897338832 18 21 14
106.181451237227 207.088646657347 1837.39321564066 22 25 18
58.7297347917088 206.86743816036 1885.74667695165 24 27 20
45.698330879441 206.298379997737 1887.41326485379 24 27 20
46.7736232807945 205.574370743417 1869.66207819071 22 25 18
66.4668456245283 204.628281886918 1825.88247896462 18 21 14
53.959580068665 204.047761281059 1826.69363678123 17 20 13
29.8986550857747 203.61282309391 1843.83283163867 19 22 15
14.6207026118086 203.078324773524 1848.81146459094 27 30 23
5.72586872250813 202.46614533887 1844.83038212831 24 27 20
-15.7616848783526 202.023530607503 1858.89458894202 24 27 20
-16.0309237542295 201.299111809545 1842.63908852335 23 26 19
-27.1565318563478 200.722679655997 1841.98178676463 21 24 17
-32.0275703416522 200.058159956142 1832.27152899019 22 25 18
-7.03235923437329 198.947273161318 1778.74803900552 22 25 18
-30.6012010161518 198.552583802137 1796.24415934527 22 25 18
-62.4377492444514 198.299257461063 1826.27428621797 22 25 18
-61.2040337166744 197.534691868066 1807.4027018051 22 25 18
-34.5083289651931 196.345512781349 1750.17109839372 21 24 17
-78.2975720971022 196.313631006262 1798.71045048957 17 20 13
-71.6915504590936 195.443719430204 1771.38158210547 18 21 14
-64.1036164862125 194.545273518484 1742.29430513752 21 24 17
-69.2014042687943 193.862855079314 1732.41958129778 21 24 17
-95.5355762639285 193.568920539916 1755.32207934604 18 21 14
197.88652469817 202.12284989223 1847.03122011463 30 27 20
201.461675708592 201.332100221527 1826.1514552597 25 25 17
194.646310836067 200.665724301046 1818.73710875568 22 23 15
202.318039138309 199.809180981597 1792.18086158864 18 24 14
170.757539892994 199.468237855099 1817.47021747018 18 24 14
171.147330554684 198.703841340347 1800.45722250346 12 15 8
173.26690864186 197.909153073397 1780.99262955865 8 11 4
90.1202792495162 197.594431666167 1860.28542066746 21 24 17
65.1670972489611 197.22083703236 1878.01314671748 24 27 20
47.9928273464623 196.738717118677 1885.32276836797 23 26 19
37.3385293623696 196.159742494596 1883.77178538773 23 26 19
47.5150047292647 194.483941227566 1836.79500140809 16 19 12
24.6357542273117 194.108195728679 1852.32074940216 17 20 13
13.9972450424373 193.530754084631 1850.78121982426 27 30 23
-2.37076999917263 193.057516227002 1857.44032118991 25 28 21
-14.0883646332099 192.506445237404 1857.58904084907 23 26 19
-35.4771420753484 192.138025733311 1871.72493394466 22 25 18
-40.8408277006924 191.476724655811 1862.89289315398 19 22 15
-47.9208988245408 190.846920523688 1856.52217178881 21 24 17
-60.0817151582302 190.317011990794 1857.58473440029 24 27 20
-55.3510406309592 189.450777243219 1833.83714096842 24 27 20
-52.3963847528794 188.611205600367 1812.50731865712 23 26 19
-64.0186906355371 188.068294672959 1812.72515649805 21 24 17
-51.7355972845321 187.018529389356 1777.15955783586 20 23 16
-30.2109245324531 185.751489184651 1727.29518168477 19 22 15
-63.997977255674 185.686200276231 1760.85273966377 21 24 17
-65.2113307051638 184.907109707129 1745.14759014818 23 26 19
-52.2726662266346 183.797122822847 1707.58685069424 21 24 17
-102.075686544988 184.139235793705 1766.58990470585 19 22 15
192.936207627499 192.348032751696 1854.50903686606 25 25 17
188.013762131393 191.65056981809 1844.76164066547 23 24 16
188.526282984528 190.857263667753 1827.83746900072 20 23 14
167.226639271985 190.441882037289 1839.56737143125 20 23 14
170.704062870737 189.591006729851 1818.61645734179 21 24 15
167.499876546227 188.854319923656 1806.40906084288 14 17 10
161.870012752669 188.159521618942 1797.38389214748 8 11 4
80.4703328045831 187.34388005077 1858.17848847851 22 25 18
49.699629404631 187.174700772397 1884.04125424118 21 24 17
31.3237279899701 185.984061080167 1876.8899124198 25 28 21
62.0180319191346 184.538466497858 1817.61523909781 15 18 11
27.4864471914373 184.481987710134 1849.39807793346 14 17 10
23.768905651985 183.764075985155 1838.05337653536 21 24 17
15.9930707293459 183.134553642581 1832.41331920063 19 22 15
-5.53720085793286 182.820777222666 1846.44721142579 19 22 15
-14.9720744560686 182.235739287879 1843.31011123647 19 22 15
-37.4727695498158 181.962644828157 1859.11080207247 18 21 14
-45.1301376402424 181.34301460526 1853.55667397816 22 25 18
-43.7594854876844 180.501558436194 1834.78396838103 24 27 20
-47.5176333059313 179.780912670468 1823.41011125342 24 27 20
-65.3012741651933 179.413591605288 1832.74864162993 24 27 20
-60.1440429444882 178.462080581391 1808.07450520093 23 26 19
-50.6456149999328 177.385721694934 1776.6658805561 22 25 18
-69.4943874629754 177.051498949984 1787.70280968694 24 27 20
-45.2817934399445 175.558720898535 1733.61004952151 26 29 22
-48.7613894273955 174.801559960503 1721.20289897489 26 29 22
-84.5186775468239 174.944662179783 1758.27368780423 19 22 15
-71.6090615452249 173.728061619424 1720.69135047015 20 23 16
-87.0541480956857 173.312462489089 1726.78446324059 17 20 13
217.309548543673 182.006595863082 1823.95544816942 27 28 20
204.99633735033 181.444492842953 1823.67263127127 25 26 18
190.287897620264 180.937764870902 1826.59388909247 21 24 15
197.383368409218 179.953508794777 1800.85429029501 19 22 13
145.964116547197 180.275311379987 1852.5101230694 20 23 14
154.252130317285 179.263192190273 1825.16480973853 14 17 10
109.137755915959 178.661951245476 1852.97860352874 15 18 11
90.0061439470741 178.296154415171 1862.57529970753 19 22 15
80.4148587378806 177.705980584227 1859.32478738904 21 24 17
62.5938578240714 177.321875112678 1867.40111301918 20 23 16
40.7423153452466 177.047667986315 1881.20201506804 25 28 21
58.1486339398345 175.77753594298 1840.70339016045 26 29 22
22.9724833573215 175.857748154115 1873.25469844828 15 18 11
8.88166543167701 175.402199927002 1876.62423720873 13 16 9
21.9914698638717 174.220606181677 1841.65727131504 19 22 15
24.5831938769294 173.309018811903 1821.29902380477 17 20 13
11.0439823666639 172.836093265844 1823.83301470183 17 20 13
-7.01904561901978 172.49543773352 1832.96944093118 20 23 16
-25.5707488615282 172.177620686282 1842.98676834865 20 23 16
-33.2724174382437 171.554521117573 1837.40050831348 25 28 21
-37.5874608806051 170.831875038107 1826.85797216043 22 25 18
-43.0530469850883 170.140778349592 1817.95161614009 23 26 19
-75.9735878812264 170.27987501598 1849.66828902964 24 27 20
-56.825288846259 168.8403697262 1804.25612738708 24 27 20
-57.8877836395883 168.007591760548 1788.66006659358 24 27 20
-61.2161956186466 167.240674862903 1776.3621686682 24 27 20
-60.1711487253891 166.329529660966 1757.35336635817 27 30 23
-57.0010263682263 165.341312385818 1734.94395074721 26 29 22
-52.2790615529949 164.291924676538 1709.95378464712 18 21 14
-75.9685281606477 164.182088907289 1728.59864646811 19 22 15
241.083357985046 171.467280210974 1794.20157512333 24 27 18
226.249453258288 170.9804094421 1797.03198127152 25 28 19
228.451144493656 170.051359182107 1777.62623333024 19 22 13
171.943826723346 170.679627909651 1835.47605284207 19 22 13
173.60697206867 169.772261586763 1816.9153424316 17 20 11
127.196606160414 170.177371790337 1862.32146903364 15 18 11
127.101535675295 169.323035171935 1846.191568939 12 15 8
154.345981048278 167.68962531493 1793.06091356305 11 14 7
96.4757192634504 168.468446922301 1854.86420392295 15 18 11
49.9170387483225 166.38877178871 1853.21559701688 11 14 7
-6.19509785449135 167.245463248429 1915.05845316141 13 16 9
15.7897806884799 165.707381840604 1867.99639039069 16 19 12
16.168085007974 164.827264531118 1850.97448258075 20 23 16
17.0601379864501 163.923768087295 1833.0895526115 18 21 14
37.9550370412027 162.362840236921 1786.47255583294 17 20 13
4.36517905789424 162.571302304515 1817.7043778315 18 21 14
-16.5073530581543 162.37821137433 1830.98035962579 20 23 16
-23.1086667252725 161.714213896936 1823.72119545594 20 23 16
-25.7669467566737 160.914158633567 1810.6741804762 15 18 11
-40.2733159127435 160.521154990273 1814.97753623423 18 21 14
-22.2403609047779 158.989408621181 1771.22644394302 21 24 17
-55.1783882623571 159.251213933218 1802.93106206698 18 21 14
-53.465179286603 158.285055594864 1783.17101495124 21 24 17
-57.361353060398 157.515410352412 1771.69685167083 21 24 17
-59.0830721469795 156.661692974559 1756.85783568556 19 22 15
-70.1863647684138 156.154489519261 1756.21706155203 18 21 14
-70.3266105240528 155.233864934011 1738.81904054887 20 23 16
-19.3379175334085 152.337771476387 1642.37348927085 18 21 14
289.319692487005 159.987290345023 1732.7710504802 21 27 17
227.188622787619 160.039487095453 1780.36569666069 20 23 14
187.000608464092 160.378274365827 1816.69591642708 20 23 14
183.191524589056 159.593997371514 1805.28481236016 17 20 11
146.341066648699 159.864247721101 1837.85867319966 15 18 11
108.094677940672 157.510464534229 1823.70741378323 13 16 9
87.8125120692332 157.291895146442 1834.94086787844 11 14 7
112.812603857676 155.518190428879 1783.88792643566 8 11 4
1.23315277806491 156.723509829498 1889.5117832571 16 19 12
9.76328946233407 155.515529946744 1861.10596129165 20 23 16
-4.28595247188612 155.124210959933 1864.5056702323 18 21 14
13.2595543664129 153.561421180919 1822.87142685467 17 20 13
16.3265596609046 152.521791730751 1801.62203570075 17 20 13
-15.4071550611761 152.801184374552 1830.49437047417 18 21 14
-22.0103012483959 152.131646563272 1823.2338498085 18 21 14
-28.0573647598932 151.439436223964 1815.14129387183 15 18 11
-2.61908218635387 149.499130598018 1760.69975804957 18 21 14
-3.77409048681177 148.592978404744 1745.03655506251 20 23 16
-23.3969368720546 148.429441799267 1756.74824267573 18 21 14
-49.0402933419536 148.524460753849 1777.6834245087 20 23 16
-60.7012126344806 148.056420994335 1777.87364990199 18 21 14
-47.5183665085106 146.548532442308 1740.48761300795 16 19 12
-55.371820521168 145.914346372785 1734.7912643157 17 20 13
-53.9266546823092 144.880381197619 1714.83656355471 19 22 15
-46.3779448885719 142.579754883629 1667.18672799895 20 23 16
256.2598056692 150.880882175954 1776.69112795571 23 29 19
225.318114174684 150.065857918078 1783.89964764432 16 22 12
235.931780365794 148.736288957817 1753.29820044584 22 28 18
213.869831212546 148.571661748754 1765.7120926208 19 25 15
130.796334221942 147.83969279542 1810.47240409352 9 12 5
109.819877031839 147.693127447004 1822.43795293877 9 12 5
129.59859748187 145.977493194498 1778.71643521542 13 16 9
119.81757348039 145.396906384148 1775.32842575732 8 11 4
110.634636800417 144.794331546938 1771.13883455951 10 13 6
58.3492336916316 145.923896787676 1827.11130828145 22 25 18
28.455191653455 146.185042660698 1852.37643314966 22 25 18
5.08946981266023 146.198670731572 1868.78653657149 21 24 17
14.095734429699 144.881812973555 1839.49028178848 18 21 14
20.6788184146292 143.651134033869 1813.37799468152 14 17 10
26.008140195303 142.460209414247 1788.82739769497 12 15 8
-21.7070590460273 143.537166100659 1840.70183453148 15 18 11
-44.160904951879 143.554697004375 1856.53795941836 19 22 15
-24.7009526569786 141.744165846108 1811.34984255576 22 25 18
-33.5845876556375 141.167111916641 1807.37705632555 21 24 17
-22.2845343861844 139.684103497197 1773.56700420266 22 25 18
-22.9303093527164 137.729503276015 1739.74062290788 18 21 14
-67.9193003982981 138.816244940747 1789.88599144388 16 19 12
-66.8333270590309 137.776916209722 1770.90591383612 16 19 12
-27.9148941171998 134.932131262881 1694.11853715506 17 20 13
-59.4016655057972 135.418939762819 1724.40597365235 17 20 13
-61.2735453831184 134.49336903732 1709.45803343093 15 18 11
-5.67078001750998 130.742104175316 1605.23677698109 15 18 11
