ply
format ascii 1.0
comment KinectMotionCapture
element vertex 778
property float x
property float y
property float z
property uchar red
property uchar green
property uchar blue
end_header
53.0209876596928 323.568254709244 2532.00006484985 155 156 151
59.9242374300957 323.564946651459 2532.00006484985 154 155 150
66.7744725942612 323.305606842041 2529.99997138977 151 152 147
73.7591534852982 323.684871196747 2532.99999237061 153 154 149
80.7280689477921 323.935925960541 2535.00008583069 150 151 146
87.6730158925056 324.058800935745 2536.00001335144 144 145 140
94.5484936237335 323.925673961639 2535.00008583069 142 143 138
101.458191871643 323.919951915741 2535.00008583069 138 139 134
108.324758708477 323.786020278931 2533.99991989136 137 138 133
115.27643352747 323.907315731049 2535.00008583069 130 130 128
122.13671952486 323.772609233856 2533.99991989136 128 128 126
129.042059183121 323.765337467194 2533.99991989136 144 144 142
135.839596390724 323.502153158188 2532.00006484985 151 151 149
142.964005470276 324.005156755447 2536.00001335144 153 153 151
150.168761610985 324.63550567627 2540.99988937378 151 151 149
157.214760780334 324.882179498672 2542.99998283386 149 149 147
164.206519722939 325.000673532486 2543.99991035461 136 136 134
171.337723731995 325.374335050583 2546.99993133545 124 124 122
178.414657711983 325.619846582413 2549.00002479553 109 109 107
185.356378555298 325.609475374222 2549.00002479553 110 110 108
192.222014069557 325.471013784409 2548.00009727478 140 142 139
199.394196271896 325.843125581741 2551.00011825562 181 183 180
206.581979990005 326.214790344238 2553.99990081787 188 190 187
213.868990540504 326.713860034943 2558.00008773804 133 135 132
221.263378858566 327.340245246887 2562.99996376038 143 145 142
228.595152497292 327.838510274887 2566.99991226196 107 112 108
235.856145620346 328.208684921265 2569.9999332428 153 158 154
243.321627378464 328.833907842636 2575.00004768372 137 142 138
249.938622117043 328.30947637558 2571.00009918213 143 148 144
254.034578800201 324.592411518097 2542.00005531311 82 87 83
257.150709629059 319.853872060776 2505.00011444092 177 182 178
261.750638484955 317.158311605453 2483.99996757507 170 175 171
266.992151737213 315.356403589249 2470.00002861023 173 178 174
272.710770368576 314.192682504654 2460.99996566772 178 183 179
279.060691595078 313.794761896133 2457.99994468689 178 183 179
285.858422517776 313.907206058502 2459.00011062622 177 182 178
292.660683393478 314.019352197647 2460.00003814697 176 181 177
299.832493066788 314.51416015625 2463.99998664856 177 182 178
307.025045156479 315.008580684662 2467.99993515015 170 175 171
314.365565776825 315.630346536636 2473.00004959106 169 174 170
322.251588106155 316.762268543243 2482.00011253357 176 181 177
-185.796365141869 336.572676897049 2691.99991226196 203 205 202
-177.867248654366 335.457623004913 2683.00008773804 187 189 186
-170.367941260338 335.092335939407 2680.0000667572 182 184 181
-163.00605237484 334.976732730865 2678.99990081787 168 168 166
-155.82337975502 335.235834121704 2680.99999427795 162 162 160
-148.6846357584 335.61959862709 2684.00001525879 162 162 160
-141.423672437668 335.752904415131 2684.99994277954 155 155 153
-134.206667542458 336.010843515396 2687.00003623962 147 147 145
-127.072706818581 336.518466472626 2690.99998474121 140 140 138
-120.227955281734 337.901175022125 2701.99990272522 129 128 124
-113.364577293396 339.408576488495 2713.99998664856 103 102 98
-105.966791510582 339.414834976196 2713.99998664856 78 79 74
-83.462581038475 338.180512189865 2703.9999961853 13 18 12
-75.6685584783554 336.309105157852 2688.99989128113 39 44 38
-66.7107775807381 328.308761119843 2625 27 32 26
-59.1907165944576 326.31129026413 2608.99996757507 21 23 18
-51.7975948750973 324.563503265381 2595.00002861023 18 19 14
-44.6701981127262 324.191063642502 2592.00000762939 32 33 28
-37.5444851815701 323.693126440048 2588.00005912781 55 57 54
-30.4404515773058 323.194861412048 2584.00011062622 61 63 60
-23.3309455215931 322.320818901062 2576.99990272522 97 99 96
-16.2658616900444 321.571558713913 2571.00009918213 128 130 127
-9.24063473939896 321.071952581406 2566.99991226196 182 184 181
-2.24068062379956 321.072280406952 2566.99991226196 148 150 147
4.75001242011786 320.446848869324 2562.00003623962 137 139 136
11.7134181782603 319.821000099182 2556.99992179871 146 148 145
18.634894862771 318.944573402405 2549.99995231628 153 155 152
25.5281589925289 318.192839622498 2543.99991035461 151 153 150
32.4268862605095 317.815899848938 2540.99988937378 158 160 157
39.2781645059586 317.188501358032 2536.00001335144 155 156 151
46.1930893361568 317.185997962952 2536.00001335144 155 156 151
53.0450195074081 316.807895898819 2532.99999237061 157 158 153
59.9750615656376 316.929697990417 2533.99991989136 156 157 152
66.9103339314461 317.051112651825 2535.00008583069 151 152 147
73.8508105278015 317.172139883041 2536.00001335144 149 150 145
80.8283016085625 317.417830228806 2538.00010681152 147 148 143
87.7472534775734 317.412972450256 2538.00010681152 142 143 138
94.7031751275063 317.532807588577 2539.00003433228 140 141 136
101.62415355444 317.527145147324 2539.00003433228 138 139 134
108.544766902924 317.521125078201 2539.00003433228 137 138 133
115.555934607983 317.764788866043 2540.99988937378 130 130 128
122.432976961136 317.632973194122 2539.99996185303 126 126 124
129.253178834915 317.375719547272 2538.00010681152 136 136 134
136.008352041245 316.993027925491 2535.00008583069 146 146 144
142.972186207771 317.110121250153 2536.00001335144 153 153 151
150.118246674538 317.601948976517 2539.99996185303 154 154 152
157.100066542625 317.718327045441 2540.99988937378 154 154 152
164.086773991585 317.834287881851 2542.00005531311 149 149 147
171.212911605835 318.199932575226 2545.00007629395 144 144 142
178.424745798111 318.690210580826 2549.00002479553 126 126 124
185.294151306152 318.555027246475 2548.00009727478 116 116 114
192.232832312584 318.54447722435 2548.00009727478 101 103 100
199.32721555233 318.783581256866 2549.99995231628 113 115 112
206.593543291092 319.272369146347 2553.99990081787 151 153 150
213.964521884918 319.885730743408 2559.00001525879 173 175 172
221.275687217712 320.373743772507 2562.99996376038 156 158 155
228.518769145012 320.736318826675 2565.99998474121 150 155 151
235.777407884598 321.098566055298 2569.00000572205 128 133 129
243.146032094955 321.585416793823 2572.99995422363 132 137 133
249.466195702553 320.697158575058 2565.99998474121 78 83 79
252.549350261688 315.809428691864 2526.99995040894 141 146 142
256.138056516647 311.796575784683 2494.99988555908 172 177 173
261.132508516312 309.658229351044 2477.9999256134 168 173 169
267.006576061249 308.644413948059 2470.00002861023 171 176 172
273.057878017426 307.880252599716 2463.99998664856 175 180 176
279.416233301163 307.490706443787 2460.99996566772 176 181 177
285.989910364151 307.350784540176 2460.00003814697 176 181 177
292.795181274414 307.460457086563 2460.99996566772 174 179 175
299.970000982285 307.944625616074 2464.99991416931 170 175 171
307.290017604828 308.553397655487 2470.00002861023 173 178 174
314.890533685684 309.411644935608 2476.99999809265 169 174 170
322.528004646301 310.269504785538 2483.99996757507 176 181 177
-186.358898878098 330.231577157974 2700.00004768372 202 207 203
-178.274929523468 328.896164894104 2688.99989128113 187 189 186
-170.504599809647 328.049659729004 2681.99992179871 183 183 181
-162.954345345497 327.569663524628 2677.99997329712 181 181 179
-155.715882778168 327.700853347778 2678.99990081787 181 181 179
-148.582205176353 328.076303005219 2681.99992179871 170 171 166
-141.378968954086 328.329056501389 2684.00001525879 159 160 155
-134.114339947701 328.459084033966 2684.99994277954 152 153 148
-126.938223838806 328.833431005478 2687.99996376038 139 141 136
-120.05677819252 330.063700675964 2697.99995422363 134 136 131
-113.245688378811 331.660658121109 2710.99996566772 123 125 122
-106.011867523193 332.156181335449 2714.99991416931 99 101 98
-83.4673494100571 330.826461315155 2703.9999961853 12 14 9
-74.9130621552467 325.69232583046 2661.99994087219 46 48 43
-67.4262195825577 324.595242738724 2653.00011634827 33 34 29
-59.2167899012566 319.337725639343 2609.99989509583 38 39 34
-51.8404841423035 317.75027513504 2596.99988365173 25 26 21
-44.6899943053722 317.263633012772 2592.99993515015 22 23 18
-37.5756584107876 316.898912191391 2589.99991416931 55 57 52
-30.4304156452417 316.044360399246 2582.99994468689 169 171 166
-23.3051255345345 314.944684505463 2573.99988174438 185 187 182
-16.2414871156216 314.089328050613 2566.99991226196 193 195 190
-9.2375660315156 313.967674970627 2565.99998474121 144 146 141
-2.23993649706244 313.968032598495 2565.99998474121 135 137 132
4.75399335846305 313.723236322403 2563.99989128113 142 144 139
11.7232529446483 313.11097741127 2559.00001525879 160 162 157
18.6505820602179 312.253624200821 2552.00004577637 161 163 158
25.5396608263254 311.395883560181 2545.00007629395 157 159 154
32.428752630949 310.904800891876 2540.99988937378 158 160 155
39.2804183065891 310.290992259979 2536.00001335144 158 160 157
46.2139546871185 310.410916805267 2536.99994087219 155 157 154
53.1318299472332 310.408055782318 2536.99994087219 154 156 153
60.0731745362282 310.527235269547 2538.00010681152 156 158 155
67.0197531580925 310.645967721939 2539.00003433228 144 146 143
73.9423930644989 310.641974210739 2539.00003433228 145 147 144
80.9921473264694 311.126947402954 2542.99998283386 143 145 142
87.890550494194 310.999840497971 2542.00005531311 139 140 135
94.8950573801994 311.239361763 2543.99991035461 138 139 134
101.709984242916 310.86677312851 2540.99988937378 137 138 133
108.636438846588 310.860872268677 2540.99988937378 136 137 132
115.607976913452 310.976922512054 2542.00005531311 134 136 133
122.584506869316 311.092555522919 2542.99998283386 133 133 131
129.464194178581 310.963153839111 2542.00005531311 128 128 126
136.230632662773 310.588717460632 2539.00003433228 134 136 133
143.092975020409 310.45863032341 2538.00010681152 148 148 146
150.008454918861 310.450464487076 2538.00010681152 162 162 160
157.047033309937 310.686528682709 2539.99996185303 162 164 161
164.031401276588 310.799956321716 2540.99988937378 160 162 159
171.222448348999 311.279952526093 2545.00007629395 163 163 161
178.294658660889 311.514914035797 2546.99993133545 151 151 149
185.449868440628 311.871826648712 2549.99995231628 135 137 134
192.31890141964 311.73911690712 2549.00002479553 113 118 112
199.416384100914 311.973005533218 2551.00011825562 107 112 106
206.524014472961 312.206506729126 2552.99997329712 107 109 104
213.725417852402 312.561929225922 2555.99999427795 141 143 138
221.115097403526 313.161551952362 2561.00010871887 167 167 165
228.264048695564 313.393950462341 2562.99996376038 152 154 151
235.606625676155 313.870549201965 2566.99991226196 158 160 157
242.686673998833 313.979983329773 2568.00007820129 23 28 24
248.021304607391 311.888366937637 2551.00011825562 16 21 17
251.063734292984 307.106971740723 2512.00008392334 168 174 170
255.535781383514 304.281651973724 2489.00008201599 170 176 172
260.935693979263 302.678823471069 2476.0000705719 165 170 166
267.020732164383 301.931411027908 2470.00002861023 167 172 168
273.515611886978 301.672726869583 2467.99993515015 172 177 173
279.998689889908 301.413834095001 2466.00008010864 173 178 174
286.586195230484 301.276832818985 2464.99991416931 172 177 173
293.167382478714 301.13959312439 2463.99998664856 175 180 176
300.350666046143 301.613122224808 2467.99993515015 171 176 172
307.554721832275 302.086353302002 2471.99988365173 176 181 177
315.796613693237 303.536802530289 2483.99996757507 172 177 173
323.58330488205 304.498165845871 2492.00010299683 178 182 181
-187.128350138664 324.204564094543 2710.99996566772 201 206 202
-178.5499304533 322.061866521835 2693.00007820129 175 177 174
-170.704707503319 321.114599704742 2684.99994277954 165 165 163
-163.085043430328 320.525765419006 2680.0000667572 170 170 168
-155.724480748177 320.414841175079 2678.99990081787 166 166 164
-148.479625582695 320.54278254509 2680.0000667572 160 161 156
-141.228795051575 320.670336484909 2680.99999427795 158 159 154
-134.021908044815 320.917129516602 2683.00008773804 157 158 153
-126.803636550903 321.163535118103 2684.99994277954 142 144 139
-119.974464178085 322.486102581024 2696.00009918213 133 138 134
-113.293781876564 324.406415224075 2711.99989318848 99 104 100
-82.0520222187042 317.968457937241 2657.99999237061 94 96 91
-75.0861316919327 319.169074296951 2667.99998283386 23 25 20
-66.8200105428696 314.507454633713 2628.99994850159 41 42 37
-59.1293685138226 311.759471893311 2605.99994659424 29 30 25
-51.5838898718357 309.130668640137 2584.00011062622 17 18 13
-44.7442196309567 310.568928718567 2595.99995613098 25 26 21
-37.6067943871021 310.092717409134 2592.00000762939 26 28 23
-30.3967874497175 308.658987283707 2579.99992370605 39 41 36
-23.288331925869 307.70343542099 2572.00002670288 199 201 196
-16.2487328052521 307.225972414017 2568.00007820129 189 191 186
-9.23808757215738 306.987375020981 2565.99998474121 127 129 124
-2.24006292410195 306.987702846527 2565.99998474121 150 152 147
4.74869925528765 306.389480829239 2561.00010871887 157 159 154
11.7239151149988 306.149750947952 2559.00001525879 169 171 166
18.6662506312132 305.550694465637 2553.99990081787 168 170 165
25.6013162434101 305.190563201904 2551.00011825562 157 159 154
32.507162541151 304.710417985916 2546.99993133545 152 154 149
39.3755733966827 304.11022901535 2542.00005531311 156 158 155
46.2712086737156 303.868532180786 2539.99996185303 159 161 158
53.1767122447491 303.74613404274 2539.00003433228 156 158 155
60.1002275943756 303.743004798889 2539.00003433228 155 157 154
67.0499131083488 303.859084844589 2539.99996185303 150 152 149
73.9756748080254 303.855150938034 2539.99996185303 143 145 142
80.9329822659492 303.970456123352 2540.99988937378 140 142 139
87.826319038868 303.846150636673 2539.99996185303 137 139 136
94.751164317131 303.841114044189 2539.99996185303 138 140 137
101.675659418106 303.835660219193 2539.99996185303 137 139 136
108.599744737148 303.829848766327 2539.99996185303 136 138 135
115.52345007658 303.82364988327 2539.99996185303 132 136 135
122.54311144352 304.056316614151 2542.00005531311 129 133 132
129.471391439438 304.049402475357 2542.00005531311 141 145 144
136.345490813255 303.922474384308 2540.99988937378 127 131 130
143.213659524918 303.795218467712 2539.99996185303 124 129 125
150.075852870941 303.667575120926 2539.00003433228 142 147 143
157.117515802383 303.898364305496 2540.99988937378 151 156 152
163.975834846497 303.770035505295 2539.99996185303 168 173 169
171.029970049858 304.000109434128 2542.00005531311 168 173 167
178.094387054443 304.229825735092 2543.99991035461 170 175 169
185.241773724556 304.57878112793 2546.99993133545 171 178 171
192.404821515083 304.927349090576 2549.99995231628 174 184 173
199.42718744278 305.036425590515 2551.00011825562 160 168 157
206.454291939735 305.145084857941 2552.00004577637 169 175 165
213.402450084686 305.133879184723 2552.00004577637 126 127 121
220.522537827492 305.361390113831 2553.99990081787 40 39 34
227.563753724098 305.469065904617 2555.0000667572 25 24 20
234.609544277191 305.576384067535 2555.99999427795 18 19 14
241.943508386612 306.042015552521 2559.99994277954 20 25 21
246.284261345863 302.801460027695 2532.99999237061 18 24 20
250.177413225174 299.202263355255 2503.00002098084 167 178 174
255.138516426086 297.037422657013 2484.99989509583 133 142 139
260.949343442917 295.948266983032 2476.0000705719 151 155 154
267.250895500183 295.456498861313 2471.99988365173 153 157 156
273.973137140274 295.442521572113 2471.99988365173 153 155 152
280.353784561157 295.069754123688 2469.00010108948 159 161 158
287.066042423248 295.055270195007 2469.00010108948 169 171 168
293.658375740051 294.920980930328 2467.99993515015 167 169 168
300.487697124481 295.025408267975 2469.00010108948 177 179 178
307.694792747498 295.488059520721 2473.00004959106 178 180 179
315.939694643021 296.906143426895 2484.99989509583 189 190 192
325.936913490295 299.877017736435 2509.99999046326 178 182 185
-188.035771250725 318.350374698639 2723.99997711182 199 204 200
-179.023668169975 315.555244684219 2700.00004768372 188 190 187
-170.841097831726 314.045250415802 2687.00003623962 184 186 185
-163.15470635891 313.352912664413 2680.99999427795 172 172 170
-155.732914805412 313.127666711807 2678.99990081787 169 169 167
-148.376882076263 313.019007444382 2677.99997329712 166 168 165
-141.131103038788 313.143670558929 2678.99990081787 158 160 157
-134.079158306122 313.735544681549 2684.00001525879 135 137 134
-126.857772469521 313.976377248764 2686.00010871887 116 118 115
-120.114535093307 315.502673387527 2698.99988174438 87 92 88
-82.3035091161728 311.672419309616 2665.99988937378 11 13 8
-74.8651102185249 310.975283384323 2660.00008583069 28 30 25
-51.486924290657 301.515936851501 2578.9999961853 26 27 21
-44.4364361464977 301.401644945145 2578.00006866455 21 22 16
-37.3477041721344 300.936192274094 2573.99988174438 28 30 25
-30.3277745842934 300.938040018082 2573.99988174438 27 29 24
-23.280568420887 300.588816404343 2571.00009918213 16 18 13
-16.2559598684311 300.356030464172 2569.00000572205 110 112 107
-9.24580078572035 300.239831209183 2568.00007820129 143 145 140
-2.23931414075196 299.889415502548 2565.00005722046 164 166 161
4.74896281957626 299.421668052673 2561.00010871887 149 151 146
11.7199830710888 299.070477485657 2558.00008773804 137 139 134
18.6892133206129 298.952728509903 2556.99992179871 134 136 131
25.6529189646244 298.834621906281 2555.99999427795 148 150 145
32.5727798044682 298.365354537964 2552.00004577637 150 152 147
39.4706949591637 297.895729541779 2548.00009727478 147 149 146
46.4195162057877 297.89337515831 2548.00009727478 150 152 149
53.3472113311291 297.773718833923 2546.99993133545 148 150 147
60.1982362568378 297.302961349487 2542.99998283386 148 150 147
67.0008137822151 296.714901924133 2538.00010681152 146 148 145
73.8923698663712 296.594172716141 2536.99994087219 144 146 143
80.8418989181519 296.706855297089 2538.00010681152 144 146 143
87.7619981765747 296.702295541763 2538.00010681152 149 151 148
94.6071371436119 296.463489532471 2536.00001335144 152 154 151
101.56112164259 296.575039625168 2536.99994087219 143 145 142
108.477421104908 296.569347381592 2536.99994087219 136 138 135
115.438804030418 296.680212020874 2538.00010681152 140 144 143
122.405178844929 296.790659427643 2539.00003433228 148 152 151
129.427492618561 297.017604112625 2540.99988937378 139 144 140
136.299252510071 296.89359664917 2539.99996185303 131 136 132
143.165037035942 296.769171953201 2539.00003433228 129 134 130
149.906635284424 296.4106798172 2536.00001335144 119 124 120
157.002329826355 296.753078699112 2539.00003433228 136 141 137
164.049237966537 296.978235244751 2540.99988937378 156 161 155
171.039178967476 297.086149454117 2542.00005531311 161 166 160
178.033947944641 297.193765640259 2542.99998283386 173 178 172
185.178950428963 297.534704208374 2546.0000038147 169 174 168
192.415073513985 297.992140054703 2549.99995231628 180 187 179
199.594169855118 298.332393169403 2552.99997329712 167 174 166
206.465244293213 298.204869031906 2552.00004577637 131 136 129
213.24647963047 297.960132360458 2549.99995231628 8 9 3
219.411626458168 296.897202730179 2540.99988937378 27 28 22
225.61614215374 295.950919389725 2532.99999237061 21 22 17
233.979284763336 297.808319330215 2549.00002479553 14 15 10
240.538418292999 297.32871055603 2545.00007629395 24 26 21
244.546845555305 293.811410665512 2515.00010490417 11 16 12
249.490693211555 291.579127311707 2496.00005149841 191 197 193
255.048990249634 290.16438126564 2483.99996757507 170 176 172
260.751962661743 288.983136415482 2473.99997711182 178 182 181
266.832113265991 288.268864154816 2467.99993515015 180 184 183
273.543745279312 288.25518488884 2467.99993515015 172 174 173
280.368030071259 288.3580327034 2469.00010108948 165 167 166
287.429362535477 288.694143295288 2471.99988365173 153 155 154
294.387102127075 288.913190364838 2473.99997711182 165 167 166
301.354736089706 289.131939411163 2476.0000705719 174 176 175
308.705508708954 289.700657129288 2480.99994659424 178 180 179
316.972583532333 291.086465120316 2493.00003051758 190 191 193
-188.390865921974 311.511158943176 2729.00009155273 202 207 203
-179.099440574646 308.32451581955 2700.99997520447 198 200 197
-170.913711190224 306.84968829155 2687.99996376038 197 197 195
-163.102507591248 305.945247411728 2680.0000667572 187 187 187
-155.624940991402 305.611103773117 2677.00004577637 177 177 177
-148.273974657059 305.504947900772 2676.00011825562 170 172 171
-140.980586409569 305.512607097626 2676.00011825562 167 169 168
-134.036377072334 306.319057941437 2683.00008773804 140 144 143
-126.959040760994 306.896835565567 2687.99996376038 119 123 122
-120.477043092251 309.072703123093 2707.00001716614 80 85 81
-81.9374844431877 303.048104047775 2654.00004386902 7 9 4
-74.2499381303787 301.225274801254 2638.00001144409 40 42 37
-65.4800981283188 294.149398803711 2575.99997520447 21 23 18
-57.8877702355385 291.298002004623 2551.00011825562 16 19 12
-51.5695698559284 294.954985380173 2582.99994468689 24 25 19
-44.042382389307 291.760236024857 2555.0000667572 29 30 24
-37.4658145010471 294.84561085701 2582.00001716614 12 15 8
-30.3058568388224 293.705493211746 2572.00002670288 11 14 7
-23.3180560171604 294.04953122139 2575.00004768372 8 11 4
-16.269501298666 293.59382390976 2571.00009918213 22 25 18
-9.24990512430668 293.366104364395 2569.00000572205 70 73 66
-2.24030925892293 293.023854494095 2565.99998474121 62 65 58
4.74551226943731 292.224407196045 2559.00001525879 70 73 66
11.7114577442408 291.881382465363 2555.99999427795 69 72 65
18.6756122857332 291.766345500946 2555.0000667572 72 75 68
25.6442744284868 291.765183210373 2555.0000667572 85 88 81
32.5745455920696 291.42102599144 2552.00004577637 85 88 81
39.4883304834366 291.076511144638 2549.00002479553 86 88 83
46.4584678411484 291.188359260559 2549.99995231628 90 92 87
53.3710494637489 290.95733165741 2548.00009727478 114 116 111
60.1304732263088 290.040761232376 2539.99996185303 132 134 129
66.9516399502754 289.580583572388 2536.00001335144 164 166 161
73.779858648777 289.23425078392 2532.99999237061 164 166 161
80.6869938969612 289.230138063431 2532.99999237061 166 168 163
87.5246524810791 288.997232913971 2530.99989891052 165 167 162
94.3883880972862 288.878232240677 2529.99997138977 164 166 161
101.366423070431 289.101362228394 2532.00006484985 164 166 161
108.397729694843 289.438307285309 2535.00008583069 166 168 163
115.399487316608 289.660692214966 2536.99994087219 159 164 160
122.315309941769 289.654433727264 2536.99994087219 166 171 167
129.332542419434 289.876073598862 2539.00003433228 165 170 166
136.199191212654 289.754897356033 2538.00010681152 159 164 160
143.059879541397 289.633363485336 2536.99994087219 156 161 157
149.796351790428 289.283156394959 2533.99991989136 150 155 149
156.825140118599 289.503425359726 2536.00001335144 156 161 155
163.993343710899 289.951622486115 2539.99996185303 144 149 143
170.913621783257 289.942890405655 2539.99996185303 146 151 145
177.973300218582 290.162086486816 2542.00005531311 115 120 114
184.970453381538 290.266752243042 2542.99998283386 78 83 77
192.198768258095 290.713518857956 2546.99993133545 7 12 5
199.213638901711 290.817528963089 2548.00009727478 1 6 0
205.99053800106 290.578812360764 2546.0000038147 11 16 9
212.337598204613 289.769142866135 2539.00003433228 7 12 5
215.968877077103 285.421401262283 2500.99992752075 16 21 14
225.271463394165 288.605511188507 2529.00004386902 19 24 17
233.624115586281 290.419667959213 2545.00007629395 22 25 18
239.794582128525 289.494752883911 2536.99994087219 23 24 18
243.100702762604 285.260558128357 2500 1 0 0
248.70365858078 283.878952264786 2487.99991607666 181 180 176
254.651188850403 282.953530550003 2480.00001907349 175 174 170
260.659724473953 282.142013311386 2473.00004959106 173 175 172
266.845524311066 281.55842423439 2467.99993515015 173 175 174
273.335754871368 281.316846609116 2466.00008010864 171 173 172
280.268430709839 281.531274318695 2467.99993515015 173 175 174
287.443608045578 281.973570585251 2471.99988365173 168 170 169
294.75861787796 282.529652118683 2476.99999809265 163 165 164
301.856398582459 282.857269048691 2480.00001907349 147 149 148
309.59165096283 283.754825592041 2487.99991607666 131 133 132
318.386644124985 285.564392805099 2503.99994850159 135 137 136
-188.055396080017 303.529351949692 2723.99997711182 206 208 205
-178.976073861122 300.752997398376 2698.99988174438 193 194 189
-170.668229460716 299.090474843979 2684.00001525879 186 185 181
-162.989258766174 298.430472612381 2677.99997329712 175 171 168
-155.4004997015 297.881484031677 2673.00009727478 175 174 172
-148.2263058424 298.11218380928 2674.99995231628 166 166 164
-140.987977385521 298.231154680252 2676.00011825562 141 143 142
-133.993446826935 298.906952142715 2681.99992179871 124 128 127
-127.060174942017 299.805343151093 2690.00005722046 125 129 128
-80.8612033724785 291.924297809601 2618.99995803833 23 25 20
-73.7753733992577 292.151302099228 2621.00005149841 34 36 31
-65.8140480518341 288.588047027588 2588.99998664856 25 27 22
-57.5731322169304 282.794952392578 2536.99994087219 18 21 14
-44.1136732697487 285.252630710602 2559.00001525879 27 28 22
-37.1775850653648 285.589188337326 2562.00003623962 25 28 21
-30.2132032811642 285.813927650452 2563.99989128113 19 22 15
-23.3283527195454 287.152975797653 2575.99997520447 23 26 19
-16.2893533706665 286.931097507477 2573.99988174438 20 23 16
-9.25399735569954 286.485850811005 2569.9999332428 61 64 57
-2.24130135029554 286.151736974716 2566.99991226196 117 120 113
4.74761938676238 285.371363162994 2559.99994277954 136 139 132
11.7120807990432 284.925073385239 2555.99999427795 139 142 135
18.654678016901 284.478366374969 2552.00004577637 135 138 131
25.5854148417711 284.142762422562 2549.00002479553 131 134 127
32.4996933341026 283.806830644608 2546.0000038147 133 136 129
39.4129678606987 283.581972122192 2543.99991035461 132 134 129
46.369843184948 283.691227436066 2545.00007629395 120 122 117
53.2900951802731 283.577084541321 2543.99991035461 100 102 97
60.0389689207077 282.68238902092 2536.00001335144 110 112 107
66.8231844902039 282.12171792984 2530.99989891052 159 161 156
73.6672505736351 281.895101070404 2529.00004386902 163 165 160
80.5638357996941 281.891018152237 2529.00004386902 180 182 177
87.4947011470795 281.998097896576 2529.99997138977 184 186 181
94.3187698721886 281.770467758179 2528.00011634827 183 185 180
101.251661777496 281.876772642136 2529.00004386902 178 180 175
108.275160193443 282.205700874329 2532.00006484985 178 180 175
115.360081195831 282.645672559738 2536.00001335144 177 182 178
122.369952499866 282.862424850464 2538.00010681152 178 183 179
129.390269517899 283.078759908676 2539.99996185303 170 175 171
136.367306113243 283.18327665329 2540.99988937378 180 185 181
143.180146813393 282.953202724457 2539.00003433228 183 188 184
149.863302707672 282.499879598618 2535.00008583069 186 191 185
156.709596514702 282.380521297455 2533.99991989136 179 184 178
163.937300443649 282.929480075836 2539.00003433228 187 192 186
170.989751815796 283.143728971481 2540.99988937378 127 132 126
177.982464432716 283.246219158173 2542.00005531311 0 2 0
184.689030051231 282.902747392654 2539.00003433228 6 8 3
192.057728767395 283.561676740646 2545.00007629395 5 8 1
198.520168662071 282.883286476135 2539.00003433228 14 17 10
204.787358641624 281.981736421585 2530.99989891052 16 21 14
211.679339408875 281.971216201782 2530.99989891052 14 19 12
217.706978321075 280.846357345581 2520.99990844727 29 36 28
223.679423332214 279.721319675446 2510.99991798401 8 13 6
232.167080044746 281.715095043182 2529.00004386902 17 20 13
237.632572650909 280.032485723495 2513.99993896484 7 7 0
242.432177066803 277.681469917297 2493.00003051758 15 12 5
248.216241598129 276.555508375168 2483.00004005432 175 168 162
254.150390625 275.652080774307 2474.99990463257 179 174 170
260.250985622406 274.971276521683 2469.00010108948 180 180 178
266.642421483994 274.624288082123 2466.00008010864 179 179 177
273.238331079483 274.499773979187 2464.99991416931 178 178 178
280.282109975815 274.820446968079 2467.99993515015 178 180 179
287.573903799057 275.363475084305 2473.00004959106 171 173 172
294.891893863678 275.906205177307 2477.9999256134 164 166 165
302.722990512848 276.893973350525 2486.99998855591 169 171 170
310.850918292999 278.104037046433 2497.99990653992 141 143 142
-187.719732522964 295.573711395264 2719.00010108948 203 204 199
-178.653597831726 292.86515712738 2694.00000572205 196 195 191
-170.48616707325 291.460692882538 2680.99999427795 193 190 185
-162.814974784851 290.816783905029 2674.99995231628 187 182 178
-155.292153358459 290.38992524147 2671.0000038147 175 172 167
-148.067638278008 290.506333112717 2671.99993133545 167 166 162
-140.889838337898 290.731132030487 2674.00002479553 158 158 156
-133.850425481796 291.2817299366 2678.99990081787 131 133 130
-127.019464969635 292.37562417984 2688.99989128113 114 116 113
-87.8395661711693 284.247905015945 2614.00008201599 3 5 0
-80.4331302642822 283.273547887802 2605.00001907349 12 14 9
-72.7376788854599 280.9938788414 2584.00011062622 19 22 15
-65.7157823443413 281.106203794479 2585.00003814697 25 28 21
-58.1434965133667 278.608202934265 2562.00003623962 18 21 14
-50.6964512169361 276.109844446182 2539.00003433228 18 21 14
-43.3919131755829 273.719787597656 2516.99995994568 19 22 15
-37.0489172637463 277.636826038361 2552.99997329712 24 27 20
-29.8848226666451 275.789827108383 2536.00001335144 0 3 0
-23.3295690268278 280.141174793243 2575.99997520447 20 23 16
-16.3661483675241 281.229734420776 2585.99996566772 9 12 5
-9.21487063169479 278.294146060944 2559.00001525879 12 15 8
-2.23530642688274 278.403162956238 2559.99994277954 23 26 19
4.74415859207511 278.185606002808 2558.00008773804 17 20 13
11.7081105709076 277.858912944794 2555.0000667572 11 14 7
18.6264105141163 277.096897363663 2548.00009727478 2 5 0
25.5466010421515 276.769518852234 2545.00007629395 25 28 21
32.4630886316299 276.550501585007 2542.99998283386 54 57 50
39.3685400485992 276.331126689911 2540.99988937378 70 72 67
46.2629348039627 276.111453771591 2539.00003433228 74 76 71
53.1462319195271 275.891363620758 2536.99994087219 79 81 76
59.9237158894539 275.23598074913 2530.99989891052 65 67 62
66.7210444808006 274.797767400742 2526.99995040894 34 36 31
73.6419484019279 274.902880191803 2528.00011634827 56 58 53
80.5998742580414 275.116384029388 2529.99997138977 90 92 87
87.5338241457939 275.220841169357 2530.99989891052 108 110 105
94.3609476089478 274.998694658279 2529.00004386902 116 118 113
101.216852664948 274.884939193726 2528.00011634827 103 105 100
108.323499560356 275.423258543015 2532.99999237061 95 97 92
115.275040268898 275.526285171509 2533.99991989136 81 83 80
122.424468398094 276.063919067383 2539.00003433228 74 76 73
129.345968365669 276.057511568069 2539.00003433228 9 11 6
136.589005589485 276.703119277954 2545.00007629395 0 1 0
143.413037061691 276.478558778763 2542.99998283386 5 7 2
149.989187717438 275.818824768066 2536.99994087219 18 20 15
156.655743718147 275.376230478287 2532.99999237061 20 22 17
163.493633270264 275.259464979172 2532.00006484985 8 11 4
170.998424291611 276.229411363602 2540.99988937378 10 13 6
177.711397409439 275.894582271576 2538.00010681152 16 19 12
184.916585683823 276.320368051529 2542.00005531311 6 9 2
191.539108753204 275.87616443634 2538.00010681152 10 9 5
198.451936244965 275.866478681564 2538.00010681152 8 9 3
203.907534480095 273.900032043457 2519.99998092651 19 24 17
209.598928689957 272.368192672729 2506.00004196167 16 24 13
216.767832636833 272.792398929596 2509.99999046326 24 30 20
223.690494894981 272.890269756317 2510.99991798401 27 30 19
232.545748353004 275.269985198975 2532.99999237061 21 23 12
237.927839159966 273.51975440979 2516.99995994568 20 13 3
243.027552962303 271.552085876465 2499.00007247925 132 122 113
248.528271913528 270.127564668655 2486.00006103516 193 174 167
254.368156194687 269.137501716614 2476.99999809265 201 184 177
260.369002819061 268.364578485489 2470.00002861023 190 183 177
266.655325889587 267.917394638062 2466.00008010864 182 177 173
273.029774427414 267.578601837158 2463.00005912781 176 172 169
279.954850673676 267.782747745514 2464.99991416931 174 173 169
287.122458219528 268.203854560852 2469.00010108948 164 166 163
294.667899608612 268.950521945953 2476.0000705719 167 169 168
302.980780601501 270.348608493805 2489.00008201599 174 176 175
313.852220773697 273.918479681015 2522.0000743866 153 157 156
-187.107637524605 287.22020983696 2710.00003814697 200 201 196
-178.795143961906 285.745412111282 2696.00009918213 190 187 182
-170.494645833969 284.164130687714 2680.99999427795 192 187 181
-162.823095917702 283.536374568939 2674.99995231628 196 189 183
-155.35806119442 283.226251602173 2671.99993133545 186 179 173
-147.964239120483 283.021777868271 2670.00007629395 175 170 166
-140.738815069199 283.134907484055 2671.0000038147 169 165 162
-133.557394146919 283.35377573967 2673.00009727478 131 130 126
-126.978635787964 284.950345754623 2687.99996376038 102 103 98
-87.3063504695892 275.435894727707 2598.00004959106 5 8 1
-79.9740478396416 274.59192276001 2589.99991416931 16 19 12
-72.0939189195633 271.521151065826 2561.00010871887 20 23 16
-65.2615055441856 272.160708904266 2566.99991226196 24 27 20
-58.7819367647171 274.602383375168 2589.99991416931 24 29 22
-50.9186834096909 270.364165306091 2549.99995231628 22 28 18
-43.8596233725548 269.730418920517 2543.99991035461 13 16 9
-30.4284505546093 273.763209581375 2582.00001716614 20 23 16
-16.1201506853104 270.054548978806 2546.99993133545 17 20 13
-9.15412232279778 269.525051116943 2542.00005531311 13 16 9
-2.2153367754072 268.995195627213 2536.99994087219 22 25 18
4.71286987885833 269.419223070145 2540.99988937378 22 25 18
11.694960296154 270.585149526596 2552.00004577637 14 17 10
18.5761880129576 269.418090581894 2540.99988937378 10 13 6
25.5077518522739 269.416958093643 2540.99988937378 7 10 3
32.4775129556656 269.73357796669 2543.99991035461 1 4 0
39.4170358777046 269.731760025024 2543.99991035461 2 5 0
46.2470687925816 269.093453884125 2538.00010681152 3 6 0
53.0651435256004 268.560826778412 2532.99999237061 3 6 0
59.8794147372246 268.133878707886 2529.00004386902 5 8 1
66.5660127997398 267.282485961914 2520.99990844727 9 12 5
73.4708979725838 267.385005950928 2522.0000743866 5 8 1
80.5083960294724 267.911225557327 2526.99995040894 0 3 0
87.642028927803 268.649160861969 2533.99991989136 4 7 0
94.4030433893204 268.220514059067 2529.99997138977 5 8 1
101.342089474201 268.321603536606 2530.99989891052 0 3 0
108.286209404469 268.422394990921 2532.00006484985 3 6 0
115.280851721764 268.628835678101 2533.99991989136 6 8 3
122.382417321205 269.0469622612 2538.00010681152 5 7 2
129.709094762802 269.888699054718 2546.0000038147 7 9 4
137.293577194214 271.154135465622 2558.00008773804 10 12 7
144.09701526165 270.829170942307 2555.0000667572 14 17 10
150.351420044899 269.549876451492 2542.99998283386 18 21 14
156.478017568588 268.164366483688 2529.99997138977 26 29 22
163.372620940208 268.156498670578 2529.99997138977 12 15 8
170.064717531204 267.830312252045 2526.99995040894 11 14 5
176.739856600761 267.50385761261 2523.9999294281 8 11 2
183.68898332119 267.601042985916 2525.00009536743 7 10 1
190.642863512039 267.697870731354 2526.00002288818 9 8 3
197.914302349091 268.21830868721 2530.99989891052 13 14 8
204.807639122009 268.208533525467 2530.99989891052 20 23 14
211.867496371269 268.410384654999 2532.99999237061 7 13 3
217.728391289711 267.128467559814 2520.99990844727 16 19 10
224.859490990639 267.435729503632 2523.9999294281 20 22 9
232.373371720314 268.166452646255 2530.99989891052 27 25 12
237.939298152924 266.671895980835 2516.99995994568 20 10 0
242.941930890083 264.647483825684 2497.99990653992 36 19 9
248.44017624855 263.258576393127 2484.99989509583 130 108 97
254.380285739899 262.399256229401 2476.99999809265 125 105 96
260.486781597137 261.751532554626 2470.99995613098 164 154 145
266.88414812088 261.421382427216 2467.99993515015 192 183 176
273.264348506927 261.091023683548 2464.99991416931 193 186 180
279.967963695526 261.078178882599 2464.99991416931 173 168 164
287.252128124237 261.594593524933 2470.00002861023 179 180 175
295.038640499115 262.534350156784 2479.00009155273 173 175 172
303.725183010101 264.215022325516 2494.99988555908 168 170 167
-188.083365559578 281.28981590271 2723.99997711182 193 190 185
-179.334387183189 279.233306646347 2703.9999961853 120 111 102
-170.820951461792 277.382910251617 2686.00010871887 113 103 93
-162.891924381256 276.358246803284 2676.00011825562 120 106 95
-155.423820018768 276.056110858917 2673.00009727478 120 106 95
-147.860646247864 275.547057390213 2667.99998283386 121 109 97
-140.587657690048 275.554060935974 2667.99998283386 116 106 96
-133.464008569717 275.870561599731 2671.0000038147 115 106 97
-127.03213095665 277.736008167267 2688.99989128113 101 97 88
-88.0836397409439 270.738542079926 2621.00005149841 12 15 8
-80.1015421748161 267.953634262085 2594.00010108948 25 28 21
-72.2101107239723 264.961719512939 2565.00005722046 16 21 14
-65.9257993102074 267.857521772385 2592.99993515015 14 19 12
-58.8756613433361 267.963916063309 2594.00010108948 14 20 10
-51.5602342784405 266.726970672607 2582.00001716614 16 22 12
-44.1031940281391 264.250099658966 2558.00008773804 17 23 13
-37.6331992447376 267.867714166641 2592.99993515015 18 21 12
-30.7010374963284 269.109100103378 2605.00001907349 14 17 8
-23.5311947762966 268.387287855148 2598.00004959106 16 19 10
-16.3424853235483 266.735374927521 2582.00001716614 11 14 5
-9.12216771394014 261.674016714096 2532.99999237061 14 17 8
-2.1997292060405 260.228008031845 2519.00005340576 18 21 12
4.68342890962958 260.84777712822 2525.00009536743 15 18 9
11.5168141201138 259.60773229599 2513.00001144409 8 11 2
18.4893868863583 261.259883642197 2529.00004386902 12 15 6
25.4186782985926 261.5687251091 2532.00006484985 15 18 9
32.4791371822357 262.806922197342 2543.99991035461 14 17 8
39.3105372786522 262.082010507584 2536.99994087219 13 16 9
46.2311618030071 262.079924345016 2536.99994087219 14 17 10
53.0677959322929 261.664241552353 2532.99999237061 13 16 9
59.906080365181 261.351585388184 2529.99997138977 13 16 9
66.595733165741 260.522037744522 2522.0000743866 17 20 13
73.3871608972549 260.208696126938 2519.00005340576 18 21 14
80.4805308580399 260.928004980087 2526.00002288818 11 14 7
87.9576727747917 262.679904699326 2542.99998283386 8 11 4
94.6316123008728 261.952370405197 2536.00001335144 9 12 5
101.347111165524 261.431097984314 2530.99989891052 10 13 6
108.676470816135 262.458831071854 2540.99988937378 6 9 2
115.28654396534 261.730343103409 2533.99991989136 12 15 8
122.43665009737 262.241005897522 2539.00003433228 15 18 11
129.91926074028 263.370990753174 2549.99995231628 13 16 9
137.729704380035 265.016973018646 2565.99998474121 10 13 6
143.709242343903 263.15113902092 2548.00009727478 8 11 4
150.004014372826 262.007981538773 2536.99994087219 17 20 11
156.547486782074 261.380940675735 2530.99989891052 8 11 2
163.574308156967 261.579811573029 2532.99999237061 9 12 5
170.409500598907 261.468499898911 2532.00006484985 8 11 2
176.538333296776 260.324269533157 2520.99990844727 13 16 7
183.188587427139 260.00589132309 2517.99988746643 13 16 7
190.2746707201 260.306745767593 2520.99990844727 27 26 21
197.923794388771 261.330038309097 2530.99989891052 14 15 9
205.464839935303 262.146472930908 2539.00003433228 19 20 12
213.132336735725 263.065785169601 2548.00009727478 17 19 8
218.947947025299 261.713474988937 2535.00008583069 16 18 7
224.959269165993 260.67066192627 2525.00009536743 31 27 15
231.190741062164 259.937316179276 2517.99988746643 24 18 4
236.343383789063 258.068263530731 2500 44 30 17
241.980776190758 256.818443536758 2487.99991607666 134 115 101
247.851952910423 255.878120660782 2479.00009155273 131 105 92
254.186749458313 255.453646183014 2474.99990463257 143 119 107
260.498881340027 255.028963088989 2470.99995613098 133 116 106
267.112821340561 254.913687705994 2470.00002861023 117 103 94
273.609519004822 254.694908857346 2467.99993515015 157 146 140
280.321538448334 254.682332277298 2467.99993515015 184 177 171
287.614166736603 255.185425281525 2473.00004959106 165 164 160
295.885175466537 256.513684988022 2486.00006103516 173 174 169
304.834574460983 258.357435464859 2503.99994850159 163 165 162
-188.989922404289 275.181591510773 2736.99998855591 211 206 200
-179.740861058235 272.475600242615 2710.00003814697 153 140 131
-170.892670750618 270.171284675598 2687.00003623962 125 111 100
-162.899702787399 269.073098897934 2676.00011825562 155 136 122
-155.489400029182 268.879503011703 2674.00002479553 154 135 121
-147.867739200592 268.28333735466 2667.99998283386 146 128 114
-140.436306595802 267.988502979279 2664.99996185303 133 117 104
-133.270561695099 268.196165561676 2667.00005531311 108 94 83
-88.5248184204102 264.90917801857 2634.0000629425 205 208 201
-80.8157026767731 263.203501701355 2617.00010299683 20 23 16
-74.0717574954033 264.615267515183 2631.00004196167 21 24 17
-65.7764449715614 260.193228721619 2586.99989318848 21 26 19
-58.2429803907871 258.084118366241 2565.99998474121 19 25 15
-51.9022420048714 261.405855417252 2598.99997711182 15 21 11
-44.7433032095432 261.005908250809 2595.00002861023 13 19 9
-37.446353584528 259.499162435532 2579.99992370605 19 22 13
-30.4432436823845 259.802550077438 2582.99994468689 21 24 15
-23.3602449297905 259.401500225067 2578.9999961853 17 20 11
-16.2546690553427 258.296072483063 2568.00007820129 9 12 3
-9.14422329515219 255.379766225815 2539.00003433228 12 15 6
-2.20158323645592 253.569543361664 2520.99990844727 19 22 13
4.66139893978834 252.764850854874 2513.00001144409 16 19 10
11.4944595843554 252.261519432068 2507.99989700317 11 14 5
18.3806195855141 252.864301204681 2513.99993896484 15 18 9
25.1890104264021 252.360343933105 2509.0000629425 17 20 11
32.0083238184452 252.157777547836 2506.99996948242 14 17 10
39.0025451779366 253.161877393723 2516.99995994568 14 17 10
45.9600575268269 253.66273522377 2522.0000743866 14 17 10
52.9446676373482 254.163235425949 2526.99995040894 13 16 9
59.7669221460819 253.858804702759 2523.9999294281 14 17 10
66.5725618600845 253.5540163517 2520.99990844727 17 20 13
73.2741951942444 252.947241067886 2515.00010490417 19 22 15
80.1020935177803 252.842932939529 2513.99993896484 21 24 17
86.8896543979645 252.637803554535 2512.00008392334 15 18 11
93.7405973672867 252.633482217789 2512.00008392334 16 19 12
100.671276450157 252.829968929291 2513.99993896484 13 16 9
107.826299965382 253.528952598572 2520.99990844727 7 10 3
116.156563162804 256.74170255661 2552.99997329712 10 13 6
121.767416596413 253.920286893845 2525.00009536743 11 14 7
129.314094781876 255.221605300903 2538.00010681152 8 11 4
136.287033557892 255.315840244293 2539.00003433228 7 10 3
143.772542476654 256.314784288406 2549.00002479553 8 11 4
150.661617517471 256.207287311554 2548.00009727478 7 10 1
156.740516424179 254.792273044586 2533.99991989136 10 13 4
163.517490029335 254.583656787872 2532.00006484985 57 60 51
170.148387551308 254.173666238785 2528.00011634827 22 25 16
176.406651735306 253.260642290115 2519.00005340576 8 11 2
182.03316628933 251.543134450912 2502.00009346008 17 20 11
190.132677555084 253.243535757065 2519.00005340576 17 18 10
197.854891419411 254.340380430222 2529.99997138977 51 51 43
204.98888194561 254.632592201233 2532.99999237061 39 37 25
213.309586048126 256.331861019135 2549.99995231628 25 21 9
218.699023127556 254.512548446655 2532.00006484985 35 27 14
224.167838692665 252.894103527069 2516.00003242493 40 27 11
229.640513658524 251.376003026962 2500.99992752075 115 98 82
235.219791531563 250.058799982071 2487.99991607666 144 121 103
240.824744105339 248.841941356659 2476.0000705719 153 126 109
246.663451194763 247.926399111748 2467.00000762939 137 106 88
253.479391336441 248.015612363815 2467.99993515015 159 128 110
260.405272245407 248.205035924911 2470.00002861023 144 115 99
267.66562461853 248.695611953735 2474.99990463257 150 124 109
274.397879838943 248.683527112007 2474.99990463257 132 114 102
281.242817640305 248.771652579308 2476.0000705719 106 92 83
288.557469844818 249.261423945427 2480.99994659424 62 57 51
296.969562768936 250.655025243759 2494.99988555908 131 130 125
-179.21856045723 264.31468129158 2701.99990272522 206 190 177
-170.646205544472 262.464076280594 2683.00008773804 159 140 125
-162.724673748016 261.493504047394 2673.00009727478 167 141 124
-155.322209000587 261.305123567581 2671.0000038147 161 134 115
-147.874653339386 261.018633842468 2667.99998283386 147 122 100
-140.390202403069 260.63397526741 2664.00003433228 145 120 100
-133.026957511902 260.444670915604 2661.99994087219 116 95 76
-88.7642875313759 258.420944213867 2641.00003242493 111 114 107
-81.7768946290016 259.109914302826 2648.00000190735 31 34 27
-74.1878896951675 257.841497659683 2634.99999046326 27 30 23
-66.4152503013611 255.594164133072 2611.99998855591 16 22 12
-58.1549629569054 250.704377889633 2562.00003623962 15 21 11
-51.3255558907986 251.489788293839 2569.9999332428 16 22 12
-44.7799190878868 254.134148359299 2596.99988365173 16 22 12
-37.4626517295837 252.570390701294 2581.00008964539 20 23 14
-30.2207544445992 250.908404588699 2563.99989128113 16 19 10
-23.1711361557245 250.32252073288 2558.00008773804 27 30 21
-16.1604955792427 249.834150075912 2552.99997329712 36 39 30
-9.17347334325314 249.247580766678 2546.99993133545 16 19 10
-2.21653538756073 248.367130756378 2538.00010681152 11 14 5
4.67831688001752 246.801316738129 2522.0000743866 13 16 7
11.5270940586925 246.115922927856 2515.00010490417 15 18 9
18.4180568903685 246.50664627552 2519.00005340576 17 20 11
25.2002533525229 245.624899864197 2509.99999046326 18 21 12
31.9843180477619 245.134279131889 2505.00011444092 17 20 11
38.8959348201752 245.621874928474 2509.99999046326 17 20 11
45.9075719118118 246.500566601753 2519.00005340576 18 21 12
52.8424270451069 246.791824698448 2522.0000743866 19 22 13
59.6513599157333 246.495604515076 2519.00005340576 20 23 14
66.417284309864 246.101230382919 2515.00010490417 23 26 17
73.1028467416763 245.510846376419 2509.0000629425 10 13 4
79.8828452825546 245.311558246613 2506.99996948242 16 19 10
86.3057151436806 244.133457541466 2494.99988555908 11 14 5
93.0359810590744 243.933573365211 2493.00003051758 11 14 5
99.9952405691147 244.320422410965 2496.99997901917 12 15 6
107.745856046677 246.468186378479 2519.00005340576 11 14 5
114.888034760952 247.050046920776 2525.00009536743 13 14 8
122.351855039597 248.218610882759 2536.99994087219 13 14 8
128.657773137093 247.038722038269 2525.00009536743 10 11 5
135.595589876175 247.130438685417 2526.00002288818 10 11 5
143.610045313835 249.080657958984 2546.0000038147 14 15 7
150.668650865555 249.269530177116 2548.00009727478 10 11 3
156.747817993164 247.892826795578 2533.99991989136 17 18 10
163.395941257477 247.49419093132 2529.99997138977 68 69 61
170.021638274193 247.095242142677 2526.00002288818 28 30 19
175.644412636757 245.326563715935 2507.99989700317 10 12 1
180.586397647858 242.775246500969 2482.00011253357 20 23 12
189.763993024826 245.896831154823 2513.99993896484 14 17 6
197.863981127739 247.452959418297 2529.99997138977 35 37 26
204.836413264275 247.541651129723 2530.99989891052 28 24 12
211.646229028702 247.434467077255 2529.99997138977 45 37 24
217.067793011665 245.76224386692 2513.00001144409 35 19 4
222.485065460205 244.18768286705 2496.99997901917 130 111 96
228.457197546959 243.297502398491 2487.99991607666 140 115 95
234.095841646194 242.113754153252 2476.0000705719 151 124 103
