ply
format ascii 1.0
comment KinectMotionCapture
element vertex 799
property float x
property float y
property float z
property uchar red
property uchar green
property uchar blue
end_header
-66.9784545898438 57.5522780418396 2377.00009346008 16 19 12
-60.0820071995258 57.1656599640846 2361.00006103516 16 19 12
-53.3635541796684 56.8758063018322 2348.99997711182 14 17 10
-46.8902885913849 56.8037815392017 2345.99995613098 13 16 9
-40.1743575930595 56.3684850931168 2328.00006866455 15 16 8
-33.5129648447037 55.8604523539543 2306.99992179871 15 16 8
-27.3435935378075 56.1271794140339 2318.00007820129 14 15 7
-21.1684331297874 56.5391108393669 2335.00003814697 14 15 7
-14.8496646434069 56.7572638392448 2344.00010108948 14 15 7
-8.46365932375193 56.8542592227459 2348.00004959106 15 16 8
-2.04703444615006 56.7090436816216 2342.00000762939 15 16 8
4.35168482363224 56.7574575543404 2344.00010108948 14 15 7
10.6466300785542 56.2004446983337 2321.00009918213 13 14 6
16.9695969671011 56.1518445611 2319.00000572205 13 14 6
23.3920961618423 56.3695169985294 2328.00006866455 12 13 5
29.9531053751707 56.7566119134426 2344.00010108948 15 18 9
39.8530997335911 52.9058128595352 2184.99994277954 30 33 24
46.280100941658 53.4379705786705 2207.00001716614 14 17 10
54.1068278253078 55.2775226533413 2282.99999237061 14 17 10
60.6832280755043 55.5915832519531 2296.0000038147 14 17 10
67.0970752835274 55.7118654251099 2301.00011825562 14 17 10
73.7292766571045 55.977325886488 2312.00003623962 10 13 6
79.7634571790695 55.7826831936836 2303.99990081787 10 13 6
86.1644744873047 55.8542981743813 2306.99992179871 11 13 8
93.3831036090851 56.4100444316864 2329.99992370605 9 11 6
99.7851192951202 56.4330816268921 2331.00008964539 8 10 5
105.190366506577 55.9234246611595 2309.99994277954 8 10 5
111.108027398586 55.728442966938 2302.00004577637 9 11 6
117.236539721489 55.6544177234173 2299.00002479553 9 11 6
123.777978122234 55.7739995419979 2303.99990081787 8 10 5
128.539755940437 55.1188699901104 2276.99995040894 12 14 9
134.159773588181 54.8752248287201 2266.99995994568 15 17 12
139.972299337387 54.7283366322517 2260.99991798401 15 17 12
147.302761673927 55.1622956991196 2279.00004386902 15 17 12
152.979403734207 54.9668520689011 2270.99990844727 17 19 14
158.401548862457 54.6987466514111 2259.99999046326 18 21 14
164.127171039581 54.5516051352024 2253.99994850159 20 23 16
170.423731207848 54.5980110764503 2256.00004196167 19 22 15
177.748024463654 54.9589470028877 2270.99990844727 17 20 13
183.371543884277 54.7874122858047 2263.99993896484 14 17 10
189.542204141617 54.7852069139481 2263.99993896484 13 16 9
195.193469524384 54.6377412974834 2257.99989700317 14 17 10
199.91959631443 54.2482770979404 2242.00010299683 14 17 10
209.520056843758 55.165309458971 2279.99997138977 14 17 10
214.217334985733 54.7757185995579 2263.99993896484 15 18 11
221.649616956711 55.0876967608929 2276.99995040894 19 22 15
226.85033082962 54.8431649804115 2266.99995994568 20 23 16
234.359890222549 55.1549904048443 2279.99997138977 15 18 11
239.51256275177 54.9103543162346 2269.99998092651 21 24 17
250.887542963028 56.0686103999615 2318.00007820129 18 21 14
259.083271026611 56.4768873155117 2335.00003814697 23 26 19
-99.4236692786217 54.6250604093075 2542.99998283386 74 77 70
-88.8457447290421 52.4780079722404 2443.00007820129 18 21 14
-81.9753259420395 52.3500517010689 2437.00003623962 21 24 17
-75.0136896967888 52.1360859274864 2427.00004577637 19 22 15
-67.4300640821457 51.4064766466618 2392.99988746643 16 19 12
-60.3626295924187 50.9560517966747 2371.99997901917 16 19 12
-53.7049435079098 50.7848151028156 2364.00008201599 14 17 10
-46.6709695756435 50.1623675227165 2335.00003814697 13 16 9
-40.1230528950691 49.948014318943 2325.00004768372 15 16 8
-33.8038913905621 49.9913804233074 2326.99990272522 14 15 7
-27.60343067348 50.27100071311 2339.99991416931 14 15 7
-21.3409308344126 50.5720414221287 2354.00009155273 14 15 7
-14.9702066555619 50.765585154295 2362.99991607666 14 15 7
-8.44934023916721 50.3575317561626 2344.00010108948 15 16 8
-2.04531010240316 50.2716526389122 2339.99991416931 15 16 8
4.33688284829259 50.1857064664364 2335.99996566772 14 15 7
10.7293222099543 50.2500757575035 2338.99998664856 14 15 7
16.9551558792591 49.7772805392742 2316.99991226196 13 14 6
23.1512114405632 49.4977757334709 2303.99990081787 13 14 6
30.0429034978151 50.5072064697742 2351.0000705719 17 20 11
35.1594239473343 48.7022548913956 2266.99995994568 33 36 27
40.8020280301571 48.0573512613773 2236.99998855591 30 33 26
47.6646535098553 48.8302484154701 2273.00000190735 25 28 21
54.2496554553509 49.1734109818935 2289.00003433228 12 15 8
60.8160831034184 49.430575221777 2301.00011825562 11 14 7
67.272812128067 49.5587661862373 2306.99992179871 12 15 8
74.0490332245827 49.8802214860916 2322.00002670288 8 11 4
80.5260315537453 49.9653033912182 2325.99997520447 8 10 5
87.1365666389465 50.1147545874119 2332.99994468689 8 10 5
92.8230807185173 49.7486107051373 2315.99998474121 4 6 1
98.8016724586487 49.5757274329662 2308.00008773804 7 10 3
105.00942915678 49.531664699316 2305.99999427795 8 11 4
109.999172389507 48.9505641162395 2279.00004386902 10 13 6
116.065002977848 48.8849096000195 2276.00002288818 12 15 8
124.155469238758 49.6353469789028 2311.00010871887 15 18 11
129.162207245827 49.1399988532066 2288.00010681152 15 18 11
134.102120995522 48.6660934984684 2266.00003242493 18 21 14
140.840604901314 48.8579086959362 2275.00009536743 19 22 15
147.498354315758 49.0066967904568 2282.00006484985 19 22 15
153.183221817017 48.8332845270634 2273.9999294281 20 23 16
159.244447946548 48.7886741757393 2272.0000743866 21 24 17
164.201855659485 48.4219118952751 2255.00011444092 15 18 9
171.332150697708 48.6992709338665 2267.99988746643 13 16 7
176.575988531113 48.4397783875465 2256.00004196167 15 18 9
183.940574526787 48.7599447369576 2270.99990844727 15 18 9
189.376890659332 48.5647469758987 2262.00008392334 22 25 16
195.282116532326 48.4983250498772 2259.0000629425 23 26 17
200.724348425865 48.3245067298412 2250.99992752075 22 25 16
208.235844969749 48.6443936824799 2266.00003242493 22 25 16
215.165913105011 48.8139279186726 2273.9999294281 22 25 16
220.483928918839 48.6184842884541 2265.00010490417 22 25 16
229.954913258553 49.324493855238 2298.00009727478 22 25 16
234.568044543266 48.9786937832832 2282.00006484985 21 24 17
240.359306335449 48.8904155790806 2278.00011634827 24 27 20
249.483197927475 49.4673736393452 2305.0000667572 17 20 13
260.306566953659 50.3446534276009 2345.99995613098 23 26 19
-97.0006436109543 46.5200692415237 2480.99994659424 142 145 138
-80.496072769165 44.8716729879379 2392.99988746643 20 23 16
-74.0562975406647 44.9286624789238 2395.99990844727 19 22 15
-67.2335103154182 44.7418205440044 2385.99991798401 16 19 12
-59.8542839288712 44.1048592329025 2351.99999809265 16 19 12
-53.4328743815422 44.1054031252861 2351.99999809265 15 18 11
-46.9312891364098 44.0308712422848 2348.00004959106 14 17 10
-40.5031256377697 44.0125353634357 2346.99988365173 15 16 8
-34.0657271444798 43.9753904938698 2345.00002861023 15 16 8
-27.9222205281258 44.3882495164871 2367.00010299683 15 16 8
-21.4862022548914 44.4447435438633 2369.99988555908 14 15 7
-14.9513529613614 44.2573837935925 2359.99989509583 14 15 7
-8.48186761140823 44.1262274980545 2352.9999256134 15 16 8
-2.03309417702258 43.6199456453323 2325.99997520447 15 16 8
4.32950118556619 43.7324531376362 2332.00001716614 14 15 7
10.7110841199756 43.7886379659176 2335.00003814697 14 15 7
17.0577820390463 43.7134951353073 2331.00008964539 13 14 6
23.2820771634579 43.4507541358471 2316.99991226196 13 14 6
35.4389548301697 42.8501032292843 2285.00008583069 32 35 28
41.0942807793617 42.2496534883976 2253.00002098084 29 32 25
47.7070882916451 42.6617823541164 2275.00009536743 24 27 20
54.5109137892723 43.1300960481167 2299.99995231628 11 14 7
60.9488561749458 43.242059648037 2305.99999427795 11 14 7
67.3318281769753 43.2977043092251 2309.00001525879 11 14 7
73.9860087633133 43.5033030807972 2319.9999332428 8 10 5
80.6999579071999 43.7088273465633 2331.00008964539 7 9 4
87.2495099902153 43.8017845153809 2335.99996566772 7 9 4
93.2248160243034 43.6134189367294 2325.99997520447 3 5 0
99.6160507202148 43.6312593519688 2326.99990272522 7 10 3
104.919411242008 43.1990399956703 2303.99990081787 9 12 5
110.338151454926 42.8605377674103 2286.00001335144 12 15 8
116.4231300354 42.8032204508781 2282.99999237061 14 17 10
123.082235455513 42.9520793259144 2290.99988937378 21 24 17
130.066752433777 43.1946106255054 2303.99990081787 13 16 9
135.050356388092 42.7809283137321 2282.00006484985 17 20 13
141.151547431946 42.7421368658543 2279.99997138977 18 21 14
147.3059207201 42.722050100565 2279.00004386902 18 21 14
152.915313839912 42.5519347190857 2269.99998092651 18 21 14
159.94693338871 42.775422334671 2282.00006484985 19 22 15
166.897729039192 42.9613515734673 2292.00005531311 14 17 6
171.711593866348 42.6036529242992 2273.00000190735 14 17 6
177.125617861748 42.4146093428135 2263.00001144409 18 21 10
183.537393808365 42.4691773951054 2266.00003242493 19 22 11
190.048515796661 42.5424315035343 2269.99998092651 24 27 16
195.456892251968 42.3719994723797 2260.99991798401 24 27 16
202.420562505722 42.5388403236866 2269.99998092651 24 27 16
208.697348833084 42.555708438158 2270.99990844727 23 26 15
214.789509773254 42.5350517034531 2269.99998092651 23 26 15
221.946224570274 42.7204556763172 2279.99997138977 21 24 13
232.258692383766 43.4866100549698 2321.00009918213 21 24 15
237.345650792122 43.2596728205681 2309.00001525879 22 25 18
242.155328392982 42.995247989893 2295.00007629395 20 23 16
249.593794345856 43.1991219520569 2305.99999427795 20 23 16
256.758362054825 43.3467403054237 2313.99989128113 19 22 15
-88.9929011464119 39.202731102705 2447.00002670288 17 20 13
-80.0594910979271 38.1300188601017 2380.00011444092 21 24 17
-74.8296678066254 38.787517696619 2421.0000038147 20 23 16
-66.8959617614746 38.0350910127163 2374.00007247925 16 19 12
-59.8293654620647 37.6671068370342 2351.0000705719 15 18 11
-53.5696521401405 37.7797223627567 2358.00004005432 14 17 10
-47.1915528178215 37.8282032907009 2361.00006103516 14 17 10
-40.6587980687618 37.7484448254108 2355.99994659424 16 17 9
-34.2548862099648 37.7808026969433 2358.00004005432 17 18 10
-28.0168410390615 38.0534380674362 2375 18 19 11
-21.5770564973354 38.1337553262711 2380.00011444092 17 18 10
-15.0148412212729 37.9736758768559 2369.99988555908 15 16 8
-8.45310650765896 37.5732071697712 2345.00002861023 14 15 7
-2.0269937813282 37.1566601097584 2319.00000572205 15 16 8
4.27384208887815 36.8842631578445 2302.00004577637 15 16 8
10.6928311288357 37.3488590121269 2331.00008964539 15 16 8
17.0652512460947 37.3647697269917 2332.00001716614 15 16 8
41.0764068365097 36.0820181667805 2252.00009346008 28 31 24
47.9381792247295 36.6264022886753 2286.00001335144 16 19 12
54.985411465168 37.170734256506 2319.9999332428 11 13 8
61.2137094140053 37.1061712503433 2315.99998474121 14 16 11
67.5073862075806 37.0896272361279 2315.00005722046 13 15 10
73.7634301185608 37.0570085942745 2312.99996376038 10 12 7
80.4929435253143 37.2486300766468 2325.00004768372 9 11 6
87.1008858084679 37.3600944876671 2332.00001716614 6 8 5
94.1073969006538 37.6156866550446 2348.00004959106 5 7 2
99.9165922403336 37.3906195163727 2334.00011062622 11 14 7
104.920327663422 36.9091928005219 2303.99990081787 13 16 9
111.014865338802 36.8442460894585 2299.99995231628 14 17 10
116.526156663895 36.603044718504 2285.00008583069 15 18 11
123.405657708645 36.7942973971367 2296.99993133545 17 20 13
129.277542233467 36.6811603307724 2289.99996185303 16 19 12
135.939255356789 36.7922186851501 2296.99993133545 16 19 12
141.957595944405 36.7270335555077 2292.99998283386 16 19 12
148.212090134621 36.7258787155151 2292.99998283386 17 20 13
153.320834040642 36.4524014294147 2276.00002288818 18 21 14
160.158574581146 36.5952961146832 2285.00008583069 18 21 12
166.826322674751 36.6900861263275 2290.99988937378 21 24 13
172.695145010948 36.6086736321449 2286.00001335144 21 24 13
176.892310380936 36.1909233033657 2259.99999046326 21 24 13
182.485997676849 36.0774211585522 2253.00002098084 22 25 14
188.543125987053 36.0599532723427 2252.00009346008 22 25 14
195.804357528687 36.2666063010693 2265.00010490417 25 28 17
202.778980135918 36.4091508090496 2273.9999294281 24 27 16
210.169464349747 36.6156846284866 2286.99994087219 20 23 12
215.926796197891 36.5339852869511 2282.00006484985 19 22 11
223.700314760208 36.7884375154972 2298.00009727478 19 22 11
233.261317014694 37.3149588704109 2331.00008964539 19 22 11
238.683938980103 37.1690765023232 2322.00002670288 19 22 15
248.277202248573 37.6634262502193 2352.9999256134 20 23 16
252.734750509262 37.3734124004841 2335.00003814697 23 26 19
257.759124040604 37.1794104576111 2322.99995422363 17 20 13
-89.3208906054497 32.641489058733 2456.00008964539 4 7 0
-80.2955627441406 31.7250043153763 2387.00008392334 20 23 16
-74.6138617396355 32.0843793451786 2414.00003433228 19 22 15
-67.037358880043 31.6196717321873 2378.99994850159 17 20 13
-60.2624379098415 31.4738973975182 2368.00003051758 16 19 12
-54.1607365012169 31.6869504749775 2384.0000629425 15 18 11
-47.7315820753574 31.7404605448246 2388.00001144409 14 17 10
-41.1250628530979 31.6743031144142 2382.99989700317 15 16 8
-34.6183143556118 31.6745601594448 2382.99989700317 16 17 9
-27.9698669910431 31.5152741968632 2371.00005149841 17 18 10
-21.468423306942 31.4755663275719 2368.00003051758 17 18 10
-14.9009171873331 31.2630161643028 2351.99999809265 16 17 9
-8.40991269797087 31.01054020226 2332.99994468689 16 17 9
-2.02001607976854 30.7181514799595 2311.00010871887 15 16 8
4.26830444484949 30.5586345493793 2299.00002479553 15 16 8
10.5874044820666 30.6782182306051 2308.00008773804 14 15 7
16.9263388961554 30.7445824146271 2312.99996376038 13 14 6
23.2925098389387 30.8109074831009 2318.00007820129 13 14 6
34.1832526028156 29.2952321469784 2203.9999961853 29 32 25
41.532713919878 30.2652753889561 2276.99995040894 22 25 18
48.1692105531693 30.5308066308498 2296.99993133545 11 14 7
54.79621514678 30.7298284024 2312.00003623962 11 13 8
61.4256076514721 30.8889299631119 2323.99988174438 12 14 9
67.7120164036751 30.8619122952223 2322.00002670288 11 13 8
74.0191116929054 30.8481454849243 2321.00009918213 9 11 6
80.5974081158638 30.940655618906 2328.00006866455 7 9 4
87.7738296985626 31.2324799597263 2349.99990463257 5 7 4
94.1481813788414 31.2185790389776 2348.99997711182 5 7 2
99.1039574146271 30.7660717517138 2315.00005722046 11 14 7
105.33095896244 30.7388007640839 2312.99996376038 12 15 8
111.30528897047 30.6450501084328 2305.99999427795 14 17 10
117.852926254272 30.7107288390398 2311.00010871887 14 17 10
122.976772487164 30.4175708442926 2289.00003433228 17 20 13
128.770411014557 30.3104221820831 2280.99989891052 16 19 12
135.289266705513 30.3759835660458 2286.00001335144 16 19 12
143.073007464409 30.707249417901 2311.00010871887 17 20 13
148.665636777878 30.5601246654987 2299.99995231628 18 21 14
153.119847178459 30.200382694602 2273.00000190735 21 24 17
159.388735890388 30.2126351743937 2273.9999294281 22 25 16
166.099354624748 30.3045641630888 2280.99989891052 23 26 15
172.771915793419 30.383164063096 2286.99994087219 22 25 14
178.067684173584 30.2225984632969 2275.00009536743 22 25 14
183.216288685799 30.0487205386162 2262.00008392334 22 25 14
188.628196716309 29.9279540777206 2253.00002098084 22 25 14
195.805758237839 30.0861075520515 2265.00010490417 23 26 15
203.672155737877 30.3371846675873 2283.99991989136 22 25 14
211.181834340096 30.521797016263 2298.00009727478 21 24 13
216.969147324562 30.4540116339922 2292.99998283386 20 23 12
223.020449280739 30.4260365664959 2290.99988937378 20 23 12
228.959962725639 30.3847528994083 2288.00010681152 21 24 15
239.096775650978 30.8878943324089 2325.99997520447 23 26 19
249.334096908569 31.3776694238186 2362.99991607666 16 19 12
255.550712347031 31.3495211303234 2361.00006103516 20 23 16
-88.7031480669975 25.7563963532448 2438.99989128113 2 5 0
-82.1798294782639 25.7990993559361 2443.00007820129 22 25 18
-74.5834037661552 25.4827048629522 2413.00010681152 19 22 15
-67.5731599330902 25.3246743232012 2398.00000190735 14 17 10
-61.0517151653767 25.3355801105499 2398.9999294281 16 19 12
-54.5018427073956 25.335893034935 2398.9999294281 16 19 12
-48.0316989123821 25.3784172236919 2403.00011634827 15 18 11
-41.6603051126003 25.4948288202286 2414.00003433228 17 18 10
-34.7637981176376 25.2732466906309 2392.99988746643 17 18 10
-27.9700383543968 25.0410698354244 2371.00005149841 16 17 9
-21.2781671434641 24.7877277433872 2346.99988365173 16 17 9
-14.8059753701091 24.6822088956833 2336.99989318848 17 18 10
-8.4099629893899 24.6400255709887 2332.99994468689 18 19 11
-2.02876958064735 24.5133172720671 2321.00009918213 16 17 9
4.31103259325027 24.5238710194826 2322.00002670288 15 16 8
10.7159120962024 24.6716905385256 2335.99996566772 14 15 7
16.8386269360781 24.301964789629 2301.00011825562 12 13 5
22.3983265459538 23.5414337366819 2229.00009155273 13 16 9
28.1653460115194 23.2772622257471 2203.9999961853 29 32 25
34.5712043344975 23.5411264002323 2229.00009155273 19 22 15
41.9707372784615 24.3013314902782 2301.00011825562 11 13 8
48.2953302562237 24.322209879756 2302.99997329712 8 10 5
54.5358434319496 24.3008099496365 2301.00011825562 11 13 8
61.0295161604881 24.3849847465754 2309.00001525879 10 12 7
67.7124261856079 24.521928280592 2322.00002670288 12 14 9
74.338473379612 24.6165953576565 2331.00008964539 10 12 7
81.4980417490005 24.8590651899576 2354.00009155273 7 9 6
88.3719846606255 24.9853320419788 2365.9999370575 8 10 7
94.2689850926399 24.837002158165 2351.99999809265 11 13 8
97.4349603056908 24.0339413285255 2276.00002288818 12 15 6
104.056514799595 24.1284426301718 2285.00008583069 13 16 7
111.54729872942 24.4024116545916 2311.00010871887 13 16 7
117.649629712105 24.3595633655787 2306.99992179871 14 17 8
122.440248727798 24.0632779896259 2279.00004386902 17 20 11
127.698570489883 23.8831210881472 2262.00008392334 17 20 11
134.816616773605 24.051358923316 2278.00011634827 16 19 10
142.145201563835 24.2406670004129 2296.0000038147 17 20 11
147.696956992149 24.1237711161375 2285.00008583069 18 21 12
152.91865170002 23.9646192640066 2269.99998092651 23 26 17
158.899039030075 23.9321328699589 2266.99995994568 25 28 19
165.008068084717 23.9207297563553 2266.00003242493 23 26 17
171.337589621544 23.9409636706114 2267.99988746643 22 25 16
177.833899855614 23.9822771400213 2272.0000743866 22 25 16
184.351325035095 24.0235570818186 2276.00002288818 22 25 16
188.796758651733 23.8009374588728 2255.00011444092 22 25 16
195.893347263336 23.916045203805 2266.00003242493 21 24 15
203.04910838604 24.0311119705439 2276.99995040894 21 24 15
210.539758205414 24.1778027266264 2290.99988937378 22 25 16
216.970384120941 24.1978149861097 2292.99998283386 22 25 16
220.782741904259 23.9328816533089 2267.99988746643 22 25 16
226.559549570084 23.8895360380411 2263.99993896484 22 25 16
234.575226902962 24.0783020853996 2282.00006484985 17 20 13
242.476969957352 24.2459177970886 2298.00009727478 16 19 12
258.474588394165 25.1942127943039 2388.00001144409 24 27 20
-82.2474882006645 19.1444605588913 2444.9999332428 23 26 19
-74.8619362711906 18.9646799117327 2421.99993133545 19 22 15
-68.0807009339333 18.9179815351963 2415.99988937378 13 16 9
-61.28104403615 18.8555978238583 2407.99999237061 14 17 10
-54.7747239470482 18.8793204724789 2411.00001335144 15 18 11
-48.0718985199928 18.8325438648462 2404.99997138977 15 18 11
-41.5914766490459 18.8718773424625 2410.00008583069 19 20 12
-34.6913300454617 18.6997558921576 2388.00001144409 18 19 11
-27.6516526937485 18.3553267270327 2344.00010108948 16 17 9
-21.1150757968426 18.2379633188248 2328.9999961853 16 17 9
-14.793373644352 18.2850193232298 2335.00003814697 16 17 9
-8.43523722141981 18.3242205530405 2339.99991416931 17 18 10
-2.02703080140054 18.1597918272018 2319.00000572205 16 17 9
4.27392031997442 18.0266629904509 2302.00004577637 15 16 8
10.6976134702563 18.2615593075752 2332.00001716614 15 16 8
17.1899702399969 18.3946285396814 2348.99997711182 14 15 7
22.6395968347788 17.6427885890007 2253.00002098084 14 17 10
28.4466184675694 17.4312572926283 2226.0000705719 25 28 21
35.021148622036 17.681710422039 2257.99989700317 12 14 9
41.6973233222961 17.9008152335882 2286.00001335144 10 12 7
48.5262274742126 18.1198921054602 2313.99989128113 10 12 7
54.1094802320004 17.8769435733557 2282.99999237061 8 10 5
60.7919171452522 18.0098302662373 2299.99995231628 9 11 6
67.2753229737282 18.0643871426582 2306.99992179871 12 14 11
74.4982734322548 18.2911790907383 2335.99996566772 10 12 9
81.5676525235176 18.44746991992 2355.99994659424 7 9 6
88.1856381893158 18.4862818568945 2361.00006103516 9 11 8
93.708299100399 18.3058362454176 2338.00005912781 12 14 9
98.1203764677048 17.9452933371067 2292.00005531311 13 16 7
103.829301893711 17.8509391844273 2279.99997138977 14 17 8
110.485918819904 17.9209802299738 2289.00003433228 14 17 8
116.987213492393 17.9596766829491 2293.99991035461 14 17 8
122.118465602398 17.7947990596294 2273.00000190735 18 21 12
126.626536250114 17.559451982379 2243.00003051758 18 21 12
133.692756295204 17.684193328023 2259.0000629425 17 20 11
140.474289655685 17.7619401365519 2269.00005340576 17 20 11
146.146312355995 17.6987554877996 2260.99991798401 19 22 13
153.188809752464 17.7999306470156 2273.9999294281 21 24 15
159.530580043793 17.8149789571762 2276.00002288818 22 25 16
165.008813142776 17.7360773086548 2266.00003242493 21 24 17
171.338364481926 17.7510790526867 2267.99988746643 21 24 17
178.382605314255 17.8364962339401 2279.00004386902 21 24 17
183.137193322182 17.6949258893728 2260.99991798401 22 25 18
189.718574285507 17.7333410829306 2266.00003242493 23 26 19
196.153581142426 17.7560802549124 2269.00005340576 22 25 18
203.76344025135 17.8805217146873 2285.00008583069 23 26 19
210.632592439651 17.9345086216927 2292.00005531311 25 28 21
214.132681488991 17.7067872136831 2263.00001144409 24 27 20
220.394343137741 17.7137888967991 2263.99993896484 21 24 17
226.460501551628 17.7051238715649 2263.00001144409 20 23 16
231.903597712517 17.6495015621185 2256.00004196167 15 18 11
243.216663599014 18.0319491773844 2305.0000667572 20 23 16
256.310939788818 18.5238495469093 2368.00003051758 19 22 15
-82.2813957929611 12.4737219884992 2446.00009918213 10 13 6
-76.0985538363457 12.5555209815502 2461.99989318848 14 17 10
-68.6445161700249 12.4231157824397 2436.00010871887 17 20 13
-61.1285530030727 12.2498888522387 2401.99995040894 15 18 11
-54.1387796401978 12.1531412005425 2382.99989700317 13 16 9
-48.0320863425732 12.2552756220102 2403.00011634827 14 17 10
-41.4362847805023 12.2451903298497 2401.00002288818 16 17 9
-34.5461703836918 12.1279889717698 2378.00002098084 18 19 11
-27.4983886629343 11.8883643299341 2331.00008964539 18 19 11
-21.1332775652409 11.8884285911918 2331.00008964539 18 19 11
-14.837771654129 11.9445770978928 2342.00000762939 17 18 10
-8.45328904688358 11.9599075987935 2345.00002861023 18 19 11
-2.02266685664654 11.8018155917525 2313.99989128113 17 18 10
4.29621385410428 11.8018127977848 2313.99989128113 17 18 10
10.7939830049872 12.0006995275617 2352.9999256134 17 18 10
17.1095281839371 11.924160644412 2338.00005912781 16 17 9
23.0014249682426 11.6742011159658 2289.00003433228 16 17 9
28.8300924003124 11.5058301016688 2256.00004196167 14 16 11
35.1608544588089 11.5618472918868 2266.99995994568 10 12 7
41.6609831154346 11.6484481841326 2283.99991989136 11 13 8
48.5263913869858 11.8013294413686 2313.99989128113 10 12 7
55.0813972949982 11.8521945551038 2323.99988174438 7 9 4
60.8185529708862 11.7347473278642 2301.00011825562 8 10 7
67.887932062149 11.8722748011351 2328.00006866455 8 10 7
74.3390619754791 11.8873901665211 2331.00008964539 6 8 5
81.3948214054108 11.9891809299588 2351.0000705719 7 9 6
87.7750664949417 11.9838621467352 2349.99990463257 10 12 9
93.1474715471268 11.8510415777564 2323.99988174438 12 14 9
98.4203740954399 11.7233106866479 2299.00002479553 14 17 8
104.512721300125 11.7026520892978 2295.00007629395 15 18 9
109.617434442043 11.5799950435758 2270.99990844727 14 17 8
116.579622030258 11.6561902686954 2286.00001335144 15 18 9
122.924752533436 11.6660809144378 2288.00010681152 18 21 12
127.473741769791 11.5127982571721 2257.99989700317 19 22 13
133.338093757629 11.4869708195329 2253.00002098084 18 21 12
139.917552471161 11.5223117172718 2259.99999046326 18 21 12
146.34071290493 11.5423398092389 2263.99993896484 19 22 13
152.852490544319 11.5674510598183 2269.00005340576 20 23 14
160.09184718132 11.643523350358 2283.99991989136 20 23 14
165.300622582436 11.5717435255647 2269.99998092651 20 23 16
171.338900923729 11.5611245855689 2267.99988746643 20 23 16
176.896005868912 11.5199061110616 2259.99999046326 21 24 17
183.785781264305 11.5653285756707 2269.00005340576 22 25 18
188.79821896553 11.4935059100389 2255.00011444092 24 27 20
196.499973535538 11.5847662091255 2273.00000190735 23 26 19
203.318178653717 11.6199450567365 2279.99997138977 24 27 20
208.335787057877 11.5531831979752 2266.99995994568 24 27 20
213.94407749176 11.522083543241 2260.99991798401 24 27 20
220.297709107399 11.5317413583398 2263.00001144409 20 23 16
229.163110256195 11.6687715053558 2289.99996185303 19 22 15
233.137845993042 11.5561075508595 2267.99988746643 18 21 14
244.483575224876 11.8051879107952 2316.99991226196 18 21 14
253.497511148453 11.9319576770067 2342.00000762939 11 14 7
-82.4161022901535 5.80457784235477 2450.00004768372 4 7 0
-76.4387026429176 5.85916638374329 2473.00004959106 10 13 6
-69.2927613854408 5.82608440890908 2459.00011062622 18 21 14
-60.1616054773331 5.60107873752713 2364.00008201599 18 21 14
-53.4118823707104 5.5703460238874 2351.0000705719 13 16 9
-47.5524477660656 5.63674885779619 2378.99994850159 13 16 7
-40.9186258912086 5.61784720048308 2371.00005149841 15 16 8
-33.9941941201687 5.54444128647447 2339.99991416931 17 18 10
-27.7933590114117 5.58238942176104 2355.99994659424 19 20 12
-21.3599726557732 5.58241922408342 2355.99994659424 19 20 12
-14.8758133873343 5.56348543614149 2348.00004959106 18 19 11
-8.40644165873528 5.52558805793524 2332.00001716614 19 20 12
-2.03840481117368 5.52559457719326 2332.00001716614 19 20 12
4.34078136458993 5.53981075063348 2338.00005912781 18 19 11
10.748129338026 5.55164832621813 2342.99993515015 17 18 10
17.0363802462816 5.51608949899673 2328.00006866455 16 17 9
23.112004622817 5.44972019270062 2299.99995231628 16 17 11
29.3029826134443 5.43310260400176 2292.99998283386 14 16 11
35.5176478624344 5.42595516890287 2289.99996185303 11 13 8
41.9346652925015 5.44723263010383 2299.00002479553 14 16 11
48.5055148601532 5.48034906387329 2312.99996376038 9 11 6
54.8444874584675 5.48265594989061 2313.99989128113 9 11 6
62.1402412652969 5.5702505633235 2351.0000705719 10 12 9
69.491945207119 5.64598850905895 2382.99989700317 9 11 8
75.3597319126129 5.59851573780179 2362.99991607666 7 9 6
81.1526328325272 5.55340712890029 2344.00010108948 8 10 7
87.5511318445206 5.55330561473966 2344.00010108948 12 14 11
93.2678878307343 5.51292113959789 2326.99990272522 13 15 10
98.8914668560028 5.47253154218197 2309.99994277954 14 17 8
103.784292936325 5.39897009730339 2279.00004386902 14 17 8
109.762445092201 5.38699654862285 2273.9999294281 12 15 6
116.273857653141 5.40107535198331 2279.99997138977 13 16 7
122.38772213459 5.39619568735361 2278.00011634827 17 20 11
127.530440688133 5.35104004666209 2259.0000629425 21 24 15
133.160799741745 5.3295660763979 2250 23 26 17
139.546349644661 5.33887930214405 2253.99994850159 25 28 19
146.211728453636 5.35765942186117 2262.00008392334 25 28 19
152.987480163574 5.37879811599851 2270.99990844727 24 27 18
159.251049160957 5.38098346441984 2272.0000743866 23 26 17
165.446549654007 5.38079254329205 2272.0000743866 22 25 18
170.961484313011 5.35928132012486 2263.00001144409 22 25 18
176.739767193794 5.34723652526736 2257.99989700317 22 25 18
183.057099580765 5.35176275297999 2259.99999046326 23 26 19
190.389305353165 5.3846980445087 2273.9999294281 24 27 20
196.586772799492 5.38447359576821 2273.9999294281 23 26 19
201.445907354355 5.34872757270932 2259.0000629425 23 26 19
206.865772604942 5.32954977825284 2250.99992752075 23 26 19
214.701473712921 5.37192448973656 2269.00005340576 22 25 18
222.634434700012 5.41428895667195 2286.99994087219 21 24 17
229.163557291031 5.42113371193409 2289.99996185303 21 24 17
238.278016448021 5.48715144395828 2318.00007820129 19 22 15
245.222628116608 5.50107937306166 2323.99988174438 18 21 14
254.688590764999 5.56944170966744 2352.9999256134 13 16 9
-75.480543076992 -0.882112421095371 2441.99991226196 17 20 13
-69.1237300634384 -0.8860994130373 2453.00006866455 18 21 12
-61.0523521900177 -0.866604677867144 2398.9999294281 15 16 8
-53.9798773825169 -0.858306768350303 2375.99992752075 19 21 10
-47.2126677632332 -0.853258767165244 2361.99998855591 16 18 7
-40.2455888688564 -0.842429522890598 2332.00001716614 16 18 7
-33.8198803365231 -0.840991328004748 2328.00006866455 17 18 10
-27.7107954025269 -0.848583236802369 2348.99997711182 16 17 9
-21.4687790721655 -0.855451682582498 2368.00003051758 16 17 9
-14.9835236370564 -0.854371290188283 2365.00000953674 17 18 10
-8.42086691409349 -0.843896996229887 2335.99996566772 18 19 11
-2.03053886070848 -0.839201617054641 2322.99995422363 17 18 12
4.34820959344506 -0.846065348014236 2342.00000762939 16 17 11
10.6518007814884 -0.838838750496507 2322.00002670288 16 17 11
17.175430431962 -0.847867631819099 2346.99988365173 15 16 10
23.2727937400341 -0.836664927192032 2315.99998474121 15 16 10
29.5202452689409 -0.83449250087142 2309.99994277954 12 15 8
36.01398691535 -0.838821521028876 2322.00002670288 11 13 8
42.2812551259995 -0.837369239889085 2318.00007820129 10 12 9
48.6523360013962 -0.838083331473172 2319.9999332428 9 11 8
55.3422495722771 -0.843492452986538 2335.00003814697 9 11 8
61.7437921464443 -0.843842804897577 2335.99996566772 7 9 6
69.608636200428 -0.862253655213863 2387.00008392334 11 13 10
76.2527361512184 -0.863685039803386 2391.00003242493 9 11 8
82.1220725774765 -0.856807280797511 2371.99997901917 8 10 5
87.2150138020515 -0.84342691116035 2335.00003814697 12 14 9
93.067541718483 -0.8387147099711 2322.00002670288 12 15 8
98.634660243988 -0.832195451948792 2303.99990081787 12 15 8
104.512974619865 -0.828926218673587 2295.00007629395 12 15 8
109.907306730747 -0.822405272629112 2276.99995040894 13 16 9
115.916937589645 -0.820940011180937 2273.00000190735 14 17 10
122.065424919128 -0.820557354018092 2272.0000743866 15 18 11
128.095060586929 -0.819451117422432 2269.00005340576 17 20 13
134.107783436775 -0.818343891296536 2266.00003242493 20 23 16
140.041708946228 -0.816874613519758 2262.00008392334 22 25 18
146.72888815403 -0.81973773194477 2269.99998092651 24 27 20
152.78548002243 -0.818988541141152 2267.99988746643 24 27 20
159.321203827858 -0.820766028482467 2273.00000190735 24 27 20
165.228173136711 -0.819292559754103 2269.00005340576 25 28 21
171.263754367828 -0.818540342152119 2266.99995994568 25 28 21
176.270246505737 -0.813093560282141 2252.00009346008 24 27 20
183.219194412231 -0.816671992652118 2262.00008392334 24 27 20
189.552143216133 -0.817360996734351 2263.99993896484 23 26 19
196.327537298203 -0.819854147266597 2270.99990844727 21 24 17
201.267644762993 -0.814765051472932 2256.99996948242 21 24 17
206.590160727501 -0.811480276752263 2247.99990653992 21 24 17
215.080052614212 -0.820467714220285 2273.00000190735 22 25 18
221.758425235748 -0.822234433144331 2278.00011634827 22 25 18
227.762669324875 -0.821473484393209 2276.00002288818 22 25 18
236.222222447395 -0.829373486340046 2298.00009727478 14 15 9
248.810350894928 -0.850985699798912 2358.00004005432 31 32 26
257.070004940033 -0.857077247928828 2375 23 24 18
-74.8623013496399 -7.48810637742281 2421.99993133545 12 15 8
-68.1373849511147 -7.47585203498602 2417.99998283386 16 19 12
-61.7648772895336 -7.50378053635359 2427.00004577637 17 18 10
-54.502360522747 -7.41730118170381 2398.9999294281 15 16 8
-47.5524328649044 -7.35554564744234 2378.99994850159 17 18 10
-40.4526479542255 -7.24739907309413 2344.00010108948 17 19 8
-33.9505970478058 -7.22581427544355 2336.99989318848 17 18 10
-27.9231164604425 -7.31862150132656 2367.00010299683 15 16 8
-21.7044800519943 -7.40214344114065 2394.00005340576 15 16 8
-15.0278601795435 -7.33414897695184 2371.99997901917 16 17 9
-8.46411660313606 -7.25996028631926 2348.00004959106 17 18 10
-2.02529248781502 -7.164116948843 2316.99991226196 17 18 12
4.31849993765354 -7.19194347038865 2325.99997520447 16 17 11
10.8215231448412 -7.29396659880877 2358.99996757507 16 17 11
17.153462395072 -7.24756484851241 2344.00010108948 15 16 10
23.4034080058336 -7.20115331932902 2328.9999961853 14 15 9
29.9163814634085 -7.23821483552456 2341.00008010864 11 14 7
36.262109875679 -7.22888624295592 2338.00005912781 11 13 8
42.6460281014442 -7.22882384434342 2338.00005912781 10 12 9
49.3862703442574 -7.28131318464875 2355.00001907349 9 11 8
55.8636263012886 -7.28741381317377 2357.00011253357 9 11 8
64.2547234892845 -7.51611217856407 2430.99999427795 8 10 7
68.9086839556694 -7.30576692149043 2362.99991607666 10 12 9
75.2959176898003 -7.29947118088603 2361.00006103516 7 9 6
81.0487419366837 -7.23751494660974 2341.00008010864 6 8 3
86.3185003399849 -7.14463461190462 2311.00010871887 12 15 8
92.426173388958 -7.12903728708625 2305.99999427795 12 15 8
98.7629964947701 -7.13197840377688 2306.99992179871 14 17 10
105.104900896549 -7.13491113856435 2308.00008773804 14 17 10
110.486440360546 -7.07600684836507 2289.00003433228 14 17 10
114.590905606747 -6.94599747657776 2246.99997901917 15 18 11
121.151983737946 -6.9705443456769 2255.00011444092 16 19 12
128.207847476006 -7.01980851590633 2270.99990844727 16 19 12
134.758681058884 -7.03814998269081 2276.99995040894 17 20 13
140.351131558418 -7.00702844187617 2266.99995994568 18 21 14
146.211668848991 -6.99135335162282 2262.00008392334 19 22 15
152.04431116581 -6.97566848248243 2256.99996948242 19 22 15
158.479943871498 -6.98779337108135 2260.99991798401 19 22 15
164.281383156776 -6.97209313511848 2256.00004196167 20 23 16
170.659258961678 -6.98110880330205 2259.0000629425 20 23 16
176.739692687988 -6.97775231674314 2257.99989700317 22 25 18
184.029027819633 -7.02074123546481 2272.0000743866 22 25 18
190.138056874275 -7.01736705377698 2270.99990844727 23 26 19
196.500271558762 -7.02325440943241 2273.00000190735 20 23 16
203.318491578102 -7.04458216205239 2279.99997138977 20 23 16
209.346994757652 -7.03809270635247 2278.00011634827 21 24 17
215.174496173859 -7.02541600912809 2273.9999294281 21 24 17
220.979437232018 -7.01273325830698 2269.99998092651 22 25 18
227.762475609779 -7.03093502670527 2276.00002288818 22 25 18
237.14716732502 -7.12635181844234 2306.99992179871 26 27 21
246.277764439583 -7.20939692109823 2334.00011062622 17 18 12
256.961554288864 -7.33257690444589 2374.00007247925 25 26 20
-67.7709057927132 -14.0025271102786 2404.99997138977 13 16 9
-61.1539632081985 -13.9910755679011 2403.00011634827 18 19 11
-54.6839907765388 -14.0145365148783 2407.00006484985 13 14 6
-47.9121133685112 -13.9564638957381 2397.0000743866 18 19 11
-40.91851785779 -13.8052115216851 2371.00005149841 17 19 8
-34.1974869370461 -13.7063395231962 2354.00009155273 17 18 10
-27.8522726148367 -13.7471901252866 2361.00006103516 16 17 9
-21.595636382699 -13.8695389032364 2381.99996948242 15 16 8
-15.0785110890865 -13.8579504564404 2380.00011444092 15 16 8
-8.47491156309843 -13.6891268193722 2351.0000705719 17 18 10
-2.02878448180854 -13.5144619271159 2321.00009918213 17 18 12
4.30920766666532 -13.5144591331482 2321.00009918213 16 17 11
10.7985632494092 -13.7065844610333 2354.00009155273 15 16 10
17.2631926834583 -13.7356547638774 2358.99996757507 14 15 9
23.4937947243452 -13.6133190244436 2338.00005912781 14 15 9
29.7501813620329 -13.5550135746598 2328.00006866455 11 14 7
36.2620279192925 -13.6131411418319 2338.00005912781 11 13 8
42.8648144006729 -13.6828934773803 2349.99990463257 9 11 8
49.8475208878517 -13.8399638235569 2377.00009346008 9 11 8
56.5982311964035 -13.9038506895304 2388.00001144409 8 10 7
62.51011043787 -13.7697607278824 2365.00000953674 8 10 7
74.43468272686 -13.5888662189245 2334.00011062622 5 7 4
79.8368081450462 -13.4256184101105 2305.99999427795 6 8 3
85.3098183870316 -13.2972896099091 2283.99991989136 12 15 8
92.4259573221207 -13.4251089766622 2305.99999427795 13 16 9
98.634347319603 -13.4131833910942 2303.99990081787 14 17 10
104.831419885159 -13.4012410417199 2302.00004577637 14 17 10
110.341385006905 -13.3077800273895 2286.00001335144 15 18 11
114.845633506775 -13.1095247343183 2252.00009346008 15 18 11
121.688969433308 -13.1848528981209 2265.00010490417 17 20 13
129.449561238289 -13.3474757894874 2292.99998283386 17 20 13
136.001214385033 -13.3761912584305 2298.00009727478 18 21 14
141.279488801956 -13.2826566696167 2282.00006484985 18 21 14
146.793067455292 -13.218211941421 2270.99990844727 19 22 15
152.38082408905 -13.165395706892 2262.00008392334 19 22 15
158.759966492653 -13.1824063137174 2265.00010490417 19 22 15
164.499491453171 -13.1470197811723 2259.0000629425 19 22 15
170.885518193245 -13.1639968603849 2262.00008392334 19 22 15
176.73933506012 -13.1402183324099 2257.99989700317 20 23 16
184.514626860619 -13.2560878992081 2278.00011634827 21 24 17
191.05863571167 -13.2788270711899 2282.00006484985 22 25 18
198.315277695656 -13.3480969816446 2293.99991035461 21 24 17
204.7448605299 -13.3591638877988 2296.0000038147 21 24 17
211.092606186867 -13.3643932640553 2296.99993133545 21 24 17
215.268671512604 -13.2357953116298 2275.00009536743 21 24 17
220.784261822701 -13.1944566965103 2267.99988746643 20 23 16
225.060060620308 -13.0833005532622 2249.00007247925 20 23 16
233.960047364235 -13.2397236302495 2276.00002288818 27 28 22
245.22203207016 -13.5182719677687 2323.99988174438 13 14 8
-77.8909474611282 -21.5525794774294 2519.99998092651 11 13 8
-60.9501414000988 -20.4840898513794 2394.99998092651 20 21 15
-54.7065064311028 -20.5955300480127 2407.99999237061 13 14 8
-47.9119382798672 -20.5016732215881 2397.0000743866 15 16 8
-41.2117466330528 -20.4248875379562 2388.00001144409 17 19 8
-34.357164055109 -20.2283319085836 2365.00000953674 18 19 11
-27.6162344962358 -20.0231894850731 2341.00008010864 17 18 10
-21.3870350271463 -20.1772544533014 2358.99996757507 16 17 9
-15.0341056287289 -20.2970821410418 2372.99990653992 16 17 9
-8.55418480932713 -20.2971324324608 2372.99990653992 17 18 10
-2.04188819043338 -19.9806801974773 2335.99996566772 16 17 9
4.32033091783524 -19.9036952108145 2326.99990272522 15 16 10
10.7205370441079 -19.9891962110996 2336.99989318848 15 16 10
17.2265414148569 -20.1345440000296 2354.00009155273 14 15 9
23.7750690430403 -20.2370919287205 2365.9999370575 14 15 9
29.9800969660282 -20.0659073889256 2345.99995613098 10 13 6
36.091286689043 -19.9032537639141 2326.99990272522 10 12 7
43.1017801165581 -20.2109944075346 2362.99991607666 9 11 6
49.8053915798664 -20.3134287148714 2375 8 10 7
56.2899075448513 -20.3131958842278 2375 8 10 7
62.6948997378349 -20.2872790396214 2371.99997901917 8 10 7
68.0626034736633 -19.9619885534048 2334.00011062622 8 10 7
73.6052319407463 -19.7393130511045 2308.00008773804 5 7 4
79.4556736946106 -19.6277983486652 2295.00007629395 12 14 9
85.4589268565178 -19.5675734430552 2288.00010681152 13 16 9
92.0648872852325 -19.6441579610109 2296.99993133545 12 15 8
97.9062095284462 -19.5582248270512 2286.99994087219 14 17 10
104.147963225842 -19.5577889680862 2286.99994087219 14 17 10
109.616965055466 -19.4204989820719 2270.99990844727 15 18 11
115.406185388565 -19.3516053259373 2263.00001144409 16 19 12
122.548133134842 -19.5050146430731 2280.99989891052 17 20 13
129.392623901367 -19.5985324680805 2292.00005531311 17 20 13
136.059910058975 -19.6578186005354 2299.00002479553 17 20 13
141.650438308716 -19.5631701499224 2288.00010681152 17 20 13
146.469369530678 -19.3744506686926 2266.00003242493 17 20 13
152.043431997299 -19.2968659102917 2256.99996948242 18 21 14
158.68929028511 -19.3560514599085 2263.99993896484 18 21 14
164.79018330574 -19.3468164652586 2263.00001144409 19 22 15
171.111553907394 -19.3632077425718 2265.00010490417 19 22 15
176.660418510437 -19.2940812557936 2256.99996948242 19 22 15
185.404941439629 -19.5668693631887 2289.00003433228 20 23 16
191.811457276344 -19.58317309618 2290.99988937378 20 23 16
199.265539646149 -19.7020266205072 2305.0000667572 23 26 19
204.209074378014 -19.5729713886976 2289.99996185303 23 26 19
211.183801293373 -19.6404885500669 2298.00009727478 21 24 17
216.214165091515 -19.5284951478243 2285.00008583069 20 23 16
221.075549721718 -19.4079447537661 2270.99990844727 18 21 14
227.460995316505 -19.4241143763065 2273.00000190735 18 21 14
234.164848923683 -19.4658953696489 2278.00011634827 19 21 16
241.844668984413 -19.5845514535904 2292.00005531311 20 25 19
-77.7051001787186 -28.3655039966106 2513.99993896484 11 13 8
-69.8837339878082 -27.9823020100594 2480.00001907349 11 13 8
-55.4786622524261 -27.5542568415403 2441.99991226196 15 18 11
-48.4313890337944 -27.340168133378 2423.00009727478 13 16 7
-41.4704121649265 -27.1147564053535 2403.00011634827 15 16 8
-34.313403069973 -26.6523379832506 2361.99998855591 19 20 12
-27.5099240243435 -26.3140015304089 2332.00001716614 18 19 11
-21.2872009724379 -26.4946836978197 2348.00004959106 17 18 10
-15.2367632836103 -27.1379724144936 2404.99997138977 17 18 10
-8.62263329327106 -26.9913524389267 2391.99995994568 16 17 9
-2.05761147662997 -26.5625901520252 2354.00009155273 16 17 9
4.40756930038333 -26.7882645130157 2374.00007247925 15 16 10
10.7525950297713 -26.4497008174658 2344.00010108948 15 16 10
17.0874129980803 -26.348065584898 2335.00003814697 14 15 9
23.5237367451191 -26.4156516641378 2341.00008010864 13 14 8
29.7371409833431 -26.2575224041939 2326.99990272522 10 13 6
36.463338881731 -26.5281442552805 2351.0000705719 10 12 7
42.7367612719536 -26.43764577806 2342.99993515015 9 11 8
49.7212633490562 -26.7533212900162 2371.00005149841 8 10 7
56.4318299293518 -26.8658492714167 2381.00004196167 8 10 7
63.0117654800415 -26.8993563950062 2384.0000629425 8 10 7
67.8289756178856 -26.2445528060198 2325.99997520447 8 10 7
73.1902793049812 -25.8943773806095 2295.00007629395 7 9 6
79.5245245099068 -25.9165000170469 2296.99993133545 13 15 10
86.0934555530548 -26.0062925517559 2305.0000667572 14 17 10
91.9842794537544 -25.8929561823606 2295.00007629395 12 15 8
97.7772995829582 -25.7683079689741 2283.99991989136 14 17 8
103.737585246563 -25.7000420242548 2278.00011634827 14 17 8
110.147371888161 -25.7445611059666 2282.00006484985 15 18 9
116.680540144444 -25.811605155468 2288.00010681152 15 18 9
122.923605144024 -25.8109252899885 2288.00010681152 16 19 10
129.561364650726 -25.8891768753529 2295.00007629395 18 21 12
135.881692171097 -25.8997064083815 2296.0000038147 17 20 11
140.040069818497 -25.5153998732567 2262.00008392334 17 20 11
146.40399813652 -25.5484338849783 2265.00010490417 19 22 13
153.18788588047 -25.6491042673588 2273.9999294281 19 22 13
159.599721431732 -25.6820656359196 2276.99995040894 20 23 14
165.153458714485 -25.5796518176794 2267.99988746643 22 25 18
171.488434076309 -25.6012678146362 2269.99998092651 23 26 19
177.285745739937 -25.5439095199108 2265.00010490417 24 27 20
184.351071715355 -25.6669577211142 2276.00002288818 24 27 20
190.805837512016 -25.6997514516115 2279.00004386902 25 28 21
197.189778089523 -25.7212333381176 2280.99989891052 21 24 17
203.405529260635 -25.7201325148344 2280.99989891052 21 24 17
211.090847849846 -25.8994065225124 2296.99993133545 20 23 16
216.591626405716 -25.8080381900072 2289.00003433228 20 23 16
223.702877759933 -25.9083118289709 2298.00009727478 19 22 15
228.660762310028 -25.7605221122503 2285.00008583069 19 22 15
236.013993620872 -25.8832704275846 2296.0000038147 21 26 20
240.682825446129 -25.7128924131393 2280.99989891052 16 21 15
-70.1368972659111 -34.8798148334026 2489.00008201599 9 12 5
-62.5018104910851 -34.4178415834904 2456.00008964539 22 25 18
-55.4328709840775 -34.1940373182297 2440.00005722046 18 21 14
-48.9907376468182 -34.3485623598099 2450.99997520447 14 17 8
-41.7980365455151 -33.9424796402454 2421.99993133545 15 18 9
-34.4439297914505 -33.2280211150646 2371.00005149841 15 18 9
-27.6866909116507 -32.891895622015 2346.99988365173 16 19 10
-21.5953085571527 -33.3825796842575 2381.99996948242 16 19 10
-15.2556709945202 -33.7470918893814 2407.99999237061 16 19 10
-8.69467202574015 -33.8032357394695 2411.99994087219 17 20 11
-2.08119861781597 -33.3688221871853 2381.00004196167 17 20 11
4.38340520486236 -33.0885201692581 2361.00006103516 16 19 12
10.8672054484487 -33.2005806267262 2368.99995803833 15 18 11
17.1238910406828 -32.7940583229065 2339.99991416931 13 16 9
23.5336292535067 -32.8219421207905 2342.00000762939 13 16 9
30.1842167973518 -33.1020392477512 2361.99998855591 10 13 6
36.2614803016186 -32.7654592692852 2338.00005912781 10 12 7
43.0648028850555 -33.0875031650066 2361.00006103516 9 11 8
49.3854060769081 -33.0030843615532 2355.00001907349 8 10 7
56.0285560786724 -33.1288389861584 2364.00008201599 8 10 7
62.0334111154079 -32.8901782631874 2346.99988365173 7 9 6
68.0034980177879 -32.6795093715191 2332.00001716614 7 9 6
73.6043900251389 -32.3426872491837 2308.00008773804 11 13 10
80.0087079405785 -32.3841795325279 2311.00010871887 14 16 11
86.4664167165756 -32.4396379292011 2315.00005722046 14 17 10
92.8253531455994 -32.4530117213726 2315.99998474121 12 15 8
98.2475802302361 -32.1580767631531 2295.00007629395 14 17 8
105.239704251289 -32.3815494775772 2311.00010871887 14 17 8
111.256822943687 -32.29670971632 2305.0000667572 14 17 8
117.444723844528 -32.2678796947002 2302.99997329712 14 17 8
123.513802886009 -32.2109907865524 2299.00002479553 16 19 10
129.39116358757 -32.1120247244835 2292.00005531311 21 24 15
135.703265666962 -32.1251042187214 2292.99998283386 19 22 13
139.791533350945 -31.6337905824184 2257.99989700317 19 22 13
146.467715501785 -31.7448675632477 2266.00003242493 21 24 15
153.389021754265 -31.8979248404503 2276.99995040894 23 26 17
159.248262643814 -31.8267904222012 2272.0000743866 24 27 18
165.298044681549 -31.7976474761963 2269.99998092651 24 27 20
171.41181230545 -31.7824743688107 2269.00005340576 22 25 18
177.597731351852 -31.7812711000443 2269.00005340576 24 27 20
184.67390537262 -31.9340936839581 2279.99997138977 26 29 22
189.967423677444 -31.7787453532219 2269.00005340576 27 30 23
196.583420038223 -31.8474434316158 2273.9999294281 20 23 16
202.601730823517 -31.8180769681931 2272.0000743866 20 23 16
209.527298808098 -31.9287069141865 2279.99997138977 20 23 16
216.495662927628 -32.039288431406 2288.00010681152 20 23 16
224.577590823174 -32.3038510978222 2306.99992179871 20 23 16
230.460599064827 -32.2463102638721 2302.99997329712 20 23 16
237.862825393677 -32.3987528681755 2313.99989128113 25 30 24
245.95719575882 -32.6351560652256 2331.00008964539 11 16 10
-62.7558007836342 -41.2910878658295 2466.00008010864 17 20 13
-55.8186434209347 -41.1408953368664 2457.00001716614 15 18 11
-48.7105250358582 -40.8064499497414 2437.00003623962 22 25 16
-41.7114235460758 -40.4719449579716 2417.00005531311 16 19 10
-34.6470363438129 -39.936438202858 2384.99999046326 16 19 10
-27.9931854456663 -39.7357605397701 2372.99990653992 16 19 10
-21.6767322272062 -40.037389844656 2391.00003242493 16 19 10
-15.2935637161136 -40.422685444355 2414.00003433228 16 19 10
-8.65134783089161 -40.1883535087109 2400.00009536743 17 20 11
-2.07943399436772 -39.8367494344711 2378.99994850159 16 19 10
4.4334982521832 -39.9874486029148 2388.00001144409 15 18 11
10.8487717807293 -39.6022461354733 2365.00000953674 14 17 10
17.2701124101877 -39.5183973014355 2359.99989509583 13 16 9
23.7746052443981 -39.6186895668507 2365.9999370575 13 16 9
30.4651167243719 -39.9198718369007 2384.0000629425 10 13 6
36.5558750927448 -39.4674763083458 2357.00011253357 10 12 7
42.7361503243446 -39.232712239027 2342.99993515015 9 11 8
