ply
format ascii 1.0
comment KinectMotionCapture
element vertex 792
property float x
property float y
property float z
property uchar red
property uchar green
property uchar blue
end_header
322.40892195155 -97.6408441154628 2684.26818218272 18 21 14
320.479942891895 -98.8546847284242 2675.45286702467 15 18 11
306.180124374684 -98.3213595038417 2677.44057452877 16 19 12
314.232246658952 -100.960662660678 2659.7968984057 19 22 15
312.227884909297 -102.180849087482 2650.92690458414 18 21 14
246.359392624222 -95.7107854485001 2688.43391240351 15 18 11
261.941981852794 -99.4588305192814 2663.89266123409 13 16 9
273.063527927555 -104.110493515605 2632.40722883451 10 12 7
329.028322767313 -113.871099503549 2570.41246141906 9 11 6
254.583354787735 -104.456214770468 2627.65465115115 8 10 5
221.75534024433 -101.123982045639 2647.103322509 8 10 7
268.294460077686 -109.586390819484 2593.10358073382 9 11 8
225.107731843667 -104.685601811521 2622.34263523513 9 11 8
225.223856967773 -106.2489155504 2611.30268522969 17 19 18
112.23010811175 -95.2078815091997 2675.19195371032 3 5 0
102.967180300627 -95.2937040309356 2673.41706594519 16 18 13
90.8019477402497 -94.9263987615137 2674.48126618151 15 18 11
78.6710394018284 -94.5559049989895 2675.57007045217 14 17 10
58.5960495767321 -92.9365013177734 2684.49294732227 14 17 10
79.8200092234662 -97.7762469839937 2652.91920871216 14 17 10
90.7829977176693 -101.039119438264 2631.20704550119 14 17 10
67.8611243238487 -98.9614215366945 2643.00891806122 14 17 10
47.9054594799093 -97.3309770935053 2652.01835208032 14 17 10
51.6036606759056 -99.4615429714593 2637.39677459774 14 17 10
50.9668803216048 -100.91088140811 2627.04664127978 14 17 10
52.423259260217 -102.706685769761 2614.50701899766 13 16 9
27.6466551666088 -100.260716841409 2628.67162742147 14 15 10
77.0568008540611 -109.872868366158 2566.86644789732 14 17 10
-16.6424276805282 -96.1451249025341 2652.16684888953 13 16 9
-19.3608750515433 -97.2453131242513 2644.01513808248 11 14 7
40.0944720771466 -108.625711267844 2570.95596111747 12 15 6
31.5605826747922 -108.820273332799 2568.47398143689 13 16 7
78.2138326436699 -119.881553944575 2496.01708388832 12 17 11
29.4932523332747 -113.347650460667 2536.07442042647 14 19 15
305.951142360275 -97.4537776385666 2740.2705547745 15 22 15
259.371931475817 -95.1978870579704 2749.74494407748 29 32 25
311.199742729231 -104.117034817302 2694.63633311214 32 35 28
313.947232030273 -106.0160729817 2681.79710475665 26 29 22
291.949699342389 -104.333625582114 2690.56164523448 21 24 17
326.976018678889 -110.950253275649 2649.22247301036 19 22 15
318.032443173101 -111.178153843469 2646.44333426417 17 20 13
254.411915265946 -104.862047306275 2681.87375524735 16 19 12
249.439714141175 -105.640359487091 2675.79528497694 15 18 11
283.896625680558 -112.305027364495 2634.04309355591 12 15 8
249.919991343208 -113.416645393988 2621.75832538607 10 12 7
203.704473503948 -107.929082299909 2653.74545326223 10 12 9
124.394220015273 -104.89436217303 2664.19885563768 17 19 14
89.4740211621343 -100.932797423177 2687.07448662458 15 18 11
92.6764907828583 -102.968283681767 2673.32906096987 14 17 10
68.8979083238799 -100.723991418928 2685.74576730796 13 16 9
66.2616707143959 -101.834098641848 2677.6536018698 14 17 10
62.1560399722596 -102.713663473303 2670.96748299243 15 18 11
78.2249880411663 -106.852163850426 2644.30645825725 14 17 10
52.4643315230811 -104.242538431906 2658.99357165943 14 17 10
36.1377961736067 -103.140176295592 2664.45539215749 14 17 10
39.1613988423876 -105.18916699912 2650.58023362943 14 17 10
87.7085205400525 -114.737228668157 2590.62012196041 14 17 10
36.5606206995941 -111.078281895672 2609.14092761781 14 17 10
77.3201736618092 -119.510369683518 2555.89234352829 13 16 9
24.5248559274458 -112.268967649654 2599.17487719125 11 14 7
57.7670146112048 -121.155660912138 2541.70950752299 12 15 8
100.561963352214 -130.123293524093 2484.99297716005 15 18 11
65.4977164829287 -125.81448825412 2510.23631124302 8 13 7
296.013399168928 -105.43315482777 2739.20153315761 24 29 22
304.933005386364 -109.728165680059 2711.06240954799 23 26 19
292.224180388937 -109.366552289377 2711.73222471835 28 31 24
289.610806060124 -110.491784933476 2703.65626227 31 34 27
299.322658515049 -113.45545262508 2684.74404373933 28 31 24
334.33689803324 -120.22118335001 2643.39565383789 25 28 21
312.327934275514 -118.485265250831 2652.15217852888 21 24 17
258.268682116939 -111.897350558246 2689.574708118 18 21 14
279.252182156988 -116.608531914117 2660.29767414634 17 20 13
278.774989488007 -118.093035739715 2650.0630512276 16 19 12
273.709820690522 -118.885003079882 2643.91711754114 12 15 8
288.301014795687 -122.696186943694 2619.89160523108 12 15 6
275.617328197599 -122.331690290525 2620.57995284491 11 14 7
224.616644745499 -116.024330664666 2656.51258425409 11 14 7
222.819404142122 -118.883164091493 2636.6685182847 11 13 10
130.687412460728 -113.723373340894 2658.83532247497 14 17 10
100.869441730544 -110.4843764295 2676.76016220815 16 19 12
79.2213168201421 -108.534997025524 2687.01438453304 14 17 10
96.9651068514783 -112.977888514157 2659.09557894291 13 16 9
86.2647446245366 -112.803296221938 2658.75035108118 14 17 10
65.4624995601276 -110.961764139192 2668.38218686125 15 18 11
52.6802077092312 -110.422490000675 2670.2349753346 14 17 10
55.0352399763221 -112.384368831998 2657.11063372236 14 17 10
30.0990231672582 -109.811290810837 2671.16017931505 14 17 10
82.449683435089 -120.149561108004 2607.77755926455 14 17 10
40.5092133024367 -119.55059743545 2605.78495509124 14 17 10
40.9457862607678 -124.549328238579 2571.4924406779 11 14 7
63.7731039327125 -130.178947305897 2536.13686313632 12 15 8
67.6569316508608 -132.548316602442 2520.4133095885 7 10 3
50.6981896874645 -131.278070043908 2526.6530114941 27 32 26
346.538476166944 -120.879169438972 2696.70206329074 32 38 28
290.778780798167 -114.083949925822 2734.12799197652 28 31 24
292.902690050812 -115.919305804311 2722.07178185159 25 28 21
307.397951988942 -119.632973002944 2699.21255131371 23 26 19
289.261616295783 -118.429328150496 2704.59825304273 25 28 21
297.827019151136 -122.831606900659 2676.20152204679 25 28 21
295.875981432542 -124.097628419115 2667.36995178956 22 25 18
283.948292589917 -123.830934832496 2667.37080628911 19 22 15
281.971057102923 -125.098959174728 2658.52023456577 15 18 11
281.488499787144 -126.606182039611 2648.28160762367 13 16 9
277.934652346312 -127.641824640781 2640.75966104318 9 12 5
294.788488389549 -131.887010211964 2614.66707796939 10 13 4
278.314588597696 -130.907569655486 2618.78641158703 10 13 4
273.178770642734 -131.711095745669 2612.58890979422 10 13 6
205.788643303967 -122.606882037478 2663.82781183776 11 13 8
229.977315183367 -128.059334109179 2630.69474855184 12 14 11
101.283931922277 -118.303584914217 2677.0210291613 13 16 9
89.1246800129397 -117.871162695701 2678.08960025236 14 17 10
94.4700208364444 -120.345494664381 2662.18996045902 15 18 11
92.4865945388125 -121.611332059632 2653.33491196225 15 18 11
81.0699036705755 -121.29820394427 2653.70614052169 15 18 11
67.5190220822444 -120.616801274439 2656.23751843008 14 17 10
47.7156563831169 -120.464263734153 2654.2336583658 14 17 10
82.8723807152541 -128.093984945641 2608.0437414708 14 17 10
87.1347296785538 -130.475406627803 2592.59452500393 14 17 10
52.2238637861019 -129.403342669147 2594.46519068055 15 18 11
37.3657927650828 -128.46468509478 2598.52062985461 14 17 10
32.2804291815495 -130.901756642398 2581.23521618875 10 13 6
62.1136370284785 -137.882209123628 2538.59997151049 11 14 7
39.601722029369 -135.578715831827 2550.70017535796 17 19 14
315.40553273866 -125.775532303734 2713.63214957402 31 34 27
294.104041783385 -124.056930322599 2721.66641205897 33 36 29
304.718842478918 -127.245321565598 2702.17229060247 31 34 27
299.751242582536 -128.041184140157 2696.09706696451 25 28 21
260.804119203814 -123.547706570942 2719.7615930319 26 29 22
309.033461477004 -132.645676007707 2666.98391033444 23 26 19
298.608287876976 -132.604282926583 2665.60246127171 21 24 17
307.340857269415 -135.580939039303 2647.21501591337 17 20 13
289.270127395806 -134.330726279424 2652.64851257671 13 16 9
288.768823830127 -135.861712012396 2642.3964701914 11 14 7
270.018748875614 -134.483270705787 2648.5728867627 8 11 2
296.737970276649 -140.391185889277 2613.56685593157 9 12 1
265.168475210249 -136.942510222342 2631.45807698748 10 13 4
275.870367900089 -140.308672814651 2610.79115330016 10 13 4
279.719442743015 -142.584471069554 2596.27821171342 11 13 8
123.44340059691 -128.176983905319 2667.0970596453 17 20 11
103.163067628708 -126.368965431652 2675.87203425984 12 15 8
92.4589818806005 -126.16301056412 2675.52426599578 15 18 11
86.876892384264 -126.822403383945 2670.23901913134 16 19 12
87.0962433648659 -128.475324175779 2659.27374035185 16 19 12
89.4461123765535 -130.504504489481 2646.1453148903 15 18 11
70.8195457822787 -128.9265604802 2653.64760693448 14 17 10
72.4062299854333 -130.834223739548 2641.20187913211 14 17 10
81.8312515525963 -134.119747158429 2620.84476940069 14 17 10
66.138193629734 -133.035109544101 2625.53068479699 14 17 10
74.7316495713939 -136.204834748854 2605.80667304416 14 17 10
73.995841584936 -137.751213812734 2595.38426095238 13 16 9
98.7204401703923 -143.823732751619 2558.9314517244 15 16 10
63.1246358328568 -140.894483688395 2572.66624763662 14 17 10
75.6012737309204 -144.847537078375 2548.34216643724 12 15 8
58.3611782002809 -145.188248241754 2543.25353622525 11 14 7
70.6098383308627 -149.159521039742 2518.76439126907 3 5 0
323.688201601819 -128.832331622043 2748.02885351338 30 35 29
353.461678449136 -134.978564187907 2712.76534277635 21 26 19
360.257282389713 -137.609164111351 2696.68120150953 28 34 24
304.650533417376 -133.667764213864 2713.20645406166 29 32 25
310.58061363972 -136.183385591785 2697.7304951985 31 34 27
293.207789211696 -135.022090305465 2702.43443139966 28 31 24
309.09990902677 -139.142545907612 2678.11538474831 26 29 22
257.874387790773 -132.560814594631 2712.65137956715 23 26 19
301.64851926331 -142.799748882817 2652.93313038188 17 20 13
296.571378527341 -143.610500098821 2646.77812836066 13 16 9
282.592331295267 -144.613862672466 2637.87466757146 10 13 4
211.654028377876 -134.614992381714 2691.48609954501 12 15 4
255.78978431529 -143.500682178886 2640.68269946035 14 17 8
295.115780882102 -151.663609864529 2593.80677734739 17 20 11
274.154676373414 -149.863364632373 2602.08820677084 8 10 5
108.111433943689 -131.731743991888 2693.01833342654 21 24 15
104.754647946485 -132.771496340337 2685.63922007536 15 18 9
106.507615054226 -134.696845229597 2673.31394471797 12 15 8
96.5245770951735 -134.602139651243 2672.25298477832 13 16 9
67.6286274175673 -131.21123915061 2689.61195004184 15 18 11
78.0732642919348 -134.660286285049 2668.75811629723 17 20 13
90.5870943656577 -138.498974456204 2645.69690688831 17 20 13
82.7803829003852 -138.784095790446 2642.50628420629 17 20 13
69.9454334902811 -138.176140303127 2644.32124797578 18 21 14
60.735298405791 -138.20281133099 2642.58493039881 17 20 13
59.4067293741993 -139.633702061705 2632.96872925266 15 18 11
62.323206552743 -141.835114743994 2619.01514112319 14 17 10
58.7860033239691 -142.887451610554 2611.50517572748 15 18 11
67.2727958055748 -146.123380911054 2591.70350601935 20 21 15
108.150633242411 -155.280805366375 2538.53670041956 17 18 12
137.787187539844 -164.257591583752 2484.63286694569 10 13 6
124.769429889838 -163.662364927446 2486.31495016969 15 18 11
113.184895673986 -163.322078354744 2486.56493754445 10 13 6
51.5793805767664 -153.655537415149 2539.5297090145 6 8 3
307.522204780475 -134.231124545933 2762.22026201996 30 33 26
276.254820301883 -137.092980989529 2738.30404075908 19 22 15
299.356132683682 -142.402084954635 2708.08915229602 15 18 11
285.886962226047 -141.827645044458 2709.44418593019 14 17 10
290.992596794796 -144.266093712264 2694.60599634239 16 19 12
306.043029517618 -148.346310564773 2670.9123276788 13 16 9
297.931530462496 -148.655645142359 2667.50063532356 14 17 10
311.268656721807 -152.498792024716 2645.03622830533 14 17 10
282.495355001844 -149.398495980157 2660.01226398651 17 20 13
266.791448091815 -148.439640980269 2663.45464097754 16 19 12
244.307047741274 -146.335164782684 2673.10341498471 13 16 7
258.483285569812 -152.021901766585 2638.88670998016 9 12 3
249.647394793206 -152.200691851337 2636.18588294655 0 2 0
332.368162172647 -167.93914775747 2549.0922541391 13 15 12
138.477848884222 -143.098597183868 2675.45019788841 12 14 9
102.962330732713 -140.187119671372 2688.00777384764 17 20 11
103.258239709697 -141.884153062469 2677.09747567752 13 16 9
97.6689009359033 -142.550515384463 2671.80723283227 14 17 10
71.6800559562443 -139.593355292381 2686.3306878805 15 18 11
53.7969281163431 -138.051620250479 2693.13669450874 18 21 14
95.3479357068807 -147.146843569394 2641.69353048676 17 20 13
80.3101788633058 -146.128078475394 2645.61911733375 15 18 11
72.5200129854469 -146.406333129628 2642.44052368224 16 19 12
54.6946419017043 -144.858724270052 2649.28842916765 16 19 12
55.5326455947176 -146.698909108736 2637.53534530655 15 18 11
56.3256299195944 -148.542681274493 2625.74960777421 14 17 10
78.3956393052501 -154.317363156081 2592.31437978078 16 19 12
85.981109593209 -159.215212069183 2561.96972796417 16 19 12
123.826446708478 -168.048378652675 2511.5469760654 17 20 13
128.402814368222 -170.716711264045 2495.08890856345 13 16 9
148.301359510526 -176.291349449447 2462.55062631784 14 17 10
322.951027856679 -144.590605597733 2749.88500950453 25 28 21
276.322330921542 -138.660485303369 2779.10419446344 28 31 22
320.264947498196 -147.347273176404 2731.86719537644 28 31 22
310.651749715981 -147.391123129731 2729.83860203347 33 36 27
290.898964445546 -145.774173876047 2736.52467169386 32 35 28
284.463873944681 -146.324105260268 2731.85695174727 30 33 26
270.259280443775 -145.593857084669 2733.91468735145 22 25 18
263.069601634003 -146.013778434313 2729.9359398687 18 21 14
258.201053663139 -146.818564428231 2723.93218140953 15 18 11
267.958031312646 -150.067228718929 2705.05123153146 11 14 7
299.89630820514 -157.058022485442 2666.4123116835 11 14 7
275.704315505001 -154.653779868852 2677.29510166605 13 16 9
266.122533644135 -154.694666575482 2675.28929740434 14 17 10
267.218270333334 -156.544650616256 2663.72300005758 14 17 10
258.398240113818 -156.714687842103 2661.03371501524 12 15 6
247.588906535366 -158.22025178061 2649.48476807883 13 16 9
185.483125961207 -159.241390807829 2631.63036277165 3 5 2
147.275045964761 -154.145200897932 2657.06872664484 16 18 13
112.930623727068 -149.690655057505 2679.12921080517 12 15 6
96.3424405380437 -148.384225258989 2684.40239084345 12 15 8
94.4290675012747 -149.711509735224 2675.59781420891 13 16 9
60.4339508356486 -145.226664830084 2697.91167090372 16 19 12
60.7415687962933 -146.946886164261 2687.00974337423 17 20 13
62.4567388267221 -148.935369444484 2674.65674832074 16 19 12
85.0577098973839 -154.77618945849 2641.60609078138 14 17 10
57.1026290035506 -151.329520116504 2658.41206327935 15 18 11
65.8711039266202 -154.658304382424 2638.81382637871 15 18 11
84.5599104533008 -159.860443658107 2609.10616441559 13 16 9
113.789908874551 -167.077239875951 2568.50281095933 13 16 9
142.798605866561 -174.312482158394 2527.73864346423 13 16 9
143.947278163874 -176.346977560393 2514.97474905387 13 14 8
84.996253319054 -166.994511419591 2563.68674868372 16 19 12
58.0627901485857 -163.652993585593 2579.99744995242 18 21 14
102.866684941368 -174.007502929171 2522.26014939299 15 18 11
127.751493688611 -180.621056736349 2484.68570285288 14 17 10
340.121082155485 -153.721314950431 2746.22904536221 36 38 33
334.434092232764 -154.404519804895 2740.86792780438 26 29 22
298.011131789553 -150.026094775445 2761.42095521739 28 31 24
303.237838439244 -154.114125061097 2736.78129592113 34 37 30
313.197470444856 -157.403188457132 2718.04704988123 28 31 24
290.337843522718 -155.217060271098 2727.42422772233 26 29 22
273.008501969684 -153.938321289774 2732.15998598599 24 27 20
259.613762039757 -153.309011107859 2733.56925382687 23 26 19
271.753948249771 -157.003099405776 2712.70828216948 23 26 19
268.827744193285 -159.816290719249 2694.51611094436 18 21 14
295.280604594748 -166.032813994513 2660.55046280858 15 18 11
287.934966928602 -166.463438435209 2656.45830873223 13 16 9
265.359788840284 -164.252523792354 2666.04210962872 13 16 9
232.244074336404 -160.182442253756 2685.28566401809 12 15 8
232.599640088577 -161.926041975349 2674.41867092682 15 18 9
256.321355584524 -167.784006752532 2642.1800836206 11 14 7
167.416343575411 -163.940381963809 2649.38783688551 0 1 0
132.207021434555 -159.259235467009 2672.05752105436 16 18 13
130.254861569279 -160.606987815322 2663.22472334628 8 11 4
108.482904993711 -158.325606815254 2673.39085910793 11 14 7
81.686280191934 -155.093475872115 2688.56546121202 11 14 7
60.8412860705072 -152.929594043584 2698.16794005337 14 17 10
64.7825768356967 -155.349850302398 2683.7211160484 14 17 10
75.1796053043559 -158.992410989974 2662.83178977017 13 16 9
53.5018967464427 -161.815758282724 2640.92708330064 11 14 7
110.527446769444 -176.251547149156 2561.1505774091 11 14 7
106.108706157898 -177.215284799614 2554.2373466304 16 17 11
79.0643003486649 -173.804490158721 2570.46797411331 16 19 12
325.4858342618 -159.244155506587 2759.05913037312 34 36 31
312.727954560645 -158.735872063972 2759.69412765459 30 33 26
282.665740499819 -155.309230106014 2774.97249290871 27 29 24
262.16533980884 -153.463965054376 2782.35308776659 30 32 27
258.985254491217 -154.535704133932 2775.10190648992 28 30 25
304.242277687206 -163.860297907919 2726.34415046405 29 32 25
303.227706308847 -165.346744426792 2716.95499703973 26 29 22
280.421050919049 -163.098930663013 2726.37118200173 22 25 18
269.330164611002 -162.848077846373 2725.743241174 20 23 16
261.355863895398 -163.130316357814 2722.43114406994 20 23 16
271.882861655997 -166.628352939509 2702.87209845444 21 24 17
280.775889350796 -169.866293995806 2684.59964928408 20 23 16
253.220677782662 -168.424239695483 2688.09905546724 15 18 11
249.026533259274 -169.382458605232 2681.34837266245 12 15 8
228.10738373315 -167.37266851727 2689.66127753414 10 13 6
276.384404287155 -179.436734536305 2624.55188425294 14 17 10
138.523292247723 -168.226187915639 2666.70972471612 14 16 11
138.02527869985 -169.86611881465 2656.45951550618 18 20 15
116.961590723637 -167.666930991317 2665.90363733686 12 15 8
74.0551132443392 -161.33813524598 2696.58812135596 12 15 8
95.5017149324213 -167.098080811197 2665.17141419616 13 16 9
74.6376263498543 -164.881199743695 2674.76031950672 14 17 10
43.7192506053203 -160.725213631118 2694.36217015068 13 16 9
94.5570418986303 -172.167207538178 2633.58265288126 11 14 7
93.9267032680373 -173.816603624501 2623.23647045187 12 15 8
118.382699990015 -180.317250460976 2587.8218140778 13 16 9
76.8202146524066 -177.660642431191 2595.99452351098 13 16 9
78.1798545057528 -179.738059770736 2583.38334657619 19 20 14
66.061658876833 -179.169650393998 2584.48236904287 16 19 12
15.2271051029418 -170.917585621205 2625.48601718696 18 21 14
298.955228643058 -162.639924508429 2781.80351809246 37 40 33
299.708446335793 -164.399653092964 2771.22441520632 38 41 32
286.232704738566 -163.728602074873 2772.57517463548 37 40 31
249.999554302057 -159.126821738995 2793.26722518878 30 31 25
268.019910130791 -163.868412760696 2768.01746833377 27 28 22
296.065120737707 -170.387148176906 2733.96958145109 29 31 26
299.752492949901 -172.706715317531 2720.5742331076 27 29 24
281.617803801944 -171.218268155542 2725.9622765552 25 28 21
272.073938900757 -171.224229353702 2723.98443048836 19 22 13
270.276039291786 -172.594375288967 2715.26334590422 16 19 10
273.075184088223 -174.787241290719 2702.45978094678 12 15 6
308.398809138935 -184.534092735975 2650.20435816245 11 14 5
253.642465584881 -176.449869312009 2688.36416705024 12 15 8
241.067595521074 -175.904166527267 2689.13231593682 12 15 8
258.156448741298 -180.725013380935 2663.20689151523 11 14 7
168.257640964363 -179.895697959077 2649.91689449591 8 12 11
158.858547648609 -179.887372418602 2648.04377432905 9 14 10
127.409583535741 -175.684952903337 2667.26151981284 3 8 2
108.576315141449 -173.84860390419 2674.61527818317 15 18 11
112.482351116498 -176.349572743751 2660.1421939263 13 16 9
100.28887054209 -175.768701474205 2661.1869983283 11 14 7
96.8505918526552 -176.870707003409 2653.74849386075 11 14 7
68.0351303327114 -173.050130979741 2671.16768862167 12 15 8
51.6348792295491 -171.612513841102 2676.5777691294 10 13 6
100.827108834526 -183.005808017634 2617.07596348325 11 14 7
127.423471189777 -190.049159062631 2579.50475056598 13 16 9
47.8889927301665 -176.177367452423 2647.90163810603 16 19 12
39.4416101636192 -176.287613002066 2645.48279615664 18 21 14
58.7479284938537 -181.927017129891 2614.98523573936 18 21 14
64.4214354320285 -184.881729407117 2598.0860207158 18 19 11
24.097490602776 -180.416634665348 2617.04691140163 21 22 16
115.409217848902 -200.76762309825 2511.45489543199 20 21 15
93.3596417046818 -198.188904098413 2522.65661602543 19 21 18
289.84618465014 -170.521289548016 2780.10069803148 20 23 14
287.435232994325 -171.754977913496 2772.17122122612 21 24 15
266.864964760846 -171.461678034838 2769.61213013717 29 30 22
286.320828882404 -176.576147922123 2742.93104191553 23 25 20
271.327540847587 -175.59989235031 2745.65331872567 20 22 17
268.820472285168 -176.841904951488 2737.65412255958 14 17 10
291.098552681824 -182.536703068107 2708.0752441971 12 15 6
329.768538567873 -192.991830062352 2653.30164124808 10 13 2
318.519720268445 -192.722137148177 2652.55930757817 9 12 1
267.398357533744 -188.67460531138 2666.16087781601 11 14 7
126.492967506849 -179.77233144486 2690.04351025372 9 13 12
151.899427309613 -186.429907080314 2655.3170699755 12 17 13
102.811442945394 -178.714171176012 2691.40864932383 22 27 21
111.189660969726 -182.103705946608 2672.76253026173 16 19 12
106.31577133501 -182.929446675389 2666.75479337657 14 17 10
93.4121634274065 -182.182353771672 2668.52068989442 12 15 8
84.9085729213788 -182.291088794019 2666.06110926128 12 15 8
78.5912663400978 -182.828789895506 2661.47883534043 13 16 9
96.837354514006 -188.24847631565 2632.6838776283 14 17 10
83.9607898178274 -187.498057477725 2634.46939519376 14 17 10
70.4048808091202 -186.600162163953 2636.99822519575 17 20 13
89.8220272049177 -192.329434124715 2606.58055121011 18 21 14
49.1317539529397 -185.947209002772 2636.40180634166 18 21 14
67.3628135476414 -198.944324942928 2561.85797838976 22 23 18
305.327635411181 -176.066525745437 2797.47121646417 26 28 23
341.129353051339 -184.03543976925 2757.92262852754 23 26 19
257.758124499586 -170.97892198082 2817.35827242282 16 19 10
312.400234877754 -182.331536292051 2761.80740770691 13 16 7
320.968288273188 -185.553873966251 2744.53478787207 12 15 6
297.998138208046 -183.14874686052 2753.83295440083 16 17 9
300.996452776614 -185.390588289708 2741.17381826852 18 19 11
285.174411846565 -184.247355525263 2744.53119682004 18 20 15
269.403967618164 -183.099574031293 2747.92629643895 17 19 14
280.900689837358 -186.904031028567 2727.83334159239 15 18 11
305.477109424212 -193.127918833943 2696.2127885267 14 17 8
327.407188052183 -202.493609320397 2645.36594738033 12 15 6
331.49092562703 -205.058884466729 2631.02165155839 11 14 5
341.627405665248 -208.771373413605 2611.17842506836 13 16 9
319.653586476394 -206.488849878425 2619.96319547164 13 16 9
310.82628116663 -208.493546956273 2606.14313055341 8 13 9
158.734583984542 -193.819213007428 2660.23459262733 9 13 12
133.128720391914 -190.596930291861 2673.80198532541 6 11 5
127.503753677887 -191.28490856041 2668.48580553691 22 27 21
119.67262548917 -191.537027917759 2665.27764981251 19 22 15
109.654955882582 -191.351528844202 2664.19233901645 16 19 12
126.639835932994 -196.556895280633 2636.95455792848 14 17 10
84.5937399773256 -189.952859720291 2667.02910839024 13 16 9
92.0505765943798 -193.267070404453 2648.95047844331 14 17 10
82.8022963583335 -193.222858413413 2647.18716214542 15 18 11
73.692934059479 -195.036393627117 2634.39863299813 19 22 15
38.6898507869136 -189.701989723143 2658.45616963071 19 22 15
73.1014567613797 -198.617589432625 2612.95462393772 17 20 13
176.286709727116 -221.837673797907 2497.4287202732 16 19 12
338.436218136277 -189.776398678791 2770.76256144604 26 29 22
320.872453684706 -188.327431545514 2775.32953826389 30 33 26
323.989591390074 -190.591978737864 2762.75613007307 30 33 24
308.072074602434 -189.424089076449 2766.04471550693 30 33 24
310.346506674736 -191.54997283945 2754.09615100528 27 30 21
329.874783053486 -196.838972976313 2727.46667194411 21 22 16
330.434155222923 -198.689911034088 2716.74687878433 19 20 14
291.848012657326 -193.346359482598 2739.44206223295 11 13 8
289.316965701423 -194.618255193043 2731.42503777684 13 16 9
307.761539020539 -199.7892401539 2705.24588811672 16 19 12
319.085193918381 -203.671613544654 2685.02707841358 17 20 13
284.680443512229 -199.024530567491 2704.57443690027 17 20 11
285.905203159375 -201.029492934035 2693.10088605343 16 19 10
333.221806373195 -211.743621979328 2640.88838979518 15 18 9
318.890264002128 -210.861782210721 2642.85486529547 14 17 10
339.006424547357 -216.522218853247 2614.17960135512 15 17 12
335.335098586847 -217.680593054459 2606.57187042885 15 17 12
153.969599002906 -200.72217884871 2665.39123379989 5 9 8
165.28423462309 -204.814276046912 2643.92978690827 12 17 13
137.485756910914 -201.075985507415 2659.61572488436 6 11 4
139.164879690906 -203.250623298131 2647.23565550044 14 17 10
134.942063351577 -204.24294865441 2640.46401512851 13 16 9
123.411447821121 -203.751483999414 2640.75356057877 12 15 8
146.814871331289 -210.393003936966 2607.04523112881 12 15 8
115.6640802105 -205.885991615507 2626.48067140049 12 15 8
62.2566130550592 -196.746014080214 2668.0937304372 13 16 9
61.014852355747 -198.325445262663 2658.53970611703 14 17 10
82.7289174645824 -204.688573637361 2626.07850255281 16 19 12
93.527748604715 -208.822068416064 2604.24292829888 16 19 12
35.2139369707838 -204.094273271139 2618.809756603 18 19 11
37.330777093727 -206.43851148746 2605.51080769653 20 21 13
120.933619090605 -226.270474592337 2507.91996056585 19 20 15
363.742162847364 -198.822017438182 2770.53483563433 24 29 25
313.29195650259 -191.390738509661 2801.93206600241 25 30 24
326.092898526463 -195.422750053218 2781.54808421083 25 28 21
336.401559034755 -199.027244416865 2763.06525866113 28 31 22
320.441466014415 -197.83037337185 2766.32283199469 28 31 22
290.294595979444 -194.002409388133 2781.5421555787 28 31 22
323.385545742012 -201.852688264085 2743.73418495497 28 31 22
330.857673736875 -206.769378980689 2717.01297229544 27 28 22
315.73324277716 -205.714968138963 2719.64057667245 17 19 14
288.175225930912 -202.306548593095 2733.0287912649 14 17 10
285.626469692023 -203.593878519247 2724.99914527129 11 14 7
283.830656995842 -205.03038012952 2716.27923743019 13 16 9
295.930426259547 -209.123018090524 2695.38665345625 15 18 9
276.30120537767 -207.172236906615 2702.16428298045 18 21 12
273.665845687942 -208.466861883659 2694.07152486923 17 20 11
313.953252683712 -218.051284774122 2647.8856440173 16 19 12
290.502622634641 -215.359259729573 2658.07199017558 16 18 13
312.897261759669 -221.561368340256 2627.34029594295 16 18 13
147.721240745967 -207.285527020491 2671.9446339943 9 14 10
148.72292687671 -209.335296186949 2660.30914543953 10 15 8
129.804563616422 -207.321590894899 2667.60211507007 7 12 5
91.1442285803044 -201.229227715462 2693.95300653363 10 13 6
141.945978052153 -213.543076052256 2634.3779822933 10 13 6
135.501303570861 -214.092857816639 2629.70331547262 10 13 6
174.149062957731 -224.028135269138 2581.09171082344 10 13 6
154.513957884734 -221.860951441354 2589.10120752319 10 13 6
90.8598338396685 -210.429570053866 2640.58983791226 11 14 7
95.3604744207466 -215.165573188217 2614.1852246114 13 16 9
108.274519673917 -219.824721580125 2590.17494730511 14 17 10
66.8120577005289 -216.738727029513 2598.422340737 18 19 11
27.1392564454871 -210.089296988084 2627.74749984946 18 19 11
137.540388620355 -238.01296690111 2491.49118035473 19 20 15
365.766938063588 -207.129152282784 2769.49019338829 19 24 18
361.700671884175 -208.126748346678 2762.83201287106 22 27 21
297.789805913709 -198.019592794304 2805.48197273591 26 29 22
343.980244396281 -208.346766153121 2757.3957911081 24 27 18
304.991045710095 -202.81390801059 2779.8000439255 29 32 23
305.739466808298 -204.698083205023 2769.21683353901 31 34 25
323.805162979836 -209.860122497362 2743.99781521273 31 34 25
307.115747374926 -208.476977100039 2747.96296166275 29 30 24
309.312668184621 -210.670098344769 2735.95816149859 27 28 22
293.465498182718 -209.431269562989 2739.29810213934 24 26 21
259.725757020241 -204.747539277674 2758.09239453838 24 27 20
286.045093314882 -211.583410358044 2725.26214591551 22 25 18
280.371202597803 -212.286624083998 2719.91012842549 20 23 16
282.428155829575 -214.491801189285 2707.80380171173 18 21 12
251.77960658745 -212.140935655026 2714.0058257018 16 19 10
266.82762803044 -216.912355172991 2690.30661349521 15 18 11
296.283444201991 -224.561496906717 2653.57017459468 15 17 12
282.824216157235 -223.767111236088 2654.93352976477 15 17 12
142.951514901005 -214.104817376597 2677.09826224669 1 6 2
122.554832619057 -211.738867353928 2685.79171879396 17 22 15
137.798156375832 -218.654238383311 2649.87197614246 13 16 9
126.264483658164 -218.125462048348 2650.1597888405 14 17 10
126.435409071538 -220.056600065112 2639.15770163176 14 17 10
119.291228233973 -220.449844561128 2635.21177724653 16 19 12
88.3829571515284 -217.681739718055 2643.6980044666 16 19 12
75.5331651565187 -216.831720188554 2645.5031401546 15 18 11
79.9694026883362 -219.694529930331 2630.17783537361 13 16 9
49.9494229539441 -215.120871956454 2649.19803141915 13 16 9
80.7718238211126 -225.673353171851 2596.14556774808 16 19 12
49.4858566107723 -220.774429795498 2616.72003772361 18 19 11
80.6247301280565 -229.571614305153 2573.78705921899 18 19 11
91.7772452541019 -234.021018957023 2550.97094678243 20 21 13
346.932926076326 -211.535349353107 2785.45763834411 20 25 19
346.919958792752 -213.289856291348 2775.55846917234 21 26 20
374.797473232471 -220.325569074289 2742.62143379616 27 30 23
344.400083645273 -216.355586380674 2757.65957528616 25 28 19
307.785417773337 -211.164990454851 2778.07803962542 26 29 20
284.789206953385 -208.533424595878 2787.35846111378 26 29 20
287.925295239988 -210.895432081579 2774.79829694813 26 29 22
291.007811962693 -213.261948334472 2762.19956925175 27 28 22
286.974585665495 -214.265799499808 2755.56530836693 27 28 22
246.778027541905 -211.794912933478 2759.78682587823 22 25 18
296.308783365253 -223.331832240167 2706.7051752457 21 24 17
311.47733938819 -228.169679990817 2683.09329913338 18 21 12
298.745960449135 -227.508008222766 2683.74828432496 10 13 6
298.358604459377 -229.295294317933 2673.57754675734 13 16 9
310.210286728005 -233.540601618196 2652.50434592592 13 15 10
305.125863356531 -234.415231022715 2646.34403548821 12 14 11
122.622535152019 -217.615285681142 2696.92724568147 1 6 2
123.704370873344 -219.713227427811 2685.34961527177 15 20 13
142.415062214305 -225.560560642745 2656.88929219525 13 19 9
127.201856499029 -224.232615592375 2660.68925846831 17 20 13
125.9485531693 -225.87245682464 2651.1265606602 15 18 11
110.797243760006 -224.538720813601 2654.97142621876 16 19 12
102.246497186492 -224.611765827941 2652.47754744585 18 21 14
90.806156068119 -224.055414414481 2652.83315788522 19 22 15
68.5480434743102 -221.138273210243 2663.88512565413 14 17 10
73.2915729913133 -227.954340508352 2626.53013317453 15 18 11
56.2000192452237 -226.12755578821 2632.67637596001 15 18 11
94.6303000435598 -238.6052294476 2571.54298897972 18 19 11
85.2951519650436 -238.523466320913 2569.71659605585 19 20 12
328.710310253281 -212.428954510133 2820.41311122084 30 35 31
346.521394259377 -217.559623469965 2796.24500910528 15 20 16
320.067641176562 -214.278993315856 2807.96300752914 22 27 21
347.337870791359 -221.262209688963 2775.82104095714 17 22 15
309.782996757797 -215.826559207519 2796.79420621384 23 26 17
292.29438086471 -214.218988601113 2801.41616870631 20 23 14
317.723408221442 -220.91663797342 2770.41128951282 21 24 15
296.280616402314 -218.538649509195 2778.34645990859 24 27 18
264.660048007292 -214.148137061528 2794.97039077839 24 27 20
279.616344326436 -218.858720748786 2772.44002984669 24 25 19
282.680085194108 -221.259886000856 2759.8275156283 24 25 19
297.430955825839 -225.988186848441 2737.14814749088 20 23 16
299.574564864737 -228.246356529299 2725.10437100318 17 20 13
308.371314591191 -233.707811030089 2696.87027783433 15 18 11
326.606706853104 -239.247195340683 2670.53732786934 14 17 10
362.449961800019 -248.381422066433 2628.54258093885 13 16 9
358.036327733189 -249.426366439749 2621.63234619831 20 23 16
288.386842661192 -237.199372099127 2672.4842457327 15 17 12
123.389899517927 -223.602773996396 2707.3340786656 57 62 58
134.146138874782 -227.784308662756 2686.70242201671 1 6 0
137.412779300453 -230.388256483975 2673.00063577809 15 21 11
127.363533646216 -230.138790684206 2671.89275883531 15 21 11
143.037496286035 -235.451492137027 2646.17448980244 19 22 15
126.364169479731 -233.772078872155 2651.38783665028 17 20 13
114.861199017427 -233.202738988298 2651.6978170538 17 20 13
114.304118647759 -235.023609597702 2641.4038725489 15 18 11
118.064425565254 -237.805768978847 2626.82372190266 14 17 10
81.2550045436611 -231.637632114939 2652.04639650904 13 16 9
94.4838045333336 -242.473441509039 2594.88466081821 15 18 11
53.8321200323457 -235.301782402628 2624.73759392063 16 19 12
92.7987868562568 -248.151739429846 2562.75612229947 16 17 9
342.730531537755 -221.128112088945 2819.41668727132 45 50 46
348.488231570097 -224.003993929633 2805.04897816859 26 31 27
370.274719248805 -229.999130398828 2777.58258021622 20 25 19
332.518056673181 -224.47419997444 2798.4099168729 22 27 20
345.31464771125 -230.56661534122 2768.13175709668 23 26 17
319.767718222875 -227.365306936429 2779.27139841021 22 25 16
322.108102428112 -229.636461999244 2767.36990818944 23 26 17
310.150541958175 -229.089480614083 2767.35052782181 25 28 19
265.06835919282 -221.946637060264 2795.22688333064 23 26 19
276.879421278135 -226.102015058479 2775.36002267733 22 23 17
315.279577040085 -235.616594155664 2732.74653341945 21 22 16
299.414063632325 -234.281659872213 2736.07366332713 21 24 17
293.748553587544 -234.99287703698 2730.72797510335 20 23 16
301.311500826834 -238.389352640443 2713.96088695215 19 22 15
308.794457812473 -241.792716194857 2697.1360717472 17 20 13
334.00080205704 -248.84394628701 2664.73264275113 15 18 11
344.361120468229 -252.899314191038 2645.04965024808 12 15 8
339.230880367922 -253.789305305517 2638.85604847577 21 24 17
339.463387297211 -255.792195463332 2627.89823958339 12 14 9
160.495233912717 -241.256326406008 2662.50597810924 1 6 0
144.476042017524 -239.70813073866 2666.95752556486 12 18 8
130.722939930672 -238.639410866801 2669.34456583329 11 17 7
138.313279860639 -242.255983372987 2651.36118376475 15 18 11
147.28371069892 -246.203364225369 2631.90621570334 15 18 11
102.134360071061 -238.165037550508 2664.67885658757 16 19 12
105.985612658004 -240.978055001519 2650.16477257281 17 20 13
111.951450915396 -244.28361915916 2633.47569762725 16 19 12
117.118059449496 -247.43262946635 2617.44307360419 15 18 11
95.5258144351419 -244.56295960995 2627.74276038786 15 18 11
87.7582695184902 -248.812892844145 2602.32831610818 15 18 11
136.116791478097 -268.236735387203 2507.59778577625 15 16 8
158.293889183335 -275.540298514724 2472.99711319993 17 18 13
369.887175986725 -236.025165291756 2788.38733187407 24 29 23
334.53716376207 -232.688702778121 2797.36192935697 19 24 17
335.365195783955 -234.664498072528 2786.83596655417 27 32 25
301.825702490508 -229.808922117844 2804.54125670996 25 28 19
336.104841390328 -238.467584193717 2766.35579297659 29 32 23
332.845216788459 -239.657248801494 2759.04635465926 28 31 22
295.522837313896 -233.989369118426 2780.18894199312 25 28 19
283.63600218778 -233.417480426987 2780.220958097 23 26 19
263.905827207344 -231.244187266943 2786.9262364307 20 21 15
316.484040944739 -243.791993491676 2732.34322836988 19 20 14
297.482789859034 -241.783757697584 2738.34104651358 18 21 14
279.331889714624 -239.930035757074 2743.71918845266 19 22 15
300.174650285212 -246.102999542777 2715.56805632609 19 22 15
295.242596023502 -246.981725257691 2709.51788628212 15 18 11
290.30105709311 -247.861219336544 2703.4608367075 13 16 9
318.545302522614 -255.673663396541 2668.3156448968 15 17 12
293.475488728205 -252.366491507501 2679.80169377845 11 13 8
172.770960866073 -251.804501240565 2651.58942751736 7 12 6
165.583183756932 -252.192554923759 2647.61192555698 21 27 17
153.977875248097 -251.594822860448 2647.84786273855 16 22 10
138.913691472069 -252.201582566978 2640.62984544079 14 17 10
123.722692718099 -250.773589800999 2644.44641677543 14 17 10
106.399660442291 -248.845930791739 2650.42507230586 16 19 12
124.707136638966 -255.005609242592 2621.67116235303 16 19 12
134.180656180669 -259.193696692593 2601.3446381736 19 22 15
150.770588989189 -265.045194808471 2573.81727861705 18 21 14
99.633545708075 -257.371125662477 2602.24776275407 16 19 12
116.055609236012 -263.236043830767 2574.59864319831 15 18 11
119.508631237277 -266.119319466875 2559.79551746177 14 17 10
159.840477269791 -277.664735418737 2507.45614649946 17 18 10
169.996637810825 -286.555786161747 2461.66283136014 15 16 11
350.840717469876 -238.308205151023 2814.09270048127 35 39 38
381.606648218793 -246.255848573643 2779.53951625639 24 29 23
346.15759493612 -241.010613455851 2798.33286705987 24 29 22
318.091712023315 -237.203681989253 2811.35493724372 26 31 24
314.963494935631 -238.392618596205 2804.14076272528 28 34 24
305.429752699325 -238.290022133295 2802.17051018317 30 33 24
313.430538729041 -241.746846633007 2785.72080951306 29 32 21
319.763870905309 -244.886533993974 2770.53401557988 25 28 19
299.102606228901 -242.516586868896 2777.80035984284 23 26 17
286.416249487661 -241.764150959791 2778.48873680173 20 23 16
258.014738003791 -237.756716190958 2792.5035548897 19 20 14
281.564888858366 -244.483354848807 2762.60685892155 18 19 13
291.635117317864 -248.453778969695 2743.9490409079 18 21 14
278.184908628708 -247.536964479128 2745.31955452746 19 22 15
289.692524647915 -251.844418294447 2725.23194905097 15 18 11
295.662727569059 -255.015853183604 2709.78175416371 14 17 10
300.787575971042 -258.029561493951 2694.95487376718 14 17 10
266.467251557593 -252.688715041121 2714.56665402947 17 19 14
240.003474939558 -248.975505989914 2727.51461390533 12 14 9
168.740888748037 -258.774010032175 2656.04315454918 7 12 6
174.871419077943 -262.160089828913 2639.47306057411 21 27 17
172.082479718183 -263.549054884251 2631.26878590846 18 24 12
146.492793009605 -259.758642214023 2644.85078326524 19 22 15
196.471635200217 -273.192399528037 2585.90858004447 14 17 10
119.756326448241 -257.675804140638 2648.9466663958 14 17 10
121.37690808026 -260.066558035361 2636.52306461372 16 19 12
110.606671117879 -259.607181818418 2636.12862555179 17 20 13
128.812654606172 -265.868282662229 2607.30062764427 16 19 12
127.385812464148 -267.598893532357 2597.61166808152 16 19 12
156.860127706436 -276.575347384989 2557.17621761296 16 19 12
162.446765593262 -280.005189816202 2540.21162273229 15 18 11
141.504125021001 -277.194695071827 2549.74659079944 15 18 11
133.987016900676 -279.671948719209 2534.40384893425 16 17 9
95.4916776515922 -272.612469853747 2562.1139901488 16 17 9
151.111026321169 -288.089266492219 2493.66437017682 14 15 7
135.243531911811 -286.452717401623 2498.22662838183 15 16 11
362.491269556036 -246.6325746918 2815.08546102154 66 70 71
383.636901467831 -252.736185379925 2788.38927471012 19 23 22
340.851176855694 -245.925937256803 2812.98796161079 23 28 22
348.183094084589 -249.255854805143 2797.28906311052 21 26 19
332.95623364869 -248.000090487425 2799.84372854636 30 36 26
343.40270998656 -251.994759668846 2781.45853784326 24 30 20
289.86845027706 -242.846897918171 2815.56920793453 29 32 23
291.544437563229 -245.032414838132 2804.42184708849 27 30 21
282.057087871195 -244.915246431201 2802.48529930156 23 26 17
287.634896855327 -247.930734899818 2787.98677068084 20 23 14
277.349944391978 -247.649293376652 2786.70789232822 17 20 13
278.900761282029 -249.845966139496 2775.46973628422 18 19 13
289.046743596133 -253.867178850832 2756.86687107924 18 19 13
297.533586409728 -257.565084437111 2739.53297111528 17 20 13
297.344596207204 -259.445333154001 2729.50556226615 15 18 11
285.437051201542 -258.837613436205 2729.52245235057 10 13 6
310.062614267432 -266.041918914649 2697.9325584328 10 13 6
302.758706038348 -266.436692042007 2693.8708365099 13 16 9
269.20097558833 -261.165143825433 2712.80034424943 20 22 17
146.170847955559 -261.477649141671 2677.95703612048 0 4 0
157.547324838974 -266.090571697299 2656.53778119722 5 11 1
167.343144661672 -270.373052505388 2636.44442124874 12 18 8
135.886076287686 -265.152040524933 2655.66115667532 14 17 10
128.024484336473 -265.359270454867 2652.43143897017 9 12 5
128.206582052616 -267.438116130803 2641.43670263372 9 12 5
100.856990019989 -265.122519405738 2646.3246281001 14 17 10
124.166238859692 -272.669040159592 2612.5437398912 14 17 10
134.984909710028 -279.420689102669 2579.59307330574 14 17 10
162.161829213878 -288.031784019311 2541.19944661719 15 18 11
158.381209506777 -289.283908194264 2533.51201145947 15 18 11
127.535431356769 -290.51426289025 2518.55582533717 14 15 9
208.20107404595 -312.465945467266 2423.76514946518 15 16 11
363.004054638876 -256.414206430744 2805.52676199067 21 25 26
342.071471805677 -253.96831898909 2812.59680658423 24 27 20
363.085438364563 -262.061476255932 2775.91391933828 28 31 24
273.336732461835 -245.256219024591 2839.39152173952 28 31 24
275.100093536752 -247.461482666264 2828.30739999656 27 30 23
282.394853688619 -250.841667710048 2812.58131092341 22 25 18
284.054067457181 -253.056085370802 2801.42164420854 20 23 16
287.253175947153 -255.609873260178 2788.90619332767 19 22 15
278.549477599605 -255.650460982302 2786.30189542922 17 20 13
295.067302286956 -261.067450544336 2762.42986839288 16 19 12
286.318418397538 -261.112117005982 2759.79279387119 16 19 12
297.95018116443 -265.534617099228 2739.79460228944 13 14 8
291.512810197183 -266.087899648863 2735.1252122098 11 14 5
310.485023223048 -274.123179446582 2698.1978385216 15 18 9
303.181021194495 -274.515391188689 2694.13606157538 16 19 10
308.23926474994 -277.617011801562 2679.26015813402 16 19 12
125.0751628207 -264.355817489199 2698.46845781188 4 6 3
126.166643982426 -266.617960393282 2686.89698787654 15 18 11
134.585802966381 -270.60747153538 2668.27750879119 13 16 9
168.643237819476 -280.644339388114 2624.98361070814 13 16 9
133.569003560317 -274.46250736261 2647.7588242334 13 16 9
115.653441296326 -274.347000477053 2643.41788123478 12 15 8
91.1030175617884 -270.560537681351 2656.5179113873 12 15 8
94.1756491154804 -273.357750645225 2642.674799528 12 15 8
119.56789106611 -281.544386053212 2606.69497632993 13 16 9
139.727743494271 -288.530074277693 2575.574305172 15 18 11
159.29399166203 -299.799976495482 2521.76919104136 15 18 11
145.271627224184 -305.224514536325 2489.34447174299 13 13 11
370.629071948142 -263.9617018527 2809.7807391056 18 22 23
392.574107493921 -270.420619975719 2782.42722121716 25 29 28
357.829919611352 -265.058678210277 2800.49680402771 24 27 20
322.433045205225 -259.514499781222 2819.32949461915 25 28 21
317.717603974554 -260.395740988412 2813.4366337197 29 32 25
310.589897410371 -260.769070558032 2809.50275275986 29 32 25
255.532908974668 -250.953290809687 2844.98331517261 24 27 20
246.951145039808 -250.975049270631 2842.46721102902 20 23 16
292.407582317735 -262.568729316792 2795.07785226378 19 22 15
293.209513912424 -264.645873513917 2784.53245535212 18 21 14
298.712051855284 -267.749976343482 2769.97861782098 17 20 13
287.601803061968 -267.273994197336 2769.3377810389 15 18 11
268.659998449991 -265.086430891728 2775.37960152926 15 18 11
265.45828026875 -266.315614856885 2768.11194063869 12 13 7
304.430724272467 -276.79793302306 2724.67337692214 10 13 4
304.190587572454 -278.726475856076 2714.60864626624 11 14 5
295.368302434366 -278.769620660559 2711.91836932043 16 19 10
294.305952378082 -280.530507165819 2702.49348449722 17 20 11
312.526150040453 -286.596031568716 2676.14685463946 16 19 12
142.544621661216 -276.160754893467 2682.66474319611 9 11 8
125.097172141509 -274.081807023668 2688.55397231915 17 20 13
127.624523465371 -276.724655789583 2675.55139369868 15 18 11
115.394304496273 -275.866214141956 2676.570677126 14 17 10
199.954575650025 -298.167098067044 2584.6015317698 13 16 9
129.038479271604 -283.274168319949 2641.95954995499 13 16 9
86.9242847115044 -275.20616075563 2671.99214959192 13 16 9
120.570380057123 -285.427384060667 2628.39912892476 13 16 9
109.073268909131 -284.74316010091 2628.71393878076 12 15 8
116.377857756447 -288.64275686929 2610.52227055752 14 17 10
139.433643562046 -296.43469703437 2576.5561040113 15 18 11
126.338656523666 -297.5516364664 2567.05761092789 14 17 10
122.642534424435 -298.818303678611 2559.43135622604 15 18 11
381.603327843953 -274.118920542854 2801.6281090039 23 27 26
326.871193299722 -268.205727098652 2816.32730248481 29 32 25
275.547285951117 -259.108376092025 2848.33464396225 29 32 25
304.590357642939 -267.224547502855 2815.00174207017 26 29 22
291.091480748803 -266.213337359847 2816.3374532019 17 20 13
290.380788542511 -267.96234443808 2807.16755283053 18 21 14
299.96937669012 -271.962088659371 2789.39576607022 17 20 13
306.299818250999 -275.277119314752 2774.2059885199 17 20 13
299.12521520386 -275.65245570804 2770.23810113379 16 19 12
258.067639184343 -268.568321307657 2794.85620496558 15 18 11
259.639361191079 -270.845388524985 2783.63279627305 14 17 10
282.325964672048 -277.820380261366 2754.34358057964 14 15 9
303.286291531169 -284.461232693768 2726.27530481637 14 17 10
296.817456497045 -285.017482390423 2721.58309073398 17 20 13
286.462609625776 -284.70185396905 2720.25371759682 18 21 14
179.311007960299 -292.702974398016 2648.71247966876 5 7 4
163.233234519902 -290.94790153736 2653.12290246286 17 20 13
128.773250447582 -284.742436081852 2675.10818765907 21 24 17
159.925052776642 -294.364681772022 2634.6507701639 15 18 11
155.660738286624 -295.452792623411 2627.84856172451 14 17 10
155.106173360545 -299.596234350667 2606.42846334389 14 17 10
117.354596276895 -292.46654379765 2632.20805600248 14 17 10
124.700554782254 -296.414955871402 2614.04583579105 13 16 9
129.795596151925 -299.832935422975 2597.95996882093 14 17 10
148.38449115788 -308.840331286155 2557.04439139556 15 18 11
331.190977786875 -274.983354565686 2823.12988079364 29 32 25
346.620128957228 -280.242375745579 2800.93952449078 28 31 24
324.163153423636 -277.29281100868 2809.3777177209 26 29 22
315.416916213115 -277.312061528184 2806.74239609297 22 25 18
309.879819254258 -278.031336639782 2801.48975644055 15 18 11
322.668170400708 -282.786182601611 2781.09328043142 15 18 11
292.432588898251 -278.066629638714 2796.25251677639 15 18 11
317.016709276461 -285.466897217397 2765.86662421242 14 17 10
309.022911611322 -285.666137470404 2762.54110823313 13 16 9
256.109662665915 -275.821957048448 2797.10548927166 12 15 8
267.12155039275 -280.242209583415 2777.89298505811 12 15 8
304.486036862293 -292.643108156008 2725.8685463693 13 16 9
321.397998790104 -298.507990424039 2701.0446380588 16 19 12
289.2117384575 -293.225019434659 2718.49804387825 19 22 15
301.346687109011 -298.036801121149 2697.62761406556 17 20 13
193.828607264262 -304.105707754852 2635.71137731575 4 6 3
165.869191659437 -299.433515508682 2651.28537837513 14 17 10
183.772986003157 -305.943246558089 2623.47209437587 18 21 14
147.104862634457 -299.091923188677 2647.56532803439 14 17 10
154.613268333301 -303.07944070801 2629.52096566055 14 17 10
134.9872572492 -300.373447852548 2637.53948948384 14 17 10
