ply
format ascii 1.0
comment KinectMotionCapture
element vertex 758
property float x
property float y
property float z
property uchar red
property uchar green
property uchar blue
end_header
61.0136538743973 417.993456125259 1769.99998092651 199 199 197
65.8618733286858 418.224513530731 1771.00002765656 196 196 194
70.6754475831985 418.219000101089 1771.00002765656 196 196 194
75.5314454436302 418.449282646179 1771.99995517731 199 199 197
80.3473293781281 418.442964553833 1771.99995517731 200 200 198
85.2110534906387 418.672531843185 1773.00000190735 200 200 198
90.0799781084061 418.90162229538 1774.00004863739 199 199 197
94.9540957808495 419.130355119705 1774.99997615814 197 197 195
99.7771695256233 419.122606515884 1774.99997615814 195 195 193
104.658916592598 419.350624084473 1776.00002288818 197 197 195
109.669096767902 420.050472021103 1779.00004386902 199 199 197
114.695280790329 420.74990272522 1781.99994564056 199 199 197
119.60332095623 420.976787805557 1782.99999237061 200 200 200
124.586276710033 421.439439058304 1784.9999666214 199 199 199
129.50724363327 421.665579080582 1786.00001335144 199 199 199
134.5085054636 422.127455472946 1787.99998760223 199 199 199
139.520302414894 422.588974237442 1789.99996185303 198 198 198
144.623279571533 423.286199569702 1792.99998283386 194 194 194
149.908915162086 424.45519566536 1797.99997806549 195 195 195
155.479595065117 426.331996917725 1805.99999427795 194 194 194
161.004528403282 427.972316741943 1812.99996376038 192 192 192
166.567042469978 429.612189531326 1820.00005245209 189 189 189
171.790182590485 430.307447910309 1822.99995422363 172 172 172
176.932290196419 430.766403675079 1825.00004768372 166 166 164
182.583123445511 432.405114173889 1832.00001716614 171 171 169
188.680991530418 434.987425804138 1843.00005435944 183 183 181
194.943189620972 437.805354595184 1855.00001907349 180 180 178
201.054468750954 440.150767564774 1865.00000953674 174 174 172
207.661554217339 443.439692258835 1878.99994850159 169 169 167
214.910283684731 447.908043861389 1898.00000190735 162 162 160
221.334055066109 450.487941503525 1909.00003910065 164 164 162
227.579683065414 452.595472335815 1917.99998283386 152 152 150
233.630865812302 454.230546951294 1924.99995231628 123 123 121
239.719524979591 455.865353345871 1932.000041008 154 154 152
244.577690958977 455.140203237534 1929.00002002716 173 173 171
248.771473765373 453.235179185867 1921.0000038147 101 101 99
253.450274467468 452.273786067963 1917.00005531311 124 124 122
257.83696770668 450.840353965759 1911.00001335144 129 129 127
262.603431940079 450.114518404007 1907.99999237061 155 155 153
266.932129859924 448.68078827858 1901.99995040894 154 154 152
271.65687084198 447.954684495926 1899.00004863739 162 162 160
275.927543640137 446.520775556564 1893.00000667572 165 165 163
280.758947134018 446.03019952774 1891.00003242493 176 176 174
285.730183124542 445.775359869003 1889.99998569489 179 179 177
290.849387645721 445.75622677803 1889.99998569489 180 180 178
295.967936515808 445.736825466156 1889.99998569489 179 179 177
301.086008548737 445.717334747314 1889.99998569489 186 186 184
306.365489959717 445.933490991592 1891.00003242493 189 191 188
310.990899801254 445.206165313721 1888.00001144409 192 194 191
315.264672040939 444.007188081741 1883.00001621246 197 199 196
319.851130247116 443.279772996902 1879.99999523163 195 197 194
325.630605220795 444.202691316605 1883.99994373322 197 199 196
333.888828754425 448.426127433777 1901.99995040894 203 205 202
-218.074709177017 432.260662317276 1853.00004482269 206 208 205
-212.818443775177 431.809782981873 1850.99995136261 200 202 199
-207.684814929962 431.591868400574 1850.00002384186 194 194 192
-202.556103467941 431.373655796051 1848.99997711182 191 191 189
-197.539165616035 431.388437747955 1848.99997711182 189 189 187
-192.521780729294 431.402951478958 1848.99997711182 189 189 187
-187.605291604996 431.650429964066 1850.00002384186 190 190 188
-182.781621813774 432.130962610245 1851.99999809265 191 191 189
-177.946642041206 432.611227035522 1853.99997234344 188 188 186
-173.007130622864 432.857871055603 1855.00001907349 186 186 184
-167.971178889275 432.870864868164 1855.00001907349 183 183 181
-163.110464811325 433.35023522377 1856.99999332428 179 179 177
-158.153355121613 433.595895767212 1858.00004005432 178 178 176
-153.272822499275 434.074610471725 1860.00001430511 178 178 176
-148.460701107979 434.786409139633 1863.00003528595 181 181 179
-144.01675760746 436.664789915085 1871.00005149841 185 185 183
-139.529019594193 438.542932271957 1878.99994850159 156 156 154
-134.854346513748 439.95401263237 1884.99999046326 151 151 149
-130.284368991852 441.83161854744 1893.00000667572 147 149 146
-94.67763453722 443.761348724365 1901.00002288818 211 213 210
-89.1815572977066 442.134618759155 1894.00005340576 164 166 163
-83.5457891225815 439.573705196381 1883.00001621246 157 157 155
-78.0112594366074 437.245726585388 1873.00002574921 158 158 156
-72.4919214844704 434.683859348297 1861.99998855591 158 158 156
-66.9597759842873 431.654632091522 1848.99997711182 167 167 165
-61.5985877811909 429.325252771378 1838.99998664856 165 165 163
-56.4147084951401 427.929282188416 1832.99994468689 151 150 148
-51.3194128870964 426.99983716011 1828.9999961853 159 158 156
-46.2457202374935 426.06994509697 1825.00004768372 174 173 171
-41.2615016102791 425.839990377426 1824.00000095367 182 182 180
-36.1631996929646 424.208909273148 1817.00003147125 184 184 182
-31.0684833675623 422.110438346863 1807.99996852875 184 184 182
-26.0370876640081 420.24502158165 1799.99995231628 183 183 181
-21.0960991680622 419.313043355942 1796.0000038147 177 177 175
-16.1768067628145 418.380707502365 1792.00005531311 178 178 176
-11.2792151048779 417.44789481163 1787.99998760223 180 180 178
-6.41411356627941 417.215138673782 1786.99994087219 181 181 179
-1.55356107279658 416.748493909836 1784.9999666214 183 183 181
3.29981721006334 416.748464107513 1784.9999666214 187 187 185
8.13491642475128 415.814161300659 1781.00001811981 188 188 186
12.9628134891391 415.346294641495 1779.00004386902 187 187 185
17.7797973155975 414.878129959106 1776.99995040894 188 188 186
22.6240269839764 415.109902620316 1777.99999713898 191 191 189
27.473634108901 415.341377258301 1779.00004386902 192 192 190
32.3104374110699 415.338963270187 1779.00004386902 193 193 191
37.0845012366772 414.635688066483 1776.00002288818 196 196 194
41.8657511472702 414.165586233139 1774.00004863739 197 197 195
46.6096922755241 413.461625576019 1771.00002765656 197 197 195
51.3952597975731 413.224160671234 1769.99998092651 198 198 196
56.2387518584728 413.453251123428 1771.00002765656 199 199 197
61.053067445755 413.448542356491 1771.00002765656 200 200 198
65.8671855926514 413.44341635704 1771.00002765656 198 198 196
70.6412270665169 413.204431533813 1769.99998092651 196 196 194
75.4948854446411 413.432002067566 1771.00002765656 197 197 195
80.353781580925 413.65921497345 1771.99995517731 199 199 197
85.2659419178963 414.119482040405 1774.00004863739 200 200 198
90.0871828198433 414.112448692322 1774.00004863739 201 201 199
94.9616655707359 414.33846950531 1774.99997615814 200 200 198
99.7288897633553 414.097309112549 1774.00004863739 197 197 195
104.667216539383 414.556056261063 1776.00002288818 197 197 195
109.616123139858 415.014386177063 1777.99999713898 199 199 197
114.639967679977 415.705800056458 1781.00001811981 200 200 198
119.545638561249 415.929943323135 1781.99994564056 199 199 199
124.45642054081 416.153788566589 1782.99999237061 199 199 199
129.44483757019 416.610658168793 1784.9999666214 199 199 199
134.518980979919 417.300522327423 1787.99998760223 198 198 198
139.609098434448 417.990058660507 1791.00000858307 197 197 197
144.715145230293 418.6792075634 1794.0000295639 195 195 195
150.003850460052 419.834703207016 1799.00002479553 194 194 194
155.491530895233 421.456545591354 1805.99999427795 193 193 193
161.194443702698 423.544675111771 1815.00005722046 193 193 193
166.762784123421 425.165683031082 1822.00002670288 192 192 192
172.08594083786 426.086157560349 1825.99997520447 179 179 179
177.139550447464 426.306337118149 1827.00002193451 167 167 165
182.696491479874 427.692770957947 1832.99994468689 168 168 166
188.592702150345 429.778784513474 1842.00000762939 181 181 179
195.062786340714 433.030962944031 1855.99994659424 181 181 179
201.500564813614 436.049312353134 1868.99995803833 174 174 172
208.229452371597 439.533650875092 1883.99994373322 168 168 166
215.26575088501 443.48418712616 1901.00002288818 165 165 163
221.582069993019 445.801049470901 1911.00001335144 161 161 159
227.477520704269 447.184473276138 1917.00005531311 163 163 161
233.162194490433 448.100864887238 1921.0000038147 130 130 128
239.36440050602 449.950009584427 1929.00002002716 214 214 212
244.848668575287 450.399249792099 1930.99999427795 233 233 231
249.048069119453 448.515802621841 1922.99997806549 162 162 160
253.996938467026 448.031634092331 1921.0000038147 123 123 121
258.259743452072 446.381151676178 1914.00003433228 136 136 134
263.172209262848 445.896565914154 1911.99994087219 154 154 152
267.371535301209 444.2458152771 1904.99997138977 155 155 153
271.818488836288 443.061381578445 1899.99997615814 162 162 160
275.946259498596 441.410481929779 1893.00000667572 168 168 166
280.777841806412 440.92532992363 1891.00003242493 180 180 178
285.749286413193 440.673172473907 1889.99998569489 179 179 177
291.176408529282 441.120237112045 1891.99995994568 179 179 177
296.300649642944 441.100895404816 1891.99995994568 182 182 180
301.583588123322 441.314488649368 1893.00000667572 184 184 182
306.547284126282 441.061586141586 1891.99995994568 187 189 186
311.340302228928 440.575510263443 1889.99998569489 192 194 191
315.284699201584 438.92377614975 1883.00001621246 196 198 195
320.041388273239 438.437521457672 1881.00004196167 195 197 194
325.478076934814 438.883483409882 1883.00001621246 197 199 196
333.03165435791 442.126005887985 1896.99995517731 201 203 200
-222.996190190315 427.011132240295 1851.99999809265 211 213 210
-218.208193778992 427.488148212433 1853.99997234344 204 206 203
-212.833970785141 426.81211233139 1850.99995136261 198 200 197
-207.700029015541 426.596879959106 1850.00002384186 192 192 190
-202.680587768555 426.611959934235 1850.00002384186 190 190 188
-197.767481207848 426.857322454453 1850.99995136261 190 190 188
-192.744374275208 426.871865987778 1850.99995136261 190 190 188
-187.822163105011 427.116692066193 1851.99999809265 188 188 186
-182.894080877304 427.361190319061 1853.00004482269 187 187 185
-177.960097789764 427.605450153351 1853.99997234344 187 187 185
-173.113510012627 428.079962730408 1855.99994659424 186 186 184
-168.16508769989 428.32362651825 1856.99999332428 185 185 183
-163.298606872559 428.797513246536 1858.99996757507 181 181 179
-158.165484666824 428.579211235046 1858.00004005432 180 180 178
-153.367042541504 429.283201694489 1860.99994182587 176 176 174
-148.790970444679 430.678904056549 1866.99998378754 178 178 176
-144.412845373154 432.766437530518 1876.00004673004 185 185 183
-139.911189675331 434.622913599014 1883.99994373322 158 158 156
-135.222613811493 436.017841100693 1889.99998569489 150 150 148
-130.569890141487 437.64317035675 1896.99995517731 143 145 142
-99.694237112999 437.928438186646 1898.00000190735 213 215 212
-94.7848111391068 439.089864492416 1902.99999713898 205 207 204
-89.2828851938248 437.482118606567 1896.00002765656 174 176 173
-83.7299823760986 435.412287712097 1886.99996471405 154 154 152
-78.1841427087784 433.111369609833 1876.99997425079 154 154 152
-72.575643658638 430.117696523666 1863.9999628067 162 162 160
-67.0013874769211 426.892817020416 1850.00002384186 170 170 168
-61.6370625793934 424.590468406677 1840.0000333786 156 156 154
-56.4808361232281 423.441469669342 1835.00003814697 148 147 145
-51.4077506959438 422.753512859344 1832.00001716614 169 168 166
-46.3508367538452 422.065168619156 1828.9999961853 178 177 175
-41.2874817848206 421.145677566528 1825.00004768372 183 183 181
-36.1263304948807 418.841153383255 1815.00005722046 184 184 182
-31.053826212883 416.997760534287 1807.000041008 183 183 181
-26.0536707937717 415.6154692173 1800.99999904633 183 183 181
-21.1213119328022 414.925068616867 1797.99997806549 177 177 175
-16.2052065134048 414.23425078392 1794.99995708466 178 178 176
-11.305371299386 413.54313492775 1792.00005531311 180 180 178
-6.4182267524302 412.62075304985 1787.99998760223 182 182 180
-1.55455817002803 412.159502506256 1786.00001335144 184 184 182
3.3000863622874 411.928653717041 1784.9999666214 188 188 186
8.14471486955881 411.466628313065 1782.99999237061 188 188 186
12.9711572080851 410.773485898972 1779.99997138977 187 187 185
17.7912507206202 410.310685634613 1777.99999713898 188 188 186
22.6258710026741 410.309046506882 1777.99999713898 191 191 189
27.4604223668575 410.306990146637 1777.99999713898 192 192 190
32.2767309844494 410.073757171631 1776.99995040894 193 193 191
37.0666310191154 409.609496593475 1774.99997615814 196 196 194
41.8455488979816 409.144729375839 1773.00000190735 196 196 194
46.6661117970943 409.141153097153 1773.00000190735 197 197 195
51.4574982225895 408.906400203705 1771.99995517731 197 197 195
56.3068129122257 409.132778644562 1773.00000190735 198 198 196
61.0924698412418 408.897310495377 1771.99995517731 198 198 196
65.9468919038773 409.122943878174 1773.00000190735 199 199 197
70.6868320703506 408.655941486359 1771.00002765656 196 196 194
75.5435824394226 408.880829811096 1771.99995517731 196 196 194
80.3602188825607 408.874571323395 1771.99995517731 198 198 196
85.2727666497231 409.329473972321 1774.00004863739 199 199 197
90.0943651795387 409.322410821915 1774.00004863739 201 201 199
94.9692279100418 409.54577922821 1774.99997615814 200 200 198
99.7368171811104 409.307360649109 1774.00004863739 196 196 194
104.675516486168 409.760683774948 1776.00002288818 195 195 193
109.563127160072 409.982919692993 1776.99995040894 198 198 196
114.713378250599 411.127626895905 1781.99994564056 200 200 198
119.622118771076 411.349087953568 1782.99999237061 200 200 200
124.535985291004 411.570250988007 1784.00003910065 199 199 199
129.45494055748 411.790996789932 1784.9999666214 199 199 199
134.529456496239 412.47284412384 1787.99998760223 198 198 198
139.697894454002 413.384974002838 1792.00005531311 196 196 196
144.887670874596 414.296656847 1796.0000038147 195 195 195
150.098785758018 415.207982063293 1799.99995231628 194 194 194
155.589550733566 416.810929775238 1807.000041008 192 192 192
161.384403705597 419.105440378189 1817.00003147125 192 192 192
166.866987943649 420.476853847504 1822.99995422363 192 192 192
172.193229198456 421.386569738388 1827.00002193451 182 182 182
177.346810698509 421.834647655487 1828.9999961853 169 169 167
182.809874415398 422.974288463593 1833.99999141693 167 167 165
188.709199428558 425.036042928696 1843.00005435944 180 180 178
195.182368159294 428.250342607498 1856.99999332428 181 181 179
201.838940382004 431.694835424423 1871.99997901917 174 174 172
208.465874195099 434.908151626587 1886.0000371933 168 168 166
215.621247887611 439.043283462524 1904.00004386902 168 168 166
221.946090459824 441.333174705505 1914.00003433228 164 164 162
227.731332182884 442.469775676727 1919.0000295639 158 158 156
233.057573437691 442.683666944504 1919.99995708466 149 149 147
238.016456365585 442.205667495728 1917.99998283386 220 220 218
244.105219841003 443.802326917648 1924.99995231628 211 211 209
249.065667390823 443.323791027069 1922.99997806549 228 228 226
254.279226064682 443.306088447571 1922.99997806549 120 120 118
258.817493915558 442.135483026505 1917.99998283386 126 126 124
263.32813501358 440.964818000793 1912.99998760223 156 156 154
267.670631408691 439.563393592834 1906.99994564056 151 151 149
272.266268730164 438.622951507568 1902.99999713898 157 157 155
276.548027992249 437.221348285675 1896.99995517731 165 165 163
281.093746423721 436.280637979507 1893.00000667572 178 178 176
286.221981048584 436.261624097824 1893.00000667572 178 178 176
291.503548622131 436.472862958908 1894.00005340576 179 179 177
296.789944171906 436.683863401413 1894.99998092651 181 181 179
301.921904087067 436.664283275604 1894.99998092651 184 184 182
306.567132472992 435.953259468079 1891.99995994568 186 188 185
311.030775308609 435.011714696884 1888.00001144409 193 195 192
315.137267112732 433.609306812286 1881.99996948242 195 197 194
320.061504840851 433.358818292618 1881.00004196167 193 195 192
325.671195983887 434.029698371887 1883.99994373322 196 198 195
333.05224776268 437.004119157791 1896.99995517731 197 199 196
-223.614320158958 423.149347305298 1856.99999332428 208 210 207
-218.34172308445 422.709554433823 1855.00001907349 200 202 199
-212.849467992783 421.813696622849 1850.99995136261 194 196 193
-207.715272903442 421.601206064224 1850.00002384186 192 192 190
-202.585950493813 421.388328075409 1848.99997711182 191 191 189
-197.78211414814 421.858876943588 1850.99995136261 190 190 188
-192.86285340786 422.101318836212 1851.99999809265 190 190 188
-188.039064407349 422.571331262589 1853.99997234344 190 190 188
-183.105230331421 422.813147306442 1855.00001907349 193 193 191
-178.357511758804 423.510581254959 1858.00004005432 179 179 177
-173.406466841698 423.751771450043 1858.99996757507 184 184 182
-168.540135025978 424.220651388168 1860.99994182587 184 184 182
-163.486793637276 424.233287572861 1860.99994182587 179 179 177
-158.347889780998 424.017667770386 1860.00001430511 186 186 184
-153.461247682571 424.48553442955 1861.99998855591 183 183 181
-148.80245923996 425.637066364288 1866.99998378754 179 179 177
-144.654989242554 428.384184837341 1878.99994850159 171 171 169
-140.293434262276 430.675148963928 1889.00005817413 160 160 158
-135.80559194088 432.737857103348 1898.00000190735 144 144 142
-100.122421979904 434.627026319504 1906.00001811981 211 213 210
-95.0414314866066 435.090839862823 1907.99999237061 209 211 208
-89.4783809781075 433.273911476135 1899.99997615814 168 170 167
-83.9585661888123 431.456506252289 1891.99995994568 153 153 151
-78.3570408821106 428.954511880875 1881.00004196167 160 160 158
-72.6593509316444 425.539880990982 1866.00005626678 168 168 166
-67.11545586586 422.580868005753 1853.00004482269 169 169 167
-61.7760345339775 420.533537864685 1843.99998188019 151 151 149
-56.6085241734982 419.398009777069 1838.99998664856 156 155 153
-51.4680407941341 418.262094259262 1833.99999141693 182 181 179
-46.3799312710762 417.353808879852 1830.00004291534 179 178 176
-41.2681996822357 415.988981723785 1824.00000095367 186 186 184
-36.1093543469906 413.711488246918 1814.00001049042 187 187 185
-31.039159744978 411.889642477036 1805.99999427795 184 184 182
-26.0847248136997 411.207765340805 1802.99997329712 181 181 179
-21.1465246975422 410.525470972061 1799.99995231628 177 177 175
-16.2245836108923 409.842789173126 1797.00005054474 178 178 176
-11.3125992938876 408.931612968445 1792.99998283386 180 180 178
-6.42233854159713 408.020049333572 1789.00003433228 183 183 181
-1.55468482989818 407.336175441742 1786.00001335144 185 185 183
3.29850590787828 406.879931688309 1784.00003910065 188 188 186
8.149947039783 406.879514455795 1784.00003910065 189 189 187
12.9867866635323 406.422466039658 1781.99994564056 188 188 186
17.8127121180296 405.965089797974 1779.99997138977 189 189 187
22.6277094334364 405.507296323776 1777.99999713898 191 191 189
27.447210624814 405.277222394943 1776.99995040894 192 192 190
32.2611890733242 405.046701431274 1776.00002288818 193 193 191
37.0696373283863 404.815852642059 1774.99997615814 194 194 192
41.8489389121532 404.356509447098 1773.00000190735 195 195 193
46.669889241457 404.352962970734 1773.00000190735 196 196 194
51.4616556465626 404.120892286301 1771.99995517731 196 196 194
56.3113577663898 404.344618320465 1773.00000190735 196 196 194
61.0973946750164 404.111832380295 1771.99995517731 196 196 194
65.9149959683418 404.106676578522 1771.99995517731 199 199 197
70.6925094127655 403.873205184937 1771.00002765656 199 199 197
75.5496397614479 404.095381498337 1771.99995517731 196 196 194
80.4120004177094 404.317170381546 1773.00000190735 196 196 194
85.3276476264 404.766649007797 1774.99997615814 199 199 197
90.1015549898148 404.531598091125 1774.00004863739 201 201 199
94.9767827987671 404.752284288406 1774.99997615814 200 200 198
99.7447296977043 404.516518115997 1774.00004863739 196 196 194
104.624837636948 404.736429452896 1774.99997615814 194 194 192
109.510116279125 404.956042766571 1776.00002288818 197 197 195
114.529259502888 405.631244182587 1779.00004386902 199 199 197
119.564406573772 406.306028366089 1781.99994564056 200 200 200
124.336287379265 406.068503856659 1781.00001811981 199 199 199
129.392519593239 406.742632389069 1784.00003910065 199 199 199
134.539917111397 407.644331455231 1787.99998760223 197 197 197
139.8646235466 409.001588821411 1794.0000295639 195 195 195
144.979521632195 409.674555063248 1797.00005054474 195 195 195
150.277122855186 410.803079605103 1802.00004577637 194 194 194
155.601471662521 411.931157112122 1807.000041008 191 191 191
161.307871341705 413.970679044724 1815.99998474121 191 191 191
166.879653930664 415.553897619247 1822.99995422363 192 192 192
172.206252813339 416.452884674072 1827.00002193451 184 184 184
177.360191941261 416.895538568497 1828.9999961853 170 170 168
182.723894715309 417.793750762939 1832.99994468689 167 167 165
188.723266124725 420.05917429924 1843.00005435944 180 180 178
195.196866989136 423.235684633255 1856.99999332428 181 181 179
202.177330851555 427.323400974274 1875 174 174 172
208.702251315117 430.270940065384 1888.00001144409 168 168 166
215.297222137451 433.218032121658 1901.00002288818 164 164 162
221.614316105843 435.480982065201 1911.00001335144 169 169 167
227.510407567024 436.831951141357 1917.00005531311 157 157 155
233.074337244034 437.498956918716 1919.99995708466 163 163 161
237.040624022484 435.203522443771 1909.9999666214 204 204 202
243.108034133911 436.781376600266 1917.00005531311 220 220 218
249.73089993 439.270168542862 1927.99997329712 220 220 218
254.826039075851 439.024657011032 1927.00004577637 123 123 121
259.240418672562 437.639713287354 1921.0000038147 123 123 121
263.621628284454 436.254650354385 1914.99996185303 160 160 158
267.969787120819 434.86949801445 1909.00003910065 143 143 141
272.714108228683 434.167593717575 1906.00001811981 154 154 152
277.149975299835 433.00998210907 1901.00002288818 160 160 158
281.409621238709 431.624472141266 1894.99998092651 174 174 172
286.241084337235 431.149899959564 1893.00000667572 177 177 175
291.830718517303 431.813925504684 1896.00002765656 178 178 176
297.279357910156 432.250022888184 1898.00000190735 178 178 176
302.260249853134 432.002663612366 1896.99995517731 185 185 183
306.586921215057 430.844247341156 1891.99995994568 186 188 185
310.885936021805 429.685771465302 1886.99996471405 193 195 192
315.157294273376 428.527295589447 1881.99996948242 194 196 193
320.592164993286 428.962588310242 1883.99994373322 191 193 190
326.210170984268 429.625332355499 1886.99996471405 195 197 194
333.072870969772 431.881576776505 1896.99995517731 197 199 196
-223.871275782585 418.584316968918 1858.99996757507 206 208 205
-218.475222587585 417.924761772156 1855.99994659424 199 201 198
-213.09494972229 417.264878749847 1853.00004482269 193 195 192
-207.842752337456 416.829884052277 1850.99995136261 190 190 188
-202.819988131523 416.84490442276 1850.99995136261 190 190 188
-198.010459542274 417.310059070587 1853.00004482269 189 189 187
-192.981317639351 417.32457280159 1853.00004482269 188 188 186
-188.255950808525 418.014377355576 1855.99994659424 189 189 187
-183.415114879608 418.478757143021 1858.00004005432 188 188 186
-178.658917546272 419.167995452881 1860.99994182587 181 181 179
-173.699453473091 419.406533241272 1861.99998855591 174 174 172
-168.734088540077 419.644802808762 1863.00003528595 184 184 182
-163.762822747231 419.88268494606 1863.9999628067 183 183 181
-158.615440130234 419.6697473526 1863.00003528595 170 170 168
-153.555482625961 419.681698083878 1863.00003528595 177 177 175
-148.973345756531 421.044945716858 1868.99995803833 182 182 180
-144.820168614388 423.759669065475 1881.00004196167 183 183 181
-140.601441264153 426.474213600159 1893.00000667572 151 151 149
-136.460170149803 429.639011621475 1906.99994564056 142 142 140
-95.0988158583641 430.162578821182 1909.00003910065 204 206 203
-89.5326286554337 428.367257118225 1901.00002288818 161 163 160
-84.009662270546 426.57145857811 1893.00000667572 152 152 150
-78.2800018787384 423.423111438751 1878.99994850159 158 158 156
-72.6262331008911 420.274317264557 1865.00000953674 173 173 171
-67.1208426356316 417.575746774673 1853.00004482269 166 166 164
-61.8815198540688 416.228771209717 1847.00000286102 154 154 152
-56.6438734531403 414.656072854996 1840.0000333786 165 164 162
-51.5002608299255 413.533687591553 1835.00003814697 184 183 181
-46.4090257883072 412.636160850525 1830.9999704361 181 180 178
-41.24890640378 410.836756229401 1822.99995422363 185 185 183
-36.0724665224552 408.360958099365 1812.00003623962 187 187 185
-31.0072991997004 406.560719013214 1804.00002002716 183 183 181
-26.07237175107 406.112313270569 1802.00004577637 180 180 178
-21.1482401937246 405.663430690765 1799.99995231628 177 177 175
-16.2259005010128 404.988884925842 1797.00005054474 179 179 177
-11.3198282197118 404.313862323761 1794.0000295639 182 182 180
-6.4300405792892 403.638482093811 1791.00000858307 184 184 182
-1.5565522480756 402.96271443367 1787.99998760223 186 186 184
3.30062280409038 402.286499738693 1784.9999666214 189 189 187
8.15517641603947 402.286052703857 1784.9999666214 190 190 188
12.9951303824782 401.834487915039 1782.99999237061 189 189 187
17.8241655230522 401.382446289063 1781.00001811981 189 189 187
22.6422734558582 400.930106639862 1779.00004386902 191 191 189
27.4648796766996 400.702685117722 1777.99999713898 192 192 190
32.2638042271137 400.249570608139 1776.00002288818 193 193 191
37.0517522096634 399.795979261398 1774.00004863739 194 194 192
41.8287143111229 399.342060089111 1771.99995517731 195 195 193
46.6473326086998 399.338513612747 1771.99995517731 196 196 194
51.4948591589928 399.559944868088 1773.00000190735 196 196 194
56.284137070179 399.330198764801 1771.99995517731 196 196 194
61.1023046076298 399.325489997864 1771.99995517731 196 196 194
65.9202933311462 399.320423603058 1771.99995517731 199 199 197
70.7780122756958 399.54024553299 1773.00000190735 199 199 197
75.5983293056488 399.534404277802 1773.00000190735 196 196 194
80.3730636835098 399.302810430527 1771.99995517731 196 196 194
85.286371409893 399.746924638748 1774.00004863739 198 198 196
90.108722448349 399.739950895309 1774.00004863739 200 200 198
95.0378254055977 400.183230638504 1776.00002288818 199 199 197
99.8088493943214 399.950206279755 1774.99997615814 197 197 195
104.633115231991 399.942129850388 1774.99997615814 197 197 195
109.457068145275 399.933665990829 1774.99997615814 196 196 194
114.47387188673 400.6008207798 1777.99999713898 196 196 194
119.506672024727 401.26758813858 1781.00001811981 198 198 198
124.415814876556 401.483327150345 1781.99994564056 200 200 200
129.402592778206 401.924103498459 1784.00003910065 200 200 200
134.475097060204 402.589738368988 1786.99994087219 196 196 196
139.641538262367 403.480261564255 1791.00000858307 195 195 195
144.829317927361 404.37039732933 1794.99995708466 196 196 196
150.288641452789 405.935972929001 1802.00004577637 193 193 193
155.613362789154 407.050639390945 1807.000041008 190 190 190
161.320149898529 409.065842628479 1815.99998474121 190 190 190
166.983872652054 410.855412483215 1824.00000095367 190 190 190
172.219261527061 411.518335342407 1827.00002193451 186 186 186
177.37352848053 411.955654621124 1828.9999961853 174 176 173
182.737559080124 412.843078374863 1832.99994468689 169 171 168
188.737332820892 415.081471204758 1843.00005435944 176 178 175
195.316478610039 418.445438146591 1858.00004005432 180 182 179
202.407911419868 422.709733247757 1876.99997425079 175 177 174
209.049239754677 425.847411155701 1891.00003242493 168 170 167
215.426206588745 428.30902338028 1901.99995040894 163 165 162
221.862360835075 430.770099163055 1912.99998760223 166 168 165
227.64553129673 431.879729032516 1917.99998283386 159 161 158
233.212485909462 432.538658380508 1921.0000038147 154 156 153
235.940530896187 428.018689155579 1901.00002288818 212 214 211
244.013085961342 433.180063962936 1924.00002479553 211 213 210
250.007599592209 434.513419866562 1929.99994754791 218 218 216
254.843920469284 433.820337057114 1927.00004577637 117 117 115
259.258449077606 432.451605796814 1921.0000038147 123 123 121
263.502240180969 430.857688188553 1914.00003433228 149 149 147
268.269002437592 430.164039134979 1911.00001335144 149 149 147
273.018896579742 429.470211267471 1907.99999237061 152 152 150
277.751952409744 428.776293992996 1904.99997138977 164 164 162
282.022625207901 427.406966686249 1899.00004863739 173 173 171
286.865055561066 426.937729120255 1896.99995517731 176 176 174
292.157888412476 427.143543958664 1898.00000190735 174 174 172
297.768801450729 427.799224853516 1901.00002288818 177 177 175
302.598655223846 427.329570055008 1899.00004863739 175 175 173
306.606769561768 425.734609365463 1891.99995994568 190 192 189
310.576349496841 424.139618873596 1884.99999046326 197 199 196
315.009891986847 423.219680786133 1881.00004196167 190 192 189
320.271998643875 423.424541950226 1881.99996948242 190 192 189
326.230525970459 424.529194831848 1886.99996471405 196 198 195
332.566738128662 426.083534955978 1894.00005340576 193 195 192
339.475065469742 428.312420845032 1904.00004386902 194 199 195
-223.766952753067 413.340389728546 1858.00004005432 204 206 203
-218.373328447342 412.688881158829 1855.00001907349 197 199 196
-212.995439767838 412.037044763565 1851.99999809265 192 194 191
-207.633316516876 411.384880542755 1848.99997711182 191 191 189
-202.615723013878 411.399900913239 1848.99997711182 190 190 188
-197.811335325241 411.859601736069 1850.99995136261 189 189 187
-192.995637655258 412.319123744965 1853.00004482269 189 189 187
-188.371419906616 413.223326206207 1856.99999332428 189 189 187
-183.527573943138 413.682252168655 1858.99996757507 189 189 187
-178.672358393669 414.14088010788 1860.99994182587 187 187 185
-173.805862665176 414.599269628525 1863.00003528595 183 183 181
-168.837457895279 414.83473777771 1863.9999628067 170 170 168
-163.863137364388 415.069907903671 1865.00000953674 167 167 165
-158.797845244408 415.082216262817 1865.00000953674 185 185 183
-153.649672865868 414.871573448181 1863.9999628067 177 177 175
-149.064540863037 416.218638420105 1870.00000476837 178 178 176
-144.985362887383 419.123500585556 1883.00001621246 178 178 176
-141.132280230522 422.918528318405 1899.99997615814 161 161 159
-137.257993221283 426.936000585556 1917.99998283386 148 148 146
-99.9806895852089 423.661857843399 1902.99999713898 208 210 207
-95.0067266821861 424.560099840164 1906.99994564056 207 209 206
-89.5868539810181 423.454284667969 1901.99995040894 177 179 176
-84.0607583522797 421.680122613907 1894.00005340576 177 177 175
-78.2862529158592 418.346881866455 1878.99994850159 168 168 166
-72.6709961891174 415.458589792252 1866.00005626678 167 167 165
-67.1624466776848 412.792384624481 1853.99997234344 151 151 149
-61.9535073637962 411.684334278107 1848.99997711182 164 164 162
-56.7100010812283 410.130470991135 1842.00000762939 182 181 179
-51.5605397522449 409.021586179733 1837.00001239777 182 181 179
-46.4127659797668 407.689571380615 1830.9999704361 182 181 179
-41.2296131253242 405.689150094986 1822.00002670288 184 184 182
-36.0753759741783 403.465628623962 1812.00003623962 185 185 183
-31.0098063200712 401.687055826187 1804.00002002716 181 181 179
-26.0889492928982 401.46666765213 1802.99997329712 179 179 177
-21.1499519646168 400.800585746765 1799.99995231628 178 178 176
-16.227213665843 400.134086608887 1797.00005054474 181 181 179
-11.3144339993596 399.244517087936 1792.99998283386 184 184 182
-6.43056118860841 398.799896240234 1791.00000858307 186 186 184
-1.55667820945382 398.13220500946 1787.99998760223 187 187 185
3.30273993313313 397.686809301376 1786.00001335144 189 189 187
8.15583672374487 397.46367931366 1784.9999666214 190 190 188
12.988893315196 396.794825792313 1781.99994564056 189 189 187
17.8356152027845 396.79354429245 1781.99994564056 190 190 188
22.6568337529898 396.346628665924 1779.99997138977 192 192 190
27.4825524538755 396.121948957443 1779.00004386902 193 193 191
32.2845764458179 395.674139261246 1776.99995040894 194 194 192
37.0756313204765 395.226061344147 1774.99997615814 194 194 192
41.855700314045 394.777566194534 1773.00000190735 195 195 193
46.6774180531502 394.773989915848 1773.00000190735 196 196 194
51.4989942312241 394.769996404648 1773.00000190735 196 196 194
56.2568977475166 394.320398569107 1771.00002765656 196 196 194
61.0727332532406 394.31568980217 1771.00002765656 196 196 194
65.888375043869 394.310593605042 1771.00002765656 198 198 196
70.7437545061111 394.527763128281 1771.99995517731 198 198 196
75.5617246031761 394.521951675415 1771.99995517731 196 196 194
80.3794786334038 394.515722990036 1771.99995517731 195 195 193
85.2450728416443 394.731789827347 1773.00000190735 197 197 195
90.0142788887024 394.502192735672 1771.99995517731 199 199 197
94.9383303523064 394.940137863159 1774.00004863739 199 199 197
99.7605100274086 394.932478666306 1774.00004863739 198 198 196
104.641355574131 395.146995782852 1774.99997615814 197 197 195
109.465673565865 395.138561725616 1774.99997615814 196 196 194
114.482842385769 395.79764008522 1777.99999713898 196 196 194
119.381815195084 396.011143922806 1779.00004386902 199 199 199
124.355688691139 396.446794271469 1781.00001811981 200 200 200
129.485160112381 397.327303886414 1784.9999666214 200 200 200
134.560778737068 397.984862327576 1787.99998760223 197 197 197
139.574334025383 398.419439792633 1789.99996185303 195 195 195
144.759774208069 399.298816919327 1794.0000295639 195 195 195
150.216743350029 400.845527648926 1800.99999904633 194 194 194
155.711352825165 402.391791343689 1807.99996852875 192 192 192
161.332428455353 404.160231351852 1815.99998474121 189 189 189
166.996508836746 405.928194522858 1824.00000095367 188 188 188
172.420769929886 407.028079032898 1828.9999961853 187 187 187
177.580788731575 407.460004091263 1830.9999704361 176 178 175
182.850942015648 408.11413526535 1833.99999141693 169 171 168
188.546538352966 409.657955169678 1840.99996089935 174 176 173
195.225805044174 413.203954696655 1856.99999332428 180 182 179
202.530682086945 417.861998081207 1878.00002098083 177 179 176
209.28567647934 421.184331178665 1893.00000667572 169 171 168
215.441912412643 423.17122220993 1901.99995040894 166 168 165
221.994459629059 425.825178623199 1914.00003433228 167 169 166
228.018045425415 427.366226911545 1921.0000038147 158 160 157
233.714863657951 428.239524364471 1924.99995231628 158 160 157
244.284018874168 428.427875041962 1925.99999904633 212 214 211
250.543415546417 430.189937353134 1934.00001525879 215 215 213
255.258500576019 429.282486438751 1929.99994754791 118 118 116
259.546428918839 427.707582712173 1922.99997806549 120 120 118
263.933509588242 426.355004310608 1917.00005531311 148 148 146
268.568187952042 425.447046756744 1912.99998760223 148 148 146
273.466825485229 424.983710050583 1911.00001335144 153 153 151
277.770757675171 423.630684614182 1904.99997138977 165 165 163
282.338619232178 422.722339630127 1901.00002288818 173 173 171
287.337929010391 422.480911016464 1899.99997615814 175 175 173
292.79300570488 422.906368970871 1901.99995040894 172 172 170
298.258304595947 423.331558704376 1904.00004386902 175 175 173
302.777707576752 422.422558069229 1899.99997615814 177 177 175
306.626588106155 420.624256134033 1891.99995994568 193 195 192
310.266762971878 418.603599071503 1883.00001621246 198 200 197
314.86240029335 417.916744947433 1879.99999523163 190 192 189
320.46240568161 418.563574552536 1883.00001621246 192 194 191
326.25088095665 419.432371854782 1886.99996471405 198 200 197
332.236021757126 420.523226261139 1891.99995994568 195 197 194
338.782608509064 422.280699014664 1899.99997615814 199 204 200
-227.961078286171 406.766325235367 1850.99995136261 211 213 210
-223.783001303673 408.320784568787 1858.00004005432 202 204 201
-218.271344900131 407.457590103149 1853.99997234344 196 198 195
-213.010877370834 407.033562660217 1851.99999809265 191 193 190
-207.760781049728 406.609326601028 1850.00002384186 191 191 189
-202.740177512169 406.624317169189 1850.00002384186 190 190 188
-197.932794690132 407.078593969345 1851.99999809265 189 189 187
-193.114057183266 407.532602548599 1853.99997234344 189 189 187
-188.486859202385 408.426016569138 1858.00004005432 189 189 187
-183.541268110275 408.659696578979 1858.99996757507 190 190 188
-178.685769438744 409.112900495529 1860.99994182587 184 184 182
-173.725664615631 409.345984458923 1861.99998855591 194 194 192
-169.031396508217 410.238295793533 1866.00005626678 195 195 193
-163.963466882706 410.250902175903 1866.00005626678 174 174 172
-158.89510512352 410.263180732727 1866.00005626678 173 173 171
-153.826326131821 410.275101661682 1866.00005626678 185 185 183
-149.235427379608 411.605924367905 1871.99997901917 177 177 175
-145.073533058167 414.255797863007 1883.99994373322 177 177 175
-141.440346837044 418.664485216141 1904.00004386902 153 153 151
-138.055890798569 424.172520637512 1929.00002002716 137 137 135
-94.6654975414276 417.867928743362 1899.99997615814 211 213 210
-89.4055515527725 417.435348033905 1898.00000190735 188 190 187
-83.9342847466469 415.902674198151 1891.00003242493 184 184 182
-78.2091692090034 412.829965353012 1876.99997425079 171 171 169
-72.6378560066223 410.196632146835 1865.00000953674 161 161 159
-67.2402828931808 408.222705125809 1855.99994659424 153 153 151
-61.9919784367085 406.908184289932 1850.00002384186 177 177 175
-56.7453466355801 405.373275279999 1843.00005435944 190 189 187
-51.6208186745644 404.497772455215 1838.99998664856 183 182 180
-46.4418493211269 402.962028980255 1832.00001716614 186 185 183
-41.2102974951267 400.545984506607 1820.99997997284 184 184 182
-36.0583700239658 398.349493741989 1810.99998950958 184 184 182
-31.0294982045889 397.03243970871 1804.99994754791 181 181 179
-26.0910522192717 396.594792604446 1802.99997329712 179 179 177
-21.1399104446173 395.71687579155 1799.00002479553 179 179 177
-16.2194930016994 395.058482885361 1796.0000038147 181 181 179
-11.321660131216 394.619673490524 1794.0000295639 184 184 182
-6.43826276063919 394.400388002396 1792.99998283386 186 186 184
-1.55854551121593 393.740832805634 1789.99996185303 187 187 185
3.30670503899455 393.300801515579 1787.99998760223 188 188 186
8.16106516867876 392.860412597656 1786.00001335144 187 187 185
12.9972323775291 392.199665307999 1782.99999237061 190 190 188
17.8270470350981 391.758471727371 1781.00001811981 190 190 188
22.6586610078812 391.536861658096 1779.99997138977 192 192 190
27.4847690016031 391.314923763275 1779.00004386902 193 193 191
32.2871766984463 390.872567892075 1776.99995040894 194 194 192
37.0995067059994 390.649855136871 1776.00002288818 194 194 192
41.9062823057175 390.42666554451 1774.99997615814 195 195 193
46.7074997723103 390.203207731247 1774.00004863739 196 196 194
51.503136754036 389.979302883148 1773.00000190735 196 196 194
56.2296323478222 389.315098524094 1769.99998092651 196 196 194
61.0431246459484 389.310419559479 1769.99998092651 196 196 194
65.8936351537704 389.525294303894 1771.00002765656 198 198 196
70.7893297076225 389.959722757339 1773.00000190735 198 198 196
75.5677446722984 389.733970165253 1771.99995517731 196 196 194
80.3405120968819 389.507859945297 1771.00002765656 195 195 193
85.2037593722343 389.721214771271 1771.99995517731 196 196 194
90.0722071528435 389.934211969376 1773.00000190735 198 198 196
94.9458256363869 390.146821737289 1774.00004863739 199 199 197
99.7683629393578 390.139132738113 1774.00004863739 199 199 197
104.708544909954 390.570968389511 1776.00002288818 199 199 197
109.597615897655 390.782475471497 1776.99995040894 197 197 195
114.491797983646 390.993624925613 1777.99999713898 197 197 195
119.391120970249 391.204416751862 1779.00004386902 199 199 199
124.365359544754 391.634732484818 1781.00001811981 200 200 200
129.422664642334 392.284572124481 1784.00003910065 200 200 200
134.34536755085 392.494291067123 1784.9999666214 197 197 197
139.429107308388 393.143326044083 1787.99998760223 197 197 197
144.690170884132 394.231826066971 1792.99998283386 193 193 193
150.144815444946 395.759671926498 1799.99995231628 194 194 194
155.809342861176 397.726744413376 1809.00001525879 194 194 194
161.433517932892 399.473607540131 1817.00003147125 188 188 188
167.100682854652 401.219964027405 1825.00004768372 186 186 186
172.528028488159 402.306407690048 1830.00004291534 189 189 189
177.691087126732 402.732908725739 1832.00001716614 181 183 180
182.864561676979 403.159141540527 1833.99999141693 172 174 171
188.458099961281 404.464274644852 1840.0000333786 169 171 168
195.135086774826 407.967090606689 1855.99994659424 177 179 176
202.545568346977 412.788212299347 1878.00002098083 179 181 178
209.743231534958 416.949212551117 1896.99995517731 170 172 169
215.797439217567 418.692082166672 1904.99997138977 167 169 166
222.242504358292 421.093791723251 1916.00000858307 167 169 166
228.627994656563 423.275232315063 1925.99999904633 161 163 160
235.55289208889 426.335334777832 1940.00005722046 175 177 174
234.236299991608 414.67148065567 1886.99996471405 209 211 208
241.510763764381 418.390363454819 1904.00004386902 210 212 209
250.301897525787 424.525678157806 1932.000041008 212 212 210
255.276322364807 424.068480730057 1929.99994754791 157 157 155
259.834378957748 422.951966524124 1924.99995231628 126 126 124
264.502435922623 422.055006027222 1921.0000038147 141 141 139
269.148230552673 421.157896518707 1917.00005531311 143 143 141
273.771643638611 420.260548591614 1912.99998760223 155 155 153
278.081178665161 418.923765420914 1906.99994564056 168 168 166
282.951682806015 418.46552491188 1904.99997138977 171 171 169
287.962019443512 418.226838111877 1904.00004386902 172 172 170
292.966306209564 417.987883090973 1902.99999713898 171 171 169
297.964572906494 417.748808860779 1901.99995040894 176 176 174
302.319288253784 416.631013154984 1896.99995517731 184 184 182
306.322187185287 415.073961019516 1889.99998569489 193 195 192
309.957027435303 413.077682256699 1881.00004196167 191 193 190
314.714878797531 412.618547677994 1878.99994850159 183 185 182
320.142179727554 413.037747144699 1881.00004196167 186 188 185
325.752526521683 413.676202297211 1883.99994373322 203 205 202
331.729769706726 414.753675460815 1889.00005817413 206 208 205
338.446736335754 416.709065437317 1898.00000190735 202 207 203
-229.208961129189 403.93540263176 1860.99994182587 210 212 209
-223.678544163704 403.083324432373 1856.99999332428 199 201 198
-218.287065625191 402.447998523712 1853.99997234344 194 196 193
-212.911263108253 401.812255382538 1850.99995136261 190 190 188
-207.888200879097 401.827543973923 1850.99995136261 189 189 187
-202.974185347557 402.059584856033 1851.99999809265 188 188 186
-198.05420935154 402.291357517242 1853.00004482269 187 187 185
-193.232506513596 402.739971876144 1855.00001907349 187 187 185
-188.500836491585 403.405398130417 1858.00004005432 187 187 185
-183.554947376251 403.636336326599 1858.99996757507 178 178 176
-178.699150681496 404.084116220474 1860.99994182587 181 181 179
-173.832029104233 404.531627893448 1863.00003528595 168 168 166
-169.134721159935 405.413031578064 1866.99998378754 164 164 162
-163.97587954998 405.208468437195 1866.00005626678 179 179 177
-158.992350101471 405.437886714935 1866.99998378754 184 184 182
-153.920501470566 405.449777841568 1866.99998378754 176 176 174
-149.406298995018 406.981498003006 1873.99995326996 174 174 172
-145.315706729889 409.816086292267 1886.99996471405 183 183 181
-141.599833965302 413.953602313995 1906.00001811981 148 148 146
-94.822458922863 413.384884595871 1902.99999713898 211 213 210
-89.4597321748734 412.523239850998 1899.00004863739 194 196 193
-83.8965475559235 410.575032234192 1889.99998569489 175 175 173
-78.2153829932213 407.757341861725 1876.99997425079 169 169 167
-72.7215334773064 405.590921640396 1866.99998378754 154 154 152
-67.3181042075157 403.641313314438 1858.00004005432 159 159 157
-61.9969256222248 401.90851688385 1850.00002384186 182 182 180
-56.7806698381901 400.609731674194 1843.99998188019 188 187 185
-51.7091676592827 400.17956495285 1842.00000762939 184 183 181
-46.4202202856541 397.793680429459 1830.9999704361 186 185 183
-41.1909781396389 395.407408475876 1820.00005245209 185 185 183
-36.0413528978825 393.237888813019 1809.99994277954 184 184 182
-31.0663729906082 392.588794231415 1807.000041008 181 181 179
-26.0931514203548 391.722083091736 1802.99997329712 180 180 178
-21.1416129022837 390.854954719543 1799.00002479553 181 181 179
-16.2207987159491 390.204638242722 1796.0000038147 182 182 180
-11.3288825377822 389.988481998444 1794.99995708466 185 185 183
-6.43878104165196 389.554649591446 1792.99998283386 187 187 185
-1.55867100693285 388.903200626373 1789.99996185303 188 188 186
3.30327264964581 388.034075498581 1786.00001335144 187 187 185
8.15258361399174 387.599110603333 1784.00003910065 187 187 185
12.9982782527804 387.380957603455 1782.99999237061 189 189 187
17.8485028445721 387.379705905914 1782.99999237061 190 190 188
22.6732157170773 386.943578720093 1781.00001811981 192 192 190
27.502428740263 386.724293231964 1779.99997138977 193 193 191
32.2897769510746 386.070102453232 1776.99995040894 194 194 192
37.1024869382381 385.850101709366 1776.00002288818 194 194 192
41.8860353529453 385.412395000458 1774.00004863739 195 195 193
46.7112399637699 385.408848524094 1774.00004863739 196 196 194
51.4782071113586 384.970426559448 1771.99995517731 196 196 194
56.2341287732124 384.531587362289 1769.99998092651 196 196 194
61.0479973256588 384.526938199997 1769.99998092651 196 196 194
65.8988878130913 384.739130735397 1771.00002765656 198 198 196
70.7949548959732 385.168164968491 1773.00000190735 199 199 197
75.5737349390984 384.945094585419 1771.99995517731 197 197 195
80.3922414779663 384.938925504684 1771.99995517731 196 196 194
85.210494697094 384.932398796082 1771.99995517731 196 196 194
90.0793150067329 385.142713785172 1773.00000190735 198 198 196
94.8997735977173 385.135412216187 1773.00000190735 198 198 196
99.7199565172195 385.127782821655 1773.00000190735 200 200 198
104.598827660084 385.336995124817 1774.00004863739 199 199 197
109.544493257999 385.763049125671 1776.00002288818 198 198 196
114.436335861683 385.971546173096 1776.99995040894 197 197 195
119.400411844254 386.396855115891 1779.00004386902 198 198 198
124.375008046627 386.821806430817 1781.00001811981 199 199 199
129.505202174187 387.680739164352 1784.9999666214 199 199 199
134.280443191528 387.453377246857 1784.00003910065 197 197 197
139.28385078907 387.877255678177 1786.00001335144 197 197 197
144.620552659035 389.169454574585 1792.00005531311 193 193 193
150.156259536743 390.895515680313 1799.99995231628 194 194 194
155.993446707726 393.272668123245 1810.99998950958 194 194 194
161.44572198391 394.563585519791 1817.00003147125 188 188 188
166.930124163628 395.8540558815 1822.99995422363 187 187 187
172.352403402328 396.927058696747 1827.99994945526 189 189 189
177.801370620728 397.999614477158 1832.99994468689 183 185 182
183.077603578568 398.637562990189 1835.99996566772 174 176 173
188.574478030205 399.709403514862 1840.99996089935 167 169 166
195.044338703156 402.734845876694 1855.00001907349 174 176 173
202.452540397644 407.496482133865 1876.99997425079 179 181 178
209.979712963104 412.257581949234 1899.00004863739 170 172 169
216.039687395096 413.978785276413 1906.99994564056 168 170 167
