ply
format ascii 1.0
comment KinectMotionCapture
element vertex 761
property float x
property float y
property float z
property uchar red
property uchar green
property uchar blue
end_header
288.019489274497 436.480681351211 2547.24975176555 144 146 145
276.664372894481 437.434700944604 2547.04825844337 131 133 130
263.785568924646 438.463402933428 2545.51495276126 206 208 205
218.899291631059 441.86622711268 2535.73848339205 162 162 160
220.937183411293 442.182641254282 2547.83816755992 179 179 179
226.795735227504 442.309611469837 2563.25676399246 176 176 176
228.922292096389 442.614169826679 2575.2701546964 177 177 179
230.328231808401 442.950768913002 2586.57748396626 175 174 179
227.197131274166 443.50788929212 2593.85543672934 172 172 174
223.314092866918 444.100864490497 2600.45752842968 173 173 175
219.439643974168 444.692360508808 2607.0516470793 175 175 177
217.109318356673 445.205919747325 2614.95776614771 187 187 189
214.795372445169 445.717135666011 2622.84830410958 189 189 191
210.181884930003 446.342211690991 2628.75408876623 163 163 165
204.799248003452 447.005328769625 2634.00111838966 161 161 163
198.641594028981 447.707256095145 2638.59510594328 181 181 183
194.035918104752 448.33028590609 2644.49343600419 187 187 189
189.434837533477 448.952353102406 2650.3873450857 191 191 193
186.401462562278 449.493674460746 2657.57059000842 190 190 192
183.380484303324 450.033108687986 2664.74180372977 187 187 189
178.015531563609 450.69199145378 2669.97189852384 180 182 181
170.289109611192 451.472410309414 2673.27793837891 179 181 180
161.76254378048 452.294718594912 2675.95543237626 178 180 179
154.012361739461 453.077366192502 2679.28473694346 177 179 178
147.044387530501 453.819707342345 2683.26016416336 173 174 176
137.684159776748 454.687393429495 2685.3418806371 167 168 170
131.49348589958 455.389692987017 2689.9682645845 161 163 162
120.505549275726 456.344627838866 2690.81926822145 163 165 164
109.491256593578 457.302384055618 2691.69602681741 160 162 161
97.6477165025722 458.305757633523 2691.97258880511 147 149 148
90.6029541715596 459.055685752924 2696.02314641456 148 150 149
83.5514315853598 459.806187712278 2700.08067008604 152 152 154
72.4489519034384 460.773718056486 2701.04321722265 183 183 185
55.6456009095312 462.048728039428 2697.70266542408 160 160 162
41.22661973169 463.198754743748 2696.26393741984 131 131 133
28.3948614401508 464.265647152784 2696.09517947401 134 134 136
17.1621420065624 465.248050059716 2697.18519629304 131 129 132
7.53990180411979 466.144445808393 2699.52251388415 136 134 137
-2.9210270663671 467.08763610105 2701.26917403184 148 146 149
-13.4044840773315 468.03329616431 2703.03750208304 179 177 180
-42.0440897222911 469.975103757839 2691.51355407129 151 149 152
-101.360347836637 473.609674622555 2657.77276259814 166 164 167
-133.599394225423 475.768569678734 2644.12305190948 120 116 117
-148.530049389223 476.978868301552 2643.183177732 121 117 116
-153.518020975806 477.640791927085 2649.45572239018 130 126 125
-167.674782054386 478.811730690895 2649.1704244755 133 129 128
-176.853970817282 479.707644049253 2652.48510389443 131 127 126
-181.02106115358 480.324221959605 2659.36577488885 130 126 123
-151.589165643634 479.0576555959 2689.84124880963 149 146 141
348.932126081715 421.528603685801 2491.80633214627 190 190 188
347.149493342752 422.054523554822 2500.58400435383 181 181 181
347.561591657512 422.486810234497 2511.44684307861 181 181 183
345.097122363461 423.036710643224 2519.48079759176 176 175 180
340.461766542135 423.676324243055 2525.40648699448 168 167 172
334.368530085331 424.376954654289 2529.93636084216 146 145 150
327.539052479309 425.108869843566 2533.7761376824 148 147 152
322.90634728892 425.746835528565 2539.69910068851 157 156 161
315.330891493805 426.510728876443 2542.85767138051 192 192 194
307.005433418019 427.307507427482 2545.33923568791 167 167 167
293.480203528864 428.331093359757 2543.03168733282 165 167 166
281.397582607024 429.294699776067 2542.13429052921 152 154 153
269.280304152531 430.262174090027 2541.27073749428 123 125 122
256.381943377641 431.266451739998 2539.76046191531 191 193 190
231.469867805677 432.805670003885 2527.42868044258 172 174 171
224.466585880928 433.55536817132 2531.43841922421 150 152 149
217.455795808188 434.305554147407 2535.45520376789 163 163 161
219.489294990846 434.649588737083 2547.55516755993 179 179 179
224.587148416579 434.851864358038 2562.30110931565 176 176 176
226.707356091032 435.184378276317 2574.31667304375 177 177 179
227.346909484265 435.580842363324 2584.95927791875 175 174 179
224.969694781532 436.112312872261 2592.909311264 171 171 173
221.080681982122 436.711659722719 2599.51673173867 171 171 173
217.965799578422 437.27423762766 2606.77743519646 175 175 177
216.399269608649 437.763744656376 2615.34589596153 188 188 190
213.313015351652 438.322051833542 2622.57914030014 186 186 188
208.69537728565 438.950540573902 2628.48854211728 163 163 165
203.308592782534 439.614416395771 2633.73957820363 163 163 165
197.146816272105 440.314357257327 2638.3379530949 183 183 185
194.869902510419 440.830529641737 2646.1906471791 188 188 190
190.270473902842 441.455395991931 2652.08250212253 189 189 191
186.457265573174 442.042090621104 2658.61651763093 188 188 190
180.302112596648 442.739869682372 2663.20863476826 186 186 188
174.929165016418 443.399937231325 2668.44649344671 181 183 182
169.556921661772 444.05962115732 2673.68370951806 181 183 182
161.817500806263 444.833452579939 2677.00363109578 180 182 181
154.067156003914 445.608336811086 2680.33424470955 178 180 179
146.305865996149 446.384276530742 2683.67557107337 172 173 175
136.148274775397 447.277976284866 2685.1279892887 169 170 172
128.359461372376 448.056678139905 2688.49623854847 161 162 164
120.559745550346 448.836400605134 2691.87516322574 164 165 167
108.744457412848 449.81533761082 2692.12728232067 164 165 167
96.0958690575189 450.837526464041 2691.78324108646 147 148 150
85.0229937602784 451.783385144006 2692.71993153596 141 142 144
77.1507773174251 452.570891181467 2696.16969999289 149 149 151
68.4591395181293 453.399945346375 2699.01011585722 171 171 173
55.6993819979863 454.434704102977 2698.77460942083 178 178 180
42.905529758976 455.473318774436 2698.57238964175 141 141 143
31.7068413683437 456.433239644703 2699.63193596725 138 138 140
18.0323678297092 457.520734371501 2698.88005238812 130 128 131
5.13850122761195 458.570882965803 2698.7757814833 129 127 130
-8.60988138301222 459.666928510748 2698.09602689805 136 134 137
-16.6400681458154 460.471784073133 2701.70009796571 166 164 167
-45.2870240126004 462.339450962803 2690.19440679654 175 173 176
-105.436287019925 465.842895109173 2655.88293480819 171 169 172
-136.028263192484 467.831195365404 2643.457029361 132 130 131
-150.134489803496 468.969846657379 2643.12632204723 125 124 122
-156.79058576457 469.722109124014 2648.20783035 124 120 119
-169.287253211791 470.780176441228 2649.12453590464 126 122 121
-175.962776012038 471.534504672248 2654.22503002682 124 120 119
-176.776676729822 471.980151453147 2663.46951066194 156 152 149
347.5550014733 414.107473837667 2491.43685835523 187 187 187
344.32178402129 414.702057677485 2498.8106776441 181 181 183
344.725584647335 415.157090940811 2509.67839416131 172 171 176
342.252917288496 415.718816141113 2517.71874177496 177 176 181
340.525141367167 416.250144921367 2526.44114091696 187 186 191
335.162621396306 416.919925075022 2531.66720930643 158 157 162
327.601877920249 417.67482847331 2534.81249915875 151 150 155
320.029727403232 418.430786612989 2537.96896048104 144 143 148
312.446245865797 419.187613003983 2541.13654534696 155 155 157
301.896727835735 420.062511318778 2541.56402220448 135 135 135
289.838940557027 420.999311075948 2540.64592723865 127 129 126
278.48918288164 421.910302464154 2540.44581003549 129 131 128
267.108469116969 422.824708162171 2540.27559021111 129 131 128
253.457767100761 423.833123731415 2538.09487970604 197 199 196
219.021994231793 426.609026950949 2537.87164541642 168 168 166
221.813071394726 426.94864674457 2550.63688489764 180 180 180
224.647518747489 427.282504192507 2563.3599088114 175 175 177
226.009110113094 427.673903578258 2574.7031771845 176 175 180
225.125959699917 428.156202122932 2584.01100667617 174 173 179
222.742553983157 428.699450793697 2591.9654469827 172 171 176
218.847389083138 429.305145768291 2598.57803833424 170 170 172
214.960425854354 429.909377563619 2605.18236372027 177 177 179
214.153563062996 430.38076152722 2614.41605164605 188 188 190
211.830936836056 430.915050663364 2622.31146123601 174 174 176
207.209315298376 431.546976987038 2628.22464846809 163 163 165
201.818383487947 432.211582033785 2633.4796951128 166 166 168
197.203701159446 432.841938971874 2639.3858857201 187 187 189
196.481791552614 433.3010210784 2648.53703208691 191 191 193
191.885992764167 433.928348789128 2654.42491877827 188 188 190
188.076388943766 434.52027950439 2660.95458106444 186 186 188
181.141315792218 435.249951957743 2664.89920947578 182 184 183
175.770065936365 435.910129810107 2670.13536598603 182 184 183
169.61224193071 436.605090764822 2674.73055200969 182 184 183
161.87263678604 437.371191019336 2678.05179925254 181 183 182
154.913277735794 438.102539328684 2682.02029622951 179 181 180
143.98113403707 439.014381158415 2682.82226579689 172 174 173
134.612920465433 439.856655950535 2684.91566808414 170 171 173
125.225834420819 440.701028111524 2687.02716318385 161 162 164
116.619246853349 441.510632956998 2689.78599751163 163 164 166
106.395972909528 442.395630039993 2691.30492589294 164 165 167
92.9387260986085 443.431739573795 2690.34492767107 149 150 152
81.0532306863738 444.397502465319 2690.66871075599 142 143 145
69.9439877455283 445.328970940402 2691.6433038372 142 142 144
64.4695207914445 445.99823952109 2696.98061284615 159 159 161
57.374771772019 446.743399563945 2701.08185053776 182 182 184
47.8351169708167 447.604233906075 2703.34241556496 156 156 158
34.2043775783614 448.660033089882 2702.55178791957 141 141 143
21.3523713933883 449.681375951706 2702.41020647642 150 148 151
7.6475127941249 450.745765482403 2701.69157280757 146 144 147
-7.73555805926351 451.893130067235 2699.79368424539 142 140 143
-20.6976494632043 452.927214065884 2699.75919807558 157 155 158
-47.7053992591099 454.641405530127 2689.48259112439 172 170 173
-106.207039942547 457.888120272357 2656.40710678333 172 170 173
-137.628712157283 459.83648474896 2643.39375710226 123 123 123
-152.568742338567 460.98948461233 2642.47199902935 124 124 124
-159.23076969943 461.740195041921 2647.55962669019 132 130 131
-167.563606696933 462.573002868323 2651.46010258249 132 131 129
-173.399577614489 463.283392621269 2657.15031267988 141 140 138
-172.532484012097 463.662034951428 2667.5692629694 168 167 163
346.177857113066 406.674241423632 2491.06885509 190 190 192
340.771139810599 407.351421386824 2496.3377183945 175 175 177
341.164704249037 407.829298190323 2507.21222333205 167 166 171
339.408962594663 408.378128107461 2515.95980619999 178 177 183
337.672800995663 408.924089903628 2524.68803184853 181 180 186
333.763976788527 409.543801851243 2531.31211539147 180 179 184
326.199091767355 410.291237081111 2534.46262165134 167 166 171
319.357714664754 411.013595736042 2538.31562731919 141 140 145
309.56187133899 411.841759956714 2539.4185106504 168 168 170
299.743030810116 412.672322105223 2540.54387613158 156 156 156
288.419860356409 413.558922918539 2540.32062449859 131 133 130
277.808596222074 414.421880238425 2540.81118102427 123 125 122
264.936922108168 415.369633213673 2539.28275951868 136 138 135
247.547942829333 416.486917701359 2533.7129005461 202 204 199
230.097252296782 417.61143811578 2528.20359013591 176 178 173
224.349613109351 418.780853812439 2543.6572825935 171 171 169
222.628296214964 419.319607518921 2552.37183258342 179 179 179
223.1957413546 419.769300163666 2563.07817486261 175 175 177
225.311052807243 420.156712133278 2575.09048670334 177 176 181
225.185586307017 420.626474313759 2585.06468705569 174 173 179
222.039824487182 421.210268856834 2592.35325626233 173 172 177
218.906332366635 421.792133311984 2599.62992674235 172 172 174
216.551000025687 422.342162432294 2607.55548762421 180 180 182
215.747643735193 422.82952716392 2616.78333159227 185 185 187
211.119064734404 423.465586909735 2622.70247892809 168 168 170
205.723323100472 424.131387999423 2627.96212502402 163 163 165
201.101871915852 424.765871029249 2633.87442737095 173 173 175
196.485183163343 425.39941631238 2639.78247699294 190 190 192
196.538515977134 425.843866463481 2649.58286809022 192 192 194
194.281109937823 426.379368570905 2657.41333379311 189 189 191
191.258496785209 426.944394982268 2664.58238847439 187 187 189
182.76424603868 427.732142554649 2667.23290117375 185 187 186
175.825799529675 428.456844625687 2671.18161399925 183 185 182
168.093044800088 429.214533266741 2674.49730191144 180 182 181
160.349408371562 429.973298874718 2677.82363633631 178 180 179
154.968470797388 430.634019876404 2683.06933261684 178 180 179
145.622610284322 431.460709959383 2685.1428413997 177 179 178
135.462928089338 432.322918600973 2686.60199035604 178 179 181
122.889596962031 433.288857805414 2686.19153125542 164 165 167
112.67900720623 434.156747043601 2687.7003925825 162 163 165
102.445950903984 435.027055765161 2689.23120592374 164 165 169
90.5847536191695 435.968851042656 2689.53440301182 157 158 162
78.6934157108292 436.914003758462 2689.86703395671 151 152 156
68.3851557174213 437.792790630181 2691.47127260809 141 141 143
62.0980497257073 438.49800532873 2696.19332205619 140 140 142
57.4289903927383 439.132622723883 2702.15288013907 160 160 162
47.8892858793931 439.980283800299 2704.41544153408 190 190 192
35.0732086992784 440.97359816282 2704.24232465793 166 166 168
21.4065333066178 442.006978896751 2703.49069542909 148 146 149
9.33860340021386 442.972018640282 2703.99540770256 146 144 147
-5.22029344961439 444.050316681694 2702.70621949399 130 128 131
-18.9987577368713 445.096699258752 2702.06367662328 140 138 141
-48.4749214164379 446.85200103172 2689.9810992676 158 156 159
-101.194473284988 449.66558234715 2661.14697309772 151 149 152
-140.88489405982 451.904915843108 2642.13150117424 137 137 139
-156.662672968717 453.067408502341 2640.62298978126 137 138 140
-161.670541017857 453.740980561225 2646.91357028751 140 142 141
-169.175450523061 454.528543813821 2651.41549838691 158 160 159
-174.179699201348 455.201348302863 2657.7022604089 175 175 175
-172.476830650533 455.563405044491 2668.71097232208 178 178 176
344.458919188777 398.722167870111 2479.78099215461 186 186 186
342.637574255592 399.294023367466 2488.58997903551 179 179 181
337.220806960799 399.972470291878 2493.86863487463 163 162 167
336.879362903371 400.495481574168 2504.04977178203 160 159 164
335.111334891681 401.059406765454 2512.80698626748 161 160 166
334.092066475385 401.597784572725 2522.24169445793 160 159 165
330.173146970842 402.224312262675 2528.87479541668 146 145 151
322.598279610495 402.965015649021 2532.03620925045 170 169 174
316.481407833058 403.660016219304 2536.59038540895 177 176 181
306.677811776808 404.473016782888 2537.70354634003 138 138 140
299.066917122288 405.217023636758 2540.90024755844 156 156 156
289.222940028854 406.034272861633 2542.05254166411 203 205 202
280.84110680456 406.805283275143 2544.59389584683 199 201 198
267.977149832262 407.725262050435 2543.06191612017 200 202 199
249.103113803932 408.848184372596 2536.13175070611 211 213 208
222.154311705353 411.244742905163 2542.70001744597 172 172 170
221.935283812575 411.746349386807 2552.76241907042 179 179 181
221.744043841865 412.244128430798 2562.79779257108 174 174 176
225.371246238368 412.606745528274 2576.14659550341 177 176 181
224.485341049248 413.122178023751 2585.45226334485 174 173 179
221.337136496446 413.71449021692 2592.74166147448 173 172 177
217.437458125213 414.331958263308 2599.35699471479 175 175 177
216.609757176291 414.839080203844 2608.6060931817 190 190 192
215.80599634698 415.342859783364 2617.83191275543 181 181 183
210.407421937217 416.009607677721 2623.09423190231 165 165 167
205.781157416316 416.647999759349 2629.01073620717 165 165 167
201.159466989794 417.285431906329 2634.92284024662 178 178 180
198.093635907779 417.865135245742 2642.13264172713 190 190 192
196.595399174086 418.385600909483 2650.62871062647 191 191 193
194.337679848062 418.932169682227 2658.45785177939 190 190 192
192.096183239652 419.476427963929 2666.27122502347 189 189 191
184.387111140899 420.224084258301 2669.56487850962 184 186 185
175.881734412572 421.002443142226 2672.22782711743 181 183 180
166.574335574444 421.81210745728 2674.26565928957 179 181 180
158.826624806401 422.563602815396 2677.59711413356 178 180 179
152.650294595105 423.25542570843 2682.21080305515 179 181 180
144.091572031686 424.03906494625 2684.9259444318 180 182 181
133.132878993085 424.916720084068 2685.75933066429 181 182 184
122.147786302022 425.797320020181 2686.61849690202 171 172 174
110.337183493665 426.712169977473 2686.87509759163 167 168 170
100.899236553782 427.535874233192 2689.04049086157 166 167 171
89.0339418886299 428.456911342133 2689.35048691515 161 162 166
79.5530596235969 429.285261683057 2691.5578289083 155 156 160
70.0533686613185 430.115701352904 2693.78320157197 149 149 151
62.1527301364932 430.883160392492 2697.26449435597 144 144 146
55.8622064005809 431.586224361547 2701.98991770947 141 141 143
47.9436759898642 432.355362307287 2705.48839141707 197 197 199
34.3129543734162 433.357998853074 2704.70560353453 188 188 190
20.6444390456864 434.364957630487 2703.95970654204 153 151 154
9.39301057875186 435.275388902568 2705.07893908395 149 147 150
-3.52530216477964 436.256601937796 2705.00879436249 143 141 144
-18.122045581737 437.310098273871 2703.76085403577 144 142 145
-45.1232725538784 438.884183064387 2693.49847752935 147 145 148
-98.6603700966571 441.578192642574 2664.07661179035 147 147 149
-136.688004633431 443.637035223657 2646.2711393498 126 127 129
-156.606137636593 444.941925046193 2641.76779226697 134 135 137
-162.446199894092 445.653892016423 2647.46183201338 173 174 176
-170.786721948409 446.472264764726 2651.37241062093 181 183 182
-175.79490993803 447.148602761119 2657.66256218647 167 167 167
-172.420913839176 447.463827908711 2669.85256006522 178 178 178
336.614537635273 391.411115067563 2473.06413338895 186 186 186
342.703021665145 391.790775867076 2489.63396549407 181 181 183
336.56298756327 392.488535956413 2494.21107216942 174 173 178
335.494024911187 393.050308955806 2503.69166967143 163 162 167
333.721868933884 393.628274850516 2512.45124591993 158 157 163
331.240445559131 394.223418802662 2520.49534910989 170 169 175
327.313220005626 394.856431772008 2527.13540173459 128 127 132
318.2649058508 395.630987139747 2528.92114807332 130 129 134
312.136240593271 396.324896283725 2533.48753448621 141 141 143
301.58381288856 397.144271999648 2533.92576906755 140 140 140
295.436367902624 397.839723063219 2538.51057613332 129 129 129
286.32318314181 398.620716821213 2540.35978835149 149 151 148
277.190712173527 399.403771652642 2542.22750959103 171 173 170
264.316944915269 400.29815635431 2540.70905441626 207 209 206
218.454710798596 403.736892510234 2540.39821057349 173 173 171
220.488121270318 404.189588346124 2552.48220237207 178 178 180
223.317316034839 404.613639091369 2565.19744949564 173 173 175
226.189659955829 405.03199787802 2577.87035229597 178 177 182
223.785137565972 405.611255512334 2585.84043966196 175 174 179
222.158882401379 406.164076360701 2594.45885067349 169 169 171
218.260675849637 406.786914968456 2601.07159076667 177 177 177
218.20035579005 407.285762187709 2610.97680098441 185 185 185
215.864571776186 407.855043905428 2618.880442405 174 174 176
209.695820106762 408.547090779371 2623.4865726182 164 164 166
205.839193829509 409.163406665163 2630.05932478159 173 173 175
201.991031158482 409.778360734778 2636.62387373472 187 187 189
199.702402068215 410.340443033257 2644.48141584814 189 189 191
195.874826074362 410.952166205923 2651.02566160967 189 189 191
192.05594508013 411.562485353687 2657.56181846431 192 192 194
189.026908518842 412.144980231259 2664.73466985369 191 189 192
181.309850502384 412.885859392353 2668.03725513151 179 179 179
174.3671614825 413.600776754664 2671.99162700869 178 180 177
165.05571605048 414.397801158871 2674.03534568169 180 182 179
157.303973998582 415.141961870449 2677.3718877077 184 186 185
149.541329258422 415.887172710574 2680.71910105578 185 187 186
141.767781830001 416.633433679244 2684.07698572594 181 183 182
133.188367194339 417.408860701895 2686.81388839803 178 179 181
122.203210019604 418.270923071271 2687.67585851327 186 187 189
111.990529020317 419.107350715281 2689.19144648593 186 187 189
103.357190529175 419.88857322668 2691.98103977295 185 186 190
89.8921694268582 420.845819042385 2691.04041756046 179 180 184
81.2178080747441 421.631534995731 2693.8700830261 174 173 178
70.9152581971399 422.477935756803 2695.47343810108 147 147 149
62.2076543540202 423.26719379725 2698.33559033278 148 148 150
52.6746921779164 424.088029126861 2700.5954213209 148 148 150
42.3106713807053 424.941206288445 2702.25881637873 156 156 158
31.1098524158218 425.82741935863 2703.33137237662 187 187 189
19.8828038670924 426.716555787257 2704.42954266792 169 167 170
11.9028087670401 427.484803400642 2707.98918331138 150 148 151
-1.82993530373654 428.472645118248 2707.3098919033 152 150 153
-17.2451181732485 429.527833846044 2705.45717675725 149 147 150
-44.244050998766 431.031987238852 2695.20285795936 137 135 138
-87.038728599119 433.15480120993 2673.61954321698 158 158 160
-134.147134847516 435.459353218672 2649.20774171556 118 119 121
-156.549252204842 436.815306531133 2642.91241485979 118 122 123
-165.717086459027 437.658308687735 2646.22363933623 131 135 136
-174.899416370258 438.502843408103 2649.54903170215 159 160 162
-178.245769442896 439.11723286024 2657.03226907391 185 187 186
338.838026272995 383.815396999056 2476.22988591097 187 189 188
339.163393045532 384.367650927897 2487.16111923227 176 178 177
336.628224694426 384.981570444474 2495.25581695802 173 174 176
334.833937924985 385.576360857879 2504.03488275374 176 177 181
333.059231210919 386.168283150314 2512.79459133007 147 148 152
331.304455462236 386.757296492591 2521.53527594669 142 143 147
326.64614093938 387.413409753962 2527.48098719465 153 152 157
319.793773466248 388.121687640686 2531.34664975231 130 129 134
311.464660138334 388.866415254355 2533.83953688491 123 123 125
302.38367909404 389.630877315385 2535.65921371411 131 131 129
295.499206264957 390.341993731418 2539.55633783144 137 137 135
283.42351883976 391.184488633113 2538.66995619214 153 155 152
271.313340691813 392.03090581875 2537.81758248053 144 146 143
253.957264055375 393.01546087942 2532.23466804901 201 203 202
214.00330394689 396.221053426951 2537.42722952502 180 182 181
220.549653906099 396.580100789241 2553.54577849281 175 176 178
223.378309914995 397.034116648219 2566.25713177796 170 171 173
224.733950267397 397.52416754361 2577.59139110311 177 178 180
222.325360539523 398.114893094323 2585.56416028483 172 173 175
221.456561498218 398.66064446495 2594.84802251013 172 172 172
219.084180781482 399.246186121794 2602.78560178577 178 178 176
218.259424536978 399.785766025394 2612.0266410029 183 183 181
215.15536599706 400.388244550949 2619.27103675165 170 170 170
210.524216784894 401.033431114395 2625.19172524769 160 160 160
207.440901910526 401.632645914213 2632.41600460713 178 176 177
203.596134421709 402.252787043588 2638.97607760698 191 189 190
199.760019146107 402.87155902638 2645.52809903246 189 187 188
195.932157880419 403.488949685022 2652.07179042119 194 192 193
190.553937891337 404.152040657945 2657.31443781884 193 191 192
185.957988587271 404.790932195638 2663.20110268785 187 183 184
179.799632925512 405.47695098151 2667.79780046053 177 177 177
175.209024909377 406.114579476726 2673.6793480288 179 179 179
166.686623673388 406.873737855164 2676.36204005071 180 182 181
157.360105204973 407.659053694102 2678.42211915051 181 182 184
148.014967184808 408.446392494845 2680.50038874758 181 182 184
139.444318402678 409.210601288633 2683.23024484686 174 178 179
131.653923460946 409.950848455998 2686.60574818399 177 181 184
123.055772003628 410.717875741901 2689.36249827439 198 199 203
113.64399774046 411.512304747789 2691.50622855859 205 206 210
105.815260672502 412.256471532586 2694.91922687612 202 201 207
93.9615779923613 413.133616695657 2695.22417926736 183 182 188
84.4921380948871 413.934342385381 2697.42424173176 179 178 183
72.5838063443582 414.817639821781 2697.78255215445 152 152 154
61.454087726569 415.677316853186 2698.78842647157 154 154 156
50.2980752106947 416.539984319691 2699.81996903318 145 145 147
38.3032915307631 417.433164887498 2700.26300461924 147 147 149
27.0927359681332 418.302000745782 2701.34779754696 160 160 162
16.6722963409005 419.14583809476 2703.06859775725 215 215 217
8.68442107752188 419.907354211674 2706.63705843162 174 174 176
-3.41562104735971 420.812549487094 2707.182503599 154 154 156
-18.0121911219677 421.807467925917 2705.94304892839 159 159 161
-40.0678572013939 423.068223242074 2699.31809889645 148 148 150
-78.721751872691 424.92275955061 2680.74746124545 157 157 159
-130.778195383561 427.267396833425 2652.7410777148 150 151 153
-161.471683141975 428.865973028449 2640.47357581903 142 144 143
-170.651366141913 429.699956010106 2643.79756146328 132 134 133
-175.676068341491 430.384672511587 2650.10321138603 164 166 165
-175.681523025276 430.886244481575 2659.95353675756 165 167 166
-99.4277176583522 428.595151956721 2723.43825166068 177 179 176
333.870547348811 376.367742792992 2472.34404720462 186 188 187
336.345032981098 376.902761737002 2485.39512468875 181 183 182
334.524590177871 377.51480869944 2494.19727546028 168 169 171
334.898833170564 378.081851384024 2505.07812604279 189 190 194
332.396911498182 378.701663297808 2513.13893843136 153 154 158
329.910830427535 379.319153923502 2521.18436395361 144 145 149
325.979201905662 379.963765574026 2527.82741235297 180 179 184
321.322837844778 380.62196221732 2533.77087884043 195 195 197
314.466652468846 381.32511937284 2537.64108947384 176 176 176
306.129870101197 382.059757135858 2540.14308335179 150 150 148
294.084937640618 382.874610448515 2539.23024699277 130 130 128
278.30278099346 383.773390493201 2534.93124073241 149 151 148
260.981446750937 384.711019714778 2529.32076220868 131 133 130
239.131799620191 385.754807337835 2519.68948141002 125 127 124
211.3341415457 388.070267542091 2525.69541382016 160 162 161
218.578899304652 388.462286129195 2542.53246970353 178 180 179
220.611324594243 388.969445936548 2554.60939005133 171 172 174
223.43947373538 389.453422889286 2567.31681842708 169 170 172
225.552835813083 389.9497896402 2579.31496255685 177 178 180
223.145667554228 390.551405685033 2587.28437274655 171 172 174
221.516528640193 391.131994133648 2595.90120548273 174 174 174
219.143834636744 391.728602455812 2603.83746020841 183 183 183
218.318695112001 392.284594527325 2613.07645431723 169 169 169
214.446578937148 392.91483383261 2619.6625303026 156 156 156
210.582894749909 393.543685823331 2626.24043824411 161 161 161
205.955827199738 394.190965494704 2632.15642638703 192 192 194
203.654195813123 394.777095093299 2640.02332579247 191 191 193
199.042309821128 395.421858161864 2645.92494821848 190 188 191
195.989711965386 396.024643703456 2653.11785952828 191 189 192
189.831837696603 396.708819699391 2657.71468947617 184 182 185
184.452151134955 397.372066072675 2662.95877023395 179 177 180
178.289903522873 398.05614474093 2667.55995736136 190 190 192
174.480219661923 398.675754964104 2674.08527026781 186 186 188
167.530289567104 399.381105174357 2678.04858450234 186 186 188
158.205634389232 400.15303606761 2680.10879161621 181 182 184
148.071228171558 400.94925647044 2681.5525941863 174 175 177
140.2936532386 401.680503330778 2684.91703514865 176 180 183
133.300051335209 402.390045305731 2688.92275875169 191 195 198
123.908550048769 403.169076414515 2691.04829563079 200 201 205
115.297486889176 403.926940130402 2693.81922160406 202 203 207
106.671737283849 404.686301493174 2696.6045100835 208 207 212
96.4255717770257 405.494605990082 2698.157505256 220 218 223
86.1570234117965 406.305466842222 2699.73234910958 218 216 221
73.4461656605188 407.191225470327 2699.47064447574 213 213 215
61.5095649613093 408.056592519632 2699.85967648575 216 216 218
50.3535517374942 408.900714379456 2700.89396078292 161 161 163
39.1711593120316 409.747866912664 2701.95399208508 153 153 155
29.5912693743445 410.547787416226 2704.26351423633 149 149 151
19.1767749385225 411.375088080368 2705.98119274045 192 192 194
10.376201028079 412.153759812122 2708.93689243316 230 230 232
0.740979563838451 412.959876101133 2711.30078171584 174 174 176
-14.6681135918425 413.950374915835 2709.45158053484 188 188 190
-36.7157657084776 415.156635219028 2702.8267268585 178 178 180
-78.6655761100454 417.008960542146 2681.86133392005 151 151 153
-129.893056747715 419.176221006864 2654.47490353596 162 164 163
-160.584152081847 420.694091603888 2642.21695417965 125 127 126
-173.089441490713 421.62655133267 2643.16078621638 116 118 117
-176.452617455038 422.260162537289 2650.65788800164 119 121 120
331.779791616769 368.838678550086 2471.28192516545 187 189 188
330.642800916237 369.458561380151 2480.82148691762 182 184 183
333.144250339698 370.019577069847 2493.84194665086 161 162 164
333.51394545735 370.608847683571 2504.72369022031 176 177 181
333.188300587545 371.205360363027 2514.87793698444 166 167 171
329.246307535752 371.857204994294 2521.53020848384 157 158 162
323.850836699947 372.531728816308 2526.78829645719 150 149 154
319.188307838046 373.193592103223 2532.73734275486 183 183 185
311.591451545731 373.904723142508 2535.92496270311 185 185 185
302.51016199168 374.642481733286 2537.7488926483 193 193 191
288.978241494615 375.460533268225 2535.47802821794 202 202 200
273.18247215951 376.323407297229 2531.19784645139 132 134 131
256.590146513727 377.206165380115 2526.28880870441 101 103 100
196.02027459806 378.908327065821 2481.32494827309 162 164 161
220.400070905901 380.211060148182 2534.85866254756 163 165 164
219.393529661212 380.808512415693 2544.27200128903 178 180 179
219.165003888532 381.38762191748 2554.3323795361 170 171 173
221.988567235313 381.902057730985 2567.03952202512 169 170 172
224.855522299755 382.410699000467 2579.70443232814 175 176 178
223.20617350535 383.007915737243 2588.33921396254 168 169 171
221.576686442466 383.602228843296 2596.95436391729 176 176 178
219.203636365895 384.2099387091 2604.88933142555 184 184 184
218.37813401173 384.782428823615 2614.1262474258 166 166 166
214.505722205007 385.41830743651 2620.71178349078 158 158 160
209.87192831587 386.069707839656 2626.63384194537 168 168 170
206.014445684605 386.703085220092 2633.2049227995 190 190 192
202.938953071506 387.317707233347 2640.41915735845 187 187 189
198.324661375189 387.965764542814 2646.32234395506 190 190 192
194.492548304025 388.595059154696 2652.86883589238 191 191 193
189.109986987897 389.259198655899 2658.11563931994 180 180 182
183.728129897353 389.922954534144 2663.36180014039 177 175 178
176.780263014152 390.623546566473 2667.3234309899 180 180 182
172.181416325806 391.268140044289 2673.21213026007 184 184 186
166.799822146548 391.931007730406 2678.45816128014 187 186 191
160.629741737577 392.612755146381 2683.06713320673 173 174 176
151.292281673632 393.372842368638 2685.14214409316 165 166 168
144.315198248113 394.075584420869 2689.1324696291 163 167 170
135.741235932792 394.818952676219 2691.8686963383 195 199 202
127.949454424322 395.54360048127 2695.24788213564 211 212 216
116.951330355524 396.351336117348 2696.13075803583 214 215 219
107.528343037227 397.120596804169 2698.2890050741 221 220 225
96.4813939404059 397.933838953736 2699.21955108859 232 230 235
86.2127781172344 398.728816211285 2700.79680951726 229 227 232
75.115090720451 399.547806072669 2701.77688990437 239 239 241
63.1825714834222 400.391446257785 2702.16541802512 234 234 236
53.6513290408984 401.17273258039 2704.42938661834 234 234 236
43.2891230114003 401.978270025178 2706.09802071434 230 230 232
32.9047020104154 402.786300138061 2707.78868403216 205 205 207
20.0486712165402 403.664839670934 2707.6718675128 171 171 173
7.97686178366463 404.524430993647 2708.19601744396 152 152 154
-1.66423478135291 405.318167368571 2710.56757053445 212 212 214
-12.9681284787888 406.160617151097 2711.7489494603 242 242 244
-37.4840154003144 407.383699515195 2703.32153734402 253 253 255
-82.7393411144071 409.213336542535 2679.97361034076 161 161 163
-133.147520287896 411.209909226229 2653.21607623043 153 155 154
-161.356126896863 412.575301593101 2642.76658088308 124 126 125
-173.031490776435 413.46229434818 2644.30991391725 136 138 137
-173.893475519206 414.03008301938 2653.58409018195 141 143 142
-165.538235283247 414.319552850232 2669.3335772111 175 177 174
334.722553109516 361.236963499622 2475.15156262065 176 180 179
332.871852880113 361.88030436454 2483.97913423853 153 157 156
332.486769326547 362.504064791397 2494.18837728914 143 144 146
329.954753164904 363.149829834581 2502.27557593123 146 147 151
329.618911207257 363.766645465525 2512.43694778697 184 185 189
324.937956320308 364.43434029085 2518.40342950107 169 170 174
319.53051024468 365.110521204188 2523.67316414722 186 187 191
311.925320967259 365.815095770036 2526.87002791677 161 161 163
303.574194487007 366.530578418552 2529.38909682814 131 131 131
292.998065725218 367.277920644122 2529.86185126993 106 106 104
277.963841357733 368.090237903587 2526.24982567901 105 105 103
262.879312337086 368.908484082105 2522.68687706067 129 131 128
236.608062356181 369.895104929697 2508.95229304768 213 215 212
218.212230622167 372.592602183188 2533.90615925648 165 167 166
216.447187488142 373.219218243137 2542.65114403128 179 181 180
216.210618845228 373.818464022797 2552.7168706763 170 172 171
219.781901055165 374.351310529105 2566.09570550626 169 171 170
225.674718095495 374.839554754978 2581.42721776576 170 171 173
224.786841473962 375.437261418469 2590.72268318263 165 166 168
222.399043564491 376.058136051124 2598.67001191819 190 189 194
220.791223494127 376.663192065347 2607.26205843193 184 183 188
219.203684347905 377.265383464788 2615.834726919 157 156 161
216.100630478188 377.892738118128 2623.07444833456 164 163 168
210.70081176229 378.560881222401 2628.33779688442 182 181 186
205.301655293329 379.228587026967 2633.60055244598 189 188 193
201.450227589698 379.866550804272 2640.16460495801 189 188 193
196.831973141771 380.518102053785 2646.07154806473 195 196 200
192.995516861497 381.153588757025 2652.62109984251 190 191 195
186.829481208838 381.833928696891 2657.22660113264 164 165 169
180.660237934322 382.514407648741 2661.83526709279 160 161 165
173.704424676301 383.210871159975 2665.80539900359 170 169 175
170.667966273631 383.827176799343 2672.98062317534 174 171 178
166.856775117682 384.458109111297 2679.50609729022 180 179 185
161.475776178584 385.120901757933 2684.75154831881 163 164 168
152.931030495635 385.850752036427 2687.46042258925 171 172 176
145.957838733284 386.547919125693 2691.44804546521 199 203 206
135.797622354407 387.315048908124 2692.92177748791 209 213 216
124.818117129418 388.102215975716 2693.7892046264 223 224 228
115.409745286134 388.856808429923 2695.93510624031 223 224 228
105.182084865992 389.631408650933 2697.47470706543 227 227 229
94.9321026429688 390.40857397666 2699.03643249143 239 239 241
83.0501141066664 391.225276881517 2699.37842635564 238 238 240
73.5579498101493 391.989181322595 2701.60649664869 243 243 245
64.0470839170333 392.755073137618 2703.85250632863 247 247 249
54.5179138228553 393.523053059225 2706.11672157156 252 252 254
45.7823818467626 394.273593758329 2709.01199141629 252 252 254
34.5892112530959 395.084866236975 2710.08802865521 255 255 255
21.7372646264176 395.93905445187 2709.9710934536 247 247 249
8.85109764185454 396.797186427154 2709.88721884519 255 255 255
-2.42854422734684 397.618416482829 2711.04765161346 241 241 243
-15.3788216953776 398.484040914962 2711.02633228101 239 239 241
-41.5484147940868 399.688026368969 2701.40974088248 195 195 197
-94.2467567134484 401.580081579072 2672.69075407544 154 154 156
-138.885413793805 403.285097064985 2650.16613217194 154 156 155
-163.787626576558 404.493343031823 2642.12454015985 129 131 130
-172.141275434063 405.275201345007 2646.05321285259 149 151 150
-132.052020305102 405.324271940198 2694.09153396534 160 162 159
335.100814279305 354.317213754452 2487.1346299034 174 178 177
331.829584526538 354.981986077338 2494.53582214171 156 160 161
324.945933682361 355.674571110836 2498.43486894612 152 156 159
323.869253261998 356.318310740722 2507.91101567393 147 148 152
322.087545968574 356.965088490153 2516.66990615845 133 134 138
317.402678413945 357.635723775708 2522.63983861066 135 136 140
308.326244229164 358.34692398639 2524.46287241937 132 133 135
297.761192390549 359.074396100596 2524.92722626449 130 132 131
284.959692222347 359.827137949771 2523.35794355272 123 123 121
268.427152312457 360.622485815224 2518.40245687816 106 106 104
251.095939441433 361.432601962268 2512.82063435529 130 132 129
207.77258676521 365.056809442054 2525.54858499281 176 178 175
211.244873658862 365.635246877021 2539.01898531591 177 179 178
215.518688894326 366.19781895396 2553.11304819953 170 172 171
221.355816584917 366.734096526051 2568.49276149896 169 171 170
225.735918653927 367.282768223768 2582.48333445564 168 170 169
225.607562289158 367.886606531638 2592.44058809313 166 168 167
223.983191803145 368.50778356943 2601.04668673404 187 186 191
222.379091342732 369.126126850789 2609.63341360983 179 176 183
220.029197554716 369.752690033364 2617.54226222726 158 157 163
216.927800329445 370.388150444882 2624.77914054287 169 168 174
211.529679337924 371.056403852568 2630.04078692453 191 190 195
206.903806256967 371.712407750501 2635.95429950498 188 187 192
202.282695069615 372.367532938454 2641.86355116963 189 190 194
196.890492847905 373.034067205523 2647.1195742136 193 194 198
191.498952334625 373.700223209597 2652.37499607843 184 185 189
183.769958236884 374.404129944115 2655.69489856991 152 156 159
178.374065638882 375.070185940529 2660.95465690028 151 155 158
170.628984452606 375.775501535492 2664.29032587953 165 164 170
166.799119652549 376.414668393142 2670.83278829481 170 167 174
162.977949313606 377.052490262604 2677.36715361233 189 188 194
159.954407203005 377.675128389701 2684.5286157762 243 244 248
152.196858002124 378.380836399484 2687.87660767953 248 249 253
145.221398086737 379.073201659899 2691.8668547312 237 241 244
131.87939111895 379.883262199802 2690.82583158412 238 242 243
122.483974399966 380.623353212659 2692.96134971678 236 237 239
113.069706735836 381.365509396046 2695.11494404334 241 242 244
105.238531825067 382.078965906936 2698.53490213989 237 238 240
93.3830065323353 382.8715036658 2698.85452705206 206 206 206
81.4972550432627 383.667468619615 2699.20366048611 197 197 199
72.8075377740236 384.402651212652 2702.05570557104 167 166 171
64.9118105269828 385.123154647934 2705.53872355942 157 156 161
56.1949484503996 385.861215517902 2708.41763627325 166 165 170
45.8384942460981 386.63445004715 2710.08533307861 160 159 164
35.4598032732243 387.410238961189 2711.77507162892 165 164 169
23.4258989156833 388.223036458003 2712.26849736695 149 148 153
10.5436272220758 389.056853964069 2712.18434834497 150 149 154
-3.19272955707772 389.912323839322 2711.52820891021 142 141 146
-16.9669666973458 390.772303776269 2710.90901864886 157 156 161
-48.0843473808257 392.018983587788 2697.69754950805 190 189 194
-106.579413377538 393.888727020623 2664.81871432207 146 146 148
-154.558053328473 395.545666067661 2639.94987534688 98 100 99
-171.197998692428 396.507691841714 2637.91022758929 106 108 107
-175.409969994154 397.188293811193 2644.82634115986 109 111 110
337.012558101006 346.107523712097 2479.36474420003 160 164 163
336.608837095727 346.771933938678 2489.58648649305 199 203 202
331.172511839566 347.453436143149 2494.88411210788 202 206 207
325.011469602388 348.137759190027 2499.48372831915 169 173 176
318.846952367946 348.822153464657 2504.08712256864 134 138 141
317.051201625882 349.484323412847 2512.85768344501 131 135 138
313.813828273751 350.151579529109 2520.22488867341 162 163 167
308.390556533738 350.829608096836 2525.51006535573 133 134 136
298.560095378444 351.533908731793 2526.66563168729 105 107 106
287.970119545851 352.24543345819 2527.15743028582 116 118 115
272.183703675114 352.994540398135 2522.88443727497 124 126 123
251.160281768467 353.786287979981 2513.88686334068 211 213 208
223.117166101889 356.583705153606 2529.9846844887 176 178 175
201.084513528108 357.412342499522 2520.56659207531 171 173 170
208.299431465081 357.992400453074 2537.40548720678 171 173 170
214.827133799216 358.570715473011 2553.5101458779 166 168 167
222.173678255135 359.133737546192 2570.22085182594 169 171 170
224.281241809172 359.739691746832 2582.20855699821 164 166 165
223.388760646232 360.370795037867 2591.5036587858 172 174 173
222.52018717653 360.998619024573 2600.77550456034 176 175 180
220.911691528536 361.631180710404 2609.36415660641 174 173 178
220.089147994087 362.252641688534 2618.59123442468 163 162 167
216.219801771574 362.905116857856 2625.17127335543 175 174 180
212.358720188265 363.556209363037 2631.74297189245 189 188 193
206.963002223717 364.22407137775 2637.00228988051 184 183 188
202.341629728123 364.882236917909 2642.91135166538 187 188 192
195.398165060771 365.568121462627 2646.87078480973 189 190 194
190.779925681294 366.225285888948 2652.77654548618 179 180 182
182.269472040144 366.931694173006 2655.45516981071 146 150 151
178.432191970385 367.578062985336 2662.00426909466 148 152 155
172.253453434381 368.254562746949 2666.62261427041 145 143 148
169.21254678593 368.888294242751 2673.79968008201 142 140 145
163.822589908255 369.553100712278 2679.05372883389 170 169 174
157.644345138426 370.228729109752 2683.67205032176 177 176 181
149.089860150001 370.938889695555 2686.39384383648 181 182 186
140.520582153706 371.650590846506 2689.13009933185 241 245 246
128.756696533996 372.41156908981 2689.36305133465 238 242 243
118.55640333465 373.151642666237 2690.88057912795 180 181 183
109.931308661749 373.869466379354 2693.67135649629 167 168 170
103.69381005717 374.550913537062 2698.34765790778 154 155 157
93.4396982182113 375.296887275757 2699.91775636439 154 154 154
83.1631397451167 376.045425409629 2701.50976564404 158 158 158
72.8641779628005 376.796434023643 2703.12365660504 162 161 166
64.1598654972193 377.522829146411 2705.99183156196 152 151 156
53.8199645419706 378.278468074232 2707.64569136852 150 149 154
45.0825150705074 379.008480439265 2710.54623723531 145 144 149
34.701675480834 379.768690644178 2712.24007407828 154 153 158
25.1149502212975 380.51688910195 2714.56436614294 148 147 152
12.2365956157298 381.326330422105 2714.47993018427 135 134 139
-0.675727772764478 382.13978868737 2714.42863202645 146 145 150
-17.7324704503463 383.033548151119 2711.39605057582 141 140 145
-52.1476533648944 384.259309360817 2695.79412660629 165 164 169
-129.64879115279 386.320161719007 2649.16941449513 133 133 135
-163.606179299883 387.574953323329 2634.52585003413 107 109 108
-176.947882339228 388.440094509847 2634.89329350382 94 96 95
-178.678328841883 389.078830901696 2643.60213193247 125 127 126
-117.857968653698 388.462894778931 2696.65884173276 144 146 145
329.170510347257 338.550790963517 2472.68154148345 33 37 36
330.907636289228 339.236791582544 2485.0252658549 180 184 183
326.901216103387 339.919785604504 2491.73691058448 172 176 177
323.627586736602 340.600870473254 2499.13807468782 172 176 179
318.185634150348 341.282403950593 2504.4412837025 154 158 161
316.387380503318 341.958524266551 2513.21193030024 126 130 133
310.955733890509 342.638080370677 2518.50519758583 151 152 156
306.257130748731 343.315682432889 2524.48807783458 162 163 165
297.155208175476 344.002953753247 2526.33962082737 152 154 153
287.297675655853 344.694214861236 2527.52399666029 113 115 112
277.41713395756 345.388022828838 2528.73084452303 116 118 115
283.80255091093 346.029858084712 2544.96740641748 24 26 21
213.150869197109 349.625826161462 2532.40760453018 173 175 172
215.13164590906 350.275774050685 2544.51470866294 181 183 180
218.6599517658 350.912044598791 2557.92093361872 167 169 168
223.747790538203 351.53336382363 2572.61522345359 166 168 167
225.100738740483 352.170733907322 2583.93038241191 168 170 169
223.4499643858 352.82297136725 2592.55844760989 173 175 174
223.342838408569 353.4621386561 2602.48939755075 175 175 177
219.444715305079 354.124433335295 2609.09656103045 166 165 170
219.383608633813 354.75723895556 2618.98275337204 168 168 170
215.511885889827 355.4156287996 2625.56394019542 190 189 194
212.418352904472 356.066550101307 2632.79072409172 191 191 193
208.565637724034 356.721999982596 2639.35380849072 186 186 186
203.174256778469 357.389285762741 2644.60890492203 200 200 202
197.008153887212 358.063029670536 2649.21544787175 172 172 172
192.393586305512 358.722709134142 2655.11719067731 153 155 152
186.225022535134 359.396203071 2659.72621426197 129 129 127
181.615774713533 360.054651690466 2665.62285638534 145 145 143
176.227977863853 360.720099870954 2670.87466535288 178 176 177
171.626068828669 361.377122084759 2676.76423077499 202 198 199
163.88032763683 362.066333941041 2680.10293527506 223 221 222
156.912902947324 362.748149730173 2684.0871002779 226 226 226
147.565169650959 363.456856448061 2686.1795688101 186 186 186
141.370858794394 364.131591274137 2690.81397622906 125 129 128
129.608867454376 364.871131420268 2691.04821572553 134 138 137
120.207462146741 365.585677293269 2693.19345617576 136 140 139
110.787248411114 366.302282976837 2695.35673139193 170 174 173
104.551535539489 366.981175745885 2700.03163708173 219 221 220
94.2992899653432 367.71111056675 2701.60225285484 235 237 236
85.6339918852269 368.422739512295 2704.43386838481 228 230 229
76.1474586312225 369.146631348141 2706.66226081497 235 236 238
68.2593342337663 369.850726490891 2710.1401541998 224 225 227
58.7394541083155 370.578245579388 2712.40078661792 197 198 200
49.2012915788877 371.307791057773 2714.67961207591 180 181 183
38.8300978162319 372.051099545081 2716.36636853653 162 163 165
27.6203864642639 372.808761192522 2717.4667546504 172 173 175
16.384402203534 373.569440113439 2718.59278419934 170 171 173
1.02136432120536 374.394828644409 2716.72225267891 157 158 160
-18.4976404907733 375.288470276176 2711.88368554703 189 190 192
-61.9784940446571 376.561392593617 2689.69012012558 209 210 212
-136.197626522197 378.338631637846 2645.5158834191 144 145 147
-168.514091161368 379.47747135546 2632.09415177307 142 144 143
-178.548013080119 380.266166996962 2634.85619342306 145 147 146
322.767159562658 330.939292783213 2467.41228003498 20 24 23
329.532351308865 331.673344432659 2484.67499972106 194 200 198
325.521557641572 332.362357455807 2491.38975993463 162 166 167
322.968602422602 333.054340162644 2499.49092041967 174 178 181
317.52443759806 333.736299949837 2504.79626321126 147 151 154
315.72386514617 334.426275418082 2513.56716463105 155 159 162
308.828682758706 335.103301679401 2517.47996200814 148 152 155
301.926176763762 335.780972800181 2521.40027436777 142 143 145
294.281555622605 336.458203462088 2524.64033597799 140 142 141
285.152547542955 337.135149604328 2526.52030133585 122 124 121
278.958286974473 337.816010848746 2531.15375333605 124 126 123
302.37581029504 338.506020898179 2563.06134081511 10 12 7
222.966230795717 341.927753897572 2542.21974958208 194 196 193
221.963639170847 342.606674921556 2551.61712524606 175 177 174
222.492880027545 343.279411003508 2562.32810137836 163 165 162
226.077902219375 343.941010341872 2575.67460043283 164 166 163
