ply
format ascii 1.0
comment KinectMotionCapture
element vertex 761
property float x
property float y
property float z
property uchar red
property uchar green
property uchar blue
end_header
327.187888373736 501.889584277262 2930.87596852516 162 160 165
319.946699850643 502.668655623553 2933.70036357313 149 147 150
315.162001882709 503.24952312731 2938.36578742274 145 143 146
314.500187994599 503.496483245683 2946.07170007198 187 185 186
313.858190359064 503.740869795223 2953.75797741983 188 188 190
312.40827990074 504.049842148171 2960.82040691459 169 169 171
306.823226730378 504.693720115932 2964.85403523286 154 154 156
299.570802651644 505.473087474834 2967.68954360314 145 145 147
293.141700308463 506.18575299415 2971.13458698156 147 147 149
289.213477534117 506.694779190422 2976.3770457345 156 156 158
285.289804903032 507.203143315596 2981.61508398174 160 160 162
281.370892819282 507.710776322575 2986.84884083604 161 161 163
274.089118453929 508.492988703478 2989.7130739818 158 158 160
267.640127534132 509.207407937058 2993.17726997061 158 158 160
259.492814563968 510.061071022954 2995.47352604525 152 152 154
251.330642656169 510.916518860798 2997.78427347905 149 149 151
243.153804214947 511.773609257329 3000.1093422279 150 150 152
234.961918767611 512.632432699498 3002.44875889087 150 150 152
228.462421210501 513.352527917814 3005.96260765109 150 150 152
217.678888801443 514.425696244804 3006.59316002511 148 148 150
210.298123743418 515.219238083299 3009.55401790316 148 148 150
197.750988798691 516.439657067645 3009.07993360566 153 153 155
186.031001594888 517.592950852462 3009.21164760881 153 153 155
171.691268761592 518.964128397048 3007.66120098733 140 140 142
164.230023307967 519.767314833165 3010.70055162061 140 140 142
156.757809236319 520.571795584627 3013.7506029545 140 140 142
149.274625738884 521.377659206507 3016.8113427027 154 154 154
139.168119999844 522.401860885537 3018.194081994 149 149 147
121.18404946173 524.081791901511 3014.54890784551 142 142 140
94.3960708180569 526.496571766811 3005.36776539134 132 132 130
49.1030694314247 530.456531394865 2984.57654661525 136 136 134
4.5114987812318 534.364814705492 2964.51334380369 117 117 115
-17.360778434349 536.383210797312 2959.01121626092 117 117 115
-22.5402325499 537.009804221279 2964.06188052965 120 120 118
-25.9502173010091 537.48846634973 2970.21145622022 121 121 119
-32.0110696999842 538.188876694048 2974.70920474555 137 137 135
-38.0750291099305 538.889754141797 2979.21030738301 156 156 154
-32.5708278630485 538.620654572479 2990.78859015723 183 183 181
444.319736284349 481.281109379538 2830.36143299824 136 137 129
451.180403854094 480.996619667453 2844.84606511314 193 194 189
458.099770690953 480.704536627073 2859.27319243666 196 198 197
458.060443021535 480.931974402027 2867.78076178025 188 189 191
455.699901776626 481.332630899603 2874.31666307144 184 185 187
451.784262414492 481.849564737886 2879.545457564 167 169 168
446.302085908205 482.484145981244 2883.47863972785 176 178 177
443.179179869233 482.940268559866 2889.34647334909 176 176 178
440.853898835524 483.335284124526 2895.84785661475 170 170 172
437.749726180295 483.788543827442 2901.69751084078 195 195 197
429.893837644718 484.601841649986 2903.71034411212 196 196 198
421.227601849444 485.477139294301 2905.10145348518 166 166 168
406.164816343926 486.840140426706 2901.43639869061 149 149 149
385.458012624913 488.635586655061 2893.39298131162 155 154 152
359.066461412705 490.868376676928 2881.01092209967 138 137 135
345.419674051076 492.130867165678 2878.78877212259 117 116 112
339.780686255079 492.781721356466 2882.8749272387 118 117 115
343.014946680833 492.751803076588 2893.83778743664 157 156 154
342.244385672086 493.027480063778 2901.64744324358 161 160 158
339.872255835073 493.425233794365 2908.19528120573 168 166 169
338.325149511987 493.758560877783 2915.3502901705 174 172 177
336.794243301669 494.089727741925 2922.48953146327 187 185 190
333.646459636618 494.544888207164 2928.38221113491 168 166 171
325.595646924469 495.378572532703 2930.58559387885 157 155 160
319.170897795648 496.086839839954 2934.02662666289 146 144 147
315.20654241587 496.604313067811 2939.30371715958 153 151 154
315.368794253837 496.801060832923 2947.6156510425 188 186 187
313.902267631113 497.123168125875 2954.69230145375 184 184 186
310.795564960912 497.5721177245 2960.54510505358 163 163 165
304.376415453992 498.278735609212 2963.98082111422 149 149 151
297.950377332662 498.986031968838 2967.4236152345 146 146 148
293.185329290572 499.563655692473 2972.07000584656 148 148 150
287.585100712014 500.206485282332 2976.11919636129 155 155 157
283.657447867964 500.718211164678 2981.3606901526 162 162 164
278.894550711715 501.295150953192 2986.00504598853 163 163 165
271.60695934203 502.070253805997 2988.87610629073 159 159 161
264.30844214073 502.846616095829 2991.757829961 158 158 160
256.998957129166 503.624184145936 2994.65026661815 152 152 154
248.83105730263 504.469739690183 2996.96816403661 149 149 151
240.648405100599 505.317037068114 2999.30045333975 149 149 151
231.599262005996 506.233382580413 3001.0657284645 148 148 150
226.798702459481 506.814215263666 3005.74690824258 148 148 150
216.011428102166 507.86928014235 3006.38385210829 147 147 149
208.626822818225 508.655492732831 3009.3496066471 147 147 149
198.653622999867 509.647599709854 3010.60437692948 152 152 154
186.074605133162 510.847936239587 3010.16525886483 158 158 160
172.59827332186 512.121000248261 3009.18919056257 140 140 142
161.678780874273 513.191891308007 3009.95475200182 139 139 141
155.067900245264 513.920072280867 3013.57801072798 139 139 141
148.4497946895 514.649118139626 3017.20797824146 147 147 147
138.341268692884 515.65763647457 3018.59470382781 149 149 147
118.610205508573 517.437452595179 3013.83573759201 144 144 142
83.9447680099079 520.416917019906 2999.64037071436 135 135 133
34.2464090002119 524.6079060228 2976.10436886784 138 138 136
-2.47036879958173 527.764231544791 2961.08571676323 118 118 116
-19.0749438433504 529.30886248 2958.92483696644 120 120 118
-24.2581410839948 529.93610469084 2963.9791223233 118 118 116
-28.5562259955383 530.492069177008 2969.58226002929 119 119 117
-35.5088890753694 531.262200404287 2973.53837571032 138 138 136
-42.4686129922591 532.033267693185 2977.50170239942 157 157 155
-41.424803544738 532.157636226514 2986.3658434808 182 182 180
446.690931465427 474.495872254596 2833.2607220097 147 148 142
450.453380231186 474.472884677379 2845.11496834084 193 193 191
455.814792547547 474.332925268356 2858.23286509231 194 196 193
456.548952654767 474.521598163303 2867.3949883895 183 184 186
454.184211585567 474.931069235584 2873.933757378 188 190 189
449.48090029873 475.507691475308 2878.51899049834 173 175 174
443.992645467393 476.140532812994 2882.45846568612 154 156 155
440.07605080308 476.659768928875 2887.68786853224 178 178 180
439.321856388076 476.949952887111 2895.47912794566 178 178 180
436.213363128585 477.409254409618 2901.33184177531 170 170 172
428.353425563353 478.212507256746 2903.35018043593 176 176 178
418.092759047303 479.190599945231 2903.47557138667 197 197 199
406.211101466083 480.287674788991 2902.35888843975 151 151 151
387.102865069933 481.912979770444 2895.58737335741 151 150 148
360.715482271912 484.072889547378 2883.21194651693 167 166 164
343.860308212847 485.540420774469 2878.47715407263 117 116 114
338.217471252934 486.189299969321 2882.56776121094 115 114 112
341.447423576913 486.187050454306 2893.53080998626 157 155 156
340.672531156317 486.476937806023 2901.34232882153 161 159 160
339.107250275275 486.823747120375 2908.51373056517 170 168 171
336.745272038291 487.228299809704 2915.05048295529 177 175 180
336.024891186705 487.510813876969 2922.80896076492 180 178 183
331.241628839621 488.092591321196 2927.47282453301 166 164 169
324.821899183236 488.795301947179 2930.90969418178 148 146 151
318.395323968102 489.498626651399 2934.35360865308 142 140 143
315.251239298179 489.958257734448 2940.24161657051 171 169 172
313.76460412549 490.29403209993 2947.33655292378 186 186 186
312.294022975737 490.627648216577 2954.4155285412 184 184 186
308.354942146881 491.144470845234 2959.66761719347 157 157 159
301.099747270612 491.908678705826 2962.5081175739 144 144 146
295.497943954303 492.549554454233 2966.55916060341 148 148 150
290.726983873747 493.128159359561 2971.21127693883 152 152 154
285.120868297332 493.769224923915 2975.26657405166 160 160 162
279.511333617972 494.410616620778 2979.32488034003 163 163 165
273.898928464527 495.052150757708 2983.38635384101 163 163 165
267.441357207106 495.7574500722 2986.86041815198 159 159 161
261.820684621198 496.39979057505 2990.92998215507 158 158 160
255.351230060762 497.106280086663 2994.41600869298 151 151 153
246.331711535113 498.006006262744 2996.15432251346 149 149 151
237.293614897853 498.907868114095 2997.91076902153 148 148 150
228.236979407421 499.811936106895 2999.6856366601 145 145 147
222.575305219119 500.458767371711 3003.79525212783 145 145 147
213.488955381387 501.366299523907 3005.5987767093 146 146 148
206.098554351692 502.14539990631 3008.57133769056 147 147 149
197.838070253211 502.991334638869 3010.98111661584 147 147 149
187.840526220366 503.970559523377 3012.26196503073 164 164 166
174.368221572021 505.216491419016 3011.28590781058 141 141 143
160.857908203337 506.467038011307 3010.34691176144 139 139 141
151.644352128371 507.38976792945 3012.27484563575 139 139 141
145.018512783559 508.1146584673 3015.91310707071 141 141 141
134.902437117622 509.108148006046 3017.30955083981 152 152 150
113.418444849078 510.977819356293 3011.44383205658 150 150 148
70.8701662986364 514.474174476504 2992.24664926864 137 137 135
22.8969795683116 518.396475824572 2969.87139424144 136 136 134
-4.18041208184583 520.712584247628 2960.99222677709 114 114 112
-14.6255573279106 521.746113499401 2962.7095236517 118 118 116
-21.5637586267712 522.509114395016 2966.65233243035 120 120 118
-28.5090213011983 523.273110388966 2970.60234402621 122 122 120
-38.1203091708771 524.244490052365 2972.91770319913 137 137 135
-48.6384574477321 525.287340433792 2974.70611550361 154 154 152
-50.2782402051607 525.640180670339 2981.95060734417 180 180 178
445.966691131704 467.93559597374 2833.53260001891 170 171 166
449.726731733323 467.942661756837 2845.38479581912 194 194 192
455.085696972122 467.838185745819 2858.49987812405 193 195 192
455.037865158669 468.099364333124 2867.01090533105 180 182 181
451.887173047687 468.571032466138 2872.90369546441 178 180 179
447.177779923021 469.14862780905 2877.49482411539 186 187 189
442.469027786716 469.725788532235 2882.08538049206 173 174 176
438.548449919978 470.248432713074 2887.31857284855 156 156 158
436.211153097878 470.661490776702 2893.82955913823 174 174 176
430.72050847315 471.29122623179 2897.77152863227 143 143 145
422.846828236358 472.085626656677 2899.80482235305 139 139 139
413.367703441308 472.991683189411 2900.5816870516 158 158 158
403.865962751265 473.900237002101 2901.38064057132 190 190 190
387.149450497484 475.311296273178 2896.516839277 184 182 183
360.762410377532 477.398719646765 2884.15178561089 210 208 209
341.498228350046 478.994281214241 2877.53918506737 112 110 111
336.654302627553 479.585092008262 2882.26195333884 126 126 126
337.45932744731 479.780045237431 2891.35277869826 157 157 159
337.483429298655 480.028086594282 2899.79431638966 164 164 166
335.909908401845 480.386945417599 2906.97178183661 169 169 171
335.978124762472 480.629101111059 2915.37038306665 179 179 181
335.255723974274 480.925596522089 2923.12913810869 177 177 179
328.837144998547 481.623208705068 2926.5656186622 157 157 159
322.411677408408 482.321499362959 2930.00917727536 148 148 150
318.440399772678 482.84594852471 2935.29211063456 142 142 144
316.941037947438 483.194455948666 2942.39746495947 179 179 181
314.633606758585 483.599385281518 2948.8799956567 189 189 191
311.512280548233 484.061559393248 2954.74536607081 183 183 185
306.742908398867 484.640671740536 2959.39583056739 151 152 154
300.313882588882 485.338244629957 2962.84269078933 143 144 146
293.045814206952 486.096085124502 2965.6969158451 147 148 150
288.268942626438 486.67561217481 2970.35476609474 154 155 157
282.656917985828 487.31500494871 2974.41617823337 160 161 163
277.041517567187 487.954629940087 2978.48057040585 161 162 164
269.743670199129 488.715474400762 2981.36426029217 161 162 164
265.80172321944 489.234574840132 2986.61885841517 159 160 162
261.020732860045 489.814031439697 2991.28080908571 157 158 160
255.394875347833 490.454460440941 2995.35580431638 153 154 156
247.222918234828 491.279518121884 2997.68042241353 152 152 152
239.036418881148 492.106278107769 3000.01956741271 150 150 150
228.280730930243 493.1205349859 3000.63117691459 144 144 144
219.205342515546 494.013594197075 3002.4259557353 142 142 142
209.256236877204 494.971220297441 3003.66223424125 145 145 145
201.856256613537 495.743626471745 3006.6452969445 147 147 147
195.304397142001 496.454532133785 3010.2121622302 146 146 146
186.16234395587 497.355481225724 3012.07231187549 158 158 158
171.823159742411 498.63857863454 3010.534338672 154 154 154
159.172136672213 499.799651164485 3010.17218819888 143 143 143
149.954789914042 500.709620456933 3012.10577229256 134 134 134
142.456344767801 501.49390897479 3015.18485587459 136 134 135
127.980854299838 502.793498773389 3013.78013707078 151 149 150
102.118169953476 504.936597692148 3005.13688950199 157 155 156
56.0470911158766 508.579493214339 2983.74826575547 140 138 139
13.3014038882973 511.984507278005 2964.76061287043 134 134 134
-8.5259886593736 513.845075887514 2959.23724102187 111 111 111
-17.2196928913966 514.733064541449 2962.07099839271 119 119 117
-24.1636294038043 515.491628679544 2966.02015807402 131 131 129
-31.9987159808446 516.317045846674 2969.4277906189 126 126 124
-41.6175788297073 517.276171439429 2971.75248300442 139 141 138
-51.2550243951653 518.237656125382 2974.09561747127 146 148 145
-49.3404833067324 518.335826520419 2983.51589055256 178 180 177
457.738249958286 460.285733801679 2835.72677392014 121 122 117
449.111818725716 461.119882004268 2837.08477648553 185 186 181
450.551739864237 461.305925462383 2846.96336659291 189 189 187
453.578908732567 461.387206380479 2858.11543657585 192 194 193
451.187760384453 461.816753656582 2864.67746112853 173 175 174
447.245655362515 462.345915166695 2869.93106700994 170 172 171
443.307935558714 462.874153590921 2875.18011689462 176 177 179
440.9457701903 463.299221538341 2881.71402296283 184 185 187
437.020917210724 463.825248206664 2886.95062279741 166 166 168
433.100551675693 464.350502770405 2892.18288064993 149 149 151
428.393399856255 464.92681309113 2896.77197357741 164 164 166
421.30703069934 465.659182367328 2899.44953325168 155 155 155
411.028762550343 466.602196238575 2899.597587518 127 127 127
400.723988455997 467.548168308023 2899.77152535948 142 142 142
381.602432598215 469.078649934717 2893.02725154985 165 163 164
356.003098384115 471.042134086549 2881.31522175537 145 143 144
338.333509853754 472.484183345041 2875.97601182643 113 111 112
335.091578851489 472.969080132499 2881.95778618024 124 124 126
335.085387978546 473.237435193489 2890.42606479607 151 151 153
333.48586963666 473.610732962548 2897.62754986241 161 161 163
333.523814262325 473.873229198522 2906.05286720747 175 175 177
333.585950044049 474.132515294918 2914.45497467617 183 183 185
332.042856273858 474.498228099553 2921.60155036314 167 167 169
325.616416226874 475.191671523154 2925.04645321743 151 151 153
319.182877699913 475.885803432053 2928.49830320946 144 144 146
315.203896610763 476.414129655512 2933.78865102575 168 168 170
314.518858404 476.718930583634 2941.50873907831 186 186 188
313.029729161814 477.076998291979 2948.60251929113 188 188 190
309.904333922155 477.545287408023 2954.47102651653 171 172 174
305.130983995586 478.125166577051 2959.12532766875 147 148 150
299.528309641079 478.761434627545 2963.17791666781 143 144 146
293.090212367211 479.454843924745 2966.6344003646 151 152 154
287.479314443665 480.091765389411 2970.69505891495 157 158 160
281.029145529048 480.786342695779 2974.16335729821 161 162 164
274.572215551482 481.481582397171 2977.63860945721 163 164 166
268.947803931912 482.119748765242 2981.71216546932 160 161 163
263.320457524018 482.758124650038 2985.78894264512 158 159 161
258.533597643312 483.338557071333 2990.45657761107 156 157 159
252.056118457717 484.035810676556 2993.95159994133 152 153 155
243.876580401799 484.851314566786 2996.28549591495 148 148 148
234.832939693562 485.727503233029 2998.05158009499 147 147 147
223.216105237058 486.783598528714 2998.09488994745 145 145 145
214.129312848347 487.664873336974 2999.90307265454 143 143 143
205.878970846634 488.488667570419 3002.30571484191 143 143 143
198.471281565273 489.254202734973 3005.29744824592 144 144 144
191.052790745045 490.021057082808 3008.30005060499 146 146 146
181.90091162151 490.910048911062 3010.17138698774 153 153 153
168.415445508384 492.104361683738 3009.2160285805 156 156 156
155.75686124086 493.242357625957 3008.86479719769 140 140 140
146.531853661435 494.140172122758 3010.80778507361 135 135 135
135.550497410748 495.162858159208 3011.64224070724 136 134 135
121.930470697392 496.373456292118 3010.81809599607 144 142 143
93.436589832991 498.639337530236 3000.51845249759 161 159 160
42.0993979650963 502.530566439757 2975.82032168112 142 140 141
5.4594106548147 505.388057659748 2960.76958306457 128 128 128
-11.1140703375217 506.824806654624 2958.59377131873 117 117 117
-18.9331386400018 507.6403451633 2961.98661969959 115 115 113
-26.7629237162952 508.457221653687 2965.39025008415 125 125 123
-34.603888083939 509.275491024878 2968.80443796112 122 122 120
-45.1144751332588 510.285545027131 2970.5901891454 135 137 134
-52.0953135487714 511.043778370622 2974.57604185329 140 142 139
-45.7323823062303 510.844402752289 2986.70819719568 175 177 174
449.935401683158 454.465959056177 2838.66730265755 196 196 194
452.152777374443 454.626198898065 2849.19492982406 184 184 182
452.850210695358 454.876819487329 2858.38436752081 187 189 188
448.897407508504 455.410497541243 2863.64759145294 172 174 173
444.167494202603 455.991298951729 2868.25862309184 170 172 171
441.788903174031 456.426958610032 2874.80727463317 168 169 171
441.779109242423 456.71524405306 2883.27652327975 178 179 181
438.643520862775 457.195255658649 2889.15341986501 180 180 182
433.937469642777 457.771957950764 2893.74136194777 159 159 161
429.232080131208 458.348281979886 2898.32870285139 152 152 154
419.767656483807 459.220966361613 2899.09590148235 160 160 160
409.485434877797 460.14578551094 2899.25057076188 150 150 150
395.987924280615 461.27344916343 2896.89977625651 128 128 128
376.055831735739 462.807267471971 2889.54297488126 144 142 143
350.443210477515 464.702637060698 2877.85420662069 126 124 125
336.77496525949 465.850261851105 2875.67000387027 109 107 108
333.528943700089 466.341305841215 2881.65493165391 126 126 128
333.518774396425 466.626513258051 2890.12500798142 150 150 152
331.914906358382 467.011370099473 2897.32876609251 160 160 162
335.191821942768 467.084341224505 2908.23406207826 176 176 178
334.44489210716 467.411496838092 2916.01264326243 181 181 183
331.274073471305 467.892100357036 2921.92409868638 165 165 167
323.212524056045 468.68535880104 2924.14411806287 151 151 153
318.410146478591 469.269958805569 2928.8265463641 142 142 144
315.249449051801 469.748772112357 2934.72855371239 179 179 181
315.386487087856 470.014284850787 2943.05502399832 186 186 188
313.899273989346 470.383154615831 2950.14564275487 183 183 185
309.123071105383 470.963865196082 2954.80265405374 167 168 170
302.691225224408 471.651680446519 2958.25375682264 144 145 147
297.91268712801 472.232331604444 2962.91309580458 142 143 145
292.302851607289 472.866848836533 2966.97305471774 153 154 156
286.689703276507 473.501678801226 2971.03591923654 159 160 162
280.237750254224 474.191367181313 2974.50704968824 162 163 165
276.292239604511 474.717049635869 2979.76421376928 164 165 167
269.832062205428 475.407479985199 2983.243401486 160 161 163
263.364682753689 476.098595430306 2986.72930184862 157 158 160
256.04676632684 476.846061369485 2989.63456010463 156 157 159
248.717860561897 477.594765267278 2992.55054796609 151 152 154
241.378135796732 478.344656165476 2995.47710381655 147 147 147
233.178095380242 479.152100830846 2997.83255008722 146 146 146
222.409014186896 480.130836810488 2998.46270925011 146 146 146
214.173644707798 480.942440421423 3000.85262311186 145 145 145
205.923313526149 481.755736839714 3003.25680612724 141 141 141
196.801354948458 482.627970528011 3005.10124565342 139 139 139
187.660437247958 483.502489415243 3006.96383627541 144 144 144
178.501108245749 484.379198364036 3008.84472374403 141 141 141
168.46003820521 485.316086675139 3010.17505145505 157 157 157
154.071856756098 486.546467552893 3008.69386255314 131 131 131
142.24221760547 487.606805201058 3008.94786359485 137 137 137
131.251337342806 488.612087225794 3009.79434901849 137 135 136
118.492464657167 489.738401475711 3009.54443206643 133 131 132
86.5010089497949 492.169242084748 2997.02591389682 156 154 155
28.1524116556007 496.394836897261 2967.90450511411 152 150 151
-3.25860644091902 498.802050530198 2956.23000519095 113 113 113
-17.2157073875776 500.027014095874 2955.73845697164 121 121 121
-24.1675881234871 500.776276631439 2959.6972179991 122 122 120
-30.2445679117342 501.466218698214 2964.21252846723 125 125 123
-38.0931565320175 502.277635858086 2967.63530009361 125 125 123
-49.4974170838409 503.333497847124 2968.88480255864 130 132 129
-53.8231613513611 503.904801968725 2974.51313922258 129 131 128
-41.234099378316 503.312551509409 2990.43976234839 168 170 167
445.488530675813 447.803678571866 2827.0638681121 122 123 118
451.533044627239 447.771947708649 2840.90434802776 188 188 186
452.202293411544 448.045433697259 2850.11839388997 189 189 187
452.899339939442 448.315179463295 2859.30538898512 182 184 183
448.166679161271 448.896887440169 2863.91901491449 170 172 171
444.216148475658 449.432844153144 2869.17964543448 159 161 160
441.053781790535 449.922393831995 2875.08172354987 158 159 161
440.256102286629 450.273120214065 2882.90687831361 163 164 166
437.903737304171 450.713228063223 2889.42882956278 180 180 182
435.563662202563 451.151521217902 2895.93884498964 185 185 187
430.070680490388 451.774137674365 2899.88452527295 171 171 173
421.401348023576 452.583869070913 2901.28840034941 165 165 165
406.351921608515 453.771686752283 2897.63630966008 159 159 159
392.846644523045 454.870845080786 2895.29744046682 120 120 120
370.509711416531 456.497170363352 2886.06394303385 126 124 125
349.689760793592 458.038084199176 2878.17016413754 136 134 135
336.822678140283 459.108680101684 2876.6190271127 127 125 126
335.186305917046 459.508973073308 2883.85311874887 123 123 125
333.565945468845 459.907083637702 2891.07129517258 149 149 151
331.961871244736 460.302905189465 2898.27363745007 162 162 164
334.427734433547 460.45204554147 2908.55615335798 179 179 181
332.053250054956 460.891433246797 2915.10017593144 180 180 182
328.876384803617 461.378460045043 2921.01668637607 154 154 156
320.808937131749 462.161877153657 2923.24401735364 145 145 147
316.81901863578 462.697669038071 2928.54378491316 159 159 161
312.833903473554 463.232694925969 2933.83923374722 187 187 189
312.965070257764 463.515387093662 2942.16933300286 187 187 189
311.471657966888 463.896049089453 2949.26402692053 180 180 182
308.341868090634 464.376168303035 2955.13481175979 166 167 169
301.079878171009 465.110126730843 2957.98653057167 142 143 145
295.467299229303 465.742778483746 2962.04948945944 141 142 144
291.515528583051 466.272670302268 2967.31224766743 155 156 158
287.568582259865 466.80182296265 2972.57066234054 161 162 164
281.954203367374 467.434213430834 2976.63510938182 167 168 170
275.499002923572 468.119092458859 2980.11017539123 164 165 167
269.876609789099 468.752185367544 2984.18281471487 160 161 163
261.725641785252 469.543579435046 2986.49156578372 157 158 160
255.24761447621 470.230805432701 2989.98895232667 156 157 159
245.37997629061 471.131382540282 2991.15242642197 150 151 153
238.032435676358 471.874474865351 2994.08774835226 147 147 147
228.125727995595 472.779564521801 2995.28935208105 146 146 146
216.493803377324 473.795003125935 2995.35399357047 145 145 145
209.951435806942 474.489586679021 2998.91384565858 146 146 146
204.257495725822 475.130667262701 3003.05635158302 142 142 142
196.845909211595 475.881155449605 3006.05417893361 140 140 140
186.846010660155 476.797256185715 3007.34669514184 142 142 142
178.545903221834 477.605993874502 3009.80131833614 139 139 139
169.367820756853 478.471753078383 3011.70210879604 153 153 153
153.251800216017 479.783636936826 3009.09048707198 131 131 131
137.95321377455 481.045748128644 3007.09174474145 135 135 135
126.083889280828 482.089653576455 3007.38758258756 138 136 137
115.92579193769 483.024872220362 3008.83436691612 135 133 134
77.8205450559799 485.768232976602 2992.42170251178 144 142 143
17.704731749951 489.945655987493 2962.22846648888 155 153 154
-8.46999840571661 491.933908893118 2953.91797119473 111 111 111
-17.1678371279116 492.790958896307 2956.76040689451 117 117 117
-23.239269788994 493.477741415354 2961.27101380513 125 125 123
-30.196501710126 494.222649756089 2965.23539434472 127 127 125
-38.9292047680252 495.084124447178 2968.1117968783 128 128 126
-51.2212652372774 496.179717285478 2968.82011626554 130 132 129
-11.815504655571 494.168320523239 3009.3395621529 169 171 168
441.679759401071 441.371943729928 2824.7114196201 127 128 123
448.487946849923 441.337699677561 2839.21117907161 183 183 181
450.700414268074 441.547456480329 2849.73602379872 191 191 189
450.615545625126 441.878965936769 2858.27343425317 177 179 178
447.436158321418 442.376823577406 2864.19118618131 175 176 178
442.701925485556 442.958611799478 2868.80636132699 163 164 166
438.75177501857 443.497115208219 2874.06623788375 146 147 149
435.591741366896 443.99161899669 2879.96526704719 147 148 150
434.014791666036 444.398144105249 2887.13909229111 172 172 174
432.454022434891 444.802334564372 2894.29719514957 186 186 188
426.161659219072 445.467347067434 2897.61315980614 180 180 182
417.482666250822 446.265044784233 2899.02874431794 160 160 160
404.013811692087 447.330674227213 2896.65900041385 152 152 152
389.705698026884 448.445672893531 2893.69810929964 143 143 143
369.75823314565 449.879544035077 2886.37100718728 134 132 133
349.737685853649 451.322127140707 2879.11518936469 136 134 135
337.673694616284 452.32072870294 2878.19445858371 122 120 121
335.233970037935 452.777392686936 2884.80071221351 122 122 124
334.420121579842 453.140830780189 2892.64004420242 151 151 153
332.817753633845 453.547464399037 2899.83909410173 165 165 167
332.85305625192 453.859549118662 2908.26004368514 178 178 180
329.661891990705 454.354203410216 2914.18996375977 178 178 180
325.664481039233 454.894301060805 2919.49653504801 150 150 152
318.405654915475 455.621285617721 2922.34614289889 145 145 147
316.046767563698 456.066431986261 2928.87382626625 175 175 177
314.520577446333 456.462548162584 2935.99878492903 188 188 190
315.47765746823 456.713635608881 2944.93032061216 187 187 189
312.341392007728 457.200366564249 2950.80689643175 171 171 173
306.734933125422 457.830182877494 2954.86419708681 157 158 160
297.812620459848 458.653526111577 2956.51727341673 142 143 145
292.192198461939 459.284689915623 2960.58824049345 147 148 150
287.400583109576 459.86734348241 2965.26026942872 164 165 167
285.94553253807 460.253577371806 2972.31604606851 167 168 170
281.163209607186 460.834794121496 2976.97905985283 166 167 169
275.543813406054 461.465238919294 2981.04911456699 162 163 165
269.081457221261 462.145725885698 2984.53159763578 159 160 162
260.928754113949 462.926858685952 2986.84392614083 160 161 163
253.604921158662 463.659502727359 2989.75725026707 158 159 161
243.733495264127 464.544665237099 2990.92676388416 149 150 152
234.687195561094 465.381797935796 2992.70126094029 147 147 147
226.471700540603 466.170197997337 2995.07486864531 144 144 144
213.984510027363 467.215971863784 2994.56707111336 140 140 140
206.583111794079 467.957598161787 2997.55609113367 143 143 143
200.025953125557 468.648857111085 3001.13112237588 144 144 144
193.462074834225 469.340891168872 3004.71304958416 143 143 143
183.454540771395 470.242062383779 3006.01535454479 135 135 135
176.007696277578 470.988916670009 3009.04873067925 141 141 141
167.686979108784 471.789726607271 3011.5249913588 139 139 139
153.297039191711 472.961756676653 3010.05383502357 145 145 145
137.13163462492 474.244986115384 3007.49548747803 133 133 133
125.2607583397 475.267845375728 3007.79631473534 136 134 135
111.618077138737 476.401367222471 3007.00605810669 141 139 140
72.6311331175808 479.097666995913 2990.0586404287 135 133 134
15.128570905437 482.945407565774 2961.57020015458 147 145 146
-10.1748499377332 484.815915820644 2953.82913160047 115 115 115
-19.754965652659 485.717409106213 2956.12386553904 119 119 119
-24.9519519139594 486.347863862868 2961.19136878438 122 122 120
-35.4417839080501 487.307729964159 2962.96426548384 125 125 123
-45.070198302394 488.215223612464 2965.30607387406 131 131 129
-52.0589316402846 488.959031888241 2969.30189837529 132 134 131
-48.3979107174406 489.036534438357 2979.82510233918 147 149 146
438.643284198442 434.873512041958 2823.01917463628 143 143 141
446.216884311948 434.841914751897 2838.17538612432 189 189 189
446.87175455938 435.155307245451 2847.3978119222 183 183 183
447.554443808984 435.46495683645 2856.59316623904 170 171 173
446.705677909789 435.85028108502 2864.46393699893 173 174 176
444.313953520629 436.312717132186 2871.02167262288 173 174 176
438.017118192545 436.974211529122 2874.34293596958 151 152 154
431.71295379885 437.636348065009 2877.67104443693 136 137 139
427.763823461833 438.177081623217 2882.92957837443 148 148 150
426.187432586761 438.594226087004 2890.101617002 153 153 155
420.670604727283 439.214819932479 2894.07093796112 157 157 159
414.357519781153 439.876918115716 2897.4082481794 141 141 141
400.880731116465 440.914076403488 2895.05025314211 143 143 143
387.362148869285 441.956136585538 2892.73337309422 144 144 144
365.011883260144 443.466070604787 2883.52997976934 125 123 124
348.984878526597 444.647396592657 2879.43235111129 141 139 140
337.721783689372 445.579807154421 2879.14301068422 125 123 124
336.086637109123 446.001983508872 2886.37231304237 124 124 126
334.467733428051 446.421964765726 2893.58581039599 154 154 156
332.056358599495 446.883045089289 2900.1632595721 167 167 169
328.846795143229 447.385827321139 2906.11024901338 176 176 178
324.020382449463 447.974872585817 2910.81588753291 174 174 176
320.009233328881 448.519591623411 2916.13541798718 150 150 152
316.002719924377 449.063578833268 2921.45045327067 146 146 148
314.456190402159 449.473345254131 2928.59359176296 187 187 189
314.566732691592 449.791630525516 2936.93891080163 189 189 191
313.879064556231 450.151679421883 2944.65378262858 187 187 189
311.562940269524 450.599425102582 2951.13861746297 165 165 167
304.301961694311 451.317953623885 2953.99161252834 153 154 156
296.202064134674 452.083200824465 2956.25385222863 142 143 145
290.577478726843 452.712484808509 2960.32889362753 150 151 153
287.445992920935 453.203655047134 2966.20006705533 168 169 171
284.322990364306 453.693637899741 2972.06299198632 169 170 172
278.700683393779 454.322221868775 2976.1358743252 165 166 168
273.075420645606 454.950988516158 2980.2120026372 162 163 165
267.447055222191 455.580028367401 2984.29117157216 159 160 162
260.132092785319 456.303947160399 2987.19697673038 160 161 163
251.962567771482 457.076540309576 2989.52693395199 159 160 162
242.932968230287 457.898594545693 2991.28707609073 148 149 151
232.189732111829 458.818789068158 2991.900223114 147 147 147
224.817781622581 459.549213969157 2994.86165665074 142 142 142
213.178084156462 460.523158462698 2994.93981166241 138 138 138
205.774968834766 461.257204303974 2997.93199500708 141 141 141
196.650226161769 462.090410833543 2999.78462953608 145 145 145
190.078404485078 462.778270062449 3003.37472383935 144 144 144
180.063444507167 463.664531264125 3004.68694437886 132 132 132
172.608847401486 464.404637973995 3007.72901626035 142 142 142
164.280321424351 465.195830984768 3010.21411473756 135 135 135
151.612828950665 466.239318957872 3009.88603541371 151 151 151
137.177324256705 467.387667746962 3008.46362565838 134 134 134
122.700322523318 468.540998984017 3007.082024515 135 133 134
108.181443008559 469.699432674345 3005.74125448723 141 139 140
68.3149309340014 472.343112311984 2988.25812880404 138 136 137
15.1763988370841 475.774518255587 2962.5825606198 142 140 141
-11.8796367962015 477.686458196201 2953.7415843982 116 116 116
-22.3418128819919 478.626988254403 2955.48953838861 124 124 124
-29.305075754686 479.36235379428 2959.46165601606 124 124 122
-39.8045816326169 480.307560381514 2961.24598785296 128 128 126
-49.4425273337455 481.20310555418 2963.5990269512 133 133 131
-50.2377625105055 481.574238294573 2971.41907625309 133 135 132
-35.028342822935 480.990598181692 2988.99343862207 151 153 150
434.063469105875 428.424449470336 2820.01803576666 148 148 146
444.71979494406 428.292561548048 2837.79585306355 186 186 186
443.819132716814 428.698567633813 2845.71543871985 181 181 181
443.715898401007 429.065074142916 2854.26557616786 169 170 172
445.196027241585 429.354331993234 2864.08932223261 171 172 174
441.236998460299 429.900087412517 2869.35694324272 174 175 177
435.715651920115 430.519940557402 2873.33119863579 160 161 163
427.049222397347 431.290769863623 2874.73794075787 148 149 151
423.088370735838 431.835887000029 2880.00780409491 149 149 151
420.710590320303 432.303729900177 2886.55089401641 150 150 152
416.762543888987 432.846685567908 2891.8080231927 161 161 163
409.646303950821 433.543517807861 2894.52049735277 170 170 170
396.953130601928 434.51382010885 2892.81148916829 148 148 148
381.830599491158 435.605990778714 2889.24579126703 138 138 138
362.663056463599 436.900982418815 2882.58165087199 138 136 137
345.829382757721 438.085304923697 2877.86770422659 138 136 137
336.967019942865 438.877738871247 2879.46581784758 125 123 124
333.720133388373 439.391447483861 2885.44825476282 119 119 121
332.095112829037 439.823227040965 2892.66608248336 152 152 154
330.486420472441 440.25277126219 2899.86802643886 163 163 165
327.272766189786 440.761730215049 2905.81816521455 177 177 179
324.067595694918 441.269442745176 2911.76006368429 168 168 170
320.056291828234 441.817159216712 2917.07930478429 140 140 142
316.866239681987 442.322582541402 2923.00652885392 141 141 143
315.321394102288 442.743281782758 2930.1463793003 187 187 189
315.43363591353 443.07777562059 2938.48761506965 189 189 191
313.92520843044 443.493647906903 2945.59201522958 190 190 192
309.136175585076 444.077184768591 2950.26134914663 154 154 156
301.043195459778 444.831328825265 2952.51836077218 148 149 151
292.93531821542 445.587069094278 2954.7895916957 147 148 150
288.963245550456 446.1285589818 2960.07113376085 159 160 162
284.995620263837 446.669294853632 2965.34803311476 174 175 177
281.866698373933 447.165714424009 2971.21588468712 170 171 173
275.402668196536 447.83650566093 2974.7014630799 163 164 166
272.283017469534 448.33149109419 2980.56032021529 165 166 168
265.812761221585 449.002772382101 2984.05200875884 166 167 169
260.177339578572 449.630195606818 2988.13842356087 157 158 160
250.320721124572 450.481972565644 2989.29816754046 152 153 155
242.132710056274 451.246327717867 2991.64803710177 148 149 151
232.234980475947 452.10296305885 2992.84788697077 148 148 148
224.013767549021 452.871061566711 2995.23017320218 146 146 146
214.074969628776 453.732520411531 2996.47009162807 141 141 141
205.820340372673 454.504595703342 2998.88497300141 141 141 141
195.840516629664 455.370872692036 3000.16491855621 141 141 141
186.695317626028 456.193301627922 3002.03945944757 140 140 140
176.672426429091 457.064742593778 3003.36140838721 137 137 137
170.071356178639 457.750998322268 3006.98112179525 139 139 139
162.600164239288 458.485324736268 3010.04052691709 137 137 137
150.793578451557 459.457958969258 3010.28459815512 158 158 158
134.622854768248 460.672511627203 3007.74168296912 150 150 150
117.534007501272 461.940907974582 3004.68561068257 138 136 137
100.391718056233 463.215835166775 3001.68164201284 138 136 137
64.8714038276697 465.512534743572 2987.01884555201 138 136 137
16.0989069754285 468.554259513869 2964.15055680776 145 143 144
-14.4604799521595 470.594277965491 2953.10155514959 124 124 124
-25.8066231937062 471.56871901365 2954.30538024588 128 128 128
-31.0170074744054 472.201423007387 2959.38585548629 123 123 121
-38.8734745177155 472.982638858456 2962.82091424346 128 128 126
-49.3935416604243 473.91460438991 2964.62762074249 130 130 128
-47.5303628284491 474.149498913272 2974.07902737926 154 156 153
-39.4199471836565 474.029117100595 2987.2980482631 166 168 165
445.544183213192 421.630664739287 2839.37875808228 185 185 185
443.093690605689 422.117846289149 2845.9911940413 182 182 182
442.988348344691 422.500998834089 2854.54130227521 169 170 172
442.127446582364 422.915201498615 2862.42019375132 170 171 173
442.067880527631 423.292153997112 2870.92542405787 177 178 180
437.331667413053 423.87454567774 2875.54247645868 166 167 169
431.02540490456 424.526643616204 2878.87448992735 155 156 158
424.711814407473 425.179265620192 2882.21336489837 137 137 139
420.759207830357 425.726026414306 2887.47479781283 135 135 137
415.228394544639 426.343429963554 2891.45847803133 157 157 159
405.728580367913 427.140879514846 2892.27193965616 158 158 158
391.435625629114 428.158070807859 2889.310789233 137 137 137
377.096545459998 429.180736169216 2886.3942951371 135 135 135
358.716613371056 430.392181167921 2880.3776407538 136 134 135
343.475147709155 431.463639803313 2876.93310784963 126 124 125
334.606889342706 432.243607961687 2878.53891827871 121 119 120
332.158709098493 432.72637018356 2885.14971120155 119 119 121
331.336488816818 433.132040365585 2892.99145249274 154 154 156
330.53423440552 433.535029663835 2900.81342577096 166 166 168
328.13095712272 434.011600434505 2907.38054448312 177 177 179
324.927563168743 434.524750010767 2913.31987522845 167 167 169
320.103527935311 435.113878856166 2918.02314054152 134 134 136
316.096684318534 435.663804577176 2923.33762602133 150 150 152
315.368222439503 436.05677049039 2931.08814151808 188 188 190
314.659747420171 436.447082358205 2938.81886419244 187 187 189
311.504724268213 436.953308462721 2944.71118530241 186 186 188
305.061224516177 437.617442664284 2948.17736058623 148 148 150
299.436995385621 438.242305002848 2952.25303955579 145 146 148
293.809707443247 438.867287593524 2956.33173819749 154 155 157
289.009281885332 439.45205429676 2961.01220347647 166 167 169
284.209623251716 440.036547410522 2965.69194762468 176 177 179
280.244565124625 440.579849123603 2970.96591852101 170 171 173
274.612584152534 441.204863141393 2975.04927276568 170 171 173
269.815225214799 441.788653560164 2979.72683713991 172 173 175
265.018632662855 442.372229426175 2984.40367219252 171 172 174
260.222763710295 442.955625617747 2989.07981525605 158 159 161
251.209710507609 443.749483772763 2990.82735616252 152 153 155
242.178204293821 444.545448794233 2992.59324762986 151 152 154
231.433138252596 445.428812100096 2993.21365543122 151 151 151
221.511107513445 446.272500951889 2994.43955019562 147 147 147
212.417852430692 447.075732717912 2996.265347339 140 140 140
204.159407450775 447.837792591226 2998.68549805697 139 139 139
195.030865822568 448.645177942852 3000.54572136347 140 140 140
185.883997926961 449.454742636113 3002.42415866066 140 140 140
175.859295799506 450.310549284212 3003.75021662641 139 139 139
167.534188229853 451.080541285575 3006.23539191638 135 135 135
159.194328015452 451.852304638978 3008.73495499561 134 134 134
146.515370188549 452.849397837253 3008.42478022246 157 157 157
132.935616684828 453.895585123023 3007.58494347018 162 162 162
113.237027224471 455.262623962818 3002.85473864828 139 137 138
96.9559100914563 456.455918564182 3000.42458772124 137 135 136
63.1737574789648 458.568387460531 2986.89715677245 138 136 137
12.6492369486448 461.568116961277 2962.94070384527 147 145 146
-16.1643977919192 463.439105278829 2953.01728351585 124 124 124
-26.6359358238186 464.349119814861 2954.779044238 131 131 131
-32.7284120030389 465.028972769434 2959.31157185981 134 134 132
-39.7065041303422 465.756166625476 2963.29928508561 135 135 133
-49.3441674091306 466.625405582121 2965.65593178153 135 135 133
-47.4811878250092 466.882143689639 2975.10430780216 163 165 162
431.851008335395 415.150299297763 2819.9258898212 160 160 158
440.179043765468 415.220208109329 2835.73484264752 180 180 180
440.041640790316 415.624002141365 2844.31373684174 181 181 181
439.928198116337 416.024569205832 2852.8693150471 162 163 165
438.279515277162 416.48510114646 2860.10639017158 159 160 162
438.991511996768 416.847813560677 2869.26479907537 167 168 170
436.597649508699 417.335138634239 2875.82097927591 182 183 185
432.645225927097 417.885398041946 2881.08137553756 181 182 184
427.910100500251 418.467269304881 2885.69742476589 162 162 164
420.808005102166 419.147238827733 2888.39868333277 147 147 149
414.485877567415 419.795305538038 2891.74670897881 137 137 139
403.397839102665 420.643671225889 2891.29595678173 152 152 152
389.893943803034 421.595999886875 2888.97741681544 142 142 142
374.754084633713 422.620771818603 2885.43888743653 135 135 135
357.966506140074 423.719410014092 2880.69183166748 141 139 140
343.524027926911 424.722117283413 2877.88096315511 127 125 126
333.852861910188 425.523389355622 2878.86401472318 122 120 121
330.597772444338 426.049454090236 2884.85277102123 124 124 126
329.771198684475 426.46942587184 2892.69638376845 149 149 151
328.965032053949 426.886664550559 2900.52047372798 167 167 169
328.178767248813 427.301259903804 2908.32485372105 172 172 174
324.975193777378 427.820122602849 2914.26351833281 154 154 156
320.965450634767 428.373657140618 2919.58034970309 138 138 140
316.143987150658 428.962520744978 2924.28110043358 169 169 171
315.415314765021 429.369252932465 2932.02979031718 185 185 187
313.886318278404 429.809979000497 2939.1509424236 180 180 182
309.906789766696 430.359026362445 2944.43843342137 162 162 164
301.811023264573 431.092735174856 2946.70123228048 145 145 147
297.831114791016 431.6415355929 2951.98913708418 141 142 144
294.684079454016 432.152002931976 2957.8728993232 170 171 173
290.715462515948 432.699026059598 2963.14985414799 174 175 177
285.087646083416 433.321421677665 2967.22945994165 175 176 178
280.29057911143 433.905794462192 2971.90664831617 177 178 180
275.494278525235 434.489952693959 2976.58310736907 179 180 182
269.861088250011 435.112524535259 2980.66802342225 171 172 174
264.22454237832 435.735443987482 2984.75588241358 161 162 164
259.426714944127 436.319381920915 2989.43389020912 153 154 156
250.411886825838 437.100359714857 2991.18543518676 154 155 157
240.532833477826 437.923151266663 2992.37174137825 152 153 155
229.783982432682 438.788475520896 2992.99857390841 156 156 156
219.858100208864 439.616757814792 2994.23057033655 152 152 152
209.909813060302 440.447687698973 2995.48442387348 143 143 143
199.938993435532 441.281281253326 2996.76025880309 141 141 141
190.801088118205 442.076683960533 2998.63188926291 140 140 140
183.358606641472 442.792177007298 3001.66556803441 140 140 140
174.187202950121 443.591520910595 3003.56954252578 140 140 140
164.997345170652 444.393089753774 3005.49185119631 133 133 133
154.063088932432 445.280460479966 3006.29953536505 138 138 138
143.96714832343 446.129060927728 3007.69739926934 131 131 131
130.38181337507 447.149297933712 3006.86694041412 165 165 165
111.546315177961 448.429184558415 3002.70946358603 143 141 142
89.1672146161477 449.887394102198 2996.37650512773 140 138 139
57.1135172729811 451.827529314927 2983.99231986584 140 138 139
11.823384721823 454.43007767689 2963.39887708604 148 146 147
-16.115220709314 456.185489529654 2954.04053118579 120 120 120
-26.5866999939619 457.079751982991 2955.80456172199 125 125 125
-31.7989187051309 457.713365377341 2960.88672416996 139 139 137
-38.7749659452692 458.435200639373 2964.87319879042 136 136 134
-49.2946591442811 459.335482253877 2966.68421682693 136 136 134
-47.4317512565512 459.614047865661 2976.12943794754 169 171 168
424.95697609977 408.709197833472 2814.97056034172 162 162 160
436.361834284245 408.714604105441 2833.40202909116 181 181 181
436.21436447773 409.136060555288 2841.9883093001 181 181 181
436.86835962156 409.525603671303 2851.20034906005 164 165 167
434.432133585982 410.027055698304 2857.79650893197 159 160 162
436.696881786878 410.351785913489 2868.25244504881 163 164 166
436.647198883367 410.760030238045 2876.74357416387 176 177 179
434.265337222282 411.253950630322 2883.28686258059 183 184 186
428.746656657793 411.865536379448 2887.25969253786 183 183 185
420.857001509531 412.567571088976 2889.32250119428 167 167 169
412.161116696392 413.301543149954 2890.76394033987 131 131 133
401.860311753931 414.098708246142 2890.95593036052 146 146 146
389.94281241989 414.960504779464 2889.90961283552 148 148 148
377.194038904701 415.857323916719 2888.26667721761 146 146 146
358.814449324396 416.977677868682 2882.26314593511 148 146 147
342.772251430371 418.011197345405 2878.2024500478 119 117 118
330.690543589405 418.892161780703 2877.31636099008 115 113 114
328.232219954778 419.392831947178 2883.93457966317 125 125 127
327.399568051775 419.827339196285 2891.78207976063 150 150 152
329.013315867187 420.161640035099 2901.4664828741 170 170 172
327.416290525181 420.622735986583 2908.65217797969 169 169 171
324.210539230041 421.147563726666 2914.59212357213 148 148 150
318.569616514751 421.77076958985 2918.68428650245 146 146 148
315.375178552185 422.293758322815 2924.61326959285 176 176 178
315.462605687587 422.680914259069 2932.97136326698 189 189 191
313.933423465719 423.132690912532 2940.09106653955 183 183 185
308.309362274704 423.753109417662 2944.1672355393 155 155 157
301.033828736985 424.442425736117 2947.03900144842 141 141 143
299.530224083673 424.89059463328 2954.13383904212 147 148 150
297.214859276724 425.37147350321 2960.61302263098 175 176 178
292.421974320842 425.955967735248 2965.28604025179 175 176 178
287.629835030682 426.540191057795 2969.95835745583 177 178 180
282.838462395567 427.124170309226 2974.62994943367 182 183 185
276.376229322175 427.779521035401 2978.11602537636 179 180 182
269.069307097719 428.471673988861 2981.018541462 169 170 172
261.751523355887 429.165019302689 2983.93166696463 158 159 161
256.947804603298 429.749994774548 2988.61537157869 155 156 158
248.770707694132 430.481779514385 2990.95921711136 158 159 161
239.733424938956 431.252231632899 2992.73461556561 156 157 159
227.287755217189 432.173742567591 2992.20395328098 159 159 159
218.205453285467 432.949440840345 2994.02294322174 152 152 152
208.253523979295 433.765013192957 2995.28302115347 148 148 148
199.985237764414 434.507481268057 2997.71550218046 145 145 145
189.136944849731 435.366088428166 2998.44207474067 139 139 139
180.833667258523 436.112659840201 3000.90903409221 137 137 137
172.515680078229 436.860938207599 3003.39034799591 140 140 140
163.321820403721 437.649904027253 3005.31815548674 136 136 136
150.658090940509 438.597447083022 3005.00052005475 138 138 138
140.55455733727 439.431112649619 3006.40813128347 125 125 125
130.428618270779 440.267484843214 3007.83759143013 146 146 146
111.5933829403 441.504585930204 3003.68617725538 156 154 155
85.7323183895873 443.069425688499 2995.12712549893 145 143 144
50.1811139964876 445.088502283741 2980.53603598356 140 138 139
8.37426252953 447.407436364201 2962.19353677461 151 149 150
