ply
format ascii 1.0
comment KinectMotionCapture
element vertex 799
property float x
property float y
property float z
property uchar red
property uchar green
property uchar blue
end_header
281.813459072145 41.5434548347791 2339.71745942114 15 18 9
266.94571899814 40.9705163470119 2336.14485266017 15 18 9
246.423216568023 39.6044336291963 2326.96878465665 19 22 13
281.312762031641 46.1247006344823 2373.54607921674 21 24 15
273.459806807764 46.5499046406643 2377.03026908049 19 22 13
262.769762827061 46.5797520338818 2377.72218844151 17 20 11
254.885673084343 47.0088451067423 2381.23672054037 16 19 10
260.484922279372 49.3148939617753 2398.00765075539 16 19 10
246.204842243164 48.8560296127227 2395.25187594151 17 20 11
249.732284786208 50.8585117120425 2409.87427986964 17 20 11
236.123492548157 50.5031773279027 2407.85317614086 17 20 11
223.190138029711 50.2509581919536 2406.56335954276 15 18 9
215.258135095981 50.6859836814644 2410.12459333999 15 18 9
236.916105776273 55.1090930291332 2441.81078283813 14 17 8
221.801851403212 54.5669957104071 2438.47841010896 14 17 8
181.956943668109 50.7419873614779 2412.01085934871 16 19 10
174.681568090731 51.2824000729361 2416.32138560669 17 20 11
166.668980047264 51.7274924571826 2419.96115372651 18 21 12
138.887926469763 49.5818713141001 2405.35495236681 16 19 10
138.870730439133 51.0897960526361 2416.48544572934 14 17 8
110.194633323307 48.8686790456634 2401.36194693038 11 14 5
107.214062824809 49.9970994474824 2409.8228925666 10 13 4
109.426577301042 51.7886439722883 2422.94839734924 10 13 6
94.62773512027 51.394846273179 2420.69780634918 10 13 6
67.8874140831889 49.4944196826819 2407.85605902163 10 13 6
51.4738221595512 48.9276181991858 2404.40035179298 10 13 6
74.616214304871 53.3516420734193 2436.02926298366 10 13 6
36.4681168080057 50.0654494044218 2413.46509296406 11 14 7
32.7107247925045 51.1034341054851 2421.29389088955 10 13 6
-4.92876903073869 47.9413124303404 2399.62324158252 10 13 6
24.477802814558 53.0816499711546 2436.26214695016 10 13 6
23.0266019171261 54.3935789093442 2446.01110211819 11 14 7
22.3586621666416 55.7950385319554 2456.38628195223 12 15 8
22.4798190509343 57.2852922616376 2467.3820005924 12 15 8
-43.7443724421605 50.7611732943739 2422.16391934501 17 20 13
-63.6166331578418 49.8771752966756 2416.52162774878 17 20 13
261.131089317145 20.6571080366912 2248.56458832168 19 31 19
227.714518853383 17.231370047667 2225.5732947039 15 23 12
224.447319896269 18.4071800573089 2234.31220031533 19 20 12
237.081868419357 21.9703746462677 2259.49852256918 18 19 11
252.592370970627 25.934835525503 2287.43764808903 17 17 9
268.91858901732 29.9874482688743 2315.97097441613 16 17 9
289.549182169842 34.6431924673378 2348.64298165743 16 17 9
282.221694651708 36.7126839754272 2364.1152088903 20 23 14
279.980522435416 37.95004399956 2373.24306703309 21 24 15
273.532561670787 38.5719550295415 2378.13715989439 19 22 13
264.255255110009 38.786663848595 2380.23270631076 17 20 11
250.708881757885 38.3938203058123 2378.15550138479 16 19 10
250.614135148797 39.9334037070336 2389.35798663963 16 19 10
242.716646772957 40.3560836658748 2392.8867716347 15 18 9
255.517938799035 43.7072265368301 2416.52194695875 15 18 9
246.221848275788 43.9243147516878 2418.63613229587 14 17 8
226.135525267336 42.6372386004529 2410.4321638604 14 17 8
217.491267263134 42.9630404210634 2413.29957352252 15 18 9
217.495374404326 44.4901671261891 2424.40607447824 16 19 10
205.224326670709 44.3183871885477 2423.86359789146 16 19 10
197.999456366864 44.8471722434876 2428.12569022876 14 17 8
179.849916678223 43.8887849277838 2422.20095305461 13 16 7
171.121339177069 44.2252270182489 2425.15085843843 16 19 10
111.065306956215 39.1925797208227 2392.00843748843 13 16 7
123.510963324277 42.397537966713 2414.60146098418 10 13 4
124.990913605489 44.1204521607707 2427.04730921496 9 12 3
117.635920001351 44.6655920310334 2431.43619867847 9 12 5
87.2878271270641 42.1895813673108 2415.17687092001 9 12 5
64.2457346761978 40.7021384855229 2405.68657355529 9 12 5
53.0405663280282 40.7778453893308 2406.88324101251 10 13 6
100.100380160578 48.4032983490341 2459.63276782754 10 13 6
31.2840656646314 42.565258283167 2421.13836667375 11 14 7
48.6242315937142 46.2989148430114 2447.29506003164 12 15 8
57.0242449519816 48.8680589234788 2465.49730830739 13 16 9
40.5150998575334 48.2756043882553 2462.14027829973 13 16 9
14.8437321821113 46.5466704654084 2451.04551657607 13 16 9
7.33539817444706 47.1111103250402 2455.58416063906 13 16 9
-19.2533927649032 45.3068660897084 2443.99463529207 15 18 11
-20.7058075626696 46.6354800619658 2453.74232984033 15 18 11
239.976519909402 9.07547329009656 2227.35558175397 21 31 20
240.153009371674 10.796229683865 2239.67919545088 18 26 15
239.675608458357 12.4057221715638 2251.25132955403 13 19 9
257.515603573465 18.4844545401595 2293.56900929959 12 13 5
262.046602670556 20.8182998346144 2309.98004787617 12 15 6
312.608294257383 30.1314446160049 2373.1731627449 18 20 9
295.731597845747 29.1602926659689 2367.4032693057 20 20 12
307.510928210475 32.5170318592954 2390.63519337312 19 20 12
260.222450866947 28.6013728144113 2365.90464029063 20 21 13
255.852331897695 29.5396171310428 2372.93937956451 22 23 15
241.574578408749 29.0155624474229 2370.19092955778 18 21 12
233.641897084088 29.4346083695725 2373.75519878031 17 20 13
228.546264532004 30.2706717861673 2380.10857674169 12 17 10
230.596084347291 32.1426824213801 2393.38374687175 12 17 10
229.108389107535 33.4922401224474 2403.16337994647 13 18 11
233.388820124061 35.6640674059418 2418.43027320467 16 19 10
201.724871213259 32.6837416075131 2399.30108170391 15 18 7
196.632129634135 33.5194617629528 2405.65163962025 13 16 7
208.916977476179 36.8125667497037 2428.39132030972 13 16 7
198.072629768878 36.8239928373813 2429.23885037121 15 18 11
181.379162192776 36.0235080327896 2424.67903061985 15 18 11
180.681714851783 37.4671730078107 2435.07727399481 12 15 8
189.523998636102 40.2259124267607 2454.22922840901 11 13 8
111.140625979107 30.9341754464099 2393.15423313043 11 14 7
117.700759637348 33.3996132541916 2410.3646804111 10 13 6
120.640009406731 35.3532001861869 2424.16148582523 10 13 4
116.231332047469 36.2963761170692 2431.23378525996 10 11 5
91.070477932973 34.4330243672105 2419.65228076165 10 11 5
75.4727795663675 33.8817485451802 2416.80133164346 11 12 6
83.7340114639202 38.0695418667295 2446.23810653606 12 13 7
60.5965773747337 36.5320916307488 2436.84987589271 12 13 7
63.6621696153967 38.4697316457256 2450.52324047055 12 13 7
40.4147541913185 36.9461557487657 2441.24217229732 12 13 7
54.8338283243699 40.3576193701839 2464.67919785307 13 14 8
17.1216075149196 36.9778482548521 2443.11293601065 13 14 8
22.0200862487729 42.1707595221204 2479.99148430715 10 12 7
25.2620789624292 44.086230420203 2493.49329503542 9 11 6
246.900577815325 1.83769424696523 2235.71973718186 28 36 25
232.674495045389 1.27448916690703 2232.92576379882 18 24 14
322.003721841723 20.4514776990964 2361.02299335144 17 20 11
280.179639839898 15.5123317021237 2329.60023868086 14 15 7
340.506613316549 28.1340434398153 2413.78131156615 19 20 12
270.292710115708 20.4898632794416 2365.60573314793 14 15 7
265.226032267226 21.3249837636137 2371.93049802561 12 13 5
248.862666086421 20.4421870977247 2367.05471052408 12 13 5
236.690425511227 20.209371092245 2366.42347591451 17 20 11
235.135946166645 21.5836840601135 2376.26610561694 18 21 14
223.634833536384 21.4626111529146 2376.36848693156 16 21 14
227.812860923668 23.6852833323188 2391.729215812 15 20 13
219.156864822841 23.9911185629603 2394.61157047286 15 20 13
219.819518470759 25.6751246392163 2406.45784762747 16 19 10
198.91864060987 24.1861860211267 2397.67533222654 17 20 9
190.930630683476 24.6042688669569 2401.29502375275 17 20 11
193.788840360143 26.6006247334382 2415.1656441051 16 19 12
196.694373828414 28.5910744357791 2428.99048200329 12 14 9
158.891920574512 24.7162243866267 2404.75283828487 11 13 8
181.484860868304 29.5269842098008 2436.87020388215 10 12 7
147.891771590638 26.2998330910152 2416.85933932274 11 13 8
130.290310526783 25.37697965444 2411.80200939798 10 12 7
94.2373412774753 21.8707938842199 2390.0236795766 10 13 6
122.189692208772 27.3806010729958 2426.63479319685 10 13 4
108.171838554799 26.9879360501014 2425.02574879522 10 11 5
85.9556722763939 25.4686343559953 2416.13691256807 11 12 6
85.2124042273843 26.9373455276724 2426.57729260851 11 12 6
80.7700439740868 27.8904427810548 2433.68157328781 14 15 9
62.1377933465168 26.9012915633475 2428.24072210307 15 16 10
61.4213456117598 28.3666162184071 2438.65463185867 16 17 11
59.2305251941512 29.6250965540496 2447.7293683482 17 18 12
93.9631965696881 35.8512016354188 2488.83760524581 14 15 9
30.0673996273839 30.357150362535 2455.32525693728 11 12 6
-31.3060530309612 26.9022207469142 2436.01106535785 15 17 12
-5.255875071843 31.8664631673821 2468.92372398039 15 17 12
266.150233644018 -3.3161202737938 2257.04277739123 25 33 22
242.364735505922 -5.49404462404174 2244.14167992782 16 22 12
316.7319382093 10.0163022267012 2345.12802851383 19 22 13
296.449869343508 8.39220473834634 2335.75100305509 18 21 12
296.227711320536 10.0128366452383 2347.06836863565 16 17 9
314.14554856846 14.5228772475164 2376.78740456514 21 21 11
262.639770172199 11.2606833410719 2358.98193054452 15 16 8
270.933539494151 14.1968910080689 2378.65233819884 12 13 5
270.830416745273 15.8026769487655 2389.85369421988 12 13 5
260.135284507582 15.7574525885882 2390.56176186768 13 16 7
233.079011774107 13.1958406782111 2375.29732566937 15 18 11
245.072272708406 16.661180547146 2398.30076238631 16 21 14
235.027070677313 16.7331761633157 2399.76302398764 16 21 14
222.810663486139 16.481695559427 2399.17840610012 15 20 13
209.123103844541 16.0174651871569 2397.25161434695 17 20 11
201.15235254947 16.425289110592 2400.85534621938 17 20 9
186.606785884738 19.0562698967564 2420.57876408411 10 12 7
204.81437618708 23.3311002672963 2448.62792559903 9 11 6
165.505267967911 19.1290568978232 2423.10095292799 9 11 6
134.064965912166 16.1249893909997 2405.1700951259 9 11 6
113.492477104041 14.7372032799792 2397.46378140443 9 11 6
84.7513133022026 12.189316405344 2382.45352907227 8 11 4
85.3894774287309 13.9010948169702 2394.31968210261 8 11 2
95.6762773659774 16.9846851942831 2414.82335427074 10 11 5
89.738475455011 17.7337830918186 2420.60896300306 11 12 6
83.8011410476289 18.4828423236331 2426.39411321219 12 13 7
68.9205898454652 17.9703307665131 2424.24220633463 15 16 10
62.9609334104448 18.7222611706444 2430.04909828916 16 17 11
74.3293141256514 23.4620378501542 2461.98715852935 14 15 9
4.40521565544927 18.5424642483243 2434.3760952038 14 15 9
-103.528675855677 7.06635812860473 2364.7084586328 15 16 10
223.770189356367 -18.7103631949694 2213.54725354539 79 85 75
230.766278360767 -15.7585092558128 2233.08705510836 13 16 7
264.005493882603 -8.44678985900038 2279.76892821946 22 23 15
275.367596623505 -4.83447202702919 2303.37772891592 15 16 8
284.056809826062 -1.69237622133744 2324.0419340918 14 15 7
255.323868282736 -4.72952207648614 2306.2616727216 16 17 9
307.949339799733 5.58689372734306 2371.50786854559 17 19 8
282.679187964946 3.12229017286086 2357.28960657596 18 20 9
253.797663984937 0.103986061283479 2339.65410496037 18 19 11
260.606139795614 2.877980846901 2357.98924954365 16 17 9
278.04930488378 7.33829395814734 2386.77008232846 13 14 6
284.321729187203 9.97820439152769 2404.24078011572 13 14 6
282.16208958074 11.2595378542263 2413.28083807466 10 13 4
245.935227912871 7.14946977045972 2388.93062090228 11 14 7
225.103683368459 7.1527138908129 2391.19500060381 19 22 15
204.984038871743 5.6534887286826 2383.05547642993 18 21 14
212.78677899733 8.50426327842946 2401.80920099468 16 19 10
176.641329500176 6.20065337026721 2389.86400614731 11 14 5
164.260093774801 5.94581718711934 2389.44356138403 10 13 6
192.486705308464 11.872197541085 2427.13767015765 9 11 6
196.154778464234 14.0336012507438 2441.59693726384 9 11 6
150.256334280709 8.72167039606764 2410.02411611384 8 10 5
109.996587739242 4.31332487568548 2384.05472339994 8 10 5
96.6959293231917 3.97277703028981 2383.1426999466 8 10 5
85.5632361296426 3.96434354893144 2384.27983441608 8 11 4
106.852565738189 8.7475235464024 2414.86162450348 8 11 4
109.061619253584 10.6894769867396 2427.96799785737 9 12 5
93.5209911652022 10.0260726743425 2425.07694965117 9 12 5
71.2403013890865 8.39630768717292 2416.26885047955 10 13 6
25.6754090914266 5.06155835282857 2398.24268751402 12 15 8
-26.8305786713436 -0.829389088634058 2363.39779230629 13 16 9
-35.2609686862184 -0.370998875622308 2367.45047854668 18 21 14
-44.4554198873841 -0.0180241872104192 2370.86055989074 19 22 15
-27.9937411565063 3.96149379294164 2396.43601865262 20 23 16
-18.2271408632397 6.96896918823392 2416.05059720057 20 23 16
-13.690643022934 9.22323249019091 2431.05069046787 17 20 13
-134.644482919124 -5.99771361578655 2339.44044299105 16 19 12
-28.8622951948989 10.3310293345206 2440.2846583502 27 30 21
250.755974991078 -20.6900203722822 2255.05893899156 21 22 16
250.307326427175 -18.9977332073139 2266.59062241157 22 23 17
279.584996658371 -12.2592591905921 2308.7889623852 17 16 11
264.739009892177 -13.0464667373679 2305.22642314135 17 16 11
250.536764118814 -13.7102472227259 2302.42364426932 18 17 12
275.985135545496 -7.71585343563863 2340.03271554795 16 18 7
286.942662094687 -4.18922164140134 2362.63868358277 19 20 12
258.774007419031 -7.18229109823409 2345.70847185658 18 19 11
255.763467202055 -5.98474494219409 2354.18896110999 16 17 9
267.558158917792 -2.3589633960216 2377.36620462853 12 15 6
264.619939089842 -1.17043854979898 2385.7762120122 12 15 6
246.117853158328 -2.51884170390509 2378.84229332168 11 14 5
250.979335066303 -0.0639657309551289 2394.9069314582 11 14 7
213.175368065582 -4.50055439172176 2369.33724415849 16 19 12
209.468744096646 -3.41950127541857 2377.1089253283 17 20 13
207.922110384322 -1.99713373828475 2386.93666175757 16 19 12
137.95063801025 -9.73999265767766 2342.78599641722 10 13 2
175.915643505809 -0.414297434810695 2401.48168865745 8 11 4
156.999181514434 -1.71004713936673 2394.95113152114 8 10 5
127.097420178959 -4.68838085256584 2378.32283307398 8 10 5
111.535925953218 -3.7476250058503 2386.55169914741 8 10 5
109.242586269131 -2.43522503677851 2395.71993164381 8 10 5
123.885846429054 1.44568217700497 2420.28186292058 8 10 5
134.213926144793 4.64355246268944 2440.7273152959 9 12 5
100.264310331686 1.15336589739262 2421.10936338073 10 13 4
81.7352499101234 0.013742208963774 2415.58828256146 10 13 4
34.7911021123668 -3.67759812415297 2396.15028821312 10 13 4
16.7863856968045 -4.67865980044296 2391.5049559575 11 14 5
16.6997596600118 -3.03051130779447 2402.6836693329 11 14 5
-3.63514781909569 -4.35120436587372 2396.14842683341 10 13 4
-27.0557360209276 -6.1008259267884 2387.07273123887 11 14 5
-0.734804205834827 -0.624224881488167 2421.05771021668 18 21 12
-37.897969510952 -2.68479554894946 2411.5044482773 31 34 25
158.875612910288 -47.0012140230475 2147.55372007059 105 106 100
230.23134347253 -32.5822811750864 2234.68755234285 22 23 17
235.921521263492 -29.7773815158907 2252.71204418865 20 21 15
196.100418868245 -34.9110576407727 2223.58011842235 20 21 15
269.660949647058 -20.3553939564866 2311.33849920616 17 16 11
269.361967534278 -18.6602426319717 2322.7208004642 20 20 12
281.629885387744 -14.8194404293444 2346.813252791 20 21 13
272.349499724858 -14.6856821834898 2348.92382126065 19 21 10
259.547988954539 -15.1440149571447 2347.53354537729 19 20 12
259.348607199231 -13.4611306629475 2358.81909291171 17 18 10
236.64488083197 -15.5719767763268 2347.66802243166 13 16 7
244.91972509591 -12.4707638666101 2367.33283524553 12 15 6
228.487714746105 -13.507253551914 2362.54792817972 11 14 5
195.665025503137 -17.2432644719924 2341.84691641166 10 13 6
224.642290049974 -10.7425760836883 2381.54488964727 13 16 9
219.539150835292 -9.89161919227827 2387.9038584285 14 17 10
121.760235380873 -22.4295379932057 2316.81124755593 7 10 1
170.420408172088 -12.8152676967689 2374.76287020612 8 11 0
154.414665791577 -13.6978111560406 2370.94916672013 10 13 4
140.525836241593 -14.2255178333139 2369.23195857345 10 13 6
134.577158700489 -13.4748443416761 2375.02813409515 9 12 5
89.334612265791 -18.9598979020422 2344.24649356263 7 9 4
125.432101731119 -6.51547610255981 2422.75688290014 9 11 6
117.327986947253 -6.11435894018991 2426.49403794478 9 12 5
100.340184098568 -7.07972269220863 2422.25086650659 10 13 4
75.1395736215898 -9.28898517773957 2410.75962827761 10 13 4
71.3931579246503 -8.19377749500716 2418.56906902481 11 14 5
44.5567028727929 -10.6111023618042 2405.89884369256 11 14 5
20.6004036938987 -12.5625675490524 2395.9680400996 12 15 6
18.2757586607569 -11.2320242983355 2405.16467770129 12 15 6
33.9973420864763 -7.20346318623438 2430.05090417061 12 15 6
40.0432314491499 -4.64876880181553 2446.34190223794 10 13 4
38.6023111988805 -3.2222549258949 2456.0640508096 10 13 4
-1.41828793911802 -7.49955625872539 2432.67163155055 13 16 7
4.67829115439011 -4.95110469823873 2448.91321665249 20 23 14
-28.7253792764348 -8.19755638678465 2431.55092762926 23 26 17
-144.129523483431 -21.6174886083205 2356.83579952137 18 21 10
252.071080769113 -38.8512270416855 2246.5181970195 45 46 40
217.261239840474 -43.2800637520485 2222.22521832917 24 25 19
220.159463776378 -40.9169533910286 2237.41914493617 20 21 15
243.824529132856 -34.8741445035294 2273.9577532965 20 21 15
248.267484591848 -32.2858077825349 2290.41826894354 18 17 12
268.741372747735 -26.8901078699865 2323.13652143163 18 19 11
294.238218105185 -20.6581748764743 2360.66201134747 18 21 12
257.757530970753 -25.2958212286908 2335.22491313558 17 20 9
256.820475727369 -23.708302199526 2345.83982913329 16 19 10
266.444711471116 -20.3032900896817 2366.95393134837 16 19 10
262.070505933492 -19.3319466339918 2373.98783660676 14 17 8
242.168652511627 -21.0212472601156 2365.66013574658 12 15 6
220.064381496238 -23.0625957102353 2355.32043483398 12 15 6
222.468992666113 -17.4867943780125 2391.78502086783 13 14 8
211.650222226125 -17.5918367223461 2392.62470415015 15 16 10
202.888176337011 -15.6463198706852 2406.70597381672 11 14 5
137.889193656141 -24.6648441942357 2356.38884833403 10 13 6
126.850689011406 -24.7418685931859 2357.44258988984 11 13 8
144.087110855955 -20.1964788518133 2384.99923816529 7 9 6
91.5949192481102 -27.0128690500049 2347.44326672963 9 11 8
75.3330822219493 -27.900606084796 2343.88463662075 7 9 6
109.327802019257 -17.2784383236992 2409.16541965343 8 10 5
111.504465272904 -15.2424685874984 2422.29006144858 9 12 5
98.9374483485044 -15.5460765459073 2422.06097076737 13 16 7
84.111849863906 -16.1946372256974 2419.87460302983 13 16 7
59.5777440878935 -18.3480606639838 2409.13050995295 14 17 8
46.1246397352366 -18.7496284218856 2408.37888628464 15 18 9
67.0022905600223 -13.8229966775995 2437.93136806679 15 18 9
13.1100523154837 -20.4618051992239 2401.73941714362 14 17 8
25.8130891983015 -16.8135577815615 2424.01134003744 12 15 6
10.7528342315693 -17.4320645326289 2422.05354769798 13 16 7
28.109788641888 -13.1109306050583 2448.10674094744 13 16 7
19.8532731756007 -12.6978098541593 2451.99345799748 12 15 6
-24.0805677091358 -17.6527124619352 2425.50221038321 12 15 6
-54.5141853407176 -20.5310394986392 2410.80418147498 12 15 6
213.904366869116 -52.3157196244298 2219.80888653274 27 28 22
261.549267713527 -41.7376145008068 2281.46039134548 20 21 15
277.734869191681 -36.9743910935197 2310.02832405805 20 21 15
245.572321496872 -41.000110061986 2288.71460069701 18 19 13
274.370484273704 -33.9994372650567 2329.93343647833 17 18 10
277.598002319256 -31.6423477963881 2344.80125905184 16 19 10
245.959866907477 -35.5212670767705 2324.36233677144 16 19 8
281.40414505835 -27.4444983804519 2371.57563262017 16 19 10
275.647042426228 -26.7186946326639 2377.18524716253 16 19 10
278.340092050448 -24.5065732266574 2391.18798383597 13 16 7
246.479355082366 -28.3571020297774 2370.96591209149 12 15 6
225.803680545123 -30.2155235209708 2362.01471371034 13 14 6
221.829023258571 -25.6731785195217 2392.21355463325 12 13 7
205.281199691552 -26.7759106841527 2387.55344241368 14 15 9
208.000987155678 -22.8647715501724 2412.61480200636 13 16 7
139.409045163088 -32.7154190589887 2358.9036412467 10 13 6
98.7023278532266 -37.7888833743164 2332.05915422097 10 12 7
119.490107168997 -32.5412750538472 2363.07034886005 8 10 5
56.6610481731984 -35.8848419490216 2350.85311164295 7 9 6
96.1662455252967 -27.6808693322894 2398.26611980471 7 9 4
105.681318978578 -24.4137777004972 2418.09175921465 9 11 6
101.970966081694 -23.3065608086918 2425.86361411243 10 16 6
84.1884361610457 -24.4651023671533 2421.02092284065 11 17 7
58.9118391020937 -26.8049822173099 2409.62478344229 12 18 8
50.6733202093255 -26.4024079694739 2413.49518839733 14 20 10
37.1937379711844 -26.8273727608997 2412.77331573206 14 20 10
47.6462395093531 -23.4654324120431 2433.07096591473 13 19 9
-7.15450588525046 -30.3751329395715 2396.40464226622 10 16 6
56.7630541465944 -18.6571428793286 2462.98367258967 11 17 7
-5.78484794531109 -26.7161980646701 2420.00981963692 12 18 8
0.251835850939575 -24.0729808559024 2436.29687533301 10 16 6
-13.3780704641886 -24.4784826171927 2435.72140007104 9 15 5
-0.419052158687983 -20.7943062961576 2457.73348150981 10 13 4
-82.7907621345738 -29.9654563204347 2410.52018235591 20 22 11
225.652635921949 -58.5450030137779 2233.15251466763 31 33 28
254.049695431179 -51.3587003651969 2274.74221591206 20 22 17
276.427562786088 -45.3514668885053 2309.73047031098 20 22 17
273.344839678617 -44.1019395386732 2318.27495544397 18 20 15
264.722530867588 -43.8766355957235 2321.13576061723 15 18 11
288.116654695164 -37.781900029965 2356.51883386292 15 18 9
296.312035185563 -34.5084572639729 2376.23709988107 12 18 8
282.039933220371 -33.5706049071872 2384.60291883131 15 18 9
247.429750376653 -38.0361955481164 2361.53368040178 14 17 8
258.556989328484 -34.2706555565595 2383.93581098473 12 15 6
236.498895620054 -36.4423343815105 2373.56951809617 14 15 7
201.369179455384 -39.1188934393518 2362.08805391551 11 12 6
190.322256231661 -37.5095948436552 2374.23720551028 13 12 7
188.640934832474 -34.2812800507691 2395.26772081368 15 18 9
127.003765048132 -41.3670752698344 2359.74778140875 9 11 6
121.743749389888 -40.4874648204093 2366.25795799214 9 11 6
174.706872866545 -27.9969311193122 2437.93274902562 7 9 8
105.146932721048 -36.2362073258241 2396.28061499241 6 8 5
109.48030892212 -33.7661758862817 2411.45085845565 7 9 6
105.020327923451 -32.7715692773203 2418.56650173096 9 11 6
107.222356912482 -30.6787375453391 2431.65755079776 12 17 10
102.055417729864 -29.8100999366532 2438.077260688 15 21 11
74.5965636471571 -32.591089200362 2424.66192691545 14 20 10
49.2605431479092 -34.9935713073419 2413.33371061598 14 20 10
64.1675307068312 -30.8414071593677 2437.59366503053 16 22 12
5.7764464414416 -38.5510248934104 2397.52526825488 13 19 9
52.2542457353556 -29.334933983734 2449.20107704046 12 18 8
60.6045704823357 -26.2940267309663 2467.38260260892 12 18 8
31.2844270576278 -29.2703377988708 2453.01060650981 12 18 8
3.35763246783216 -31.9915322761317 2440.05110693492 11 17 7
-1.15840884614959 -30.9888173437997 2447.2215583674 11 17 7
-0.340891760320705 -29.1512081012607 2458.89101351598 11 17 7
-79.6514025266735 -38.0952325078307 2414.27264218193 17 19 8
-78.1662766754376 -36.1261152909206 2426.67696229592 26 27 19
282.713107913774 -56.0032806408851 2293.72687643477 25 27 22
257.56703325477 -58.9391579465606 2279.45505805 20 22 17
255.096718857483 -57.5381333719484 2288.78593037478 19 21 16
278.26548442539 -51.3014949390981 2324.37181452194 16 18 13
275.90641912519 -49.9142280168329 2333.59458606575 16 19 12
254.025156573485 -46.7201708831945 2357.68474163009 15 18 9
248.207666946902 -45.9866438286952 2363.35317984927 15 18 9
211.322316990728 -50.9304096433277 2338.36316212424 14 17 8
259.938255072766 -40.2693671809075 2397.62090734329 15 16 8
209.455703330716 -47.6416517960389 2359.56874192473 15 16 10
164.864883491494 -52.0491195896622 2339.31694861061 10 11 5
200.30973664677 -42.1249085120922 2396.17566320235 14 15 7
165.683419207606 -46.48048628314 2374.5234339702 15 18 9
174.042743849276 -37.9354223544237 2427.30828407816 9 11 8
112.04281984667 -46.9071385241432 2381.09101519961 7 9 8
128.010211777551 -42.3772154910749 2407.07595843434 7 9 6
111.824545545107 -43.3876019906329 2403.45981713861 6 8 5
122.058152263309 -39.8789809078011 2423.95349160694 6 8 5
125.742045471657 -37.5069705199197 2438.36592159199 9 11 6
89.5560032197902 -41.8827702389661 2416.84826379119 13 19 9
90.2720562567798 -40.0085521017818 2428.61340130353 17 23 13
88.7941423336471 -38.5117828227869 2438.36190142132 14 20 10
57.5347810230276 -41.9820071569552 2421.73717387775 14 20 10
26.143452691993 -45.4353942272442 2405.24134083802 17 23 13
41.8090761029997 -41.0846969695802 2430.13552484756 12 18 8
38.0628615084824 -39.9556665326037 2437.93976690878 15 21 11
9.48216105530131 -42.890882040747 2424.24432841991 14 20 10
1.92172400353474 -42.370995452357 2428.84095868796 14 20 10
11.004510214395 -39.1524235358289 2447.68612759501 16 22 12
21.6836025870664 -35.6989678992719 2467.74558165183 17 23 13
-122.200694432455 -55.272722625213 2368.37459040222 18 20 9
-114.743601101798 -52.2848047132929 2386.03436829718 19 20 12
-111.81525511278 -50.0341229060882 2399.79775299159 23 24 16
234.042764737814 -73.6785678022219 2244.06199017178 23 28 22
265.903483305717 -65.5544689706022 2289.15884317495 20 25 19
256.874800451562 -63.5344618394048 2303.49387765864 12 17 11
264.870290512149 -60.1277888184945 2323.39094645502 16 21 14
265.284552365094 -58.1935076217096 2335.44688978043 17 23 13
241.993163866068 -60.776331531046 2323.53188743687 14 20 8
231.908072882434 -60.829545460209 2325.05226527385 13 16 7
244.970810042161 -56.5159264945542 2349.70247748657 14 17 8
223.63765237745 -58.6829426239739 2340.03287040542 17 20 11
224.812584064286 -56.623255460548 2352.73183171163 17 20 11
235.230883934299 -52.8589164016948 2374.42121746248 17 18 10
227.279843370309 -52.5183269433543 2378.01531351215 16 17 11
213.484623616873 -51.4401455322216 2387.30375012128 12 11 6
155.396737594045 -60.2313373358046 2342.84340123065 12 11 6
181.722026814802 -53.615249271786 2379.48945619193 8 11 2
170.670692402018 -51.9989890868408 2391.6419592428 12 15 8
179.259218632694 -48.6653602310558 2410.9609302513 10 12 7
86.3433374292413 -63.4405496419173 2335.36992209775 10 12 7
104.095344193515 -56.6243981547992 2374.83216671728 8 10 9
92.9771123808303 -56.7662068037721 2375.97465361331 6 8 5
103.833893353273 -53.0557300032227 2397.23658196576 5 7 4
97.1322995929498 -52.4296541562996 2402.38158274106 6 8 5
96.3257783773193 -50.7806121135162 2412.85778344502 9 11 6
84.4582965166851 -51.0482417912413 2413.34597368999 12 18 8
85.9016817398683 -49.0203851504193 2425.78306120348 17 23 11
82.1825099638467 -47.8868252121419 2433.55977988785 14 20 8
78.4755608599577 -46.7546955693475 2441.32457267516 14 20 8
60.5867353469658 -48.0287390485615 2436.60450563135 18 24 12
64.357289691924 -45.6316310920621 2450.92717041698 13 19 7
30.6312910732482 -49.5444527871047 2432.5665379274 15 21 9
16.3370458325685 -50.1675711851184 2431.26567752339 17 23 11
-4.03808085740387 -51.7898154238064 2424.81528026963 18 24 12
15.6239141535677 -46.7601587381593 2452.72554272683 17 23 11
-90.9587493074802 -57.1489259913933 2407.06180328857 20 21 15
-133.963158193126 -62.3187748641379 2382.51354140121 20 21 15
217.641918519774 -85.3034802889732 2228.05824138486 30 33 26
221.915745675214 -82.4912532823622 2244.65361305107 20 23 16
244.889426959425 -76.0027997451544 2280.39600061337 19 22 15
238.947375845144 -75.2543142173645 2286.18591937538 15 18 11
233.005223802327 -74.505675914966 2291.9759157809 15 18 11
247.255047788522 -69.8220405449185 2318.22680144102 17 20 11
241.369392708701 -69.0802665937896 2323.96171007523 16 19 10
241.085093832137 -67.2568442377741 2335.31047226021 14 15 7
245.74712521293 -64.4925671099398 2351.52777620506 14 15 7
225.824627181636 -66.4500794906275 2343.26021732742 17 18 10
222.768984926717 -65.1707298077315 2351.7734030457 18 19 11
247.340792780725 -58.6591354066969 2387.34231640769 16 17 9
235.163402571348 -59.1346056157674 2386.75172180431 16 17 9
229.358112114965 -58.4020783699671 2392.40819383844 12 13 5
199.995873641166 -62.073917226128 2375.34664097129 10 11 3
206.295083788237 -59.0682791227703 2392.73634778794 10 11 3
178.92636469192 -62.3207629377984 2377.88428601253 10 13 4
194.623206320065 -57.5946126940014 2404.1088874013 12 15 4
180.127779843083 -58.4474200640501 2401.62517939297 13 16 7
154.731299543691 -61.2777940758952 2389.00299564576 10 13 6
124.150944875175 -65.0186457172646 2371.74434090882 7 9 4
126.176312793742 -62.8142495048243 2384.99432784863 7 9 4
104.172644519375 -64.9545191967695 2375.98659460307 6 8 5
83.5461902037511 -66.8213849577583 2368.40467719135 5 7 4
95.1104174279855 -62.9141847918434 2390.35193464802 5 7 2
108.974701444332 -58.6264946296881 2414.21003124892 5 7 2
99.352095616728 -58.5283415723323 2416.66602967438 6 8 3
89.7102312960851 -58.4276739269814 2419.14044257112 12 15 8
77.8259689302323 -58.7144832728551 2419.64813085242 15 18 9
99.3516915803232 -53.1577222963104 2449.88084422417 20 23 14
95.6896281681669 -52.0229071192161 2457.60066793525 19 22 15
74.8580455308865 -53.862859128132 2450.21846813849 18 21 14
48.7061692368886 -56.5960631676413 2438.33237994324 19 22 13
5.92900259954243 -62.1490796766839 2412.19784799365 22 25 18
32.9793187399625 -55.7241953659819 2446.73529101935 18 21 14
26.2345468360223 -55.0939054979392 2451.92288334106 21 24 15
8.13469162421265 -56.3837070612163 2447.41470094572 20 23 14
16.5287893410682 -53.1928008448924 2465.53092736869 17 20 13
-25.9680484254132 -58.5568641086567 2440.50700681689 16 19 12
-6.11566713927436 -53.4586496938433 2468.21808008599 27 28 22
-62.5877531260617 -61.0824441020736 2431.89971795647 25 28 21
-52.628425378014 -57.6415250775423 2451.25885251368 27 30 23
225.139627849448 -94.1893363310564 2224.76004946182 26 29 22
241.05842668722 -88.9598313028454 2253.52400492041 22 25 18
266.740148273223 -81.794598294763 2292.14521583348 19 22 15
225.175301140519 -86.2814012465796 2273.15137838658 14 17 10
274.76703943117 -68.7866156591938 2370.10661679812 14 15 7
254.061753401206 -69.1163656535136 2372.29483631308 17 18 10
238.376012709189 -70.3049565712553 2368.20860010064 18 19 11
242.458692645898 -67.652834143309 2383.6005378498 17 18 10
244.466359701991 -65.4174960085062 2396.86352880511 17 18 10
222.313451952846 -67.8259304138767 2386.62638003198 14 15 7
195.07409896644 -71.1761662030748 2371.66030349614 12 13 5
176.307155583562 -72.8802856685566 2365.04196688561 12 13 5
177.316338624341 -67.1233193334007 2400.03096325213 14 17 8
127.855681684475 -72.6453498344827 2376.27792830148 7 9 4
111.703246676982 -73.7735750330997 2372.6458665744 7 9 4
79.4488391657655 -77.8473115759376 2354.26461482294 6 8 5
91.669515275862 -73.7316353754802 2376.94644332471 5 7 2
95.1879203883887 -71.232766118024 2391.50445574976 5 7 2
97.2867934415178 -69.00718636797 2404.67832008674 6 8 3
97.9546514775858 -67.0533657296147 2416.47955073254 7 10 3
88.3092917774917 -66.9655237178058 2418.95966805778 10 13 6
84.5738576015043 -65.8133819651863 2426.74945131968 13 16 9
89.0250664510148 -63.2053285206127 2441.78228562907 21 24 17
97.2566023141028 -59.942987104644 2460.04938028463 22 25 18
81.658534191503 -60.9134872031493 2457.26075950459 20 23 16
31.5583525295997 -67.9374466602432 2424.4453877506 19 22 15
56.3191710763968 -61.7831166960647 2457.04525775088 19 22 15
57.1492340689321 -59.848801068579 2468.68829930916 17 20 13
18.0101376660513 -64.8617376478919 2445.94617068903 19 22 15
-1.62408090457467 -66.4533610922025 2440.17242429781 18 21 14
-31.2024071491832 -66.104347150508 2448.23722642281 26 27 21
-19.6918801991939 -62.3496572342607 2468.84344067622 24 27 20
-51.0150349683531 -65.8591254617095 2453.70510837002 27 30 21
-81.6974221358784 -69.2229843753922 2439.32621052984 28 31 22
269.965017656361 -91.292722592718 2284.67871637405 22 25 18
260.618384612682 -91.2598415062871 2286.86997907225 19 22 15
296.816610863548 -81.8625426916455 2335.97357601493 19 22 15
240.097816780682 -89.5904975190031 2301.332502854 14 17 10
280.126310286547 -79.5312235109363 2353.61963257681 16 17 9
294.579885539916 -74.7161149319166 2379.64875853377 15 16 8
323.849412999488 -66.9622268018503 2420.28819731978 14 15 7
276.084876906884 -74.6733322458533 2383.83814554735 16 17 9
265.400038935665 -74.9282888929631 2384.56698917678 17 18 10
258.217773801686 -74.4802762158814 2388.79871207276 18 19 11
251.735822555522 -73.8915073833666 2393.73145638701 17 18 10
251.639000000512 -72.0476623120749 2404.89103334488 17 18 10
235.9129748587 -73.2686273107448 2400.84958506162 14 15 7
161.60069104428 -85.8715613991434 2340.47239766226 13 14 6
173.183218589951 -77.9440788226338 2385.89643425586 12 15 4
198.318504262131 -71.2696346458453 2420.88173668893 14 17 8
59.7340892360929 -93.84823287119 2313.85818019465 10 13 6
75.4072938156214 -88.955840234623 2340.08168296906 6 8 3
84.633319598943 -85.3103771066098 2360.13876568827 5 7 4
69.8062506761765 -86.185329073401 2357.98731865092 5 7 2
79.8658317204168 -82.4158349754165 2378.61524626835 6 8 3
75.3060412159456 -81.3806577130728 2385.82400553352 8 10 5
64.1195959741871 -81.5697399385346 2387.04121638696 9 12 5
69.1682213575371 -78.7702275185401 2402.86941901158 11 14 7
76.4990710274351 -75.5717770508534 2420.6231042661 12 15 8
78.6991326586524 -73.3284447322873 2433.69386302733 21 24 17
95.0984064804263 -68.5265362595038 2459.2100796728 25 28 21
69.7841778332737 -71.2823131358153 2447.91244055466 26 29 22
70.5815593624055 -69.319547182851 2459.58339250156 23 26 19
55.6463313365052 -70.1793143401227 2457.53744258628 20 23 16
42.923269350486 -70.6312451546002 2457.48522901138 18 21 14
13.5606739792675 -74.0202197488271 2443.21637981169 18 21 14
-31.0569595822914 -80.063014114128 2416.14769120077 16 19 12
-10.6261271116237 -74.6242779223057 2444.65127208233 18 21 14
-18.962142267724 -74.2554858025645 2448.6234852519 23 26 19
-58.5749192322291 -79.3266008469514 2426.36032718347 27 28 22
-77.7160951094 -80.7992079575685 2421.49630086472 27 30 23
286.851565072972 -93.9677117555923 2315.06687329502 20 23 16
255.446005362165 -94.6424712209733 2318.01257409529 16 19 12
253.743655183626 -93.0388339288508 2327.96780984481 16 17 9
314.200667519101 -78.6600825990152 2400.42411231085 15 16 8
291.715829873195 -81.3836302378179 2389.14623911259 14 15 7
256.500077184621 -86.6706700408282 2365.38284100066 15 16 8
251.393050703497 -85.7950053377919 2371.74201809116 16 17 9
258.997114381132 -82.3531757310413 2390.60533578441 17 18 10
254.641020773841 -81.340307400688 2397.61545611189 16 17 9
263.780253388933 -77.6285104776547 2417.74858378227 16 17 9
232.42769994931 -82.0122251661319 2398.51759224042 14 15 7
188.800535005135 -88.7852682555509 2367.7394654577 13 14 6
157.622648832238 -91.10500189017 2360.783168625 11 14 3
168.221550226124 -87.1132479055943 2382.25960256616 11 14 3
180.353727636933 -82.8514796207112 2405.0077192383 13 16 7
76.940991761608 -97.1352274274383 2342.6017645689 6 8 3
104.405245873195 -89.9425160388314 2379.44883304075 6 8 5
47.9446458531458 -98.801197265574 2339.05051511379 6 8 3
28.6131940438077 -100.529874326112 2332.99603547553 6 8 3
65.8261488301477 -91.5552512523421 2378.32030679452 8 10 5
62.7239471556482 -90.2348332922069 2386.87399467327 9 12 5
56.6810298249152 -89.4698948257569 2392.76164334215 11 14 7
47.6740758422975 -89.2574590154183 2396.00597091928 11 14 7
87.6936778358508 -79.9416049737728 2442.74383207875 16 19 12
94.4304538347271 -76.850643140684 2459.68641872616 23 26 19
62.3925702223356 -80.9130223402657 2442.50572409169 30 33 26
48.2160063133152 -79.8126832382505 2452.16956618759 28 31 24
30.2041522124408 -81.2429121185194 2447.59475248431 25 28 21
-29.4626377561698 -88.3006465345318 2418.61618101065 21 24 17
-37.0990247742533 -87.7963870483091 2423.29054039688 23 26 19
-5.95170754048224 -80.3716777560216 2460.69704934902 30 31 25
-58.4934608502481 -87.8681407147687 2427.54187366819 24 25 19
-60.8150240575105 -86.4124875534697 2436.71729762307 25 28 21
255.011695253066 -110.936327941104 2271.25653297922 22 24 19
221.529822173132 -116.088228906914 2248.58554980077 20 23 16
247.259115291428 -108.555381303983 2287.10518820245 21 24 17
230.527943915027 -108.087625409035 2293.73131368637 14 17 10
235.383769812593 -103.077539498192 2322.17710679737 16 17 9
244.182630166335 -99.2667612604433 2342.63359975981 15 16 8
232.704588614904 -99.6940378845394 2342.75866576971 14 15 7
224.715180868954 -99.3894844011379 2346.3961870996 14 15 7
223.773505303704 -97.6303290835747 2356.99032337675 14 15 7
229.230321198318 -94.5690058216563 2373.79140057914 16 17 9
222.682351922619 -93.9770593976457 2378.789232126 17 18 10
204.029862000227 -95.8419772431372 2372.08066962563 15 16 8
211.002459602216 -92.5026331869147 2390.16961831066 15 16 8
187.270081974382 -95.3668407684589 2378.73411307489 16 17 9
182.09934712433 -94.4792912305006 2385.15445910212 13 16 5
182.689695934159 -92.4434846234782 2397.02054006501 12 15 4
171.048910067996 -92.8485051604204 2397.30392414528 12 15 6
168.782649273556 -91.3894543089167 2406.42359196758 14 17 10
58.2627147283983 -105.327212148021 2349.6071441572 8 10 5
32.3598242249314 -108.384540799504 2337.52171486737 8 10 5
35.7608993170189 -105.764529950116 2352.17833306279 8 10 5
71.6487589377595 -96.9314609645494 2396.0052086247 9 12 5
56.0207331338676 -98.0036280541703 2393.26136260193 10 13 6
55.16398243123 -96.2521419703761 2403.7723007445 10 13 6
77.369027022598 -90.1451304227898 2434.66635775194 9 12 5
99.7226608895856 -84.0568378764721 2465.41529223037 12 15 8
83.3848724452668 -85.2731457069836 2461.9806456226 24 27 20
55.0109485671477 -88.7203465603641 2448.1555461484 29 32 25
29.5238780767622 -91.5941195791643 2437.046981314 33 36 29
40.0694855856822 -87.7650918275468 2457.18347841921 30 33 26
21.2670366341388 -89.3727239182471 2452.00304788909 32 35 28
-18.0315001497418 -94.7216142784208 2429.46889974635 30 33 26
-35.5005185399366 -96.0283405108665 2425.75403568008 29 32 25
-29.449506516892 -93.0377383256444 2441.97551988735 30 33 26
-38.5860687499897 -92.8176907222616 2445.34742535348 20 21 15
-57.6754962538617 -94.3881568786958 2440.4464756593 23 26 19
-93.6917847145051 -98.9782537564841 2421.62607933829 23 26 17
198.889984632618 -129.40937504892 2226.27471683432 19 22 15
232.147046530315 -120.094104794704 2272.64274428864 20 23 16
257.319692302739 -112.603401672374 2310.30446135165 15 18 11
269.478111942954 -107.974848060313 2334.3892177086 15 18 11
249.018655803381 -110.373119230132 2325.30276296701 17 18 10
231.269692397165 -112.164862792055 2319.10341731205 16 17 9
206.453730580609 -115.435506994368 2305.97017971361 15 16 8
211.016834418226 -112.455684581631 2322.25386267228 14 15 7
212.118635069586 -110.224348456638 2335.00007453623 13 14 6
213.965396361022 -107.849755986088 2348.40226556446 13 14 6
205.237237113574 -107.696804360817 2351.37887542679 17 18 10
197.913095650685 -107.246702192547 2355.75117478881 18 19 11
215.49339931842 -101.641053723736 2384.22654687117 16 17 9
225.351778954515 -97.6687356791059 2405.02429317046 16 17 9
204.521873951881 -100.018463107719 2396.29852488238 18 19 11
192.221976226092 -100.599277863426 2395.84548977377 14 17 6
181.326186903068 -100.882982984414 2396.78806022586 13 16 5
49.566501991436 -115.541678508251 2342.74804244524 8 10 5
48.571525873577 -113.754190029919 2353.39125717227 8 10 5
61.5727125990886 -109.228255721446 2376.65396260139 8 10 5
62.8817464098788 -107.019932319105 2389.19812798691 9 12 5
72.3601348985508 -103.234553259358 2408.98359345351 13 16 9
67.8410845183861 -102.187121800012 2416.15042385002 13 16 9
81.9052812862089 -97.5576708094747 2439.75949203227 9 12 5
81.9211916582225 -95.6598032115456 2450.79913902126 8 11 4
78.9812638081893 -94.3370600693747 2459.19100509058 15 18 11
62.5782027180377 -95.5825844505545 2455.82549337846 20 23 16
42.3670136239926 -97.5327249183305 2449.26042874598 29 32 25
19.0713393554218 -100.041698138356 2440.17292361273 26 29 22
15.3089279648846 -98.851509589338 2447.98421018958 30 33 26
32.7451929425946 -93.6982696924253 2473.83566197433 30 33 26
35.8893480522209 -91.2457886163021 2487.35491917791 28 31 24
-21.7297552637401 -98.1893051878572 2460.57714903542 15 16 10
-49.9491898606084 -101.4980949859 2447.99509164536 28 31 24
-112.768652685844 -111.108156605032 2406.93738774849 21 24 15
146.714488380857 -151.64854300474 2160.92661932155 20 22 17
224.629104426288 -130.071971186846 2265.99588020789 22 25 18
271.930347301434 -117.578591416648 2326.28831854827 16 19 12
296.624525452315 -110.145269476812 2363.01673262852 15 18 11
262.319306760038 -115.649055807758 2339.79810515799 14 15 7
226.457865188344 -121.435861387927 2315.33284149791 14 15 7
230.330352824614 -118.568304760649 2330.90166222805 14 15 7
201.264190139047 -122.814298757336 2313.63096160541 14 15 7
228.384412427829 -114.966725147259 2352.1401175724 14 15 7
228.158253858061 -113.020134287725 2363.41294132222 14 15 7
204.604552742813 -116.042848996597 2351.82343495233 16 17 9
193.729748398772 -116.348998391114 2352.7484842639 17 18 10
180.692458434879 -117.101460560521 2351.63581280146 16 17 9
207.583534406112 -109.463837460953 2388.98629788323 18 19 11
203.88129273579 -108.276575723934 2396.73826761996 18 19 11
190.144507750936 -109.17997187388 2394.92560371246 21 24 13
164.852032110813 -112.461645599769 2382.26718154376 25 28 17
169.75766649008 -109.48256349583 2398.21049818636 19 22 13
163.146871951156 -108.886677344924 2403.27013385843 13 16 9
84.7473384467126 -116.969965354769 2376.04076682938 0 1 0
65.5153859383462 -118.856800324767 2369.91119642633 12 14 9
58.7113160411246 -118.23535632949 2375.15864210609 10 12 7
83.6002461348815 -111.302181700746 2408.93342970482 16 19 12
82.7858557684085 -109.517912464084 2419.39745807169 10 13 6
79.035167234069 -108.322081281561 2427.19626970027 12 15 8
61.9231726904452 -109.756092297889 2423.14568831205 12 15 8
47.7327012273876 -110.599480001309 2421.77433471994 9 12 5
61.881238718168 -105.907038919158 2445.29034140947 8 11 4
65.6521312656748 -103.261840147737 2459.57600264087 13 16 9
49.954048862161 -104.393962625912 2456.9105852374 13 16 9
13.1295859077873 -109.573684655474 2436.14604584018 21 24 17
-7.25135803500176 -111.553079049219 2429.75387399942 18 21 14
3.3160703568389 -107.606800604726 2449.85137304411 9 12 5
38.2442419575741 -99.0618391866415 2490.42274937419 14 17 10
11.7811209002547 -102.191349630643 2478.90430574348 21 22 16
-55.9601610809177 -113.059291325369 2433.00057640212 24 25 19
-59.804875506503 -111.849365869838 2440.89067400327 26 29 20
179.050632192668 -153.004194764836 2195.61618295917 37 39 36
169.445754897926 -153.006798837585 2198.06946854925 18 20 15
166.723495540192 -151.45278743243 2207.62791455744 18 20 15
256.083227753869 -129.266007334115 2311.16085828947 16 18 13
280.731559917618 -121.707832976268 2347.91634497981 14 17 10
242.902150872629 -128.090398893365 2321.24228943509 15 16 8
220.948363290348 -130.898623483116 2310.86650020738 15 16 8
206.604774358099 -131.999505819178 2308.26834280221 15 16 8
220.994838810266 -126.783533001405 2334.3012883642 15 16 8
255.911542272985 -117.125113346158 2380.38745919655 15 16 8
262.11448611171 -113.785552125727 2397.82374403159 15 16 8
234.40832601406 -117.80690674856 2382.00315776869 16 17 9
198.773772276419 -123.495106793314 2358.71492659804 16 17 9
171.974780058313 -125.204905718979 2355.82230684297 18 19 11
208.25018855284 -115.474187386572 2401.96582494018 18 19 11
190.937552397874 -117.168548890566 2396.73571616672 11 14 3
169.965072783289 -119.613344059991 2388.16591538851 17 20 9
147.46780246545 -122.350518355801 2378.31931134895 18 21 12
139.349722667411 -122.052019189922 2382.08550075417 23 26 19
138.47410985815 -120.242238048171 2392.60655326334 17 19 14
94.9225019417903 -121.284668176485 2397.74876013871 10 12 7
92.6075510432582 -119.777286968359 2406.90963474854 20 22 17
68.9368470279601 -122.607107222415 2396.82505143154 15 18 11
92.4720088416358 -115.87407672103 2429.13957568195 11 14 7
98.3797393818979 -112.736358351501 2445.48159681192 12 15 8
66.4598230827145 -117.191991755849 2428.2415438493 13 16 9
23.9752970277056 -123.709022892296 2401.95889641635 12 15 8
35.0734883248784 -119.528253280075 2422.91159167547 11 14 7
42.5180806002032 -116.098675059472 2440.51850610243 7 10 3
58.2916335080399 -111.052705024484 2465.20275351328 8 11 4
28.2639941536225 -115.018482318151 2450.26230684743 10 13 6
11.6960094215823 -116.317752050413 2447.06851028914 14 17 10
-11.7353794804145 -118.933008553889 2438.13148041599 20 23 16
-23.8776092147983 -119.335435781546 2438.91208453814 18 21 14
-15.5167201434052 -115.778053360108 2457.0071226139 14 15 9
11.9800025995076 -108.573481497261 2490.98603980453 14 15 9
-28.3028522879096 -112.450147538926 2479.13111872817 14 17 8
-32.0329773784853 -111.245969987917 2486.90827696349 18 21 12
7.3827731352325 -101.908060543827 2529.99144599501 26 29 20
161.951857733381 -163.316685263639 2191.44746206216 22 24 19
206.833673580608 -150.837151013659 2249.89374561566 18 20 15
233.315453759828 -142.6560286167 2288.98724782832 18 20 15
239.156868694666 -139.226209009508 2306.76885821716 12 15 8
247.548551608026 -133.176545108206 2338.63506614151 15 16 8
211.580156254807 -139.182470000841 2314.30839490624 15 16 8
218.262074094941 -135.612562156044 2332.65191566458 15 16 8
260.208567323699 -124.232169638524 2385.67300120601 15 16 8
262.893662837501 -121.62870332488 2399.62613366422 14 15 7
226.696951889908 -127.604975618868 2375.52180054817 16 17 9
196.010322667432 -132.314724559855 2357.09463345238 16 17 9
184.403148794513 -132.811226801396 2357.35816128247 15 16 8
213.442946287917 -124.459974891461 2396.72052589742 18 19 11
211.903116627797 -122.793606136659 2406.50510468687 17 18 10
197.471145702181 -123.913831697119 2403.99790866974 24 27 16
163.565684196499 -129.197098835819 2383.18388024055 17 20 9
151.151962411396 -129.835994425681 2382.8521205854 18 21 12
151.724879939777 -127.699718779331 2394.72066178831 12 15 8
114.063355080906 -125.632736902417 2416.2265976732 3 5 0
76.513450782258 -131.434938512384 2393.44027798754 15 17 12
55.7486467743402 -133.715449035552 2386.05654253866 17 20 13
56.3381572186143 -131.579584578346 2397.90866750438 12 15 8
90.3071414384624 -122.621790212459 2439.37185239568 12 15 8
83.626197879108 -122.020158230594 2444.49996000873 13 16 9
20.2170397794852 -130.928695992416 2411.00903174746 13 16 9
24.627221640563 -128.047987847143 2426.04230821716 8 11 4
27.5908602302959 -125.475053192126 2439.72301800717 8 11 4
57.6984541948353 -117.5003904245 2476.6637953344 8 11 4
51.017135210802 -116.897456322529 2481.79242113891 13 16 9
26.9311436408208 -119.737357931002 2472.12137668058 23 26 19
11.0961368604197 -120.921123989574 2469.5995601061 22 25 18
-5.54928540475297 -122.247531233523 2466.48667107532 25 26 20
21.3835395320072 -113.130225602041 2510.66222465773 20 23 14
-0.452431407988563 -113.549617180771 2513.98647998997 23 26 17
-4.09039049204196 -112.348568812625 2521.67224066822 30 33 24
-38.6021316624983 -117.058108503836 2504.20961671985 32 35 28
132.434690679238 -178.839408675768 2162.12120442425 15 17 12
195.176085841795 -161.967721804484 2239.02584846187 14 16 11
265.229133064647 -143.539254703246 2322.60959134061 20 22 17
229.513977116334 -149.694128082828 2298.05346415403 12 15 8
238.178286085085 -145.58268848087 2318.59913101247 15 16 10
242.038675002942 -142.600119407036 2334.16330500147 15 16 8
228.45447294031 -143.613874342187 2332.21509713488 15 16 8
244.307830625579 -137.929708509293 2359.55992863921 15 16 8
250.428025112271 -134.487917401879 2377.06293742944 15 16 8
236.851852702144 -135.501990014306 2375.10714079376 15 16 8
220.401584411015 -137.144835795173 2370.4299832997 15 16 8
207.441530185817 -137.988293799558 2369.25406475166 16 17 9
