ply
format ascii 1.0
comment KinectMotionCapture
element vertex 761
property float x
property float y
property float z
property uchar red
property uchar green
property uchar blue
end_header
317.213450883787 505.311423147301 2739.05933578957 181 182 186
319.942144949934 505.293464910521 2750.5224631671 182 183 187
319.583442324742 505.52705150719 2759.34626776984 183 184 188
319.248656945061 505.757475532968 2768.14678962082 183 183 185
319.723384689846 505.919855688516 2777.57041914442 183 183 185
319.438434799973 506.143407470685 2786.32246933192 184 184 186
316.808953280722 506.559127623066 2793.1232058896 184 184 186
312.60877867164 507.103764467839 2798.63045359632 184 184 186
309.206697803152 507.581901936909 2804.77225815904 184 184 186
305.017561511411 508.124587022538 2810.26883312262 185 185 187
300.832998506285 508.66640072859 2815.7609955345 184 184 186
295.054696201303 509.339964461259 2819.98247339911 185 185 187
290.875368191222 509.880528524741 2825.46962208015 187 187 189
284.291516011746 510.620634026956 2829.06427871614 189 189 191
280.115551434163 511.160272841303 2834.54822421041 183 183 185
272.716288659131 511.968087798306 2837.52534103421 180 180 182
268.541753522037 512.506986205115 2843.00797650485 176 176 178
263.561007071274 513.112775126107 2847.86439602146 177 177 179
259.393871776122 513.650255876739 2853.34023071062 174 174 176
251.157391682741 514.528028137406 2855.72112988925 171 171 173
243.723190010929 515.338848892172 2858.73283514045 170 170 172
236.277853718952 516.150821020922 2861.7550892195 166 166 168
228.000947620282 517.032834573915 2864.17550515783 163 163 165
220.531870613503 517.847239393139 2867.22097456705 158 158 160
212.227628380294 518.732155342896 2869.6684445601 163 163 165
203.082226271165 519.688308659591 2871.52376057512 190 190 192
191.433137671165 520.856088210888 2871.58259238468 164 164 166
181.414353365225 521.887200255013 2872.87686380521 152 152 154
173.037502064276 522.780149323765 2875.3952483844 156 156 158
165.479918343638 523.604178631097 2878.52718377371 152 152 154
159.583718149024 524.287710853477 2882.86426264714 167 167 169
154.522218184683 524.900495721346 2887.7998375986 181 181 183
149.461442627487 525.513012359705 2892.73473284725 162 162 164
141.875931598627 526.339854722067 2895.89398469816 157 157 159
129.216757904202 527.598339314586 2895.52553045508 153 153 155
115.67786262126 528.93277516857 2894.60251787307 145 145 147
102.948793120934 530.199527480673 2894.30258707515 143 143 145
87.6366815539482 531.687615214483 2892.28353831799 140 138 139
72.2788667387269 533.181169724795 2890.30906557477 139 138 136
56.8755585408356 534.680181001224 2888.3792997674 134 133 131
21.5614490456217 538.253045335723 2890.32738554483 185 184 182
2.55567228591858 540.066247692707 2886.26017401425 144 143 141
2.47739508903555 540.257111105052 2894.81182648921 122 120 121
2.42271655592896 540.445101022009 2903.34013200156 149 147 150
4.12611790304718 540.481098330135 2912.97959696428 170 168 171
4.12321985102038 540.66287178533 2921.45774032579 195 193 198
5.88563449733881 540.691766895864 2931.03931606974 196 196 198
6.80688738296054 540.792106001836 2940.02870916768 180 180 182
6.88111087135068 540.964658296476 2948.43163258299 181 181 183
5.22582194066779 541.285765686121 2955.69587454173 202 201 206
3.58668492360037 541.605059707808 2962.94468326848 225 224 229
1.96336566183541 541.922490625667 2970.17772225432 250 249 254
-4.05618241132011 542.620141109716 2974.63486287966 234 233 238
-10.9631950692952 543.394971304754 2978.54529035355 231 230 235
-14.3323972007732 543.863168495104 2984.65557717124 253 253 255
392.90363647172 487.721037793875 2616.90250932729 201 203 200
401.83240661831 487.288010487846 2635.0230760736 200 201 203
400.436533731163 487.639186234409 2643.44251713593 199 200 202
394.59198104637 488.329033187291 2647.72737595421 197 198 200
391.730476227944 488.790203544011 2654.75145971556 184 184 186
387.384046018632 489.364262879327 2660.3999306061 184 184 186
383.792282897065 489.879682287433 2666.72424435385 182 182 184
374.94117093828 490.799059983145 2668.29276131989 172 172 174
369.843368788488 491.429571366613 2673.26176490688 166 166 168
358.694489300962 492.526714117085 2672.83432176161 205 203 206
347.515115972436 493.627245796633 2672.43699641099 184 182 185
333.263689350218 494.966609773226 2669.38665313024 156 154 157
324.302055138563 495.897473348739 2671.06322271919 156 155 150
316.8498088604 496.711584420813 2674.09202238178 150 150 142
321.644977552844 496.573189927273 2687.77197612859 138 137 132
285.781838024676 499.599130963561 2666.25694425833 136 137 132
299.046622166443 498.79928355511 2687.21122313288 159 159 157
303.913484204766 498.650819021698 2700.8214726749 175 175 173
310.379229824394 498.374643964958 2715.69670137986 180 180 180
313.800615289615 498.333990360102 2727.89257748345 181 181 183
315.709646879864 498.409621152661 2738.73890008099 181 182 186
317.654099326044 498.480622714947 2749.55039560121 182 183 187
318.852672015931 498.608330858119 2759.67760806193 183 184 188
320.082776049901 498.731811652547 2769.77379639017 184 184 186
321.344788103421 498.851109474137 2779.83925566685 184 184 186
320.27571720683 499.15272610167 2787.9411644957 184 184 186
316.858400901727 499.639005450801 2794.09689470588 184 184 186
311.866656753523 500.249276669692 2798.96357261695 183 183 185
307.668818421414 500.796184133582 2804.46816476959 183 183 185
304.271004578384 501.279090870677 2810.60502721722 184 184 186
299.287070405594 501.887492985674 2815.46422595999 183 183 185
294.303798210486 502.495487319321 2820.32282761904 184 184 186
290.923405670672 502.975326329844 2826.4425060217 187 187 189
285.142388742391 503.646195389351 2830.66707781888 191 191 193
278.553104112938 504.381544159665 2834.26749415891 188 188 190
271.149809784797 505.182053988487 2837.2496940693 182 182 184
267.780180788677 505.659520575342 2843.35937259913 172 172 174
263.608108941511 506.200732558094 2848.83922004095 172 172 174
258.627872965852 506.806427641175 2853.69514651743 173 173 175
249.574923124666 507.739426959326 2855.46207821457 171 171 173
242.136522551335 508.542947236334 2858.47869420248 165 165 167
236.324444969606 509.215609106988 2862.73384471099 161 161 163
228.868128800853 510.020798241201 2865.76800449362 160 160 162
219.755880212147 510.960165738902 2867.5925416675 157 157 159
208.152046091608 512.101558632408 2867.61067288845 155 155 157
198.996733818528 513.045676850274 2869.47727078314 166 166 168
188.994588872965 514.059064499617 2870.75763873065 184 184 186
180.630501384312 514.940143911214 2873.26510298569 159 159 161
171.419538975276 515.890468595893 2875.18638281695 155 155 157
162.189788589063 516.842938966229 2877.12566441389 150 150 152
155.449752655308 517.5930925092 2880.87392873067 161 161 163
152.054283770475 518.070615861473 2887.00892042008 173 173 175
145.307957990436 518.821267495377 2890.76335702957 163 163 165
137.712697658988 519.641437089492 2893.9332763143 154 154 156
123.356335771827 521.015241709981 2892.39895430846 150 150 152
112.341134659345 522.116819478944 2893.25535822656 146 146 148
99.604166006158 523.36058033031 2892.96633169006 141 141 143
86.8334387048626 524.608318598044 2892.71057797177 142 140 141
74.8797882886105 525.790138880232 2893.06976895322 133 132 130
64.6028832470589 526.835068542042 2894.61831584208 160 159 157
-1.70313656232501 533.105067618082 2884.43287125968 170 169 165
-3.51727908259081 533.456271658192 2891.85074675137 148 147 145
-0.990495242942924 533.447404008967 2902.09578322401 151 149 150
1.57199920901752 533.434168853798 2912.30634188819 155 153 154
3.30084106471373 533.488849454118 2921.91744482539 154 152 155
3.31968856494402 533.684392808343 2930.37195934699 152 152 152
5.10792120306958 533.731927031907 2939.92548043264 161 161 161
3.42880915342736 534.066828999477 2947.21134026809 158 158 160
2.64231940507997 534.326836447356 2955.038791658 165 164 169
-0.75984084338554 534.804364750856 2961.18076508061 181 180 185
-0.631730988188028 534.986870959461 2969.52870735296 205 204 209
-4.0098259611967 535.461584881411 2975.64686172367 210 209 214
-10.0323311457906 536.157236365373 2980.10757209771 211 210 215
-14.2858322036865 536.70502824234 2985.66730744404 228 228 230
0.117212002848532 535.689482036348 3002.68933880033 232 232 234
378.212764817879 481.396274405906 2594.16596716079 220 222 219
393.701048363366 480.544500645502 2618.58826590509 204 206 203
396.704438640698 480.592732388705 2631.18574235174 199 200 202
396.779959124861 480.851169287533 2640.9915934418 202 203 205
394.649079541994 481.268514710499 2648.71421785139 203 204 206
391.787202520171 481.737899171839 2655.73745717513 184 184 186
385.943116869655 482.424267055693 2660.02236642635 183 183 185
381.59660406451 483.000679110082 2665.67023376294 181 181 183
374.244551611556 483.796986348247 2668.60250871683 179 179 181
369.144494706322 484.427929401532 2673.57368750869 178 178 180
357.23718888726 485.559638513307 2672.47735471142 163 161 164
343.020213169328 486.863081599431 2669.39811026535 154 152 155
327.236552035712 488.284131813786 2665.0234066793 146 144 147
315.210053015995 489.429304448504 2664.04344458947 135 134 129
303.149055902954 490.578324881012 2663.09717091344 139 139 131
299.100598611055 491.638734750959 2688.21594971156 155 156 151
303.966905585178 491.525515097205 2701.82154126272 170 170 168
311.979984344193 491.174228853841 2718.00550316449 182 182 182
314.628778158954 491.221036899871 2729.53840024447 182 182 184
316.539287223924 491.320924011843 2740.37967061436 181 182 186
316.925883965772 491.533215968479 2749.8834385843 182 183 187
318.90370172466 491.624175483893 2760.659189921 184 185 189
320.916983395141 491.710441372355 2771.40008094325 184 184 186
321.39503854683 491.910482879389 2780.8151778133 184 184 186
318.750671358948 492.344885722373 2787.62793476647 184 184 186
312.96062548665 493.016522764274 2791.86102108908 184 184 186
308.750446369522 493.568216227749 2797.37749829702 183 183 185
306.924688528866 493.938352374102 2804.80377197453 183 183 185
304.31989378462 494.366646074082 2811.57813583485 183 183 185
299.335745410536 494.975252099035 2816.43751714487 182 182 184
295.151365630033 495.522585776401 2821.92868176264 183 183 185
290.170538979053 496.130183357113 2826.78491360013 186 186 188
285.190416553657 496.737397314868 2831.64050283051 190 190 192
275.380986057005 497.714254214324 2832.73490171029 191 191 193
269.583798364626 498.384065992198 2836.97568758104 184 184 186
264.592225105279 498.991897945947 2841.84255631927 170 170 172
259.601419308738 499.59939727351 2846.70871211759 168 168 170
253.798626621858 500.269119570842 2850.95507705592 169 169 171
246.363207941085 501.064656954297 2853.96991184861 169 169 171
240.550090614 501.735192639464 2858.22607124693 164 164 166
234.734018047776 502.405851966266 2862.48548480921 161 161 163
226.453241087926 503.267318078265 2864.91311931472 160 160 162
217.335162069628 504.19406415506 2866.74531163186 158 158 160
204.901143829047 505.379010650469 2866.16448143533 155 155 157
197.390760955791 506.18237681879 2869.25259968835 155 155 157
188.212931077854 507.1158888461 2871.14312548787 184 184 186
181.507122313621 507.857258917603 2874.85836207059 172 172 174
172.298087240113 508.794161098297 2876.77971186941 154 154 156
163.90440168168 509.668003615158 2879.31763705517 151 151 153
156.33203929849 510.478033393404 2882.46631699914 157 157 159
150.42472466256 511.157895448636 2886.8149751262 164 164 166
141.154646022686 512.101562677498 2888.79560437565 166 166 168
131.024217768068 513.113490797168 2890.20357526328 155 155 157
117.496393374958 514.393518014574 2889.27761069674 148 148 150
106.467629120852 515.478200968294 2890.14998006129 145 145 147
94.565016863303 516.632758045957 2890.46285672837 141 141 143
85.180683333888 517.589737995792 2892.55497515779 145 143 144
80.886641079962 518.145087940989 2898.1538514319 134 133 131
0.0666429956042158 525.636795551697 2886.61341782381 178 177 173
-0.880933016239371 525.929847749165 2894.5959462551 156 155 153
-1.80831690780181 526.220459308776 2902.55912217966 144 142 143
-1.848756704665 526.439457320812 2911.06904327552 154 152 153
0.741276622022724 526.447369937964 2921.24912979848 172 170 173
-0.116677536812659 526.72959562744 2929.14426255803 169 169 169
0.790834838503951 526.869731320557 2938.14141826762 160 160 160
-0.898028767578385 527.216830828487 2945.43515875163 166 166 166
-1.69399913608537 527.491642220185 2953.27017436307 179 178 183
-5.10598622953751 527.975935976824 2959.42056821501 174 173 178
-7.62899166360143 528.388434733813 2966.11604856692 176 175 180
-10.1399233028863 528.799529334779 2972.79974699578 186 185 190
-13.5228768620133 529.280503728141 2978.92213856138 197 196 201
-16.8976262259015 529.760620758813 2985.03650995766 214 214 216
393.020885281081 473.473776634418 2618.89181850365 197 199 196
394.540071029887 473.654203815381 2630.1094370823 198 199 201
394.609275193545 473.932336495658 2639.9186493441 201 202 204
393.961456158786 474.258214288301 2649.01591021701 201 202 204
391.097428583662 474.736112458853 2656.04036459146 177 177 179
385.251102050517 475.42022718203 2660.32783208842 173 173 175
378.65064980835 476.156571025587 2663.93919096157 171 171 173
371.290381390565 476.945995747413 2666.88030388092 164 164 166
366.182256047559 477.578044408721 2671.85933134238 169 169 171
355.023539151586 478.633661883729 2671.44813214869 161 159 162
340.042414311681 479.958888918559 2667.70757010112 151 149 152
322.730351352575 481.450275489142 2662.00603996155 146 144 147
310.692050318652 482.572876674072 2661.0411334967 136 135 130
287.92092922671 484.454786518789 2650.78376870536 142 142 134
292.224576562356 484.96909942923 2683.27651305455 157 158 153
303.248571547255 484.453912649835 2702.163128017 173 174 169
310.485066545764 484.204065703112 2717.68600922951 183 183 183
315.457029807199 484.112318003156 2731.18350898009 182 182 184
315.035692958991 484.403393421923 2740.06101346939 181 182 186
316.97748671632 484.523484335773 2750.8682315642 182 183 187
318.954889936567 484.638938688945 2761.64077421757 184 185 189
319.400650006436 484.862317863946 2771.08415344216 185 185 187
319.088719489143 485.138539437431 2779.85521121938 184 184 186
314.863162627597 485.695634224191 2785.38582259963 184 184 186
309.852768514434 486.308934709005 2790.27057247742 183 183 185
305.634381178449 486.864535974885 2795.79428515454 183 183 185
305.387256497307 487.131526304124 2804.50235415233 183 183 185
302.77830417667 487.568658737202 2811.27954018657 182 182 184
297.790072540258 488.177956428732 2816.14287400842 182 182 184
292.802502073767 488.786934893982 2821.00559846028 182 182 184
287.815614305029 489.395561934613 2825.86769692358 184 184 186
283.632447058705 489.944983568186 2831.35734887797 187 187 189
276.234033405264 490.729546215526 2834.33705919269 194 194 196
269.63168419702 491.455914556908 2837.95211399806 190 190 192
263.02215500246 492.182876759015 2841.57387302163 175 175 177
258.027308460746 492.791062393191 2846.44393990383 169 169 171
252.220456475132 493.458849223329 2850.69462184701 165 165 167
245.595692150643 494.186935976482 2854.33134337166 166 166 168
238.964124784558 494.915631447908 2857.97506829089 164 164 166
231.506822192479 495.705583557158 2861.0124596321 161 161 163
222.397597844052 496.618358157948 2862.83792410922 157 157 159
213.269964078693 497.5331161918 2864.68171410094 153 153 155
203.299184581944 498.511296249909 2865.93613936072 152 152 154
196.611105226717 499.245802194819 2869.63478489313 151 151 153
187.431523038024 500.166283589288 2871.52931452696 148 148 150
179.063439587681 501.026844368709 2874.04377947591 173 173 175
170.680394973295 501.889038918771 2876.57252176934 144 144 146
163.116839063535 502.690381006909 2879.71374079182 150 150 152
153.870599131676 503.618263199002 2881.67336871535 147 147 149
147.119287087481 504.359472799313 2885.43381444531 150 150 152
137.001672187869 505.354099884145 2886.83161856739 173 173 175
128.545229218183 506.224443501945 2889.432379926 159 159 161
114.168014835932 507.542160406101 2887.92739233801 144 144 146
101.440240638506 508.737026885188 2887.63646213789 140 140 142
87.8307772662104 510.000072910864 2886.79407609725 137 137 137
80.9798566566702 510.752558885872 2890.65210580383 140 140 138
79.2304760120239 511.118255729815 2898.0031919236 141 140 138
33.6982779584725 515.744665009684 2909.94227720774 183 184 179
1.75573827585085 518.418701697241 2897.33890258625 184 183 181
-0.030885000263936 518.788549809294 2904.726695476 162 160 161
-0.0677730589027092 519.023506439963 2913.23039312444 161 161 161
0.788374966342431 519.188856474463 2922.2751655663 155 155 157
0.801059755478839 519.417799535296 2930.73052544707 155 155 157
-0.907548850726858 519.778284409216 2938.04223249883 174 174 176
-2.60025412881415 520.13683642267 2945.33809514462 181 181 183
-5.15343494510656 520.561159026458 2952.06179253777 157 157 159
-9.45154217705202 521.119851930396 2957.6642113073 151 150 155
-11.9841890926389 521.541792300622 2964.36787032658 163 162 168
-12.740107002811 521.825661030979 2972.16143674211 186 185 191
-14.3602024330645 522.175812976225 2979.38677610404 203 202 207
-18.6232373208508 522.730556204516 2984.95495127769 203 203 205
37.8402035403069 518.781275596648 3035.7455909634 206 206 206
390.122321719594 466.234450905864 2607.2527502871 1 3 0
392.340668040439 466.396467980199 2619.19606024765 210 212 209
393.857566852627 466.601524553288 2630.41264741676 194 196 195
393.924344207628 466.898951133483 2640.22141790545 189 190 192
394.763565831409 467.143696765804 2650.68817319722 201 202 204
390.407789095783 467.727733772328 2656.34411278912 182 181 186
383.062019872777 468.508254381091 2659.27214381773 162 161 166
374.954514624211 469.33932636087 2661.53220919198 172 171 176
368.336692674848 470.072198924671 2665.16132949478 170 169 174
363.974819445775 470.655323879508 2670.82345779564 169 169 171
352.0538458014 471.740594953105 2669.7478987147 141 139 140
338.581426027802 472.930816265719 2667.36294265575 141 139 140
322.025890542152 474.32898244508 2662.34119464433 136 134 135
311.510010844029 475.325715464658 2662.71726102481 135 136 130
292.279029718295 477.7818955873 2684.28470585478 167 168 163
300.214417841285 477.532483305609 2700.53075877955 168 169 164
308.990552156513 477.221985924213 2717.3682138177 183 183 181
312.406426357214 477.271348427434 2729.55592050497 183 183 183
314.310196998974 477.420911213046 2740.39654018585 181 181 183
315.469802933833 477.618970685735 2750.55171147258 183 183 185
318.22448597267 477.705943922591 2761.97352259006 186 186 188
319.451611005521 477.895006751623 2772.06331395636 187 187 189
318.353676660212 478.241540254024 2780.18724592198 183 183 185
313.338494789886 478.855945546728 2785.07658682328 183 183 185
309.11352801253 479.415577018869 2790.60657516222 184 184 186
305.684244953618 479.91974185472 2796.77120722671 183 183 185
304.643545401551 480.25804449405 2804.83985855651 182 182 184
302.032370573547 480.703712745203 2811.61798998324 183 183 185
296.244655912309 481.368864174128 2815.84971994957 184 184 186
291.252980924914 481.978536985936 2820.71641762724 180 180 182
286.262052141749 482.587879851537 2825.58242307898 181 181 183
282.87791286153 483.084777884967 2831.7036385761 188 188 190
276.282328510744 483.805412033889 2835.31248544716 191 191 193
268.872996305306 484.58317091782 2838.30438148068 192 192 194
262.26136684463 485.305267603939 2841.92894522069 185 185 187
256.453641654309 485.971012153239 2846.18079611727 173 173 175
249.829921448337 486.694043381651 2849.81722802115 161 161 163
242.384569175815 487.475176828754 2852.8440559128 164 164 166
235.744973390063 488.199708191225 2856.49603078292 163 163 165
229.098489528408 488.924858991895 2860.15509190354 163 163 165
220.803980717062 489.766974866499 2862.59922229721 160 160 162
210.849840311437 490.727460048183 2863.83973998854 154 154 156
203.346315699058 491.514570760036 2866.9234504365 152 152 154
195.831887590657 492.302820155506 2870.01781992024 155 155 155
187.478459965973 493.151272759423 2872.51952100071 147 147 147
178.280018829384 494.060729253817 2874.43406948202 175 175 175
169.895217583702 494.912694734968 2876.96640583021 162 162 162
163.163634870283 495.646611180291 2880.70833796817 151 151 151
153.917365946351 496.561376463404 2882.66993335467 144 144 144
146.328183807953 497.357693509139 2885.83734230009 151 151 151
135.368863716524 498.397208672379 2886.64742836423 167 167 167
125.224907642447 499.379057991167 2888.07327821019 166 166 166
110.840052707847 500.668430601589 2886.58006707786 148 148 148
96.4131539897344 501.962762723923 2885.1275351884 143 143 143
82.7922423440257 503.200539107971 2884.30025229449 136 136 136
75.0800274085206 504.01106907851 2887.58773396212 139 141 136
93.7518787014402 502.90343211366 2908.88651934131 157 158 153
5.25565101696568 510.859526759795 2900.64899320548 184 186 181
-1.71340936402498 511.620845378941 2904.62269414859 171 171 169
-0.887193218240601 511.808851864829 2913.69350293362 166 168 165
-0.902083611157511 512.057592542537 2922.17365714067 172 172 174
-0.0224263643264777 512.239186257039 2931.19234592716 186 186 188
-1.73325827047099 512.610903168465 2938.5042628164 175 174 179
-2.55315948443569 512.915975021313 2946.3585696282 158 157 162
-5.98301971854287 513.413578626288 2952.52474458325 135 134 139
-9.40442310543865 513.910279979869 2958.68299295837 141 140 145
-13.6980507136775 514.471386081797 2964.28060672573 151 150 155
-16.2223987564887 514.900712789433 2970.97493314421 169 168 173
-18.7345882394658 515.328654139477 2977.6573906883 166 165 170
-21.2347472525787 515.755285248531 2984.32809545101 154 153 158
-24.610832738166 516.246863248844 2990.44209970958 179 178 183
388.70809599027 459.168302557241 2606.86765234698 2 4 1
395.354767100734 459.085275403442 2622.95158150698 195 197 194
396.138235698865 459.359428260175 2633.46935400247 186 188 187
396.21037697521 459.675225563809 2643.27008285307 184 185 187
395.56558765151 460.03327220545 2652.35958063627 188 189 191
389.718305584365 460.712730913925 2656.64868514956 204 203 208
382.370345290693 461.485537465973 2659.58003207795 175 174 179
373.510057339494 462.35313097306 2661.16497677858 165 164 169
365.383286766636 463.175545513701 2663.44545247036 152 151 156
359.504631757868 463.857278668409 2667.7653746163 147 147 149
349.840729614572 464.77707637199 2668.72369501412 179 177 178
341.670603660846 465.603629748682 2671.04661152185 164 162 163
326.643245290369 466.864423897909 2667.36148320595 153 152 148
279.857387441492 471.082542384116 2665.01846253747 134 135 129
293.103720546579 470.544146492071 2685.95275898624 163 164 159
300.268377504814 470.390069531123 2701.53282167264 175 176 171
307.496107825887 470.227851226206 2717.05179270641 185 185 183
311.68350877082 470.257612024105 2729.8935062146 186 186 186
313.584930612677 470.431884007428 2740.73280627988 182 182 184
313.962523099032 470.702481370814 2750.23689809497 183 183 185
315.93127462413 470.867852595955 2761.01065431764 186 186 188
317.152017960411 471.079404020882 2771.10312115634 186 186 188
316.83353801116 471.389237921853 2779.87571472899 186 186 188
313.389062840548 471.90145072273 2786.05424329927 186 186 188
309.163835293458 472.464063510363 2791.58404994927 187 187 189
304.942992695251 473.025782730467 2797.10929650711 184 184 186
302.313393900841 473.482294610757 2803.90412052118 183 183 185
298.900962378856 473.989422808199 2810.05191861884 183 183 185
292.308156733787 474.705726261326 2813.65864626899 183 183 185
287.306551836854 475.316886771316 2818.53498461248 179 179 181
283.106704378433 475.874543968615 2824.03998305135 179 179 181
281.320453415473 476.271365905117 2831.42308166716 183 183 185
275.525902362595 476.933798517922 2835.66233995328 188 188 190
268.921329939043 477.650157070698 2839.28108188669 192 192 194
263.11832527 478.313137714615 2843.52831589788 192 192 194
257.312387158903 478.976180283471 2847.7787915499 183 183 185
249.877839396806 479.748403640569 2850.79620731039 165 165 167
240.802989766301 480.631281775694 2852.59195586903 161 161 163
234.159569318734 481.351151971744 2856.24875544523 164 164 166
227.508883042782 482.071715303516 2859.91232980928 165 165 167
220.030828935746 482.84833240339 2862.97229862017 163 163 165
209.25237555939 483.848888984886 2863.60853942391 154 154 156
200.920616667523 484.684614684641 2866.09060416325 151 151 153
191.747674320408 485.578148869356 2867.98218528008 145 145 145
185.041001810074 486.30451877229 2871.70083443581 147 147 147
178.327170033493 487.031538892682 2875.4261589049 156 156 156
169.110290218644 487.929891429514 2877.36099626837 173 173 173
160.708793243962 488.773170377345 2879.91119558809 158 158 158
149.784483194719 489.790240545487 2880.68949568128 150 150 150
143.02363253374 490.522349541876 2884.46109630599 145 145 145
132.056595140135 491.544262413337 2885.28144737631 152 152 152
121.904918520357 492.511192930848 2886.7171688306 161 161 161
108.356055830007 493.713881146785 2885.82352627486 161 161 161
93.9235148657937 494.979617057131 2884.38082372683 138 138 138
77.7541804010467 496.36777571364 2881.81087013549 144 144 142
69.1808455135425 497.230919011566 2884.52877110061 150 152 147
82.7300592507751 496.555909083222 2902.34833762174 175 177 172
-2.53047264584305 504.380596055386 2905.0872464362 171 173 170
-1.70642982131364 504.588041391556 2914.15734030777 165 167 164
-2.59230908968311 504.914741334791 2922.07362983862 187 189 188
0.0249864882002626 504.992751238622 2932.21628419477 179 178 183
-3.43115936222294 505.499139626148 2938.40760061037 150 149 154
-2.50580273653211 505.694313982897 2947.3789020251 149 148 153
-5.93571439812601 506.197555594053 2953.54429475356 164 163 168
-8.47863117857406 506.637301915341 2960.25552018867 174 173 178
-13.6506536775158 507.263931451588 2965.29879941487 190 189 194
-16.1750351327608 507.701576975926 2971.99192949492 160 159 164
-18.6872580281712 508.137837142672 2978.67319070057 143 142 147
-22.0734279126225 508.636200026972 2984.79620611339 165 164 169
-27.2278095621221 509.261018435631 2989.82223539918 190 189 194
-27.9313895437037 509.566299331052 2997.56066476928 182 182 184
396.136092952457 451.580170768539 2614.7831708252 217 219 216
397.630022983993 451.837168538516 2626.01455160483 198 200 197
397.677986965511 452.175326064996 2635.83598403543 181 183 182
397.753757945975 452.509611226555 2645.63071388085 181 182 184
394.878468572809 453.013961392534 2652.66244179387 176 177 179
388.282255209222 453.734881229407 2656.27187105938 219 218 223
379.433022729132 454.588166845696 2657.84795221378 199 198 203
371.315369853343 455.399200864353 2660.12105593377 164 163 168
362.430173487457 456.256122729583 2661.7326501644 160 160 162
356.543285397521 456.936341688948 2666.06063383706 154 154 156
348.384158255684 457.751306883657 2668.37434109023 179 177 178
342.484732693413 458.432267789142 2672.71500284094 190 189 187
328.979617681035 459.56719976343 2670.37068537749 171 170 166
294.698196980661 463.264072907591 2688.27923064838 159 160 155
299.550675976381 463.293355079041 2701.87749187897 176 177 172
307.549618142162 463.127715778841 2718.04805308968 185 185 183
311.736509783574 463.190032605932 2730.88546057689 187 187 187
314.41516190131 463.341254850622 2742.37327554767 182 182 184
312.45531224584 463.774055210213 2749.92344263618 183 183 185
314.419759181941 463.964382191357 2760.69778492953 185 185 187
315.63617910641 464.198297116836 2770.79123966445 185 185 187
316.098915056037 464.476470614425 2780.20966301253 187 187 189
312.652408690062 464.994587449184 2786.3896738182 188 188 190
308.424797235734 465.560432761024 2791.92103211567 188 188 190
306.575971689401 465.977661055746 2799.36359000895 185 185 187
302.363353186263 466.540997095182 2804.88043095362 183 183 185
298.950658189529 467.053731061905 2811.02766215535 184 184 186
291.560590665542 467.814892361777 2814.00254334909 184 184 186
288.95415856692 468.276031721749 2820.7736785523 179 179 181
283.9569544647 468.886607957227 2825.6457331971 178 178 180
281.369300987183 469.3448622921 2832.39830951542 179 179 181
276.37943567138 469.954012121916 2837.26328745895 184 184 186
269.776674559898 470.665012042121 2840.88102273626 190 190 192
263.975602790659 471.32531825351 2845.12707047132 196 196 198
257.360583316218 472.037286884789 2848.75649746719 190 190 192
249.113258157441 472.853640984572 2851.15758137543 166 166 168
240.036467609193 473.72349581726 2852.95718213249 158 158 160
232.574253333563 474.490892373457 2856.00278454897 161 161 163
226.738223859918 475.154219791519 2860.28309926825 164 164 166
219.258135967513 475.923338881673 2863.34619586064 165 165 167
209.300012574293 476.852571469171 2864.5952878373 156 156 158
199.319507130429 477.78427185683 2865.86624078134 151 151 153
189.316636558769 478.718631264239 2867.15934746792 148 148 148
180.947417182308 479.548035836244 2869.67920744016 148 148 148
175.884132562029 480.163257019344 2874.61619449501 152 152 152
168.325423194117 480.940754406241 2877.75612506622 167 167 167
160.756062174394 481.71943414312 2880.90679597632 164 164 164
148.99592430044 482.772572724933 2881.09284524174 146 146 146
141.395044108393 483.554708272774 2884.27396654656 142 142 142
129.58439771235 484.613729467821 2884.50963991539 149 149 149
119.426913549559 485.565529504084 2885.95336462426 155 155 155
105.872426897415 486.742272800197 2885.06914139355 161 161 161
92.2798895462855 487.923577116212 2884.22202895267 137 137 137
76.9543519286011 489.221443371263 2882.24442711381 141 141 139
68.3791140507148 490.074389089077 2884.9657249744 149 151 146
64.8977022155828 490.589800569257 2891.18079727716 153 155 150
22.6115207234301 495.107973140649 2914.0826441723 80 82 77
-5.94241065716883 497.308716137447 2903.85225912773 105 107 104
-7.7266582631581 497.711434723427 2911.23283470024 147 149 146
-7.75736329968124 497.994850856027 2919.72323022309 178 180 179
-5.1518558684438 498.098818906038 2929.87375378045 153 152 157
-5.12890993835624 498.375812256866 2938.31216022669 175 174 179
-3.33303741370594 498.531193874107 2947.8418171524 178 177 182
-5.01155051151159 498.921202117957 2955.11927537825 184 183 188
-7.55254545380746 499.369079734369 2961.8273905978 170 169 174
-12.7225290141242 499.995658620898 2966.86865261381 143 142 147
-17.0097492119643 500.56200127165 2972.45912976829 153 152 157
-19.5238765438477 501.00684561182 2979.14101337043 182 181 186
-24.6844242577229 501.632559288521 2984.17303332906 207 206 211
-30.7326237021255 502.319285917439 2988.66023973061 195 194 199
-31.4438140875897 502.639193955027 2996.40440230104 212 212 214
399.879527700477 444.243710691292 2619.23509480831 212 214 211
398.42781226176 444.684158307309 2627.69679400654 193 195 194
396.995746238046 445.121699574059 2636.13907276036 191 193 192
394.840899363344 445.596861532696 2643.87661394432 178 179 181
389.723609137844 446.232660201432 2648.86418802012 184 185 187
384.606694168489 446.868057750209 2653.85144874637 175 175 177
377.244624857443 447.626780353756 2656.79888773902 201 200 205
372.122711301542 448.261953005808 2661.79114537524 217 216 221
363.239283908871 449.105354393485 2663.40298131 148 148 150
355.845477029345 449.866751223233 2666.38154092785 142 142 142
348.440439030627 450.629121647811 2669.37110931619 134 133 131
342.540759993432 451.307608332713 2673.71238845997 143 142 140
332.076525346051 452.242252554081 2674.04634723887 157 156 151
293.213268923831 456.169186115056 2687.9685886941 148 149 144
301.148779015536 456.057716026822 2704.19413270619 178 179 174
309.924772916935 455.893256199096 2721.00980504869 184 184 182
313.341293784541 456.03206830478 2733.18398681598 188 188 188
315.245545475329 456.254881735743 2744.01296455268 183 183 185
313.287295805085 456.698507562325 2751.55994283292 182 182 184
312.908478723504 457.04911788244 2760.38642533298 185 185 187
311.770177319057 457.442034919092 2768.54392476094 184 184 186
312.222833103017 457.74049662827 2777.96935927373 187 187 189
309.553661508373 458.219452061454 2784.80016251612 188 188 190
308.475489080782 458.604005843915 2792.89885122451 187 187 189
305.834914849659 459.078854890009 2799.70186378439 186 186 188
301.620332978173 459.64531487781 2805.22053050664 186 186 188
298.205250292169 460.164023895955 2811.36891176713 186 186 188
291.610325004472 460.870320949999 2814.97956103715 185 185 187
287.405425237121 461.434806797897 2820.48856722189 182 182 184
282.404137334067 462.046133736664 2825.36456618767 180 180 182
279.009618665056 462.561205341346 2831.49340252541 177 177 179
275.623417243183 463.074946618648 2837.6138384936 176 176 178
269.825341061015 463.732752310935 2841.85728114204 183 183 185
264.02416462689 464.39056554187 2846.1038012723 195 195 197
254.976782830781 465.244182058438 2847.87659871978 197 197 199
247.536191258036 466.001570079296 2850.90220872981 180 180 182
239.270151613196 466.809403688922 2853.32313572408 166 166 168
232.622384005055 467.519603860152 2856.98534347844 157 157 159
225.149189583396 468.28024694017 2860.04284750308 158 158 160
216.024394522707 469.142194339039 2861.89162400789 162 162 164
206.880790764771 470.006231066831 2863.75843118321 163 163 165
196.894434991485 470.922835851562 2865.03742471437 152 152 154
186.885736425995 471.841978902633 2866.3385676558 149 149 149
179.338956657572 472.61060127065 2869.46796368228 144 144 144
174.271672732258 473.226621473829 2874.40880401134 149 149 149
168.372969525634 473.893853069487 2878.75043979621 153 153 153
158.301588301643 474.819925280011 2880.11280341742 165 165 165
144.864022883807 475.956424779285 2879.11842368822 143 143 143
133.063987888751 476.993069405486 2879.34652918412 138 138 138
122.913491961586 477.928332240179 2880.78575866288 148 148 148
115.265769211697 478.70814688544 2884.01373834848 147 147 147
103.389038089352 479.75365116007 2884.31703262238 156 156 156
89.7908765071751 480.909040074618 2883.47933541109 142 142 142
74.4595930555203 482.175699063799 2881.51205169057 138 138 136
69.2764248693374 482.804411832525 2886.56609084811 139 141 136
-11.0835322591685 490.325499910185 2901.48779143864 114 116 113
-12.879569255539 490.740627006957 2908.8779022356 168 170 167
-12.9217787975868 491.041903245542 2917.37742002863 151 153 152
-8.58668605688706 491.059443708163 2928.65703240084 154 153 158
-9.44416377439072 491.410206526339 2936.54190013141 141 140 145
-6.78356497856258 491.531979895096 2946.63474768901 148 147 152
-6.71689347376159 491.820119635942 2955.0280865616 174 173 178
-7.50485995219741 492.162591208557 2962.84515404668 168 167 172
-11.7944874975513 492.732126816212 2968.4375498152 173 172 177
-15.1974648735962 493.24364876035 2974.57497257035 182 181 186
-17.7077993432877 493.696359038922 2981.251927222 189 188 193
-23.7504941776798 494.379931480075 2985.734471494 202 201 206
-30.6847272801778 495.122264782831 2989.67639445619 170 169 174
-34.9559096781276 495.689992768103 2995.25107892846 183 183 185
-19.6000833935077 494.964650930014 3012.70100083539 203 205 204
394.044562519852 437.41538317627 2614.70257508823 208 210 207
394.05424027126 437.796726512024 2624.55564346755 186 188 187
394.091547851677 438.1741149182 2634.38185955509 190 192 191
391.928522824494 438.661246580215 2642.12575264843 174 176 175
385.314031414901 439.374403432389 2645.75481749156 175 177 176
380.185158226672 440.011337989076 2650.75372573683 154 154 156
373.559622885553 440.725015609812 2654.39334255588 165 164 169
369.928622383704 441.284022541006 2660.75051522739 196 195 200
363.296164285557 441.997747321693 2664.39699947628 195 195 197
355.902121855205 442.751213054791 2667.3769652122 170 170 170
347.740626648349 443.545277488602 2669.69611311228 151 150 148
337.289356332523 444.460036498187 2670.02013714392 185 184 182
294.038150800291 448.93870862315 2689.63503953011 145 146 141
302.746776278072 448.831626812813 2706.50912926724 180 181 176
309.978570865942 448.798833951637 2722.00493539995 183 183 181
311.843052709871 449.051444357339 2732.86933904463 188 188 188
314.520783421208 449.257122533548 2744.35002042268 183 183 185
314.119598998125 449.627211305942 2753.19583511676 182 182 184
314.523882533975 449.951378240403 2762.66550476593 185 185 187
311.822019775151 450.443270753832 2769.5268587228 184 184 186
311.488912585808 450.803981230053 2778.30645782549 187 187 189
308.817539203866 451.291528838044 2785.13817755552 186 186 188
307.737094995452 451.690020297906 2793.23706219322 185 185 187
305.885519468935 452.129662650339 2800.67870022755 186 186 188
302.463854098037 452.655085365248 2806.83296375199 187 187 189
298.255329859201 453.22350729613 2812.34498733915 187 187 189
292.457328222919 453.880124214194 2816.58853166274 186 186 188
288.254165992082 454.44733945933 2822.09540904432 184 184 186
282.453681679594 455.103768123153 2826.34144652598 182 182 184
279.058920255902 455.624501853848 2832.46968706295 177 177 179
274.867669828844 456.189448832103 2837.96507109614 175 175 177
268.260518770381 456.890813605807 2841.58825188415 180 180 182
261.646608264492 457.592663664394 2845.21841102047 189 189 191
254.214801368094 458.34142571184 2848.23657263213 196 196 198
247.584741641128 459.044793954815 2851.88220595473 191 191 193
239.318606254213 459.842172667551 2854.30477325149 180 180 182
230.221118874497 460.688041723963 2856.12847135541 159 159 161
221.105222077848 461.535894213436 2857.97049497394 155 155 157
211.970473528292 462.38590042851 2859.83058250009 158 158 160
203.639616005742 463.190317987132 2862.31637949596 165 165 167
194.469857244567 464.044164553908 2864.21100291949 158 158 160
184.455162529076 464.948184454135 2865.51999747961 146 146 146
175.246104764119 465.806379150005 2867.45266490126 143 143 143
168.508962338045 466.520993015361 2871.20330867097 139 139 139
162.596590417329 467.187559532144 2875.55861598937 141 141 141
156.681369281105 467.854265809012 2879.9170698064 151 151 151
144.911837736285 468.866118019321 2880.11888707552 160 160 160
133.111911838951 469.881490630074 2880.35002823037 141 141 141
122.121743528143 470.850623464573 2881.20114950982 142 142 142
111.946862215606 471.772861974931 2882.66651902619 143 143 143
100.062459013255 472.798134144031 2882.98042208531 145 145 145
84.7654367542163 474.028719252435 2880.98444819787 151 151 151
70.2703909039748 475.214104494501 2879.61602756133 142 142 140
66.7761646894447 475.74255493665 2885.84155973739 142 144 139
-15.3594894613418 483.256268921357 2899.69348713095 100 102 99
-16.2983824881953 483.630710840937 2907.6557017064 174 176 173
-14.610981949426 483.84284380329 2917.28468509358 170 172 171
-10.2799029339455 483.890699001537 2928.56380264958 166 165 170
-9.39597207552989 484.148223489429 2937.56736298344 180 179 184
-8.48453151365813 484.402440402065 2946.54375679129 185 184 189
-9.29842704126571 484.761727126911 2954.38374909135 162 161 166
-9.21383733584813 485.064207718515 2962.75717535437 163 162 167
-12.6269018309637 485.582531336069 2968.9039473255 179 178 183
-15.1495539119404 486.045033634465 2975.591348449 186 185 190
-19.4280734932613 486.616340185476 2981.17278994236 203 202 207
-24.588498771497 487.242598631071 2986.20460780399 174 173 178
-31.5245563171169 487.980090614794 2990.14905801002 152 151 156
-34.01779355565 488.439372902033 2996.80806351837 212 212 214
-26.6877417460547 488.280518595129 3009.39077412659 235 237 236
387.473153436441 430.577113896883 2609.48557727897 199 201 200
389.681038736635 430.87566526821 2621.4190954782 170 172 171
391.18759850017 431.203884322584 2632.62774611452 185 187 186
389.758976626336 431.667733762326 2641.06271644011 181 183 182
385.372143827955 432.270238141252 2646.74710353384 167 169 168
378.749841431034 432.978672754231 2650.38428490576 169 169 171
372.120166346667 433.687594545411 2654.02871546058 157 157 159
366.233678140654 434.360939155686 2658.35765591038 130 130 132
361.096044944 434.997975580576 2663.36524791744 162 162 164
352.941679757254 435.780910070666 2665.67896060296 190 190 190
345.528421097767 436.528483710246 2668.67887918733 196 195 193
332.038403481048 437.573517890905 2666.33319448344 164 163 161
294.093308989574 441.751032603192 2690.64260200952 140 141 136
303.573233397869 441.653980157964 2708.16654533068 178 179 174
309.258782823041 441.742304433384 2722.34573823032 181 181 179
311.896552375515 441.980411368524 2733.86130867346 187 187 187
314.573843507601 442.21332958969 2745.33840049346 188 188 190
314.172297062856 442.599827850015 2754.18214936525 183 183 185
313.794711188538 442.983069624415 2763.00258634361 186 186 188
311.090625383839 443.483556992632 2769.86487750211 186 186 188
310.754989710415 443.861022080532 2778.64417326059 185 185 187
308.081393282598 444.357164543313 2785.47683019225 185 185 187
307.788170596859 444.728768527266 2794.21521333758 187 187 189
303.562501431499 445.30283100932 2799.74342841922 187 187 189
300.134704680063 445.834658205098 2805.9028339157 188 188 190
296.715435041329 446.365145063112 2812.05396996454 188 188 190
292.507460281974 446.936180804979 2817.56506159034 187 187 189
286.706081775456 447.590540349587 2821.8122928348 186 186 188
280.901392612909 448.244976479943 2826.06246244831 183 183 185
275.896594082841 448.857070317574 2830.9418341713 178 178 180
270.087740634798 449.511487664936 2835.19647959997 175 175 177
264.275764060698 450.16609234107 2839.45419865188 178 178 180
259.269335890047 450.777595541632 2844.33527592796 185 185 187
255.074323490126 451.345257591748 2849.83399436938 194 194 196
247.633491698284 452.087078641436 2852.86214371206 200 200 202
238.552786256 452.917934341484 2854.67173391354 191 191 193
228.636862734152 453.795114169681 2855.88661416919 162 162 164
220.335391077163 454.585802472526 2858.34525974416 154 154 156
210.378316335119 455.46758037763 2859.60032417604 155 155 157
202.043348188882 456.262003248066 2862.09134245055 166 166 168
192.045459912924 457.148323621446 2863.3866017921 161 161 163
182.02491486801 458.037247918745 2864.70363693935 148 148 148
171.981923727467 458.928677574505 2866.04259110048 150 150 150
164.406738279314 459.68504779989 2869.20200524818 137 137 137
157.652682694612 460.396470196744 2872.96957789008 146 146 146
151.725748902643 461.062235318089 2877.33980164978 144 144 144
142.452275272975 461.914562007446 2879.33764010813 169 169 169
131.484553157617 462.862555321731 2880.16959639554 148 148 148
120.490304943016 463.813669834912 2881.0270943378 140 140 140
110.311781203615 464.720580332058 2882.49868415354 146 146 146
95.8925110619631 465.867649092618 2881.06034243544 143 143 143
79.7404269248019 467.115233235488 2878.49403586553 149 149 149
66.0813598062067 468.224727081793 2877.72360202329 142 142 140
65.1258411509232 468.615387959949 2885.69992893855 138 140 135
-20.4999008188649 476.20943728387 2897.33737864645 100 102 99
-20.5836936586827 476.54871294098 2905.87257297142 175 177 174
-18.9058911097999 476.783861310353 2915.50802347933 169 171 170
-12.8434610640316 476.761223782499 2927.91212129775 183 182 187
-10.2203433141117 476.936564867471 2938.03460864494 181 180 185
-9.31090573562399 477.210169672182 2947.01012592292 159 158 163
-10.1265876247494 477.583437779355 2954.85016350617 159 158 163
-10.9225826975399 477.954355026081 2962.67066140392 167 166 171
-13.4591726743132 478.426798046678 2969.37077167158 175 174 179
-15.1013391373667 478.84570206663 2976.60752852674 192 191 196
-18.4957499354024 479.36757097192 2982.73525310894 197 196 201
-22.768130619319 479.941242003083 2988.3099112753 159 158 163
-28.8120151013125 480.620217427688 2992.794316322 168 167 172
-33.0793801073019 481.193403575019 2998.36406551166 246 246 248
-25.7474666556079 481.072277464891 3010.93968911274 239 241 240
385.322822877028 423.4987697074 2608.415997697 192 194 193
386.046839830852 423.889168942486 2618.9752875482 172 174 173
388.283953214746 424.210794458759 2630.87670932169 174 176 175
386.84712868633 424.689299772363 2639.31765887279 181 183 182
383.196682037509 425.262964746452 2645.69197540338 167 169 168
375.075246464275 426.032709258574 2647.97460012689 167 167 169
369.184143543984 426.704483264742 2652.30835519078 164 164 166
361.788739434159 427.443113092834 2655.29186583483 145 145 147
355.886844426554 428.115451533929 2659.63625417774 139 139 139
348.472900016567 428.855563613466 2662.63795653781 158 158 158
338.77899962429 429.699092891037 2663.63733808038 158 157 155
322.996844881941 430.81997878053 2659.30550278166 137 136 132
293.378818074999 434.597981470301 2690.99241056565 140 141 136
298.225102026178 434.768963674336 2704.57554252213 178 179 174
305.444073191576 434.824412615418 2720.07104040308 181 181 179
311.950253330745 434.908262080669 2734.85324340727 186 186 186
313.849516098817 435.205166564496 2745.67656243471 188 188 190
313.445462428568 435.608416756519 2754.51998724831 184 184 186
311.50262152407 436.082814724131 2762.04745412937 186 186 188
312.709678866072 436.405006908607 2772.13715870676 185 185 187
312.377823873315 436.798375677488 2780.91068747833 185 185 187
309.707807721919 437.302410878484 2787.73862259933 185 185 187
307.050188013513 437.804588466738 2794.55452242353 186 186 188
303.61353908059 438.343412056793 2800.72134636107 187 187 189
300.978648829916 438.842281969545 2807.51516437073 187 187 189
295.17562938663 439.494961377859 2811.76427341308 188 188 190
291.760753517056 440.030289979079 2817.91033077666 188 188 190
286.756245606467 440.64311377425 2822.78930602281 186 186 188
280.95134413988 441.295217915844 2827.04003112429 184 184 186
275.143508961985 441.947413500735 2831.29399377118 181 181 183
268.527627409589 442.639824707007 2834.92716740208 178 178 180
261.904836522713 443.332858031459 2838.56744799745 176 176 178
257.701100823847 443.904745139817 2844.07420434192 176 176 178
255.934039337681 444.353458227049 2851.43057803419 182 182 184
250.932863920351 444.964092843699 2856.30656762489 199 199 201
240.230715064448 445.863421956026 2856.88199828757 204 204 206
229.50218727615 446.765752223379 2857.48318005066 182 182 184
220.384191941207 447.587598654752 2859.33113123277 165 165 167
212.067705356745 448.369519508098 2861.8056448359 157 157 159
202.092027831556 449.237514615562 2863.08121919791 156 156 158
192.094156593456 450.107999711139 2864.37880206776 156 156 158
182.073565079923 450.981067252222 2865.69822698068 157 157 157
171.20251495663 451.89956617528 2866.43854580904 149 149 149
161.135138161462 452.778001025063 2867.80363591235 141 141 141
152.709394310188 453.572119781106 2870.38517859384 139 139 139
148.43850708679 454.149671386868 2875.9577801846 138 138 138
142.500669811276 454.814245921611 2880.33900723283 150 150 150
133.208464785174 455.655531631004 2882.35674025476 161 161 161
119.699077560444 456.720740384159 2881.44421738267 135 135 135
108.676851515004 457.656646307149 2882.33208338952 136 136 136
94.2540197476012 458.774873006968 2880.90187910442 145 145 145
76.4070299365014 460.078432150327 2877.17620936598 146 146 146
64.4353492035523 461.071689280023 2877.58151211203 148 148 146
63.4756689357818 461.476568601212 2885.55953224834 138 139 134
-12.6666883373669 468.418334834471 2903.46360178111 105 105 103
-20.5344630589197 469.200769807161 2906.90970904428 172 172 170
-22.3319092196501 469.649332969627 2914.29627732637 169 169 169
-18.8892720227933 469.807290780145 2925.02444830612 164 163 168
-13.6620035114796 469.863789812561 2936.82960604944 194 193 198
-11.0113046389326 470.060302828249 2946.92157573202 198 197 202
-10.9544796176597 470.398981813735 2955.31722263002 218 217 222
-11.7524709175325 470.783890453174 2963.13763488905 221 220 225
-14.2910089249479 471.265041080586 2969.83839259945 223 222 227
-15.9351037880673 471.695156407733 2977.07540735807 215 214 219
-20.2158014346785 472.27273591228 2982.65774672068 157 156 161
-24.4916981708325 472.849815085523 2988.23573049898 166 165 170
