ply
format ascii 1.0
comment KinectMotionCapture
element vertex 784
property float x
property float y
property float z
property uchar red
property uchar green
property uchar blue
end_header
229.44138403298 448.203445967557 2279.97902976038 246 248 247
212.697219744167 446.689967297246 2285.12485237829 226 228 227
199.402483488544 445.515289233435 2286.59747746075 208 209 211
187.497538431094 444.476784580992 2286.60791385213 173 174 176
178.315712313648 443.706376595029 2283.65331424601 154 155 157
170.48826756247 443.06934353134 2279.2111369081 126 126 126
160.657697130313 442.234037266919 2277.02095660998 118 118 118
149.510447642538 441.267987603572 2276.34599305944 117 117 117
135.066541513176 439.974975825863 2279.45503425074 113 113 113
123.981593846779 439.013510290289 2278.82525783962 112 112 112
112.262216081868 437.988470382898 2278.97028412315 123 123 123
101.230736358036 437.030858396442 2278.37928728364 122 122 122
91.5362264131949 436.205245248996 2276.287789234 122 122 122
83.1652846977904 435.510510816102 2272.68636370831 125 125 125
74.1513849714601 434.75153066891 2269.85326093407 131 131 131
65.1498282077818 433.993321822461 2267.02940422068 132 132 132
54.8672113426121 433.10719536579 2265.74659950805 151 152 154
51.051491708408 432.86431310432 2256.80350056714 187 188 190
45.9282062099606 432.491395842151 2249.38222830892 153 154 156
42.0710729250522 432.244750764787 2240.40938314643 159 160 162
35.6395246200352 431.741503066557 2234.50943084608 178 179 181
27.2959967174171 431.047246529208 2230.92758612194 161 162 164
22.7613653700196 430.733134823885 2222.69830305285 157 158 160
16.9459703269363 430.291119162136 2216.00999244755 148 149 151
13.6370725410297 430.099796176687 2206.19981848632 152 153 155
10.3011817253944 429.906111800925 2196.36977026384 162 163 165
9.43648013078136 429.960264334344 2183.39195419446 181 183 182
6.03748160110973 429.761049323242 2173.51612982953 210 212 209
5.09201409542825 429.808255646385 2160.47972964367 179 181 176
5.33769395543526 429.975677438709 2145.83705878316 191 193 188
10.4554993394563 430.633455178395 2124.84789745323 141 143 138
-44.9846665098583 425.346099981769 2167.38499475468 151 152 147
-55.1236341009944 424.467687140045 2166.20606906037 174 175 170
-64.0271069677245 423.713077820556 2163.45333368941 158 158 158
-73.5221571135152 422.89830594172 2161.50648321794 145 145 147
-84.2046270292887 421.963142620004 2161.16860474345 147 147 149
-93.6602376352407 421.151087833215 2159.2503585987 146 145 150
-102.500365731289 420.400624373642 2156.54356420344 161 161 163
-108.944304417121 419.891996681922 2150.63460260089 157 157 159
-115.392675827302 419.382760556456 2144.722130063 160 160 160
-117.706417078101 419.292116288478 2133.16350853388 156 156 156
-122.412162906887 418.959527192115 2124.81008733385 161 161 159
-136.525957866635 417.672805123774 2129.39350164473 155 156 151
318.273102446389 447.166130337745 2238.14897747916 149 151 148
282.616086453695 443.912337623005 2262.92429452453 226 228 225
262.24724225616 442.098181635967 2271.61646395524 245 247 244
246.75264314685 440.742759361245 2275.19885036722 143 145 144
231.992405419319 439.455770482352 2278.07860653932 141 143 142
215.919375251212 438.043819622787 2282.47642623322 202 204 203
203.970142477347 437.02078544845 2282.45483587484 218 220 219
190.699305806332 435.872090403143 2283.94491788533 207 209 208
180.834643593359 435.045000250315 2281.73006534397 207 209 208
171.657860284471 434.282633060475 2278.77916210561 191 193 192
161.155211374094 433.39427469004 2277.3368401626 191 193 192
148.673319627143 432.317807606162 2278.16387992811 178 180 179
133.567321480909 430.991790245672 2282.02812041307 171 173 172
121.825537316024 429.984008383 2282.15699123448 172 174 173
110.113831585974 428.978454105641 2282.30767783837 167 169 168
99.7480733307001 428.100080144336 2280.96464142564 170 172 171
91.3710525542308 427.41021982469 2277.35853927018 163 165 164
83.6553878258504 426.782929243329 2272.99744300389 159 161 160
75.2921606024888 426.093753212655 2269.40134355551 193 195 194
63.0420727359815 425.034282872164 2270.39680346977 213 215 214
54.0614373492372 424.285480420306 2267.58786627722 229 231 230
48.3165428375467 423.844630980313 2260.95096339585 197 199 198
44.4896230921197 423.58657754905 2251.99966841033 174 176 175
39.9995370217536 423.265425172891 2243.80264150083 200 202 201
33.5768481628609 422.759833318072 2237.90909972843 179 181 180
23.9700219350221 421.950061062551 2235.88124571374 188 190 189
18.81555087179 421.565237642858 2228.43730606704 208 210 209
14.9098646596895 421.299812898838 2219.42916872874 210 212 211
12.8691665863752 421.212936463659 2208.06820663381 211 213 212
9.53844890642541 421.002942901327 2198.24182591855 212 214 213
8.0547115600349 420.97002965963 2186.05014772273 154 156 155
6.53070835608505 420.933620036729 2173.82896776057 134 136 133
8.06783351971152 421.191156866415 2157.6528763535 198 200 195
5.83394498221468 421.087659012119 2146.15178217743 152 154 149
6.02747942314341 421.21747000964 2131.47141396073 141 144 137
-52.8083523154743 415.89709787127 2164.13565014834 208 209 204
-58.6841301526622 415.442045857395 2157.40379521229 139 139 139
-69.4072026707131 414.520236502189 2157.03625620836 143 143 145
-80.7066121236428 413.542272735308 2157.48596493375 143 143 145
-90.7745622714564 412.682289145699 2156.35890912451 152 151 156
-97.8297657820719 412.112322190571 2151.24155453918 157 157 159
-104.885141827155 411.542087347013 2146.12407352301 152 152 152
-111.940653764249 410.971632391333 2141.00649288092 154 154 154
-114.855898770115 410.800978067654 2130.24645980552 156 156 156
-119.570098125905 410.456666471471 2121.88685108658 163 163 161
299.434040207613 436.243787068266 2259.0204913056 157 159 156
276.925348831368 434.288997660268 2269.86613187848 236 238 235
260.007528046195 432.838142422257 2274.88667887321 172 174 171
246.574033690573 431.701412078306 2276.2586129834 201 203 202
235.908812832294 430.814416250082 2274.69844606745 209 211 210
219.822638736166 429.436694244587 2279.08691082331 185 187 186
201.758720656611 427.879239954343 2285.74616074361 179 181 180
187.1436959272 426.633095249805 2288.73139180084 191 193 192
175.270700879564 425.634548660876 2288.76519183165 182 184 183
167.456139522236 425.003179083069 2284.33208815054 207 209 208
157.637213383909 424.189945933357 2282.15075533122 215 217 216
144.500317331828 423.075540661018 2283.73781296225 220 222 221
129.407806319911 421.783176288101 2287.61200101772 226 228 227
119.005369785562 420.915616862499 2286.24243051549 226 228 227
109.284555319438 420.10952988848 2284.13196266092 226 228 227
99.5805784431578 419.304612779616 2282.03370666016 222 224 223
91.861179599078 418.679593254869 2277.66962048004 219 221 220
84.7989983703852 418.114064571282 2272.54723007867 219 221 220
77.0844392142087 417.48907407476 2268.18694691566 197 199 198
64.828742423209 416.450840931325 2269.17815389442 185 187 186
55.8428965333282 415.70952784854 2266.3657719091 155 157 156
50.0938771198638 415.262523801097 2259.72555314709 232 234 233
44.9778556462737 414.873093338853 2252.30946309289 212 214 213
39.8478586256936 414.482336534044 2244.88323514824 214 216 215
30.874634493423 413.741254348836 2242.08000411392 218 220 219
22.549984204046 413.058992634725 2238.51219940765 190 192 191
15.501151587074 412.49279783096 2233.39948232576 185 187 186
12.8725502918603 412.329756772867 2222.84728195619 124 126 125
8.95376397606507 412.049101131773 2213.82927644864 105 107 106
5.01210134517205 411.766378573103 2204.79497141974 115 117 116
4.79731091566249 411.824231336063 2191.05297745991 149 151 148
7.02381412434816 412.10553870293 2174.14171468301 144 146 141
7.94248780232509 412.267787148745 2158.75184857033 169 171 166
6.3300799738526 412.198899323653 2146.46641770071 162 164 159
-50.4922005408583 407.309417670401 2162.06577534103 180 181 176
-56.3745091120875 406.848190803699 2155.32915485965 135 135 133
-67.1053244321078 405.942153872454 2154.95608282377 147 147 149
-78.4127676427242 404.982682596799 2155.4003558519 145 145 147
-90.2897007526 403.970398838273 2156.66626814507 157 156 161
-97.9433382736414 403.345359642623 2152.34985365181 156 156 158
-102.612397865292 402.994324382858 2144.02293365454 153 153 153
-107.299349195611 402.64161565342 2135.68303507763 154 154 154
-112.004157660002 402.287236257666 2127.33018302088 154 154 154
-118.49493083728 401.768530990853 2121.38692457405 160 160 158
-127.339117569109 401.033003281301 2118.67726363962 157 158 153
318.616114066746 428.756134666292 2239.53942029467 201 203 198
287.08397178354 426.08273514229 2259.8970773979 75 77 74
264.63676697132 424.19262126145 2270.78791296455 54 56 53
245.709849188565 422.605769957328 2278.0564437102 33 35 32
235.048297960432 421.732294306759 2276.4987109928 31 33 30
216.242688845271 420.154817701395 2283.85552294216 40 42 41
199.54594322293 418.758977503885 2289.03631622541 53 55 54
184.261997858877 417.484700351177 2292.77152657192 57 59 58
176.441382112123 416.855330027014 2288.33433853835 48 50 49
167.281165910647 416.109898093401 2285.39553093012 56 60 59
157.463865677585 415.30736095706 2283.21513646461 30 34 33
142.32616244674 414.044149800907 2287.05671138292 43 47 46
127.905574424345 412.842493413164 2290.18311910065 39 43 42
120.159799415183 412.218249635881 2285.79991620488 38 42 41
111.756944052907 411.536926248197 2282.17542372509 29 33 32
104.020455213313 410.913106163227 2277.79895471791 37 41 40
94.9753063991632 410.175696543275 2274.94360254901 40 44 43
89.8657617594432 409.779143568462 2267.53217161298 34 38 37
80.8321885031455 409.042298298946 2264.68521367155 50 54 53
69.8628335782114 408.137334934745 2264.13951910023 63 68 64
59.5665623021402 407.290404099436 2262.84672007026 53 55 52
49.9364635882551 406.500951698725 2260.80239273487 15 17 14
44.8229860724525 406.103154087953 2253.38810446871 15 17 14
37.7737878951834 405.537228388803 2248.27512374743 14 16 13
28.8088365882184 404.804807129988 2245.47793373003 15 17 14
17.3120021496391 403.852207393591 2245.78465334387 62 64 61
13.4526474831227 403.562714917118 2236.8096863469 51 53 50
12.097309108912 403.490755058664 2224.71059505036 104 106 103
7.55397311900374 403.141779653884 2216.47482520864 140 142 139
2.99235255750174 402.791128827489 2208.22579200442 154 156 153
3.4129657686206 402.873666926576 2193.70950411075 186 188 185
6.27107139376859 403.168418569838 2176.02113487333 178 180 175
6.57543131462823 403.241210264937 2161.42052312113 156 158 153
3.11567089970399 402.986574403702 2151.50037045133 183 185 180
-48.1752252721497 398.704612898915 2159.99641076283 145 146 141
-54.0640309440601 398.237258711927 2153.25504935843 135 135 133
-65.4077743186439 397.294223227811 2153.67279639652 140 140 142
-77.9265620372789 396.248318013233 2155.70857539287 147 147 149
-89.8048863516428 395.257832595851 2156.97358958512 156 155 160
-95.0650790598384 394.8442959422 2149.45286462358 152 152 154
-99.1463894728943 394.533517151571 2140.31718382682 154 154 154
-103.843847202654 394.168894322419 2131.96931411245 155 155 155
-107.967559890317 393.854292139864 2122.80287563568 155 155 155
-112.703069285964 393.486163917128 2114.42769817816 159 159 157
-122.742468143518 392.654605925259 2113.32118931278 157 158 153
332.405823250666 420.694246781696 2212.44129054839 83 85 80
288.508761463797 417.098126993548 2246.06281157361 31 33 28
259.229277068953 414.7050997961 2264.34948423071 70 72 69
194.618239411052 409.436492450103 2295.29778033273 70 72 69
172.894592056809 407.681363594821 2293.12753551565 59 61 58
173.151205681381 407.719692817934 2279.72717352431 41 46 42
135.196406368847 404.608954400044 2309.01298062523 38 43 39
125.470325325911 403.824127779483 2306.89880260461 50 55 51
142.525804573202 405.263361369643 2261.21912924413 39 44 40
98.9206402020892 401.750142505194 2244.41263732353 24 29 25
59.4071459503871 398.522874596223 2263.92207759557 23 25 20
48.4884884647356 397.637825106693 2263.4129410706 26 28 23
35.6666887585138 396.59551187879 2265.22907840467 23 26 19
33.1356070954469 396.402015469116 2254.74741783526 29 32 25
16.5256631535091 395.046653478564 2261.2266716454 32 34 29
9.52595877964146 394.484080147494 2256.14958701886 23 25 20
7.59828117126204 394.339939443874 2244.87026581613 30 33 26
9.42555038748383 394.505615870461 2228.90404073371 18 21 14
-2.66181783712138 393.522630785439 2230.01755252487 22 24 19
-4.04824864365683 393.422801202043 2217.89607497196 26 28 23
3.27790508372905 394.042213075842 2194.80219378932 7 9 4
6.76361780543555 394.344533732795 2176.33349756232 10 12 7
7.69039442214892 394.435507053522 2160.94914442029 34 37 30
0.517816030758844 393.857539955384 2155.74666175667 53 56 49
-50.1253201002627 389.730206882083 2163.47802373995 144 145 140
-55.3975408446385 389.308138230739 2155.94853618204 141 141 139
-66.1305046325504 388.434711668222 2155.57407185388 149 149 149
-76.2342822654916 387.613019013334 2154.42123788721 153 153 153
-86.3159496842651 386.792927942551 2153.28414572197 155 155 157
-91.5870818642976 386.370181165839 2145.75573832977 151 151 153
-97.4678841720156 385.89686329065 2139.0198540506 155 155 155
-103.35770604661 385.422620562556 2132.27742661035 154 154 154
-108.072714291378 385.045339531126 2123.91706451383 158 158 158
-113.985061870864 384.5688939933 2117.15859102874 162 162 160
174.738399867633 398.962018089929 2291.94961820715 54 56 53
181.710641529045 399.495553482522 2271.06911136914 42 47 43
142.193376799355 396.362715445825 2275.75467918866 42 47 43
148.326181629394 396.829630480988 2255.50034586109 52 57 53
134.545386703804 395.737388227281 2257.85607082351 42 47 43
114.22203306681 394.132933795962 2267.81761061831 40 45 41
88.8841269085066 392.122176616767 2270.43653190643 31 36 32
45.6495126008765 388.696402641607 2281.07167526489 26 29 22
39.9407147127935 388.235177342763 2274.46083638857 26 29 22
29.7209511024898 387.420940863657 2273.22366500163 28 31 24
18.2407782736922 386.507971753052 2273.54266370892 29 32 25
15.0933664771471 386.246627286751 2263.84919971505 28 31 24
10.0095205692989 385.833620677156 2256.45631499728 34 37 30
11.2539981597437 385.915246764385 2241.30222272561 25 28 21
-0.199981649858127 385.003712526574 2241.64021657941 26 29 22
45.2678771071069 388.490823655316 2128.87357721155 13 15 10
27.4334762756356 387.079420595405 2136.9349854906 31 34 27
7.81784871745472 385.528834727974 2147.40984387845 22 25 18
-53.6938547208545 380.63212183337 2154.66926114272 135 135 133
-62.0108769250038 379.963711334299 2151.10705635736 164 164 164
-70.319154491463 379.295804722627 2147.55089882174 149 149 149
-78.0179934946066 378.675343771745 2143.20203447619 151 151 153
-85.7124751211444 378.055031291187 2138.85603516093 156 156 158
-93.999180864262 377.388334543445 2135.31552162862 157 157 157
-102.277300646302 376.722134609327 2131.78152923621 154 154 154
-106.994069364658 376.333658354093 2123.41983422881 156 156 156
-109.959030063573 376.08157839225 2112.62334874963 161 161 159
-116.480940986054 375.551807255245 2106.65746183598 159 160 155
248.283272940042 395.806466926625 2290.90244284787 16 18 13
173.217124069601 390.064215088531 2320.44468422909 25 27 24
183.046261769753 390.75286552754 2296.69554699322 28 30 27
154.332780568992 388.57935581345 2315.39334486712 29 31 28
134.495923395674 387.065384703414 2324.47297801746 20 25 19
130.045295600045 386.608887332676 2290.36633362899 23 28 22
111.246480415677 385.129254106316 2285.3770220397 25 30 24
106.809450655963 384.757069642175 2277.21819829447 24 29 23
102.354055063694 384.383274962745 2269.0457581322 23 28 22
100.497112015435 384.201665191388 2257.81781861046 24 29 23
58.1736947846241 381.023638826967 2293.81726251242 23 28 22
35.5851098214481 379.307657317227 2307.07685834065 22 27 21
37.0660390262283 379.373204707192 2292.09409344856 20 23 16
44.2977997718139 379.863639287936 2270.16616811276 21 24 17
32.7772714096977 378.966526417913 2270.4559925477 21 24 17
20.0049694506523 377.976944140836 2272.3082789477 21 24 17
9.82719961676715 377.179200989452 2271.10163328743 21 24 17
13.0393808492917 377.370726939306 2253.66912367863 22 25 18
9.20174605914781 377.040929791574 2244.70999220948 21 24 17
-49.5585627909161 372.123434618247 2150.21311560681 139 140 135
-56.6781637106935 371.548355306473 2145.04905207016 151 151 151
-63.7980267838096 370.97309792984 2139.88479759103 138 138 138
-72.7215032405295 370.265103759268 2137.11779730571 156 156 158
-82.8297390892365 369.470039207697 2135.96186635988 153 153 155
-91.7225407263296 368.764201448626 2133.21711382858 153 153 153
-101.791026580449 367.97199573663 2132.08971850571 152 152 152
-107.099530942204 367.529042159144 2124.53382239296 156 156 156
-113.601546091294 366.998271900153 2118.58264776631 163 163 161
-117.168938619132 366.682454099708 2108.5841603823 159 160 155
210.2773083841 384.148207430643 2332.45911401562 41 44 37
205.229586116336 383.723923146696 2325.09235897183 42 45 38
192.366931567753 382.680180531063 2313.29229168938 42 44 39
202.897520465651 383.349254233966 2288.81622113022 37 39 34
180.835331368505 381.729156821099 2299.987530492 39 41 36
169.659598844636 380.873730460844 2299.29247930959 38 40 35
143.049350707101 378.935997718952 2315.81104008549 24 29 23
127.955883171516 377.806728261796 2319.68506636741 31 36 30
114.91761970635 376.821842607459 2321.34457538505 34 39 33
146.509330862632 378.962729839114 2272.61949993869 31 36 30
104.214360573169 375.929009763077 2307.40525994612 32 37 31
81.3251129779626 374.255218369206 2320.44711271719 28 33 27
98.0752440716493 375.35428167497 2288.13064928641 29 34 28
108.754899778599 376.0272820772 2262.52762369868 29 34 28
89.8631214810939 374.633077908012 2271.05764023202 28 33 27
43.003043493071 371.286783469845 2312.41364945844 29 34 28
23.0640864568783 369.821904474679 2322.65455352969 29 34 28
31.06949441979 370.306948154676 2300.052397637 28 31 24
40.2635134162885 370.873601495454 2275.84193688238 27 30 23
33.2610866168541 370.310411814776 2270.76287558952 25 28 21
10.2283691843175 368.630749918123 2284.93573090764 22 25 18
11.5864905540679 368.649762885029 2269.86370428907 20 23 16
9.70266314404 368.442485502798 2258.61585123121 17 20 13
3.34088899372231 367.923337707911 2252.76639916753 16 19 12
2.66493278566182 367.799068869803 2239.92450491747 17 20 13
-42.9898368590242 363.749246103632 2142.58125857957 114 115 110
-49.526085421888 363.214022261541 2136.60524486242 131 131 131
-60.2914409497854 362.387001765585 2136.20782860357 129 129 129
-71.6316462677236 361.520508415632 2136.62852815542 136 136 138
-83.5400206506176 360.615128232783 2137.87218948648 152 152 154
-90.0416570373248 360.082081052907 2131.92127789971 152 152 152
-97.737033228946 359.466722051054 2127.57465518549 151 151 151
-103.058518869829 359.014412454876 2120.00930127639 156 156 156
-110.163964625439 358.439247653074 2114.85549868731 163 163 161
-119.033370882884 357.742840369359 2112.12775373322 161 162 157
279.284827004541 379.999335659083 2272.53691122519 22 25 16
247.912160485615 377.816818017609 2293.01236764982 40 43 34
292.79369813632 380.693376664897 2231.69296565828 46 49 40
236.880919198546 376.885140497379 2278.83538866914 32 35 28
191.853123712004 373.702357697237 2301.75813387309 31 34 27
207.723068676731 374.651477359816 2271.27321297464 36 39 32
185.667464186231 373.091806548251 2282.44960173095 40 42 37
175.137794818192 372.294598572267 2280.98785929924 24 27 20
99.6279802309594 367.20905603423 2352.20628893615 26 29 22
136.77615490916 369.559656858642 2297.62939273069 28 31 24
138.349764440484 369.561475357016 2282.71349098581 25 28 21
69.5360804275427 364.926993820078 2347.67245467459 26 29 22
74.5337006521152 365.155607390645 2329.06406801497 36 39 32
70.223977705238 364.770899124752 2320.9974682597 37 40 33
86.9144392460592 365.765670014938 2288.637220835 37 40 33
81.1875054219566 365.286057644941 2282.01284722046 34 37 30
59.7929837039581 363.778261615752 2293.66873174276 34 37 30
29.3923948447365 361.681360878654 2316.0846327808 35 38 31
37.3812878199611 362.101476837172 2293.47017594938 26 29 22
45.9132350894271 362.55546532929 2270.01452570707 27 30 23
30.5268557613969 361.443351158097 2274.91163198073 28 31 24
15.1973561762935 360.335702988861 2279.8499942151 30 33 26
1.20307807802789 359.315962983421 2283.28636453707 31 34 27
8.27461830249243 359.671286620916 2261.24160756267 28 31 24
-10.7741394634351 358.322142335643 2270.89338567265 27 30 23
7.57636119368366 359.4102735569 2234.79656792501 25 28 21
20.0768291941422 360.114789351734 2205.57291218774 25 28 21
-12.1514934842488 357.908272497118 2231.60403021808 22 25 18
-8.53108381639278 358.033675131503 2213.23178808023 21 24 17
-43.0264988731919 355.683283093669 2242.55915470096 15 18 11
-38.8504251067103 355.162844813494 2138.1277059537 115 116 111
-48.4293110134222 354.42844295185 2136.12078271701 104 104 102
-59.1977746471872 353.617574919503 2135.72090066427 98 98 96
-70.5413923009846 352.76997542899 2136.13922224216 131 131 131
-81.2549933369711 351.963248582255 2135.77942671032 141 141 143
-88.9572832619119 351.350177680498 2131.42809814996 149 149 149
-94.2760967723004 350.889914589962 2123.86464103926 152 152 152
-99.0156895150251 350.466413690428 2115.48592852576 155 155 155
-105.544277503322 349.927927092323 2109.51545159609 158 158 156
-117.958505007854 349.012765606944 2111.62769076584 164 165 160
283.179911492207 370.777179477427 2229.61394005173 36 39 32
156.778518986339 362.527417250856 2328.15056772952 48 50 45
170.646210925324 363.25871145462 2299.91847191824 45 47 42
139.992194677864 361.22884506764 2320.9156664701 33 36 29
114.853937907423 359.543107176255 2336.03250834706 36 39 32
126.577406170723 360.138899486615 2309.95044257707 36 39 32
58.2747444591805 355.788573277983 2374.04596543442 32 35 28
86.6047082118642 357.40929492967 2329.12951704489 35 38 31
54.5103269559641 355.300255419538 2352.78756360037 30 33 26
51.5879968826907 354.990896659932 2343.25702294931 30 33 26
63.0922567740471 355.568527376731 2317.01595636031 29 32 25
73.1620996759279 356.055508783383 2292.20495886245 27 30 23
76.5903289634653 356.132398651877 2274.92848644507 26 29 22
47.4293780497934 354.209037751322 2295.7738332401 26 29 22
45.6400244829678 353.965405016127 2284.59428214032 30 33 26
37.3551174490245 353.323411582332 2281.05549213485 30 33 26
43.2398219473584 353.547711884047 2260.62007669064 31 34 27
31.0736566650007 352.667823899918 2261.67698902017 31 34 27
16.3850557300833 351.634639679261 2265.84529290889 30 33 26
-3.98439811574858 350.256227141984 2277.00959525443 27 30 23
-7.12084369609678 349.928347275648 2267.32344941277 26 29 22
7.42885902133184 350.675019571826 2235.88043129807 26 29 22
8.58878703680066 350.605477546983 2220.66428153883 27 30 23
18.4851364745455 351.06454167121 2194.49233689054 27 30 23
-5.54121021517107 349.465935623439 2210.4153729773 24 27 20
-21.9633894985067 348.32973511336 2217.03185149166 29 32 25
-17.1871648162316 348.475962723438 2197.02751654828 11 14 5
-36.533958662365 346.433671942144 2136.05734256892 130 131 126
-46.1202214297161 345.709538378907 2134.04512369947 126 126 124
-56.8963616653519 344.914448133467 2133.63975663181 127 127 125
-68.8494792610712 344.049447461678 2134.85148166024 129 129 129
-78.9690887080574 343.294472760534 2133.68721433627 138 138 140
-85.4839570842476 342.754707851407 2127.72667657132 145 145 145
-90.2186360415016 342.320697199446 2119.35176740882 148 148 148
-92.6002594788204 342.026037064984 2107.74260877641 156 156 156
-99.7414334366369 341.447918136536 2102.56289108784 161 161 159
162.275532160338 354.25234351538 2335.79895937618 28 31 24
123.413788955497 351.840360490792 2365.66587945745 35 38 31
134.69740486628 352.338809196382 2340.49979337187 28 31 24
122.991075131634 351.50390056409 2340.6552415034 36 37 31
162.266699708316 353.616392751971 2283.91396869957 40 41 35
78.2855678254628 348.606668920544 2365.04839776639 33 34 28
82.7238960029826 348.70587394431 2347.2692439924 30 31 25
47.2590727989899 346.505830357136 2374.65929639736 24 25 19
75.8011594728041 347.830329014922 2316.30883366017 25 26 20
70.1442225707525 347.344744600254 2309.73517205864 24 25 19
73.6465164671913 347.383327021119 2292.5121966221 26 27 21
60.1065277094288 346.44553909512 2295.04326945626 25 26 20
42.0565406754694 345.251113347315 2302.94949372914 23 24 18
19.5429144502777 343.803770931112 2316.2647894562 23 25 20
26.2082265149401 344.020478156121 2295.15988352916 24 26 21
48.2320719043763 345.108221975028 2255.55047218574 26 28 23
48.8818902581754 344.977395288284 2241.19925925678 28 30 25
27.7372941342229 343.60940086164 2253.03702829857 28 30 25
3.50360884323164 342.068715183736 2268.81005358653 29 31 26
2.8835732985697 341.865768344398 2256.00829889918 28 30 25
0.320240024008989 341.551919070722 2245.50264883732 28 30 25
15.3810092025752 342.230575418028 2213.19443808658 29 31 26
23.3741860426364 342.507561833337 2189.34732511165 29 31 26
13.1028895813139 341.755466253453 2188.07311121715 27 30 23
9.09216949373803 341.355047469408 2178.98814880956 28 31 24
2.57206315042069 340.813372099125 2173.02380425359 27 30 21
-4.57238367925461 340.236548838729 2167.84172055318 22 25 16
24.0835896840284 341.658693260498 2116.9848255549 29 32 23
-45.0225278548906 336.906652659297 2133.56094573997 129 129 127
-55.1981415566183 336.161101528166 2132.35642194581 104 104 102
-66.5551802318674 335.350762846618 2132.76520307217 131 131 131
-76.0828317913285 334.641904401898 2130.79525561261 133 133 135
-82.6065267554579 334.09860901342 2124.82830138312 147 147 149
-86.7544013331838 333.685515488511 2115.64355408152 152 152 152
-87.3675612580389 333.465462073839 2101.61166040032 152 152 152
-92.7546608567946 332.982796888783 2093.99858777585 151 151 149
247.926987453524 351.273747154999 2321.29657395925 32 35 28
206.232947982913 348.81701540886 2352.81547973679 59 62 55
176.839935446727 346.669462810499 2346.31859735254 34 37 30
178.663154943662 346.583463278017 2331.58319838304 26 29 22
154.081460711696 344.696459187562 2319.92961768726 28 31 24
156.44070922997 344.635321358929 2304.34759241796 29 32 25
93.020469730543 341.039670405182 2362.10542792423 30 33 26
108.837686210299 341.702363369231 2331.58083221404 33 36 29
109.848318221908 341.568325721029 2317.49116454162 32 35 28
102.173724148367 340.968622887288 2313.15968652988 30 33 26
113.692452313363 341.392841464195 2286.92862571549 27 30 23
72.985211570344 339.032184062036 2320.39840621468 24 27 20
83.1146532258873 339.380317224836 2295.62990983153 27 30 23
74.1306882643382 338.710766948708 2292.81925486407 28 31 24
63.2005245798748 337.938361211836 2292.30264228986 28 31 24
34.7285529361896 336.238869965752 2312.41324769896 31 34 27
31.6910755817723 335.886021575478 2302.79871956587 28 31 24
24.1025184860635 335.292492513325 2298.52993734387 28 31 24
48.0742565371726 336.359026206697 2256.62678868588 27 30 23
51.2951730569844 336.329991124697 2239.19949428814 26 29 22
38.4550092730258 335.457132192915 2241.00317742977 26 29 22
7.17075546792856 333.620547661318 2265.2498827015 24 27 20
4.63563748652795 333.289559933139 2254.76459969815 23 26 19
7.13223924512585 333.219767656524 2238.04735873536 23 26 19
6.40826132942163 332.9804476884 2225.17006976794 23 26 19
7.52489562632119 332.835272668636 2209.92215237214 22 25 18
34.2607625137648 334.015502569213 2162.61254686151 20 23 16
4.5911757701278 332.272402972608 2185.56015900601 16 21 14
-5.64221471068938 331.536696493095 2184.31380145678 19 25 15
3.35459221962875 331.791751779738 2158.72376253189 21 27 17
2.97443128409691 331.56143383582 2144.86072279864 23 26 17
-48.1689572673663 327.882090826294 2138.64512945514 137 138 133
-51.6869095504797 327.488369466416 2128.68208776274 90 91 86
-60.648703271607 326.818106067785 2125.88750158851 126 126 126
-68.9977789059759 326.179076760478 2122.30220940905 138 137 142
-77.3380215722668 325.540648112039 2118.7230290021 136 135 140
-85.6696806325847 324.902813170135 2115.15036851855 141 141 143
-86.8764431542672 324.622627290188 2101.92289169322 159 159 159
-91.6724329265017 324.161275719667 2093.50339852536 175 175 173
263.665871011711 343.163432160861 2305.49237348613 16 19 12
223.98747986215 340.943713417849 2334.76826190063 34 37 30
192.776624791545 339.156933572665 2355.36302338733 41 44 37
180.246638304239 338.314495444879 2356.15667812898 46 49 42
164.331020902488 337.303034135508 2360.67063825509 43 46 39
194.151490981489 338.58517333282 2315.59764361739 34 37 30
181.598285831405 337.740645131054 2316.37445606825 39 42 35
191.432590236843 338.014581340543 2292.62666920095 35 38 31
168.747867888998 336.665079526493 2304.58309817305 39 42 35
135.396809578101 334.788334744831 2328.56666043736 37 40 33
132.400070188773 334.422760305626 2318.9815996646 36 39 32
116.005348571254 333.392923298702 2324.38348494981 35 38 31
116.995654852935 333.223842247004 2310.27890522024 34 37 30
117.267686729774 333.01757761138 2296.88877580991 32 35 28
88.3675818188947 331.374444902353 2316.68930374391 31 34 27
91.276587972867 331.297418360343 2300.27069240847 28 31 24
86.2288097234578 330.828396359632 2292.90367017704 27 30 23
77.8906410406677 330.198002397061 2289.32632841927 25 28 21
62.377327236149 329.217832737703 2294.13208550698 22 25 18
46.2700491603769 328.210487367371 2299.74216419749 23 26 19
34.1155562620812 327.396949518208 2300.80787416384 24 27 20
38.8013220867078 327.40026506566 2281.97257089251 23 26 19
47.915877967418 327.614967588647 2257.70272292915 23 26 19
45.3638534305254 327.26335779648 2247.2050795481 21 24 17
16.5513054197044 325.647222143107 2268.30425272212 20 23 16
22.9518407667513 325.726034227728 2247.00700051281 20 23 16
8.92926902303781 324.823743663067 2250.42345507196 20 23 16
19.6448472139457 325.104663609094 2223.60944786547 19 22 15
16.987635773031 324.744114297918 2213.03550697247 20 23 16
35.0433481234029 324.88664957236 2148.31229744954 15 21 11
-12.6168396228827 322.395076563686 2194.03276588634 18 21 12
-17.2247044383893 321.939174694974 2185.74967611822 20 23 14
13.9678073980334 323.163018308566 2131.79012656503 20 23 14
-49.3827873986934 318.732073586508 2126.60263835346 131 132 127
-54.7395361377083 318.235781137332 2119.01149869015 99 99 99
-64.9084238315254 317.517883643997 2117.8119907938 106 105 110
-75.6528619039887 316.774279766415 2117.4301605664 141 140 145
-84.5846858128581 316.114300568508 2114.65735224017 154 154 156
-87.5717216561087 315.725433655379 2103.84417116488 166 166 164
-92.9536447480444 315.226616384365 2096.23476928717 179 180 175
253.077851931854 333.704325864581 2317.53074423268 35 38 31
222.407539657802 332.033358261987 2337.28320118802 18 21 14
208.412022640806 331.141435054767 2339.48428417945 15 18 11
197.891416728432 330.411837052901 2338.02945449802 35 38 31
190.812528433506 329.841915444028 2332.89493053676 35 38 31
190.551829555299 329.586125303619 2320.35339900581 40 43 36
179.37016979926 328.826600481317 2319.6545368065 45 48 41
182.441731747613 328.721582173257 2303.35391832873 34 37 30
165.186997542 327.6842443847 2309.36706629449 38 41 34
144.632036167476 326.498516166382 2319.16282962842 33 36 29
122.822664636234 325.258673316957 2330.51933790345 31 34 27
138.555074043513 325.72669501327 2299.93227768821 30 33 26
129.477409492715 325.065734240986 2297.05344691936 29 32 25
104.469985915139 323.685591586797 2312.26668047006 28 31 24
98.1181601442902 323.150051814384 2306.42406269335 25 28 21
117.493707845707 323.770221006308 2271.06795310377 24 27 20
93.9470908548721 322.460539997011 2284.87014569106 23 26 19
87.550549443753 321.9211686557 2278.99509318478 23 26 19
74.6168870715018 321.090184504579 2280.73120930842 21 24 17
45.4482186197822 319.538962464293 2301.57284645211 22 25 18
38.4867496219323 318.977384389596 2296.52348450681 26 29 22
50.9205039297953 319.272924237552 2268.48443167544 26 29 22
54.8443723651557 319.188433768095 2250.33140460135 25 28 21
32.3660886910346 317.940814097729 2263.67333253301 23 26 19
14.4727870219818 316.897922504406 2271.69390892111 22 25 18
24.7115015214172 317.086802857945 2245.7684890014 22 25 18
45.6323882395231 317.736460684533 2206.59233701611 21 24 17
30.2633773788386 316.802640053726 2211.50293715435 21 24 17
22.5236385780589 316.201214527568 2207.12422561379 21 24 17
13.5300908206952 315.545734276184 2204.30669514059 21 24 17
-14.2481811105619 314.082250656955 2224.92137370067 18 21 14
-10.0380706251317 313.996523155517 2205.74080670238 17 23 13
-4.6639237448769 313.95745457901 2184.9339431297 17 20 11
1.86097363441329 313.963927547834 2162.49114609348 18 21 12
-36.8052869864166 312.046323110591 2197.44301526755 19 22 13
-30.92996627808 312.023807349531 2175.76421603548 16 19 12
-47.8395237431606 311.035751034798 2183.26317071348 10 13 6
-35.0555424886974 310.741841047268 2123.36200549196 128 129 124
-47.0778198443882 309.959020841678 2124.52371691768 121 122 117
-53.0431252824131 309.428876991543 2117.72658115822 93 93 91
-62.6172097540449 308.749033913713 2115.72312045825 118 118 118
-72.7715824697221 308.045889077485 2114.53420950443 150 148 149
-84.6903843104023 307.271093079712 2115.77097318345 152 152 150
-90.0474271766001 306.766076609867 2108.17957611219 167 168 163
-97.7822258000174 306.163512889928 2103.80444004646 175 176 170
-105.512790950472 305.561212871166 2099.43266872835 140 143 134
253.803735696148 325.086794561297 2330.36455309264 24 27 20
260.505993583452 325.101645437903 2310.52073864492 40 43 36
256.063768926024 324.638767224356 2302.35768962576 19 22 15
250.225205604746 324.115858900524 2295.6524685809 13 16 9
238.884821806197 323.359726821958 2294.83826664373 25 28 21
194.723128239594 321.219806189846 2329.51065748633 27 30 23
182.175336249749 320.418815052701 2330.29132009936 37 40 33
182.579429423601 320.162287759498 2316.99667015129 41 44 37
186.322239485822 320.04337482156 2299.94725227115 24 27 20
171.755869551719 319.158361299152 2302.96958342848 27 30 23
152.524307762994 318.081280902096 2311.25518442914 18 21 14
120.621826614536 316.482270251345 2333.81989023538 17 20 13
112.290676719698 315.863090489944 2330.24769334892 21 24 17
121.299422449803 315.958032314503 2307.13557136694 24 27 20
97.645453386431 314.708266627866 2320.86024562876 26 29 22
101.250755765371 314.577851837174 2303.7110872353 24 27 20
108.084067248165 314.576123066837 2282.72715572739 25 28 21
104.299592665321 314.13908789539 2273.80572356826 25 28 21
57.4619510755339 311.676928502347 2301.5958949076 25 28 21
38.7656674604968 310.642408799435 2310.26974605807 24 27 20
46.1043027613432 310.654783484632 2288.41687490058 27 30 23
44.2910022740231 310.297451663929 2277.21968273581 26 29 22
47.5973687336744 310.142390321274 2259.8536944752 25 28 21
34.7757965138316 309.344533608177 2261.67123493945 23 26 19
23.9136753707601 308.625674946993 2261.20392460507 23 26 19
13.7150943542963 307.933955644955 2259.98302398314 22 25 18
9.25848696816001 307.46837386674 2251.8095349229 22 25 18
36.4528828908131 308.239340211721 2204.83025389479 21 24 17
15.4383667040521 307.122546734233 2216.76359304142 22 25 18
21.5657134522642 307.062880149562 2195.26759916493 22 25 18
-20.6591213688934 305.130279144065 2233.81518361989 19 22 15
-33.2837258066765 304.347771221433 2235.77529350048 17 20 11
-47.1137151209626 303.520638253479 2239.3320303377 14 17 8
-28.6509055465589 303.929072867942 2202.07785381745 14 17 8
-46.2066030463113 302.959246197989 2210.34353676095 17 20 11
-37.8302351277124 302.975197241765 2185.53784835174 17 20 13
-20.9770099361513 303.306165903018 2149.58682511723 5 6 0
-38.8095388393335 301.704714158967 2129.24072395225 17 18 12
-47.1903379947565 301.079536973864 2125.6325048791 16 17 11
-53.1530341152906 300.54400436846 2118.83693889744 104 105 100
-63.3257975994423 299.853133156311 2117.6347582514 111 110 108
-72.2806911629648 299.207766884113 2114.84530025753 150 146 145
-84.79641843646 298.433115857002 2116.88437731479 151 150 146
-91.3378346086131 297.876932710467 2110.90451132438 165 165 157
-100.83994062022 297.213551355741 2108.95331272805 174 174 166
-106.790318054281 296.678560311144 2102.16697404525 143 145 134
262.644446351356 316.540226922024 2321.90875988525 38 41 34
268.629972717265 316.470833637022 2302.77998137777 24 27 20
257.944300956197 315.754512092521 2301.20585366484 31 34 27
241.079805460378 314.801435416811 2306.26728416938 26 29 22
242.815888658014 314.563602672148 2291.46794917178 20 23 16
182.208036205546 311.942896062829 2343.85867362378 28 31 24
190.168299559958 311.945340575451 2322.45638361023 26 29 22
174.229030000301 311.037627582658 2326.95372328799 27 30 23
173.936016881648 310.723172461766 2314.38846932483 20 23 16
160.085560389808 309.89662458297 2316.69504092561 21 24 17
138.870973828685 308.795861461921 2327.24809487885 24 27 20
126.473552308819 308.028275156583 2328.13822793372 20 23 16
111.434831249885 307.163886468942 2332.05328277823 19 22 15
77.5263682416636 305.300412567776 2344.51662460762 23 26 19
113.656922866828 306.324380964031 2290.43064536006 23 26 19
92.728607401753 305.246413191573 2301.19133880309 25 28 21
92.945307062938 304.943537332383 2287.76060853389 23 26 19
60.9836495347111 303.469822970362 2311.51808739915 22 25 18
44.8728333177462 302.576764672721 2317.12618010216 23 26 19
41.8483589397023 302.157682353097 2307.52103709325 20 23 16
45.2871154249523 301.969090847866 2290.25085135065 23 26 19
66.7656360917088 302.421367931099 2251.47764586584 23 26 19
44.8589546287663 301.322290050015 2263.99936172621 23 26 19
49.3918917551901 301.163618787299 2245.0524491749 22 25 18
19.9144683900534 299.802725081431 2266.90626397244 22 25 18
17.3864631989371 299.394247915662 2256.42545020626 22 25 18
-11.2393682034861 298.072887143257 2277.66176580434 21 24 17
0.197865850989576 298.151001122291 2250.13454397583 21 24 17
26.6576111937309 298.742853895465 2203.85712292478 21 24 17
5.69896227047684 297.690811789073 2215.83128942146 20 23 16
19.9431358191666 297.849700476458 2184.16351497514 18 21 14
-13.4390381336043 296.377082116879 2211.83197219123 20 23 14
-48.5028211613254 294.856047732734 2241.98655422949 20 23 14
-30.2744203081478 294.811074212728 2190.97386687085 17 20 11
-23.1812377907703 294.712692330337 2167.70746411935 22 23 15
13.8750627020285 295.605985698068 2105.64577607739 25 26 18
-54.5596467453007 291.969018753062 2136.30084321378 136 135 130
-52.0584218069942 291.703382678264 2118.35063059896 132 129 124
-61.0336100871651 291.064620688169 2115.54649398387 163 153 151
-69.995671988647 290.426854869346 2112.75187800663 162 151 147
-81.3278884874986 289.71421051493 2113.17914809942 164 153 147
-89.067447277462 289.116757599412 2108.80058717461 151 142 133
-97.3941627016308 288.500976546188 2105.23162214571 127 120 110
276.358131182679 308.097809264718 2308.33987735727 33 36 29
256.647197675541 307.080461349057 2316.27797964873 26 29 22
286.092190158272 307.768493277565 2272.16511512418 21 24 17
247.088294186855 306.085983819573 2300.69764392949 30 33 26
246.061321162407 305.716338678018 2288.83537832503 13 16 9
234.724542006005 304.992416748933 2288.02395262063 26 29 22
171.550952234165 302.505971228389 2343.49584038697 29 32 25
171.315813652048 302.168255686847 2330.97242309183 33 36 29
147.984194708695 301.049594430257 2343.69640327554 30 33 26
138.273024484151 300.393017241295 2341.59368403404 29 32 25
128.578563439333 299.737745140388 2339.50308424405 22 25 18
135.684129330301 299.641900164738 2318.71603904969 18 21 14
114.592644485241 298.608299422653 2329.35867225471 18 21 14
71.5849991477273 296.857169153542 2364.86933211 21 24 17
89.9676437506707 297.129764165786 2331.26205307841 24 27 20
86.9816379271429 296.697145483195 2321.68443370426 21 24 17
109.058535599313 297.076646860634 2283.3449303344 24 27 20
64.4758373272647 295.293828089637 2321.41904456026 23 26 19
62.7744914953245 294.901049234279 2310.30283116819 23 26 19
49.9253437078764 294.150102458248 2312.10032464605 24 27 20
49.492016608669 293.79584975205 2299.43315250132 21 24 17
63.9452513947889 293.910251589452 2269.15203677915 24 27 20
65.9587227549525 293.625936736915 2253.31851431009 24 27 20
65.9750730817312 293.275965198754 2239.74230798381 24 27 20
17.1079721729135 291.402024813053 2284.59098774329 25 28 21
23.597192789234 291.255782247922 2263.35688543215 25 28 21
-7.01838239516439 289.962742856266 2286.85604664042 23 26 19
5.13511031245439 289.986796831008 2258.61274554151 22 25 18
12.7191834776808 289.865029619013 2235.70208144545 22 25 18
16.4118162795912 289.620295790172 2217.38061506165 22 25 18
6.18479428066943 288.953048882544 2216.13922092208 21 24 17
4.75806389086264 288.549929455134 2203.98669864135 19 22 15
-3.58208802522642 287.939274096585 2200.40772469833 17 20 11
-5.68797829637435 287.513099053971 2188.99807925061 20 23 14
-3.59765367965581 286.466727717031 2143.57317446407 18 19 11
1.48661775040759 286.238241283565 2122.5552145525 22 23 15
-47.9502811068984 282.940948310843 2113.87351727774 28 23 17
-57.5396549723219 282.29265477418 2111.85913277457 75 61 58
-67.7097781110731 281.629311584963 2110.65900560612 110 92 88
-78.4538161783173 280.95147697892 2110.27779848538 113 98 91
-85.014851014338 280.388100628743 2104.28337959483 107 93 84
-90.3974065349931 279.8560481686 2096.67335091326 114 101 92
267.115594252582 298.840054874423 2318.8845634569 48 49 43
260.611053204774 298.279994086439 2312.93140939006 44 45 39
257.557929769808 297.825432032862 2303.30502387952 43 44 38
249.65288402364 297.221493775919 2298.80646507895 19 20 14
246.559710490311 296.76365276824 2289.15132426587 14 15 9
230.428578030724 295.911030733343 2293.50985747948 20 21 15
197.972681578031 294.571410246025 2315.67469458352 31 32 26
171.121889016548 293.407297337828 2332.02279811 32 33 27
157.960928219161 292.65589698282 2333.59424938507 26 27 21
142.810783880417 291.847752908391 2337.42911048323 23 24 18
136.470892139761 291.300746767385 2331.5953803373 19 22 15
137.512026913455 290.968721013173 2317.52682191929 17 20 13
136.491200338004 290.574069638018 2305.66859086835 17 20 13
101.409194887287 289.195410081432 2332.10527987524 23 26 19
82.4685201092077 288.288868295666 2340.60261488944 26 29 22
83.4858775950016 287.954796828332 2326.51680944606 27 30 23
72.5614995257975 287.279868810738 2326.00488473169 26 29 22
87.3330722221732 287.329008127728 2295.9542083868 23 26 19
63.2538133499421 286.284503758948 2310.60665730829 22 25 18
62.1712520001472 285.884636474249 2298.70364698234 24 27 20
72.776247434561 285.805026113129 2273.04268644783 25 28 21
61.1828473331251 285.110545606464 2273.28071097664 27 30 23
58.03246693951 284.64750534945 2263.58377887744 27 30 23
58.7243001060469 284.286851811559 2249.26185926456 27 30 23
25.9414495966408 283.024307426976 2274.89547516563 27 30 23
17.6737685941815 282.42506341592 2271.36938921226 26 29 22
23.4563656534164 282.198274452112 2250.85766905031 28 31 24
11.9760838085643 281.512733746454 2251.17774069924 28 31 24
15.7383805300171 281.226638158412 2232.90656567196 27 30 23
11.8452955024764 280.73800162009 2223.9061381125 26 29 22
-3.39995429250273 279.956184458645 2228.907225216 26 29 22
20.9249219548759 280.187225457458 2184.78576877922 26 29 22
18.7785992805698 279.735595047883 2173.34668408312 27 30 21
-13.9186627741716 278.514383596085 2200.27759087017 29 32 23
-27.1979086250576 277.787261608113 2202.99874886656 24 27 18
-2.09724968753111 278.011437046124 2156.96927134705 20 21 13
40.6392360557395 278.654977597835 2087.90808715023 22 23 15
-20.7306853550877 276.746583893458 2152.10122927931 28 29 21
-39.0180809547069 274.257702414741 2103.01298672146 27 20 12
-49.8403636385369 273.590068823983 2102.57511007848 51 32 25
-63.0296132775683 272.869852932028 2105.36154323019 122 94 90
-73.193890554238 272.220630027211 2104.16543089693 139 114 107
-80.9604542231501 271.626403698583 2099.76730990235 148 126 115
-83.9891158023232 271.137542084506 2088.92344694988 151 129 118
258.750754053879 290.067182610704 2341.18417976552 42 43 37
284.314628210091 290.373730619726 2301.66668617688 38 39 33
262.49489596412 289.396120023831 2311.78168090054 39 40 34
242.149735598006 288.462808585873 2320.49577537441 29 30 24
228.091325863668 287.700680699889 2322.65192353173 13 14 8
251.180463498052 287.919432613001 2285.04540028501 14 15 9
233.664362838438 287.064972493631 2290.87000444187 18 19 13
193.684188054514 285.630247826047 2321.16643071541 29 30 24
174.329982571539 284.739504267453 2329.36377404057 30 31 25
149.627913155922 283.715997034854 2343.56484066235 24 25 19
155.462739592229 283.475980071339 2324.32624679427 22 23 17
145.713958966477 282.837426917258 2322.19635426558 20 23 16
144.041648986136 282.402394907265 2311.10068108441 19 22 15
118.233261711231 281.364278464132 2326.9700480169 20 23 16
112.564449844152 280.830807012018 2320.38753544252 22 25 18
90.2607193874747 279.88873692425 2332.62221728931 24 27 20
82.6390757926498 279.309709434528 2328.32952341132 39 42 35
81.6269635766633 278.890494252842 2316.47748516501 37 40 33
72.6736727388979 278.278662079974 2313.68935887807 31 34 27
69.6382147555346 277.808175546674 2304.07569876976 30 33 26
72.4607444279095 277.474192125422 2287.59309725006 32 35 28
71.9573861601455 277.058562473871 2274.87484713038 33 36 29
39.5831150361321 275.901420716598 2299.57014820332 29 32 25
46.8656209138767 275.665771708702 2277.67533134025 29 32 25
30.8270619178295 274.892973747303 2283.33670846409 29 32 25
23.2071460597099 274.313876096763 2279.04497222691 29 32 25
29.685019242589 274.050553616296 2257.80205088625 29 32 25
35.4307481867835 273.765458885125 2237.26330891069 30 33 26
21.3646961028031 273.03967084612 2240.64913766335 29 32 25
9.88270417473514 272.372960265974 2240.96806501476 26 29 22
1.58999341018706 271.776809730208 2237.42385012175 25 28 21
-9.842189082508 271.114081993979 2237.77890556974 25 28 21
-6.81497107913032 270.758879633362 2220.20954288214 25 28 21
1.76698884785065 270.515634635533 2195.55128515128 28 29 23
-7.20398677251377 269.901994532209 2192.7503296305 29 30 22
-4.98973012426296 269.518434649684 2175.8268213769 24 25 17
-4.07931729646038 269.104333673274 2160.42804747418 19 20 12
42.9922866864447 269.613016789301 2085.86266009032 20 21 13
46.6904850246581 269.236932405409 2066.30923185989 19 20 12
-11.4855970603986 267.641553680538 2126.64376413569 37 37 29
-37.3315593402064 264.910460372211 2086.89654589138 44 24 15
-57.748760381052 264.082828235794 2099.26406171679 113 84 78
-70.9130937190696 263.392060721246 2102.06870638869 138 111 102
-80.4687214711373 262.768273882761 2100.07890929453 149 122 113
-81.1289550963061 262.30175 2086.01164246186 148 124 114
-82.4276642612081 261.821027139819 2072.71649579328 153 131 118
286.902329969925 281.438316927773 2299.79190241033 39 40 34
276.175028553338 280.771482190897 2298.18784713213 44 45 39
246.101361951823 279.666146931826 2317.14035920165 42 43 37
243.751768874155 279.194193864516 2306.78855866606 23 24 18
226.624817898241 277.969143619583 2299.30739674622 16 17 11
177.101783570211 276.457208446006 2339.97730011197 28 29 23
170.732316391089 275.901434223451 2334.12179121044 28 29 23
164.357197183727 275.345202213485 2328.26247719125 22 23 17
162.033923698857 274.875327273793 2317.93006129332 23 24 18
148.220582094876 274.159930821803 2320.26410127227 21 24 17
121.686305250887 273.179919417937 2336.84258630756 19 22 15
108.001489779887 272.474905144176 2339.26985021097 19 22 15
96.3620244057832 271.814633893326 2339.47465431717 19 22 15
52.1599370849399 270.491699118022 2376.59197431811 19 22 15
96.3763451362514 270.970153529198 2313.54292770844 16 19 12
82.7674339243001 270.271237004586 2316.02524711542 17 20 13
66.5676863449365 269.523673021862 2321.56990301035 18 21 14
62.8990081346723 269.025323044677 2312.73210354134 19 22 15
63.1317490410783 268.601161731442 2299.3123875784 19 22 15
38.5438864340517 267.69806077053 2314.83189166373 19 22 15
53.7038664225267 267.555997465249 2283.82677494574 22 25 18
20.1543434939788 266.49122213751 2310.14065201703 23 26 19
