ply
format ascii 1.0
comment KinectMotionCapture
element vertex 757
property float x
property float y
property float z
property uchar red
property uchar green
property uchar blue
end_header
-67.8470330779635 640.013681028794 1915.98954061979 105 105 107
-82.7410968311071 637.827190416394 1921.23809503174 148 148 150
-104.365545277039 634.192947072179 1936.42193425184 170 170 172
-126.442407893649 630.446396872559 1952.51227655745 192 191 196
-142.230035192386 628.035846660542 1959.58200603796 200 199 204
-152.91975093456 626.714300659471 1959.23691780484 202 201 206
-160.241681646316 626.116154006753 1953.92606424343 210 209 214
-168.117983571912 625.397421327546 1949.44805547246 185 185 187
-178.198884222142 624.19896011218 1948.30960263472 210 210 210
-185.506469295572 623.600482020774 1943.00914685388 207 207 205
-188.978017029862 623.838425632696 1931.84790768766 190 190 190
-191.388587008153 624.312098973778 1918.98662022129 205 204 200
-193.838725769721 624.782099209987 1906.09692437149 197 196 191
319.979015279224 674.921951356968 1974.98724194791 194 195 190
310.785250467676 674.047916690932 1970.78813173186 160 160 158
300.308128451847 672.924717840618 1968.12808863696 151 151 151
289.204764322297 671.677897861956 1966.24818525594 145 145 147
272.993488003404 669.437780721556 1970.54159253933 128 128 130
251.727600341663 666.208524664497 1981.04667599357 177 177 179
217.182755996477 660.382804490866 2007.85023931071 198 198 200
192.340823042658 656.428213635474 2023.17010598162 183 183 185
175.205199727653 653.965944621452 2029.26267689337 181 181 183
163.806133893025 652.619463859367 2028.40323934046 178 178 180
153.688799140257 651.521040132936 2026.00384472466 190 190 192
142.963037321186 650.300508597871 2024.39780647309 186 186 188
131.635314343211 648.958224191711 2023.59010813487 193 193 195
119.091155239825 647.372126852793 2024.36972206416 194 194 196
108.439131517342 646.155985714799 2022.81716037068 193 193 195
96.5751404680573 644.696333922758 2022.85515200329 192 192 194
87.2000110898119 643.727480014308 2019.7594175704 198 198 200
79.0623802938257 643.003169917941 2015.09193767353 207 207 209
66.0478574273049 641.303988301947 2016.76474423089 206 206 208
55.5044126141127 640.094144384651 2015.29122007963 197 197 199
42.5599572654005 638.399573988719 2017.01513790971 194 194 194
34.4831724998294 637.678211195112 2012.39148705046 196 196 196
22.8028243543896 636.229881769321 2012.56266269322 193 193 193
14.7476813064387 635.509286423246 2007.95470426421 192 192 192
5.50300839746631 634.546968236174 2004.95357361468 189 189 189
-0.755446043584351 634.188259091738 1997.9447962374 184 184 186
-8.20767738194461 633.587412946809 1992.53947129755 184 184 186
-16.8403482402084 632.745599893422 1988.7472732714 187 187 189
-24.8764543224507 632.02410761583 1984.15340507898 188 186 189
-32.9080516468727 631.30243254519 1979.56250997842 178 176 179
-38.6010670820873 631.059440763661 1971.72888642857 173 173 175
-43.1446613992987 631.054026410412 1962.25933841811 177 177 179
-47.7105323793661 631.046190447352 1952.77392379043 172 170 173
-53.4522507696042 630.797789459843 1944.90496703042 169 169 171
-57.4831086735983 630.904789231162 1934.57264535874 164 164 166
-60.3955831824703 631.246713027904 1922.58218035578 145 143 146
-66.1946088900351 630.992175913203 1914.67164921774 103 103 105
-77.6871994840336 629.551559094204 1914.97897338236 98 97 102
-97.0701350969305 626.457278470715 1926.84973263817 171 170 175
-120.305180980736 622.543416663461 1944.57000344568 191 190 195
-138.924665187533 619.582518056984 1955.75984389564 200 199 204
-151.863452162873 617.805581342573 1958.72249027811 199 198 203
-158.631072929229 617.324859689089 1952.57902597725 187 187 189
-166.512213943027 616.608592334522 1948.09722725831 185 185 187
-176.598679651222 615.423481108708 1946.95480781162 201 201 203
-183.91109956628 614.824760700748 1941.65084592352 201 201 201
-189.578924635676 614.576023410276 1933.83574878233 202 202 204
-190.346447928395 615.375527078528 1918.4617869529 199 198 194
-194.972389275936 615.355077563335 1908.93246766672 205 204 199
323.783357238227 665.787508631927 1971.52305076941 190 191 186
311.986003397192 664.429313971916 1970.37482640757 170 170 168
301.50587871401 663.316555656602 1967.71236502137 154 154 154
291.686094057252 662.3264065621 1964.29418262335 134 134 136
279.313635366392 660.850446519526 1963.96349260684 139 139 141
261.219599338297 658.283749565934 1970.59579737044 143 143 145
227.273731905824 652.691152311332 1996.59971601875 194 194 196
197.316879179769 647.838933529735 2018.0880035142 175 175 177
179.530682952887 645.295263231083 2024.94358455386 182 182 184
168.117025132454 643.963790929331 2024.07364497984 187 187 189
156.729340858022 642.634004567764 2023.22254272325 188 188 190
145.993566639177 641.426134146981 2021.60931040045 185 185 187
135.902951268544 640.339702846086 2019.22934597897 194 194 196
124.58669080439 639.014179142405 2018.4300419579 196 196 198
112.05816096769 637.450586874693 2019.22109986878 190 190 192
98.3308122787885 635.650035198632 2021.61198142191 191 191 193
87.7210411460219 634.44986319281 2020.09013041924 199 199 201
78.9704038536794 633.608839581069 2016.21271448319 208 208 210
66.5666031426042 632.053369859273 2017.09393786436 205 205 207
55.4139711117947 630.738054948954 2016.41330329618 196 196 198
42.4699748761102 629.068106326249 2018.13767866123 194 194 194
33.1874921744078 628.112373750452 2015.10917224348 196 196 196
22.7152693532573 626.920357501094 2013.68707425784 192 192 192
15.2609788050144 626.320778388764 2008.28026297057 190 190 190
7.20939086898476 625.602662054034 2003.67518875175 187 187 187
2.13618231725299 625.473728042587 1995.05612305794 183 183 185
-4.73277319670395 624.989815624907 1988.83918287411 182 182 184
-12.1965976025806 624.38752248979 1983.42544654292 184 184 186
-22.0130490003827 623.31544521656 1981.24430214228 187 187 189
-30.6400801518969 622.478580186832 1977.45651199964 180 180 182
-35.1722166987134 622.460801041885 1967.99520734136 174 174 176
-40.8896988732279 622.207055199155 1960.14408733562 177 177 179
-45.4617232668058 622.185088792736 1950.65384591667 174 174 176
-52.9412212859186 621.578598473205 1945.22872618918 165 165 167
-56.3967671432459 621.785457267784 1934.07892967434 162 162 164
-58.7379252902933 622.221439475285 1921.26776941273 150 150 152
-63.4005961008528 622.190108766833 1911.7120635166 112 111 116
-74.3352168664675 620.883662501115 1911.18922041156 98 97 102
-91.4690439483177 618.307965055454 1919.75288664912 159 158 163
-114.728525077321 614.469063396421 1937.45552903682 172 171 176
-136.179150274212 610.985326675904 1952.76613878544 204 204 206
-150.806703203084 608.890057829091 1958.20835463775 208 208 210
-159.247996446964 608.062075669948 1954.55496038467 183 183 185
-166.570392108752 607.463592632016 1949.24376806721 194 194 196
-177.208555940231 606.177917004595 1948.93623260483 206 206 208
-183.96650532642 605.693946133238 1942.79976283592 199 199 201
-190.180127486061 605.323205665623 1935.82312991815 197 197 199
-194.218060314451 605.406959511298 1925.4855617376 197 196 194
-202.088999977262 604.692036760736 1921.0114594834 203 202 198
333.441755878166 657.700477327824 1961.19197693919 184 185 180
319.667832357261 655.997618161231 1962.31455360526 167 167 165
307.224747326406 654.535920903652 1961.93273729147 151 151 151
298.030242644136 653.671295694545 1957.7331383881 135 135 135
286.277839068436 652.331439485863 1956.61759232076 138 138 140
270.715776618603 650.281078428951 1960.14755311552 126 126 128
234.821300912889 644.442259037623 1988.44274676513 193 193 195
201.025225822868 638.973338336257 2014.55587952533 176 176 178
180.062243258341 635.881506908973 2025.28124143169 182 182 184
169.277649527519 634.684149924923 2023.63296653245 192 192 194
160.399299574899 633.841522273956 2019.66266636165 185 185 187
151.529046560563 632.999053101238 2015.69853111396 184 184 186
139.548485183413 631.569567962083 2015.65217122821 194 194 196
127.598393524685 630.142013515591 2015.62790927094 197 197 199
113.201595513352 628.248135931286 2018.76805663856 188 188 190
100.08717493877 626.591415112878 2020.36895476475 190 190 192
89.471708718333 625.404413689682 2018.8433364601 200 200 202
81.3287309473152 624.684857782252 2014.17171003081 209 209 211
68.3061161446856 623.03408065984 2015.83919022631 204 204 206
56.539564878193 621.618497456983 2015.94804125303 194 194 196
44.1977281697614 620.08883835813 2016.87431439798 194 194 194
37.9289359514838 619.720061319002 2009.85799194949 196 196 196
25.6352811820451 618.193319721597 2010.819207988 191 191 191
18.1717456261317 617.59290204482 2005.40569054987 189 189 189
6.52793228526338 616.184812486328 2005.60355487502 186 186 186
0.864352410681057 615.930075901192 1997.79121030151 182 182 184
-5.99818602658075 615.443875378975 1991.57891040382 180 180 182
-9.91267626031811 615.530758912742 1981.33084424701 183 183 185
-19.7367712363323 614.468935798798 1979.14421079274 187 187 189
-30.1293769778665 613.293655715394 1977.78020817623 181 181 183
-35.8289148341244 613.033705995842 1969.94177048887 176 176 178
-39.2152192239204 613.228370464566 1958.84210682486 175 175 177
-43.2119239021174 613.30623383075 1948.5343959738 175 175 177
-49.5439851570711 612.926585529418 1941.47185890829 167 167 169
-53.0099426564459 613.113393228293 1930.31441320918 162 162 164
-55.9340936056845 613.410578886609 1918.31525709792 153 153 155
-61.1757784477314 613.251696713575 1909.57420212947 116 115 120
-70.9817423086219 612.187070739374 1907.40069811045 104 103 108
-86.9971603677997 609.882602918136 1914.30583453565 158 157 162
-110.840771115084 606.006287485243 1932.8201704952 176 175 180
-134.55560752381 602.140075618921 1951.4279088975 206 206 208
-150.868396070217 599.743249929287 1959.35233840571 196 196 198
-161.53731278502 598.472617785109 1959.02258572012 190 190 192
-169.95901891953 597.65127075265 1955.38342418886 201 201 203
-178.924456502895 596.718593639358 1952.58486732393 205 205 207
-184.572470985701 596.455708373653 1944.78376516043 205 205 207
-191.87861606101 595.857317066247 1939.48435370454 202 202 204
-197.54573256173 595.592018038739 1931.66939185441 199 198 196
-207.033627367503 594.548210826925 1929.72686280954 201 200 196
-225.171353625182 591.732504746642 1941.26667530681 131 130 125
329.297853047075 647.854538006545 1951.96232961788 167 167 165
313.592064027703 645.826736828814 1955.38821422534 155 155 155
301.801596837043 644.500435695354 1954.24514369032 152 152 152
291.320124890603 643.408030493394 1951.58180873676 126 126 128
274.461701363414 641.157018443318 1956.64106664239 116 116 118
237.274564027323 635.205651650091 1986.46897995002 180 180 182
201.560285471463 629.501107457725 2014.89577696653 186 186 188
181.859124653184 626.697222625904 2024.06724563323 184 184 186
169.807996432862 625.282453170264 2023.96980487474 199 199 201
159.672255221564 624.21482984753 2021.55722303445 180 180 182
149.553663238048 623.1482074687 2019.15707810534 184 184 186
141.323938813898 622.426642595416 2014.42255700012 195 195 197
128.124550481091 620.788578922 2015.96195468718 199 199 201
116.82297273916 619.496297239416 2015.17346286219 185 185 187
101.843957317649 617.520532161483 2019.12646473396 188 188 190
91.8380632670011 616.460619947544 2016.80805092979 201 201 203
80.6237579488358 615.173944581104 2016.08285314437 209 209 211
69.4358128553381 613.888976121755 2015.37647861716 198 198 200
57.6654567273995 612.492153318112 2015.48296092076 186 186 188
46.5322129240411 611.210600628452 2014.8162578277 193 193 193
37.8409095437835 610.383195938042 2010.9819232933 196 196 196
26.1495807821652 608.991331022467 2011.14542485693 188 188 188
16.2876040406927 607.939732061932 2008.93138188979 186 186 186
7.04041619187734 607.001705100914 2005.92855114656 184 184 184
1.37692339348705 606.738701051516 1998.1162278201 180 180 182
-3.70720028217453 606.586339861444 1989.48942533376 179 179 181
-7.03718787005458 606.768270784688 1978.43052242341 182 182 184
-18.0480724989858 605.492877050765 1977.85284578052 184 184 186
-27.8599265577171 604.442530627202 1975.67514416012 182 182 184
-34.7341113487625 603.950696730952 1969.45437303787 180 180 182
-37.540062380083 604.237433364357 1957.54055516622 168 168 170
-42.6998781650592 604.076132309973 1948.85883657231 174 174 176
-49.0320215560431 603.691040667525 1941.79621239305 174 174 176
-51.9222001802413 603.969500561478 1929.82158869552 162 162 164
-53.701827675197 604.465839944322 1916.18276307907 156 156 158
-57.2377925455931 604.626812727772 1904.97443668373 111 111 113
-66.4895906405036 603.682318416255 1901.96823111631 103 103 105
-83.0895431628964 601.30748518203 1909.68460072607 164 164 166
-110.335474825532 596.850079977676 1933.14009256292 187 187 189
-134.616872308758 592.953423401906 1952.57200117205 202 202 204
-150.930220418497 590.600553701291 1960.49624768661 184 184 186
-161.59820393858 589.346546193102 1960.16725570085 205 205 207
-170.018506701533 588.530939126395 1956.52943505466 206 206 208
-178.982545159916 587.60670962005 1953.73193523408 200 200 202
-186.280591019412 587.009542005693 1948.43840127082 204 204 206
-193.0295919051 586.520550298037 1942.30809855235 199 199 201
-199.782711713183 586.030817063403 1936.17510066018 199 197 198
-207.083904681729 585.432080134182 1930.87927734152 196 195 193
336.986618844185 639.291758660245 1943.90642151283 165 165 163
322.546796891406 637.52199916629 1945.78097196052 149 149 149
309.438261767174 635.982365782426 1946.15169301701 148 148 148
297.648051666924 634.671817613083 1945.00859416716 125 125 127
280.767037353383 632.457162113657 1950.05195415977 116 116 118
241.640515059871 626.290411744473 1982.17827932758 165 165 167
202.730428328994 620.140497657369 2014.46129405578 188 188 190
181.757910581629 617.162612257484 2025.18061534073 185 185 187
168.446125507863 615.541820088973 2026.63862171518 199 199 201
158.316071448872 614.485441247643 2024.23021956848 177 177 179
150.08197962471 613.766539628919 2019.4925459317 184 184 186
141.851745079307 613.047412798454 2014.75766737786 196 196 198
129.894359672521 611.657384031121 2014.72830810193 200 200 202
117.967352196838 610.269288879031 2014.72127470772 184 184 186
105.453672656595 608.77177107587 2015.52313811859 187 187 189
94.820436223729 607.610423887478 2013.98476775147 201 201 203
81.1441297098368 605.894900322603 2016.41308155071 208 208 210
69.3440550842266 604.515195858409 2016.49781251186 196 196 198
58.1831356819924 603.248229378948 2015.81141514561 183 183 185
47.6548864745427 602.093554781925 2014.34889157971 193 193 193
37.7525678081647 601.050487079067 2012.10564710277 196 196 196
26.6638643829671 599.787996791372 2011.47162331223 188 188 188
17.4005615561379 598.857237574895 2008.45714729008 184 184 184
8.74775639477532 598.036984377085 2004.65075715987 183 183 183
0.698966396665224 597.32658219696 2000.04745582265 179 179 181
-4.38047692986965 597.16357743346 1991.42399230948 179 179 181
-8.88687227775131 597.108034487967 1981.98115671455 182 182 184
-18.1243805765612 596.177094650952 1978.98537878137 182 182 184
-26.7623214569714 595.355715616877 1975.18975838305 182 182 184
-33.6388046918734 594.860966819074 1968.96701182823 182 182 184
-34.7004177476631 595.451370132119 1954.61413002506 165 165 167
-39.2891785688885 595.386805142396 1945.11183471933 171 171 173
-44.477397392952 595.211841441823 1936.40916247522 175 175 177
-50.2586672916769 594.926899292158 1928.51134889444 161 161 163
-54.334014093123 594.963989690142 1918.14671664382 158 158 160
-56.7230907633913 595.321619297222 1905.30042235073 109 109 109
-61.9951983481526 595.137958227769 1896.53718777684 102 102 102
-78.6134640967013 592.80564273788 1904.2404970989 187 187 187
-109.26588716921 587.799739106047 1932.63458109117 195 195 195
-135.240385767331 583.663948091387 1954.54331767109 194 194 196
-150.432470080647 581.568868308403 1960.81133026197 192 192 194
-159.986536117994 580.544573429521 1958.82063663595 205 205 207
-170.078012339028 579.414867378055 1957.67516007672 206 206 208
-177.934314184189 578.71157526325 1953.21143352337 205 205 207
-186.887701222742 577.796064952396 1950.42169930878 195 195 197
-191.986497385535 577.622530821052 1941.78415317827 188 188 190
-197.649000060776 577.341414990945 1933.97245587348 198 196 197
-202.780128941977 577.164335519689 1925.31145310753 200 199 197
-212.264917024002 576.142665737038 1923.37099384642 147 146 142
338.193019769283 629.555709072576 1943.49661564953 176 176 174
325.041853601534 628.034716951996 1943.83623249743 159 159 159
311.281048248047 626.405270263461 1944.9686906517 148 148 148
300.768905392141 625.331768661622 1942.28321745178 142 142 144
285.156000621114 623.375328410416 1945.77679729028 127 127 129
251.745787173953 618.333898021435 1970.93648360657 158 158 160
207.076928966922 611.323663327596 2010.15699187083 182 182 184
185.454674453393 608.29191617682 2021.63977443971 194 194 196
173.391855421975 606.914166829656 2021.5340462769 202 202 204
160.730692282305 605.428788326057 2022.22935164406 174 174 176
151.236563033616 604.492921313117 2019.04751875062 186 186 188
143.003631529277 603.77620472677 2014.31069732206 197 197 199
131.042610218223 602.404850071966 2014.2787968896 192 192 194
120.35158101485 601.253308899824 2012.69858097919 181 181 183
105.977002498713 599.450757449495 2015.85529831794 186 186 188
95.958092092042 598.411447898563 2013.52755303605 197 197 199
81.6644570310889 596.614478356238 2016.74327076337 213 213 215
71.6957052471328 595.578306183995 2014.45190242897 180 180 182
61.1356625384625 594.435095755373 2012.9663891438 181 181 183
50.5972938064922 593.293143696526 2011.49688863779 192 192 192
37.6637647935918 591.721933276794 2013.22935204449 196 196 196
28.9843194107413 590.905814538069 2009.40337631401 193 193 193
19.1137551177625 589.875296510728 2007.18321482661 184 184 184
14.0415618962235 589.702782381821 1998.56495890246 182 182 182
4.18832398611979 588.672741955588 1996.3573600989 178 178 180
-2.08836890767827 588.284296468492 1989.33521065756 180 180 182
-8.96498116125666 587.788083853642 1983.11265763684 182 182 184
-17.6122418088855 586.971913837628 1979.31001304806 181 181 183
-23.9047558295817 586.580812555062 1972.27638108206 182 182 184
-30.2060439694032 586.188601777819 1965.23608847302 183 183 185
-32.4415463105308 586.536298559479 1952.50107317684 163 163 165
-38.196244215416 586.246160548386 1944.62249588341 168 168 170
-42.80895293914 586.165496227285 1935.1027586858 175 175 177
-48.5945699556865 585.871987138007 1927.2017503933 161 161 163
-52.6736777169448 585.892362820656 1916.8340126023 159 159 161
-55.0661922127289 586.225069601761 1903.9850999171 110 110 110
-56.9296876428029 586.658873766964 1890.28515989144 104 104 104
-70.7356296608004 584.891883661503 1893.85456856524 212 212 212
-105.938270354431 579.16027821313 1928.82730886237 205 205 205
-133.615662939233 574.801138336468 1953.20585430839 187 187 189
-147.694859435844 572.952127675915 1957.81179615802 199 199 201
-158.374243960026 571.730354376678 1957.47470261369 209 209 211
-169.02670843173 570.510313823298 1957.15713276662 211 211 213
-178.545616618019 569.499113186749 1955.19199214205 217 217 219
-185.842154729955 568.902336563928 1949.89955315763 193 193 195
-191.491729070801 568.614620864743 1942.0971944487 183 183 185
-197.154159232608 568.325445493982 1934.28550888728 198 196 197
-202.285027643096 568.137573493209 1925.62464027582 205 204 202
337.453565755361 619.487450073635 1945.37964519577 177 177 175
324.951564640104 618.09662598458 1944.95577281865 162 162 162
313.12429313804 616.81599427054 1943.78595890044 146 146 146
303.890826569535 615.968565841583 1939.55849727636 147 147 149
289.546712602371 614.25937329446 1941.50273526886 128 128 130
256.754298101974 609.433472598314 1965.87633229733 154 154 156
212.696193697481 602.687624510752 2004.30559709124 193 193 195
187.886356813674 599.17815623411 2019.65098552188 187 187 189
175.184391712651 597.711667143949 2020.3168083551 199 199 201
162.517398867312 596.247582631437 2021.00770102544 173 173 175
153.644582712813 595.426025254451 2017.04181362511 186 186 188
144.155737825575 594.498203670158 2013.86385222975 197 197 199
134.679641802034 593.570936935483 2010.69513556818 191 191 193
122.736657843443 592.219653705819 2010.67641246318 182 182 184
111.44188762157 590.976375742401 2009.89310376825 187 187 189
101.404301080375 589.946366846841 2007.55186686753 199 199 201
87.7043005570579 588.283499778138 2009.96327108922 212 212 214
75.8814320410668 586.940125052527 2010.03166229008 179 179 181
63.4804329902492 585.493526424385 2010.91546810811 185 185 187
52.934314114339 584.364538235403 2009.44041502192 197 197 197
38.7836744650913 582.607431254273 2012.75970060957 196 196 196
29.4990500461703 581.691702891214 2009.72984424452 187 187 187
21.4273543860886 580.985698684082 2005.11025485774 184 184 184
15.1533247555853 580.592798575053 1998.08971903223 181 181 181
4.70140860838297 579.469280721952 1996.68268874578 180 180 182
-2.16862010281571 578.971211694848 1990.46489887234 181 181 183
-9.04321486911597 578.472414303469 1984.24379527881 183 183 185
-15.3333510974458 578.076446937841 1977.21156790055 183 183 185
-23.3926274113754 577.368820108384 1972.60097334393 181 181 183
-27.9405547090328 577.281056349043 1963.1278671475 181 181 183
-31.3462508157163 577.397289454191 1952.01374874377 174 174 176
-35.9429476392334 577.304648790227 1942.50526377476 167 167 169
-42.2953721737207 576.901494958172 1935.42814035022 168 168 170
-46.9296334041251 576.804885129185 1925.8924040364 157 157 159
-52.1594466289985 576.603710167338 1917.15974083529 148 148 150
-54.5509649022609 576.911823457904 1904.31142576217 130 130 128
-54.1375409011906 577.726503548532 1887.32356144185 133 133 131
-62.2869114621774 577.007654502031 1882.64730432307 137 137 135
-102.609168493416 570.492300824512 1925.02126321063 154 154 154
-132.552590711461 565.824620820471 1952.69599359329 222 222 222
-147.756259163334 563.805701986581 1958.95599436513 216 216 216
-160.666112741702 562.195942386116 1961.94046196958 229 229 231
-171.864495847863 560.892324799081 1962.46205182597 216 216 218
-181.371042809444 559.893237909214 1960.50593347551 194 194 196
-186.449796771602 559.700058621429 1951.88281685737 213 213 215
-191.54573211944 559.505058884709 1943.24694138812 211 210 215
-196.659078922599 559.308210905692 1934.59872909865 197 195 196
-202.334244246406 559.009520223026 1926.77776334958 199 198 196
-209.649291090145 558.409660975411 1921.47189137638 186 185 181
346.637754006395 610.378930672215 1950.75628618355 171 172 167
334.766507410377 609.111714087033 1949.55495620856 187 187 185
323.567720381913 607.951678505008 1947.60631831177 173 173 173
314.323423717551 607.108988636133 1943.37102972182 155 155 155
306.371685144999 606.476996869742 1937.60344356918 147 147 149
289.458992903241 604.374233896381 1942.62411183626 141 141 143
256.024722392056 599.549935187235 1967.76745848821 157 157 159
213.868554673897 593.273853534173 2003.87274734739 190 190 192
190.318861461249 590.046748864637 2017.66270330997 193 193 195
182.026786825733 589.331584227869 2012.88331010139 195 195 197
169.964965665004 587.991404963394 2012.77849561622 172 172 174
157.933592283176 586.653333845682 2012.69576405394 188 188 190
145.932661245959 585.317250946864 2012.63511086766 197 197 199
133.96220536145 583.983218668578 2012.59656015675 189 189 191
125.122582682618 583.168323297016 2008.65476915968 182 182 184
113.202089537675 581.837472272515 2008.65245361862 188 188 190
103.159115027217 580.817840521905 2006.30736342628 202 202 204
88.8393003744588 579.078882290672 2009.50439684752 211 211 213
79.4577919486903 578.165182485615 2006.40402299633 178 178 180
67.6529592707062 576.841889420833 2006.48588495566 183 183 185
55.2722272772472 575.418320936201 2007.38449944831 197 197 197
42.3219695044894 573.894954332167 2009.10507815833 195 195 195
32.4231599132845 572.884402691829 2006.86454218514 188 188 188
22.5418278332117 571.874818846194 2004.63668093483 184 184 184
16.2654048189488 571.476119286137 1997.61467519602 181 181 181
8.19294498132672 570.771865000088 1992.9942462273 180 180 182
1.90522676510829 570.371433502824 1985.96374910591 181 181 183
-6.75668002875729 569.565349053167 1982.15083277556 183 183 185
-14.2316618120126 568.961464992178 1976.72900016504 183 183 185
-21.7067210006883 568.357096709964 1971.30710898901 181 181 183
-26.2586696120066 568.255236229968 1961.83101625382 180 180 182
-31.4153027953161 568.050759248168 1953.15138610119 178 178 180
-34.8490892768358 568.145031132575 1942.01679314735 169 169 171
-40.6257117247264 567.836239361197 1934.12222779982 164 164 166
-44.6882950930443 567.825482940401 1923.76631120368 160 160 162
-51.071626549041 567.413462586702 1916.66673778147 151 151 153
-53.4643512576098 567.696803946879 1903.81742266294 148 148 146
-53.6204360004111 568.373709745233 1887.65104807551 136 137 132
-56.1014809482354 568.649029895735 1874.73766710169 146 146 144
-94.7609967924543 562.587340701144 1914.61387609581 149 149 147
-130.926671117979 556.940231370357 1951.35958296297 201 201 201
-145.576890796114 555.057865049401 1956.78615112125 208 208 208
-160.169310948775 553.179713542462 1962.25493521494 217 217 217
-171.369086925747 551.895310241572 1962.7756126737 206 206 208
-181.983669472076 550.711187286598 1962.48539169547 216 215 220
-187.057725906388 550.5075450485 1953.8656274186 210 209 214
-193.247454049238 550.106668192337 1946.9064576138 199 198 203
-199.992388250492 549.607252044739 1940.77905011982 198 196 197
-205.65193005587 549.301761626252 1932.96937575069 202 201 199
-212.40931603815 548.800450946674 1926.83322657575 194 193 189
345.241636643204 600.218630905087 1953.3981513556 173 174 169
334.024783260052 599.070942926538 1951.43677379281 180 180 178
326.063341028343 598.438643006057 1945.6621516897 181 181 181
319.390308774054 598.011178841628 1938.35219527332 188 188 188
310.780413479765 597.275185693439 1933.34200710903 133 133 135
292.57159197269 595.004719706822 1939.89260189751 126 126 128
255.93215598426 589.778135862299 1968.88619013991 166 166 168
213.76970716822 583.649550314023 2004.98737831702 191 191 193
193.385611521523 580.999452777797 2014.89958854422 193 193 195
185.084214482917 580.286042162651 2010.11344621116 183 183 185
172.38311629726 578.862658362772 2010.77982134959 173 173 175
158.463054474471 577.239258193389 2013.03189834657 194 194 196
146.460714263577 575.922029797111 2012.97031912199 193 193 195
133.24391202226 574.405149711676 2014.49770691391 184 184 186
125.028433380791 573.696598052978 2009.77357879507 180 180 182
113.72673493956 572.485349077715 2008.98540991922 188 188 190
104.914357428289 571.677111782804 2005.06340325003 209 209 211
89.9747015144663 569.867595649135 2009.04548527555 207 207 209
79.3672464394688 568.761718137128 2007.52608532981 180 180 182
67.5633870713912 567.457611583788 2007.6084555687 181 181 183
57.0041296194677 566.354821716882 2006.12371627102 196 196 196
43.4430564269541 564.756082587782 2008.63615670031 194 194 194
31.130961577984 563.359084786734 2009.58495678656 184 184 184
22.4558298182669 562.559008609455 2005.76248382931 183 183 183
16.1817417955477 562.154961548472 1998.74184921253 180 180 180
10.4943974864753 561.848443565335 1990.91201501031 180 180 182
3.60626010878118 561.343351359479 1984.68106220429 181 181 183
-4.4691981696201 560.640676352651 1980.05846760122 183 183 185
-11.3620092447648 560.134398983674 1973.82412072909 182 182 184
-19.4332193987503 559.431291452703 1969.20460349125 180 180 182
-25.7457189049086 559.021593521038 1962.15609494761 179 179 181
-30.9020834069824 558.806145443418 1953.47660399698 182 182 184
-32.5941294729879 559.173722462995 1939.9006158207 176 176 178
-39.5335792915124 558.661516058327 1933.63242949644 165 165 167
-44.7496742664646 558.439944654245 1924.90960763545 165 165 167
-52.2781160864123 557.82874254332 1919.44898363608 156 156 158
-54.0917453163918 558.184797143855 1905.78479886619 143 143 141
-56.5187577699411 558.440238540012 1892.91048651078 165 166 161
-62.3877198468674 558.113630548852 1884.94889195287 142 143 138
-99.334818307262 552.493200613959 1922.36329955384 149 149 147
-129.29987197809 548.043715076635 1950.02345403273 161 161 159
-143.396611383195 546.292398234255 1954.61717349206 183 183 181
-156.323449957246 544.73640620114 1957.58960065398 192 192 192
-169.205643840331 543.183672422995 1960.59440820885 196 196 198
-179.274425026827 542.110818617845 1959.46537725532 198 197 202
-187.114602627515 541.419915224383 1955.0134022622 190 189 194
-195.49934452938 540.634103572755 1951.40151136277 199 199 201
-202.780550907151 540.038180656587 1946.12019100383 204 202 205
-207.336987450997 539.914847523711 1936.64103058438 209 207 208
-211.91498827394 539.789368750562 1927.14593241368 202 201 199
339.77420602244 590.042506200267 1945.67774577543 173 173 171
331.147814439277 589.308343090913 1940.6556083688 166 166 166
325.104007243975 588.973754180109 1932.56722442827 170 170 170
316.475831897626 588.238710126731 1927.5440839485 164 164 166
295.044967219861 585.512484758118 1937.93211999265 146 146 148
257.115521777437 580.209344554484 1968.46023833702 157 157 159
215.577958182348 574.327073623238 2003.78092462643 191 191 193
195.186051598336 571.73100890488 2013.68774622535 193 193 195
186.879915164809 571.019683355843 2008.89788428801 179 179 181
174.802065144047 569.716262385224 2008.78163632814 176 176 178
157.111281904861 567.528418941873 2015.70818661197 197 197 199
145.738985789626 566.328955705539 2014.86889967269 189 189 191
134.392744174015 565.131244711351 2014.04850907168 181 181 183
126.174573525181 564.425014082181 2009.32244121572 182 182 184
114.251305226841 563.131965177675 2009.31830538192 190 190 192
104.206496158842 562.133841940453 2006.97199422454 211 211 213
92.3377354007311 560.844432084994 2007.0073905024 204 204 206
81.1110780775892 559.654287846699 2006.27372743416 180 180 182
71.1293186981559 558.660017717281 2003.97314185831 181 181 183
59.3435192408482 557.375994774933 2004.06900031641 196 196 196
47.5885826815383 556.094133122156 2004.18694841825 193 193 193
34.0564169482462 554.524710152197 2006.72049297377 185 185 185
24.7713895929125 553.632906416687 2003.69046569448 182 182 182
19.6871357537418 553.415104845905 1995.06294290438 180 180 180
15.1807710979535 553.291407052056 1985.62007881808 180 180 182
7.68319638618964 552.686439509584 1980.18186262348 181 181 183
-0.997573534130325 551.889719824212 1976.35502496756 182 182 184
-7.31233614629434 551.475129152699 1969.30514554441 182 182 184
-15.3973261954765 550.77362364013 1964.675647081 179 179 181
-24.0629506295105 549.976916518221 1960.86008325197 178 178 180
-30.3887978938382 549.560282375397 1953.8018635003 184 184 186
-31.4992121203901 549.995221934035 1939.41281723241 179 179 181
-36.7062379133944 549.763810579544 1930.69651997368 168 168 170
-41.9307899254524 549.530610584583 1921.96721404789 163 163 165
-48.894636062071 549.012902920978 1915.68131444704 155 155 157
-50.7181739964435 549.340702522871 1902.00980352873 137 137 135
-52.5858834075388 549.664505535828 1888.30625152078 169 170 165
-52.2290265250045 550.358968904695 1871.27677156763 151 152 147
-93.741701346072 544.129885678155 1915.25929446924 146 146 144
-126.546899634224 539.321635946784 1947.03452239201 147 147 145
-141.21513232355 537.509363948105 1952.44868205265 178 178 176
-153.59205741143 536.073238352934 1954.58502927735 156 156 156
-168.153278797476 534.26894840937 1960.07680414616 174 174 176
-178.225460007711 533.209630344066 1958.94567148106 177 176 181
-188.274985481659 532.151778824796 1957.83067539402 155 154 159
-195.554735075722 531.556511618691 1952.55041440998 186 186 188
-201.739647460153 531.145002158764 1945.594681795 198 196 199
-205.752772928276 531.099837106285 1935.27444399969 202 200 201
-209.791995887614 531.052169531172 1924.93527490027 205 204 202
348.77244008826 581.456762700397 1936.10061511043 177 177 177
338.175498982523 580.430668750727 1933.35390997863 159 159 159
330.175015400201 579.794250144403 1927.55096510532 143 143 145
319.602797944551 578.769362902989 1924.82248326434 135 135 137
300.080992922866 576.389920440666 1932.89078955369 132 132 134
262.128506291597 571.213721309329 1963.4028478301 173 173 175
219.93097338364 565.378394264812 1999.48038268941 196 196 198
197.620885756029 562.546737743815 2011.70088495951 194 194 196
186.1495018516 561.356752229349 2010.78981517374 175 175 177
172.186483340016 559.784746783361 2013.01101227468 181 181 183
156.385588882936 557.92857134566 2017.6038588681 202 202 204
146.891607029069 557.03243555207 2014.42203959376 183 183 185
137.410196346385 556.136880443307 2011.24963084799 178 178 180
127.941596842548 555.242064463829 2008.08651294301 188 188 190
114.15752003917 553.682434386381 2010.43749139072 195 195 197
102.265647826318 552.41056898528 2010.45622254794 214 214 216
91.0182329704954 551.235531167413 2009.70758841827 198 198 200
81.6320443600711 550.34568869064 2006.60423712043 178 178 180
72.868203924247 549.550852834849 2002.717483894 177 177 179
64.1130148947466 548.756349018186 1998.83670946146 195 195 195
51.7360615481683 547.398217763029 1999.73868910536 193 193 193
38.188752733495 545.854930701956 2002.26138850155 184 184 184
28.2891070837152 544.876543119846 2000.02040936896 181 181 181
21.3987786598429 544.366434165784 1993.78784281598 179 179 179
15.6961871812116 544.042072211248 1985.94686523193 180 180 182
8.19829544781037 543.436989370765 1980.50841863757 181 181 183
1.29194942998589 542.924387936655 1974.26422796401 182 182 184
-5.02933725942478 542.503791824659 1967.20929420227 182 182 184
-14.8833384454938 541.526742072451 1965.00141049189 179 179 181
-22.9644164806944 540.827823741621 1960.37476103549 177 177 179
-30.4582656817043 540.221066973536 1954.93923648036 182 182 184
-32.7264536335623 540.442098054243 1942.1801795777 180 180 182
-37.3480247178635 540.292089652973 1932.65337214731 172 172 174
-41.4155374587923 540.231615378581 1922.29363031303 168 168 170
-46.6575850192768 539.985597338756 1913.55187104191 168 168 170
-48.4865798473821 540.285532460226 1899.87626316579 148 149 144
-51.4989202723315 540.399239916951 1887.81224726827 131 132 126
-53.9791086426515 540.600636744667 1874.89911280956 132 133 128
-82.4945320246837 536.623726210935 1899.90712454237 147 148 143
-128.295760567247 529.85199521562 1950.65921117574 205 205 203
-140.714696980787 528.437688482935 1952.76550848777 174 174 172
-153.093288544792 527.026251439826 1954.90077270074 227 227 227
-166.544346714456 525.4376093971 1958.72834761789 210 210 212
-176.621909855855 524.391735414005 1957.59308709595 171 170 175
-186.125151635661 523.437007216335 1955.63958942782 194 193 198
-192.862284382286 522.930765455044 1949.51809727873 203 203 205
-198.508605088775 522.602508310751 1941.71789184838 204 202 205
-202.532217438726 522.540213514251 1931.38996512309 199 197 198
-206.582062261168 522.475326002783 1921.04330326308 198 197 195
-218.768883848986 521.076586635202 1923.3176499406 188 187 183
370.373051315679 574.102463569337 1927.01960874798 167 168 163
357.774492343343 572.79873978098 1926.5258862228 172 172 170
343.264209460552 571.213227626297 1928.3502912877 160 160 162
331.377569474755 570.008570399497 1927.13811919143 166 166 168
319.516636584041 568.805607399293 1925.94459129859 126 126 128
301.275161646434 566.66339481973 1932.47216454722 133 133 135
266.505103239848 562.084793442875 1959.11848781049 181 181 183
219.196148594469 555.645852319381 2001.36846853252 185 185 187
198.788632172207 553.157854211843 2011.26452160525 187 187 189
186.050213723459 551.797026249997 2011.90445382319 168 168 170
173.97627204212 550.531889093014 2011.79123301703 186 186 188
158.795979584085 548.803706762124 2015.59957892499 198 198 200
148.044287892998 547.729269151833 2013.97548355035 182 182 184
139.805785008955 547.026887815856 2009.23469592061 177 177 179
128.467675022945 545.861947875019 2008.42036610328 185 186 188
115.300211037167 544.421802833516 2009.98390892769 190 191 193
100.323387131943 542.708042562926 2013.93982658239 209 210 212
92.1539144687671 542.009700105491 2009.24910089065 190 191 193
82.7647432577123 541.127741163671 2006.14362737362 172 173 175
73.9982240386175 540.338054881551 2002.25466384661 178 179 181
62.2030178643844 539.091505931949 2002.34389298802 194 195 197
53.4646508775376 538.303353496914 1998.4753453842 192 193 195
42.9258146256264 537.242256689509 1997.00591551081 183 184 186
33.6104314083898 536.364333724102 1993.95395292823 177 178 180
23.709651100893 535.396369133537 1991.71220405254 181 182 184
18.0005614391598 535.063176363388 1983.86647106706 180 180 182
12.8720534508027 534.818888318237 1975.20702781759 181 181 183
7.72567784713107 534.57276446218 1966.53462265372 183 183 185
-0.97639834785368 533.784863514329 1962.69238429324 182 182 184
-12.0195626507931 532.637932697352 1962.09195811578 177 177 179
-20.69530081601 531.851369240513 1958.26911400683 175 175 177
-29.3620472130791 531.065135523997 1954.45249541569 178 178 180
-33.373647483087 530.993508031815 1944.13322923156 179 179 181
-37.990479431832 530.830152834261 1934.61008417455 178 178 180
-41.47664635114 530.842514359293 1923.43710463138 165 165 167
-44.4195193990331 530.940719651234 1911.42307411944 164 164 166
-46.8259963402218 531.124260502878 1898.56357868178 167 167 165
-50.4114103113174 531.127406547108 1887.31831167748 145 146 141
-58.0002001564839 530.510210312539 1881.81390974532 136 136 134
-97.2439956555129 524.963655377798 1922.5042078343 126 126 124
-128.356512560186 520.666669032503 1951.80368190078 213 213 213
-141.896629276874 519.101879038159 1955.56681719192 217 217 217
-153.153076365691 517.890630962292 1956.0464886209 213 213 213
-167.160120471348 516.245057760446 1960.70547125235 188 188 190
-178.897016485081 514.951981670529 1962.07177163357 183 183 185
-187.838142291723 514.096133082721 1959.29122804605 190 190 192
-191.817736622428 514.021811100918 1948.99515000225 192 192 194
-196.370989854214 513.858458162004 1939.51780004841 186 186 188
-200.946073543882 513.692928864212 1930.0249081831 190 190 190
-207.172016198293 513.266644195847 1923.03906253342 189 189 187
-218.815352227045 511.979056474593 1924.47321434409 194 195 190
370.283125628768 564.064500013829 1928.13861206328 151 152 147
362.882465167951 563.516125279872 1921.53590110198 188 188 186
349.002281128438 562.04826323267 1922.58263755715 157 157 159
333.22554130519 560.307986278965 1925.95825030257 157 157 159
318.787032006443 558.754635607532 1927.83484847453 172 172 174
301.188031338045 556.747594847865 1933.5938130747 150 150 152
266.4132478324 552.283627887915 1960.23758613577 181 181 183
224.187637384994 546.7421361112 1996.29596084406 197 197 199
204.395351326979 544.398095625419 2005.40370008204 183 183 185
191.005847214345 542.966847574215 2006.80632634493 172 172 174
177.655706986148 541.538389743473 2008.23720798372 193 193 195
163.717112372159 540.0224414167 2010.47668890664 208 208 210
153.574077075302 539.05029524652 2008.05930303866 175 175 177
142.202040688546 537.899305285211 2007.2204499088 180 180 182
131.477023691091 536.839843670947 2005.61576744522 185 186 188
118.299044939391 535.423371652277 2007.17180779995 202 203 205
104.544109575218 533.920319868687 2009.54419807905 203 204 206
92.0615114285477 532.59887578817 2010.36948490355 180 181 183
81.4498006176492 531.547020385919 2008.84727351666 170 171 173
72.0794617821294 530.674294028702 2005.75549875542 177 178 180
60.2919030913864 529.447472273034 2005.85007716592 194 195 197
52.772382541002 528.842369827805 2000.39595128126 185 186 188
44.6494871711098 528.148517576353 1995.7390132072 179 180 182
37.7324850274476 527.630930553962 1989.48707242762 179 180 182
27.8174934990902 526.6727478142 1987.23507108165 179 180 182
19.7094324983675 525.9789621796 1982.58888709582 179 179 181
12.7940484849538 525.460430855131 1976.33811455031 180 180 182
7.0582055547681 525.116019583875 1968.47293072566 183 183 185
-1.05026981366851 524.421095120289 1963.82644058743 183 183 185
-11.5048840498713 523.377814097423 1962.41815529107 179 179 181
-18.425083592152 522.857399066032 1956.16388232457 177 177 179
-27.099090902108 522.076073565594 1952.3420250038 178 178 180
-32.8595775480998 521.727813820252 1944.45895693036 180 180 182
-39.7908352348006 521.20536782335 1938.19665739174 179 179 181
-43.2673790930489 521.199271415156 1927.03056031782 169 169 171
-47.3491185654691 521.104337439882 1916.66033067709 166 166 168
-48.5970307166557 521.435953426361 1902.17108587502 168 168 166
-53.8825453472038 521.163771163145 1893.39768387023 150 151 146
-60.3207950970601 520.718823528861 1886.2578377446 138 138 136
-97.3006192923422 515.667550499685 1923.65140465388 142 142 140
-121.095883176912 512.592014708894 1942.20484439274 162 162 162
-138.591337816674 510.460788773987 1951.74335258405 185 185 185
-152.095279796903 508.928910373579 1955.53258394034 191 191 191
-167.2199608878 507.146982009934 1961.85133921631 181 181 183
-178.401706640746 505.960455517613 1962.38528845756 204 204 206
-186.791378057636 505.197145915042 1958.76964354778 216 216 218
-191.322579172143 505.022356546871 1949.30851619362 195 195 197
-195.875380674891 504.845418613183 1939.83142489713 177 177 179
-202.086410249246 504.415423564242 1932.85666574065 184 184 184
-208.848930305873 503.900871560648 1926.71643321871 192 192 190
-217.238614183785 503.135808864424 1923.10106487293 195 196 191
373.452584327457 554.478271124973 1925.44722318054 137 138 133
364.093599572386 553.658193439026 1921.12890928123 193 193 191
350.209705071422 552.214395921288 1922.17278335827 162 162 164
334.428493653345 550.506417071913 1925.54561262245 148 148 150
320.629050628892 549.068605138659 1926.65103217229 179 179 181
301.100350408394 546.836051824232 1934.71508400736 178 178 180
270.792116678432 543.105924013968 1955.95462600324 189 189 191
227.908031660797 537.622440691363 1992.77128337351 193 193 195
208.101637594154 535.329253932295 2001.86875852208 181 181 183
193.435189259804 533.745598147818 2004.81529642752 169 169 171
181.33639770126 532.516474812018 2004.68424383216 200 200 202
168.640401876448 531.201790025308 2005.35486836279 205 205 207
157.230071532958 530.064366350876 2004.48832384237 175 175 177
145.845759579949 528.928691993346 2003.64064946911 184 184 186
135.108470196194 527.881748639538 2002.02742837528 184 185 187
124.393006038397 526.836204551166 2000.42974146404 207 208 210
111.84950352262 525.532051236778 2001.21096499275 195 196 198
98.1121046741929 524.05731518175 2003.59650576813 174 175 177
85.6431262012047 522.758422476346 2004.4317800119 173 174 176
73.8191027569846 521.548153024641 2004.50000818509 182 183 185
60.2026435048622 520.082068934805 2006.9729700017 193 194 196
51.4740156993132 519.305439855273 2003.11183538334 184 185 187
46.3736100091632 519.042727177718 1994.47267076518 178 179 181
39.452180318281 518.521933285026 1988.21720964167 178 179 181
30.1306377683375 517.659462943635 1985.16086029796 178 179 181
20.8221972128726 516.797665675116 1982.1140122789 183 183 185
13.3101034250656 516.191253078394 1976.66526357674 183 183 185
6.39000487904706 515.669113658186 1970.41105509021 184 184 186
-0.534497366988296 515.146278539805 1964.15335626669 183 183 185
-7.4636589599919 514.622717857842 1957.89257058502 177 177 179
-14.397304464272 514.098405594262 1951.62853061347 175 175 177
-21.3354067137845 513.573403693631 1945.36125635903 177 177 179
-28.8589879750163 512.963879834195 1939.90416438307 178 178 180
-35.2247207139189 512.521252129527 1932.81689913717 180 180 182
-39.869257798397 512.32786127456 1923.27322342246 170 170 172
-43.3870720770713 512.298855402574 1912.07709249907 166 166 168
-48.0803011065296 512.100813389631 1902.49838987229 167 167 165
-53.3655078955089 511.817693074927 1893.72515562504 164 165 160
-59.8037598102059 511.367338449992 1886.58528054259 134 134 132
-116.084766883555 504.12124912673 1935.913426974 208 208 208
-139.773585790617 501.133825712341 1954.54447725526 213 213 213
-154.390733596051 499.468659108728 1959.99641455627 197 197 197
-168.393252036096 497.889659041879 1964.65930962238 183 183 185
-179.015122112281 496.804598399456 1964.36430752837 212 212 214
-186.848842142562 496.128686502868 1959.91738417776 214 214 216
-192.477412769645 495.777969786885 1952.12993239662 173 173 175
-197.571007503556 495.506907044279 1943.49566289126 178 178 180
-204.318641732843 494.991440053272 1937.36621678865 185 185 185
-212.700580953881 494.233009014053 1933.75649630056 192 192 190
-220.531834222713 493.555583895542 1929.31105901619 193 194 189
377.927437033811 545.042692139899 1921.23253760848 121 122 116
364.004989634832 543.620485833427 1922.24886770775 174 175 170
352.064714727307 542.460294276826 1920.99803973948 176 176 176
336.922623284431 540.870715860754 1923.5994493285 149 149 151
322.471631966879 539.37060139079 1925.46726867051 140 140 142
302.294259780648 537.100692980206 1934.29622624957 152 152 154
270.061578558783 533.208667533573 1957.84527951 193 193 195
234.81319180233 528.902033575026 1985.38156101923 193 193 195
213.712506054654 526.487982459095 1996.0105320403 166 166 168
195.86530592975 524.506906536793 2002.82473970383 163 163 165
183.128557939634 523.211085325649 2003.46591766787 207 207 209
171.054402971703 522.00250828306 2003.35282873384 185 185 187
161.513009350202 521.134654266584 2000.13707738712 181 181 183
148.244085307489 519.76067087887 2001.62740477281 187 187 189
136.87800905008 518.642365670896 2000.79303782263 198 199 201
125.538023401442 517.525815630312 1999.97759340181 216 217 219
112.374137244449 516.159225863799 2001.54380796562 177 178 180
100.478474407005 514.962938383503 2001.56046851226 164 165 167
87.3891073412323 513.601698440564 2003.18073065352 175 176 178
76.7793540484898 512.576766848321 2001.66007468772 192 193 195
62.5444172015235 511.053986764093 2004.91943834968 192 193 195
54.4141550486876 510.365193869979 2000.25748004112 182 183 185
47.4950786959636 509.842081383685 1994.00371315854 177 178 180
40.571156286382 509.318258080134 1987.74672414251 177 178 180
32.4446923633168 508.62868713794 1983.08722083378 180 181 183
20.7418180907593 507.445169491841 1983.24340813013 184 184 186
10.8533420976187 506.510204859373 1981.01104054282 185 185 187
1.57503711172557 505.6583363985 1977.98579425562 187 187 189
-2.96934639219382 505.461449286825 1968.51499877662 186 186 188
-8.12384530486243 505.180852352747 1959.83653023977 177 177 179
-10.9532971008284 505.22417078921 1947.90444320114 175 175 177
-17.9026208385702 504.695451863573 1941.62901542295 176 176 178
-24.8563732572507 504.166075446313 1935.3503738691 177 177 179
-32.3935067148651 503.555065373034 1929.8834500888 179 179 181
-35.8929057488728 503.508702167546 1918.70058085096 172 172 174
-41.1469110902336 503.2179128392 1909.94963187687 166 166 168
-46.9909985057186 502.844987226536 1902.00583488401 167 167 165
-52.2781077796706 502.550779671152 1893.23116532573 171 172 167
-54.7429943440785 502.654779076914 1880.32863013555 143 143 141
-78.745186596755 499.722354230032 1898.73278796944 134 134 132
-127.412981086241 493.2963087206 1953.5843628375 227 227 227
-140.956602830381 491.822244124013 1957.34512232444 205 205 205
-156.128372905587 490.114008269324 1963.62982058082 180 180 180
-167.339773006058 488.964122027367 1964.14245834278 193 193 195
-176.855845159859 488.053222031525 1962.17988166121 213 213 215
-184.696650577964 487.379603842634 1957.72783357985 193 193 195
-191.982316839839 486.78463399005 1952.4432849832 173 173 175
-199.267523967508 486.189342869566 1947.15906759545 185 185 187
-205.460687865921 485.750180254045 1940.19691873618 188 188 188
-212.749383691358 485.15391945626 1934.91016740535 192 192 190
-221.661600443048 484.3239817594 1932.15071185249 191 192 187
