ply
format ascii 1.0
comment KinectMotionCapture
element vertex 790
property float x
property float y
property float z
property uchar red
property uchar green
property uchar blue
end_header
229.959133112652 -44.9135748622562 2206.21949158836 11 14 7
215.25065669742 -44.6166842800778 2209.14479330211 10 13 6
204.585965948257 -44.811007600489 2207.58822471936 11 14 7
187.304528354835 -44.1755431040685 2213.59078237979 16 19 12
221.029384379168 -49.9210666486369 2161.43168195269 18 21 14
224.148667029057 -51.8651113452751 2143.92101109244 19 22 15
142.42494096823 -43.0678198414254 2224.29174381133 15 18 11
173.026714022262 -50.032610591049 2161.21663270196 11 14 7
125.974581542869 -45.5250559459191 2202.47290434587 17 20 13
91.9017422877926 -56.7002580092112 2102.37363645032 1 9 11
85.7756273578443 -57.4761118682366 2095.45838741166 15 24 23
92.7424633958358 -60.0591612222904 2072.0878080703 18 24 20
86.5512040653917 -60.8395755784847 2065.12531136565 17 24 16
49.9955067700442 -57.3865760606587 2096.69393511003 19 27 16
37.1043572815419 -57.2063790797474 2098.46569708512 17 23 11
64.144667516929 -64.3123998935904 2034.04342132124 21 22 17
85.9871215159842 -69.1030009064471 1990.56704167074 21 22 17
27.6293587802843 -65.7801045083583 2021.15154688179 20 22 17
19.583599436892 -66.2973185204874 2016.55142106702 20 23 16
27.1300323643939 -69.1024888940188 1991.12980553492 19 22 15
39.3441573277626 -72.6218360282621 1959.20710566235 14 19 12
46.7560137403855 -78.9889673977034 1901.55628805557 19 24 20
282.10213030137 -51.2636418092178 2230.40031786689 10 15 8
277.452258440225 -52.2130849769454 2222.08427641092 13 18 11
302.677684342198 -56.8689799866259 2181.06096760151 16 19 12
266.090379572407 -55.4069763137386 2194.06957180356 14 17 10
231.754807354169 -52.6325274600201 2218.5980347678 18 21 14
234.476055869602 -54.5150596763098 2202.03446314807 21 24 17
242.476926574073 -57.0838526194727 2179.41354981536 23 26 19
205.743790737304 -53.9450108794126 2207.14625446161 24 27 20
210.367866158769 -56.090383179475 2188.25534697294 24 27 20
227.484173140252 -59.8699283184695 2154.94429003802 15 18 11
209.482083616511 -59.1121402164654 2161.66008795707 10 13 6
160.657411952299 -54.3042256764028 2204.10329723555 17 18 10
203.821457677326 -61.5445223326311 2140.25256819819 20 16 7
180.051761864478 -59.9990308462379 2153.90750819824 21 18 11
183.06870144702 -61.9943222758171 2136.32238708956 20 19 14
103.185898755125 -68.9782408168356 2074.67285934588 0 3 9
79.5171740813436 -67.2792931756467 2089.63680939435 21 31 33
54.0976705192411 -65.3036345263677 2107.03838842363 23 29 25
76.5186455494837 -70.1806573355432 2063.98095327146 16 23 16
48.0977452871194 -67.7506392354376 2085.38453482295 20 26 16
51.0778498931534 -73.2344045444257 2036.87706437663 21 26 19
40.5898289523989 -73.3906674735389 2035.4487602917 19 24 17
35.5807123927248 -74.356727010883 2026.87221052192 22 27 20
6.99275467941263 -71.7981519966485 2049.39067083437 21 24 17
6.24771279095127 -73.3933513348454 2035.25591324104 19 22 15
10.2510733442958 -75.7181241260944 2014.6790909697 18 19 14
35.081886433272 -81.2323205343129 1965.95456271566 16 17 11
9.57960717928108 -84.4136820608016 1937.57042002789 13 18 14
314.672895094367 -62.8785168841726 2209.48817082939 19 24 17
301.746460130246 -62.8064459441217 2209.9990637783 15 20 13
312.716160206342 -65.7677637985112 2184.58788900516 6 11 4
239.300694408194 -57.9578719368349 2251.21410259236 19 22 15
259.109207188271 -62.0483478329176 2216.14799828217 23 26 19
267.911312922865 -66.3354985027005 2179.27759604287 29 32 25
272.530007843768 -68.5320590543197 2160.38252883594 30 33 26
230.273182157467 -64.5848073568159 2193.99626404935 24 27 20
205.569115658714 -62.9073717652262 2208.20926927381 22 25 18
230.784656891793 -67.837035956391 2165.94266600992 19 22 15
216.070899141852 -67.4798436330795 2168.86444461164 13 16 9
214.597914644589 -68.8901112691867 2156.67329033707 10 13 6
245.956248066285 -74.742236146086 2106.50351157907 18 19 11
194.493984605369 -69.4067563494699 2151.97808196799 25 21 12
222.995207758805 -74.9217395265284 2104.67927168577 25 18 10
124.98914805973 -81.2661600593101 2048.42206917471 105 118 126
81.8907058249203 -76.6656552341484 2087.60448507002 0 3 7
40.2883511339267 -72.2274834677473 2125.40055124658 24 30 28
78.2408178090801 -81.2402618134049 2047.88168290151 18 23 16
65.8584281615227 -81.1113721891795 2048.78695923171 20 25 18
44.9270897590099 -79.6854517431168 2060.79347507655 22 27 20
56.4721468724603 -83.1586425375889 2030.85606069032 22 27 20
31.3568720175881 -81.0761603523712 2048.4787226843 19 26 18
42.1529837710111 -84.4670972293361 2019.23412956183 18 24 14
18.7933055627694 -84.3749295060276 2019.59235787302 17 20 13
23.3554954349615 -86.8487971592351 1998.18455659983 17 18 13
-1.12938091841075 -86.5609240594757 2000.19846378443 16 17 11
2.10422426068702 -88.8569668945058 1980.298811567 14 15 7
5.25813301908151 -91.1590581800836 1960.34106059979 16 19 12
-12.8632464181939 -90.0689612471459 1969.4424336599 27 31 32
-5.68334271384785 -93.0386169808555 1943.75398564402 20 23 28
323.406514003332 -73.1635527024011 2200.94593884564 13 18 12
314.557596977682 -73.6080529262 2196.99899182564 24 29 23
265.483397222622 -68.7716205507702 2236.79138405592 26 31 24
254.061479876171 -68.8446013172363 2235.92183148296 28 31 24
272.474914277359 -72.8689038589476 2202.31481352296 31 34 27
246.150556920731 -70.9640783697392 2217.82504931293 32 35 28
263.025661377179 -74.8231566273854 2185.57406777539 25 28 21
234.793039704263 -72.6377797838333 2203.40749297363 21 24 17
255.507922902215 -77.0540069152736 2166.52641819262 18 21 14
242.71413767839 -76.946515671232 2167.13365117997 14 17 10
221.320063540392 -75.6533631318492 2177.56871641304 11 14 7
204.652070615294 -74.9902081381603 2182.78078235671 16 19 12
205.85975230962 -76.7873693663959 2167.59049952653 17 20 13
210.954481986386 -79.1380190058167 2147.8047029524 22 25 18
217.930619519321 -81.770430616166 2125.67565306286 22 25 18
84.2649365492711 -86.067225212194 2085.57259042066 247 255 255
53.2248035206391 -83.0845661206997 2110.02067447208 11 20 19
42.1906714594575 -83.1150793485436 2109.43245083461 16 22 20
83.689365100124 -91.199685203866 2041.89982820296 15 20 14
67.595169993659 -90.4806859222376 2047.52842977015 18 20 15
50.2580911477035 -91.3141336659765 2039.89663073982 17 20 13
37.9493247472102 -91.1561290092819 2040.85542560639 17 22 15
37.201894055781 -92.8128684069859 2026.71891908329 15 21 11
27.3391681453399 -93.0351046722391 2024.50853391313 15 21 11
28.9358872567864 -95.0803990176848 2007.12894250754 17 20 13
12.8007748100121 -96.1009134286372 1997.89715930624 19 20 14
24.7549484364065 -107.298357059333 1902.75583884492 16 19 24
327.338120326484 -82.8700384332455 2197.57110681007 4 9 3
327.373480623529 -84.50685652841 2184.00216308542 29 34 28
302.122997591959 -82.73524999161 2197.81983077557 34 39 33
294.662496728332 -83.3563620316933 2192.40840842962 33 36 29
257.384871269687 -79.9032866197992 2219.74799258448 31 34 27
247.317976037147 -80.1446916049721 2217.38950362221 28 31 24
233.901611381257 -79.919567606166 2218.78104795504 20 23 16
268.165729628234 -86.3038286257179 2167.00963489032 16 19 12
258.014117670954 -86.5511407093394 2164.58970304572 14 17 10
257.877987745425 -88.1993123129 2150.89638489119 12 15 8
217.829891118688 -84.2297556666038 2182.40598355083 13 16 9
185.281613532023 -81.274549284629 2205.76064237335 21 24 17
197.116967064829 -84.6069064460225 2178.50504561931 22 25 18
203.561514628882 -87.1956852166389 2157.22589245477 19 24 17
211.223302541255 -89.9807082316229 2134.35807552174 14 19 12
224.662123437975 -93.6251597249114 2104.55788129555 5 12 5
92.9261205335479 -98.2274166270019 2060.91140221669 0 3 2
96.6339783712007 -100.589113433739 2041.35521332219 14 20 18
41.6277922856851 -95.463212338578 2081.78928927662 20 22 17
43.4789048064461 -97.5313122209078 2064.5937030909 17 18 12
55.0427453128064 -101.173360353629 2034.66934436837 17 18 12
46.3717118856168 -101.584242385554 2030.85151924788 20 23 16
9.79659442177283 -97.4665139391892 2063.64446850993 15 21 11
1.24479337886774 -97.8668107891341 2059.9131311054 17 20 13
-13.5960080331867 -100.845198168237 2034.3183083427 20 21 15
-0.707124351425392 -104.81972580632 2001.64711877995 21 22 16
329.24379564091 -93.9865500313085 2182.83961010413 7 12 8
323.087070480165 -94.8033184471031 2175.90225829264 27 32 26
283.632762317005 -92.6255116856425 2191.77657722753 22 25 18
260.645544469877 -91.0487122324664 2203.52854304944 20 23 16
266.71396178984 -93.5777393068092 2183.21206432727 20 23 16
270.679347868085 -95.8262301078133 2165.07817319024 20 23 16
231.087149846843 -91.8370457044719 2195.68332526762 21 24 17
234.377409262049 -93.9892175216814 2178.29554490848 20 23 16
228.821239450517 -96.5713690211176 2156.96298901428 25 28 21
195.630916032731 -93.4134679893905 2181.08857290647 20 23 16
202.743398073066 -96.156323222278 2159.05780264136 14 16 11
197.955501268201 -97.1580516945977 2150.64143912272 18 23 19
206.218484470502 -100.107706116728 2126.97327648875 0 8 5
129.394950307042 -115.035064849513 2000.80455308967 0 4 6
34.0264985100602 -101.421407563375 2107.12674683472 18 22 21
5.79434513559685 -98.6026000413283 2128.6694188054 25 27 24
52.5711423682913 -108.045746719473 2053.83991173696 25 26 21
32.2587934881424 -108.346086659699 2050.2297483596 25 26 20
4.83423688823192 -105.610248195574 2071.12211310627 19 22 13
-20.0252156755354 -103.267419467404 2088.93125036813 19 22 15
10.0721483221333 -110.151547637619 2034.13703077651 19 22 15
6.87846648346246 -111.464397776971 2023.16907297487 20 21 16
-51.3699170023754 -103.406729875055 2085.97016026487 21 22 16
-44.8882685381233 -106.339991647811 2062.24608420194 21 22 16
11.9514314851998 -117.970992489361 1969.99780876063 18 19 11
338.644418286458 -104.548402123072 2173.54417012837 14 19 15
333.142092714857 -105.471095060691 2165.84533890982 21 26 20
308.581299290315 -103.654319396832 2178.92816947614 26 28 23
284.80802581148 -101.926112201644 2191.34611033463 24 27 20
245.597991210252 -97.9293672827493 2220.99330249726 23 26 19
230.168008434892 -97.3596977709521 2224.6319871611 24 27 20
208.076943557736 -95.7992677536757 2235.79847385218 25 28 21
192.104171709651 -95.1195907601684 2240.27956744931 26 29 22
209.532014134732 -99.3832933357547 2207.19219133011 25 28 21
213.50209416051 -101.67723773929 2189.06117822734 26 29 22
217.912481266274 -105.785163592423 2156.41913644537 17 20 13
210.914179208953 -108.21491969597 2136.5119932807 16 18 15
204.105875094368 -108.932236752702 2130.33783835012 11 15 14
30.1943321955891 -109.695680405868 2112.95266222613 10 16 16
31.5390931500255 -111.734641534822 2096.62548968366 19 23 22
57.8912005831493 -119.863926386019 2032.93417461655 25 24 20
38.8552273261027 -118.5014879601 2042.60895519087 23 24 18
10.796855066026 -115.573440690501 2064.27786364388 22 25 16
-8.64273567122953 -114.089611202539 2074.89570479203 22 25 18
-31.7332154948089 -115.659448168809 2060.61933939437 22 23 17
-19.3584854170945 -119.709184368758 2028.8103790715 23 24 18
7.71494127427452 -126.394471006129 1976.76519648087 20 21 13
11.4594877963179 -128.999449392789 1955.99904062128 26 29 22
354.120751025775 -117.820689667776 2143.93691372563 15 20 14
299.557477251913 -111.515244147762 2189.63848188587 26 29 22
260.215988289952 -107.401277220064 2219.19067925259 23 26 19
235.274558604248 -105.3899743876 2233.23360041767 22 25 18
211.794337408537 -103.571103257874 2245.86473483797 24 27 20
205.205823674403 -104.276480094883 2239.84967664729 26 29 22
187.234740203732 -103.256085457348 2246.58928166978 27 30 23
184.098933184924 -107.91489704323 2209.70908900751 14 17 10
154.352408187837 -105.043134053079 2230.15393442353 16 19 12
249.151818179367 -121.518748280997 2107.34807966595 19 20 15
217.318506242019 -118.348146290882 2129.9870867378 28 24 23
114.913198237466 -131.16145188944 2021.10301017509 101 112 118
72.6987085815747 -127.736830492131 2044.86361199028 13 17 18
83.0458594882861 -131.421833871641 2016.52710469312 27 26 24
88.9823032784021 -134.373046002131 1993.64303831079 27 26 22
55.8155408736312 -130.519702219348 2021.49433452636 29 29 21
37.408429228015 -129.209565582119 2030.3896887553 22 25 16
20.2910076000653 -128.106064634169 2037.74855241548 24 27 20
53.2781065588788 -135.875679000551 1978.86861162797 24 27 20
61.343450636532 -139.275401772943 1952.58482323139 24 25 20
56.1289575707518 -140.322502930484 1943.8589811576 23 24 18
13.9342572189016 -134.704335065212 1984.93702460082 24 25 19
1.69422373349981 -134.449802317232 1985.94613435818 19 20 12
15.5258847005846 -138.938630269613 1951.48570587855 20 23 16
-1.33718694403551 -139.835699988034 1942.96216589723 20 23 28
340.97543161668 -125.175696079817 2159.07283603959 18 23 17
287.126893964534 -118.781859025151 2204.05794275904 24 27 20
282.410456172816 -119.815466995951 2195.6932199281 23 26 19
224.945900647456 -112.762006033032 2245.47085349896 22 25 18
250.012205056518 -118.354331066995 2204.32774539786 24 27 20
219.122781405665 -115.326731550368 2225.17990516102 25 28 21
218.509541034947 -116.977011798058 2212.37574541123 22 25 18
250.542978072934 -123.747881605914 2162.69071004791 20 23 16
255.715752808246 -126.355380231134 2142.96018901153 17 20 13
174.652077178417 -117.1028034504 2207.75476391902 16 19 12
200.283771724049 -122.965040815401 2164.54978429935 21 22 17
215.19569329728 -127.159713066775 2133.34402300202 27 21 21
75.7121705017534 -135.451951421307 2056.88993822581 26 35 42
81.8324101212276 -138.449601066166 2034.13887414741 13 18 22
73.7319562509748 -138.952217539803 2029.49917304229 32 32 30
62.576401678041 -138.908926003971 2028.82330147044 15 14 9
71.564437241221 -142.465685886756 2001.97255976981 25 22 15
79.8252288978989 -145.922402936274 1975.83016680708 22 25 16
57.7114945205661 -143.91144054494 1989.45257518738 21 27 17
59.2195063343155 -146.170067205115 1972.00759739835 21 24 17
65.4669703300827 -149.312704070538 1948.11269549035 19 20 15
51.2622515932599 -148.720793564697 1951.40467622998 16 17 11
63.3441446973504 -152.975425944893 1919.38239429593 16 17 11
-8.2247276352565 -143.710495872586 1984.88453969154 13 16 9
11.4407773033034 -149.410571347478 1942.29580427668 16 18 13
1.52973997242389 -149.578142565774 1940.05067401607 2 5 10
275.371054438383 -126.049542878796 2217.73120326368 23 26 19
293.760136167795 -130.703267319196 2184.10363786321 22 25 18
275.467308764807 -129.623772719812 2190.61030319577 22 25 18
232.981750247474 -124.7000774343 2224.06317097784 23 26 19
234.388704823641 -126.698473208332 2209.01632601976 24 27 20
247.789033304985 -130.626989386039 2180.42153112874 25 28 21
274.17559606514 -138.517139424887 2122.9318823515 16 19 12
227.334206415431 -134.603006789183 2148.28156056 18 21 14
210.65632331062 -133.711117272378 2153.48761548677 22 23 18
73.1232897734748 -144.064759354757 2061.14534986631 0 2 12
93.4359362311001 -149.682976040666 2020.2611924094 10 17 23
81.6106463854438 -149.516880454874 2020.33547410142 19 21 18
77.7716813361038 -150.80009683539 2010.13551241342 17 18 12
87.9306068657049 -154.658819039394 1981.66167660337 15 12 5
84.594644419024 -156.06168850954 1970.59041506393 17 20 11
59.4355885518652 -153.425144533851 1988.18385122295 16 22 12
45.2607742171733 -152.80155648202 1991.49796523191 19 22 15
39.5472853911074 -153.750287698582 1983.64592537474 19 20 15
38.6098023385264 -155.602043237442 1969.37065804392 18 19 13
11.2310358943746 -156.530931016048 1959.39938294465 14 17 10
-8.68501002274202 -154.756442265878 1970.90834044053 20 24 25
279.152880760202 -133.907028977178 2227.84373888562 21 26 19
269.055403594504 -134.088001202598 2225.46338653119 21 24 17
256.260346856013 -133.831253427443 2226.07045378418 22 25 18
264.465546470205 -136.955092402036 2203.59485142115 23 26 19
261.108371018088 -138.228294432759 2193.74390554171 23 26 19
243.613877485493 -137.203383821553 2199.59398702634 23 26 19
250.293542855927 -140.122079052287 2178.4836046854 23 26 19
254.05770759096 -144.440548467129 2146.60707270038 18 21 14
259.160958351639 -147.158301088427 2126.82529931582 20 23 16
237.745780470096 -145.464871927102 2137.24709347483 21 24 17
97.7590410782163 -157.660908033771 2030.76550230358 0 7 21
81.6153014109657 -156.677802529894 2036.35923123439 0 9 18
110.994831206872 -164.145153108042 1983.51175743249 16 18 15
95.4226707213093 -163.278763595597 1988.2842084915 28 29 23
60.3905219471592 -158.738939810688 2018.49242231678 9 9 0
65.6658682722182 -161.760049220622 1996.36350038219 15 18 7
30.0880874841263 -159.070228065622 2012.5805169359 18 21 14
37.0552768758179 -162.444933727412 1987.97085274668 18 19 14
4.73016261825121 -160.308703969232 2000.36722053411 19 20 14
2.63231913394169 -161.955504546419 1987.72218903572 19 20 12
-16.4322312636123 -162.350986500835 1982.54573175925 22 26 27
-10.3656511848458 -165.631498599646 1958.51900487432 2 5 10
248.903883882413 -138.005513425706 2261.47560686388 21 26 19
224.606898231225 -135.825691511049 2274.75151621588 21 24 17
211.957015278734 -135.535327162219 2275.46369884205 22 25 18
234.69746667953 -144.747119875023 2210.38377075402 23 26 19
213.278546437997 -142.998462010371 2220.80313174067 21 24 17
223.329768200314 -146.534950230458 2195.95825571448 19 22 15
244.411011537807 -153.861394708276 2144.50669941109 21 24 17
227.670863381306 -152.898943556931 2149.66797448168 21 24 17
239.977865316263 -156.91858072387 2121.51547340489 14 19 12
108.171003645157 -168.785892611707 2018.49494747822 77 90 106
137.0100851784 -176.295403163544 1966.49051427759 1 11 20
109.053733886686 -173.061635881719 1986.99989181074 12 17 13
68.9976663702079 -167.471768038699 2023.45236039177 16 17 9
54.7988402729791 -166.791486652808 2026.74935492455 18 20 7
35.0258756646169 -167.065714771506 2022.29500387213 14 20 10
40.8544682269278 -170.265356240794 1999.33149548953 17 20 13
39.9723778604106 -172.173543532292 1985.095803184 17 18 13
46.8281270371631 -175.622566725937 1960.40527164879 16 17 11
19.5614362565482 -172.32844846526 1981.41490449413 17 18 12
38.3696462180834 -182.479791409145 1908.53921066762 26 28 23
401.289753334078 -170.408399528721 2111.1676734083 35 40 34
247.560822072128 -148.512145704797 2250.56759806676 16 19 12
226.012374568826 -146.718707605447 2260.89358327485 21 24 17
232.973570613863 -149.730916919998 2239.98681486082 22 25 18
242.538394851707 -153.209705426134 2216.02496225555 21 24 17
221.071301777295 -151.408253217566 2226.40966914135 21 24 17
205.725794506159 -150.635232481282 2230.11091639206 16 19 12
186.506019570081 -151.038868312108 2224.82189223397 22 25 18
198.476778708072 -154.998987596 2197.66097967689 20 23 16
238.747299034727 -163.953190904749 2137.87946867529 18 21 14
216.100812783788 -161.905369795972 2149.8808239204 17 20 13
168.113735934857 -189.546334303832 1943.27150138954 242 251 255
145.549925183472 -187.311678674935 1956.56877285153 0 8 10
91.7450370870374 -178.961493244334 2010.24127671409 7 13 9
74.4056233231216 -177.658478775914 2017.44022411267 14 19 12
51.6448551204505 -175.268413996925 2031.83083519916 18 21 12
54.5308426066913 -177.920253902887 2012.91212746752 13 16 7
34.9269657415068 -176.120893106259 2023.4127668008 13 16 7
30.5009929952242 -177.329727608464 2014.02238961697 14 17 8
24.8499495666423 -178.298163862817 2006.21551795118 15 18 9
14.3922901254561 -178.299191878039 2004.8103043377 19 22 13
-3.22059799016916 -181.083666394401 1982.147065488 18 20 15
-22.494886562511 -179.253881640307 1992.88649003485 22 24 23
263.71207363111 -160.207559758653 2233.80913609506 19 22 15
245.505127379233 -158.947174068698 2240.37868027887 20 23 16
229.398045167525 -158.03250204109 2244.76359972326 20 23 16
223.465584075483 -158.875581836667 2237.98868844888 19 22 15
218.195865014 -159.83678511545 2230.45828359111 21 24 17
221.62361656119 -162.331382434925 2213.16843975999 18 21 14
163.690926261854 -155.865682560186 2251.48781670009 21 24 17
183.042145253531 -161.201642502922 2216.08390174132 19 22 15
211.473714912321 -168.212807555266 2169.96205632739 17 20 13
123.859884855502 -192.405655336455 1985.28395563177 0 3 2
106.396977664683 -191.069510178283 1992.39354782318 6 12 8
76.7530152804108 -187.274223921618 2015.38778862886 16 23 16
72.2932607188027 -188.501138929738 2005.97312518185 17 22 15
55.648235085028 -187.269234859028 2012.43975806055 16 19 10
32.404061361361 -184.676419330787 2027.71600177019 15 18 9
32.2163841731973 -186.76151092914 2012.74777171277 15 18 9
34.381242710452 -189.344605486916 1994.54227600834 16 19 10
16.6986293038853 -187.849975575899 2002.72843786092 18 21 12
39.0952472333046 -194.650321366231 1957.17353045808 18 21 12
253.770123729269 -165.552019742595 2258.68794739437 8 13 7
267.722006778704 -171.806551487074 2216.89521257787 26 29 22
246.804349720921 -170.022164115057 2226.44309429171 23 26 19
223.950096039753 -167.869267230317 2238.29436672219 19 22 15
229.440936549132 -170.765948860833 2218.79265910734 19 22 15
216.117707887537 -172.230147670898 2206.65658212771 21 24 17
215.93613460731 -178.067003021115 2165.73623742506 15 18 11
232.916320792121 -183.179964581714 2132.32004407964 14 17 10
106.296968433706 -200.296999474903 1993.5093465741 8 13 7
77.8756357264276 -196.654116985142 2014.91905251131 14 19 12
75.8570449856713 -198.397057823406 2002.33069157166 21 24 15
65.2820120185007 -198.382502000838 2000.84047031953 12 15 8
37.1524908373879 -194.714137823188 2022.46155125237 12 15 8
32.7244724449272 -195.950650072444 2013.06955094273 13 16 7
-0.0038454331416915 -191.253532831111 2041.24325330851 14 17 8
5.21861549278713 -194.507257051459 2019.07510985661 15 18 9
58.7233546491448 -208.02534675016 1931.8105003634 15 18 9
47.5148512460692 -207.883734657478 1931.0967430676 21 24 17
-23.2499815863394 -197.164375506551 1995.95378971976 15 17 14
255.146024672437 -176.625278753229 2244.80795612987 22 25 18
272.287372757853 -181.651301895236 2212.74406947499 24 27 20
252.708053051495 -180.059303427812 2220.79079827326 24 27 20
233.882165247663 -178.58335852183 2228.14808147334 21 24 17
240.017807551713 -181.657797112357 2207.87786743695 21 24 17
201.816409452764 -176.598218221342 2237.02629408283 21 24 17
248.011899993514 -187.086521703035 2171.6512679271 20 23 16
271.874882061161 -193.52123574639 2130.86661554333 19 22 15
178.038811630238 -178.042208418101 2223.48749625181 16 19 12
210.476322487871 -186.091251812996 2172.8538717933 16 19 12
214.294965196513 -188.818319275846 2154.61117917084 15 18 11
206.208945751305 -189.311103546874 2149.98199169053 21 23 18
126.12798198568 -211.452212224511 1984.36159982105 11 16 12
74.2112547026506 -202.865790158229 2035.6986639731 20 22 17
77.1598887593559 -205.653610140999 2016.82468131144 4 7 0
84.9181136735346 -209.473309074297 1991.55145952318 4 5 0
62.7512579574465 -207.00692144592 2005.13766592997 9 12 5
47.9652859898638 -206.074969245343 2009.2453372825 10 13 6
35.6485005367064 -205.653486814378 2010.19965353353 13 16 9
41.4210837460569 -209.09852285684 1987.19429980377 15 18 9
35.7039271554163 -210.096571003603 1979.33935130581 18 21 12
26.389088626114 -210.318970574823 1976.29110393436 18 21 12
48.0359597472413 -217.275844145876 1931.42693285494 17 20 13
57.0138589740483 -221.525666537888 1903.33000150329 18 20 15
225.639725839991 -180.144173414289 2277.74582640148 18 21 14
244.242592950418 -185.511126226804 2244.2696259438 20 23 16
249.81005120101 -188.506929312002 2224.82295809494 21 24 17
222.218276171651 -185.349740628791 2241.8908324908 22 25 18
223.014820372506 -187.46849307952 2227.63591502375 23 26 19
249.909480078364 -194.508376958075 2184.10548416078 21 24 17
285.266590282113 -203.208004377778 2130.64430876842 20 23 16
229.0776482156 -194.607822716943 2180.11975405163 19 22 15
220.350298525529 -194.971021027831 2176.26134559779 19 22 15
223.54196342806 -197.615792057062 2158.79959686017 19 22 15
218.747815759735 -198.741905719836 2150.37807192169 15 17 12
208.019464143943 -198.724535744791 2148.77672096343 16 18 17
77.2478395461813 -210.41360724847 2047.74259993616 8 13 7
63.6433367905953 -209.716414825466 2050.2351866943 15 18 11
54.3740532916055 -209.930882120309 2047.22000331506 14 17 10
77.259709263227 -219.275772789572 1987.18510394567 11 14 7
44.8361269681818 -214.505465869396 2014.34504972992 12 15 8
46.4278940507752 -217.086775045987 1996.95885899512 16 19 12
36.5157943745058 -217.170044187148 1994.71338562431 18 21 12
40.4154051997678 -220.285129403136 1974.0570553957 20 23 14
62.1564646996919 -227.369204097601 1929.2608136604 21 24 15
55.105531897802 -228.121451687035 1922.91030060939 9 12 5
46.8637302952786 -228.608534212404 1918.16850667616 15 17 12
30.9449871421079 -227.370526357767 1923.92663151235 19 21 16
275.306382009807 -200.282167902975 2211.13284033664 23 26 19
220.494050558424 -191.924197372095 2257.89929434432 22 25 18
198.396464573693 -189.704723917527 2269.06439193029 21 24 17
229.556149720006 -197.637658855157 2221.21043682034 23 26 19
258.451132162975 -205.204896851612 2175.42171260429 22 25 18
204.211929479127 -196.797091101381 2222.60389231194 21 24 17
256.22202094128 -208.901522223786 2150.31959535489 19 22 15
219.514638477318 -203.83384577497 2178.08103357578 20 23 16
218.080389608065 -205.6152703954 2165.91607960131 19 22 15
246.290169704821 -213.237140779795 2119.63065533476 14 16 11
71.5318059314503 -220.46859803745 2041.07762693658 13 14 8
59.7830936412223 -220.142776724135 2041.20852485211 16 17 11
49.8982050090393 -220.215178614055 2038.98283239264 19 20 12
72.9034765774959 -227.517054647806 1993.86661065249 17 20 13
61.1143531446734 -227.192874491178 1993.96791087853 17 20 13
37.269572036585 -224.180075093039 2010.04592540791 18 21 14
31.6075262713955 -225.190745379472 2002.23086398981 18 21 12
15.7338728937804 -223.913059229598 2008.02187634495 16 19 10
55.5063676544822 -235.167772495717 1939.22183808729 15 18 9
59.8449946149162 -240.863496167563 1901.57899786472 16 18 13
53.3345368754516 -241.756745791234 1894.38483036549 15 17 12
285.11682829255 -207.12780455497 2228.0908497007 24 29 23
278.420262404541 -207.8773226736 2221.99753309046 25 27 22
273.077798625455 -208.888480149486 2214.41414100659 28 31 24
251.46125506648 -206.756912165085 2224.69247462521 27 30 23
183.342454141233 -195.56718040606 2286.52962781216 19 22 15
203.792724946271 -201.549959232967 2250.68383159645 15 18 11
228.085982894696 -208.336687206688 2210.20931236123 17 20 13
219.406757294216 -208.686357817002 2206.38615308444 15 18 11
191.408874072868 -205.209869356 2224.39628493066 13 16 9
226.64895149091 -214.269334982353 2170.84874179991 14 17 10
192.755389436113 -209.59629609015 2195.70724409744 15 18 11
167.214895553319 -248.342498136411 1934.91128992431 1 3 0
115.740932993759 -239.314645580066 1985.33652297674 13 14 8
60.2878024752811 -229.30658941477 2041.52798253905 15 16 10
21.0691290220484 -222.817836610706 2077.35671787072 16 17 9
34.9320141723921 -230.4428497966 2029.31675271914 19 22 15
37.7779558763449 -233.376718012752 2010.36788089333 17 20 13
34.2428887851698 -237.200498788719 1984.31840429648 18 21 12
-11.5286274147512 -229.007151203169 2030.22739012061 18 21 12
59.7243588409757 -247.784232329137 1918.74818224152 19 22 13
71.0521760024814 -252.817665955992 1887.41064088828 21 24 17
56.8173359480326 -251.924487928268 1890.68231202133 20 23 16
282.8675656173 -215.700831564401 2231.35762258468 18 25 18
283.683039752051 -217.919286374216 2217.11592281859 18 21 14
280.365477248584 -219.340700013929 2207.29294248999 17 20 13
258.046596435282 -217.020323460008 2218.29812982615 16 19 12
223.666390216108 -212.281469441868 2242.80418675 16 19 12
209.65856037957 -211.549530115008 2245.00456909965 18 21 14
266.149853620499 -224.910336552162 2168.55161842772 20 23 16
294.799613389633 -232.793729413072 2122.58382015241 17 20 13
226.477840018294 -223.274990289523 2171.91412065136 21 24 17
257.473335115405 -231.72225772465 2122.70320436904 18 21 14
178.245328298526 -260.267961709262 1921.84998611687 24 29 23
145.81030517087 -255.35336404759 1947.76703795223 4 9 3
125.821785582024 -253.203888931053 1957.99032048747 17 20 13
69.8566586931717 -242.834388612214 2015.04749036946 17 18 12
8.15059413589303 -231.041969707683 2080.30138910413 10 12 7
-13.7169348839079 -228.287763079619 2094.106336158 11 13 8
-24.594996265362 -228.039504017078 2093.63266352359 13 15 10
-8.94041153334291 -233.944717070642 2058.01616937908 17 20 13
-15.061369810901 -234.819716251334 2051.10415631719 19 22 13
31.6507568940501 -250.474738963784 1957.66957648022 20 23 14
53.1807329179572 -257.977492186073 1912.7179006621 21 24 17
287.583303297919 -227.725902741683 2213.71786255346 18 21 14
289.695841371391 -230.254787829607 2197.94478646832 22 25 18
262.600879938452 -226.922011370971 2214.13866440024 22 25 18
231.579767835438 -222.758526171856 2234.901408356 21 24 17
232.360601074427 -225.01115278353 2220.63442357839 20 23 16
275.370242518208 -235.897617932698 2159.12336827856 21 24 17
297.310202083744 -242.559115443287 2120.64893150532 20 23 16
305.053450082641 -246.352198368123 2097.83506070528 20 23 16
256.209646469784 -238.46279329797 2139.04497255373 20 23 16
244.066377115022 -238.124615954612 2138.88961574161 17 20 13
155.905403140265 -264.650274382167 1951.33269486199 58 63 59
124.162605529529 -259.761576527979 1976.51638793056 7 12 6
109.773881455985 -258.826666823208 1979.67701111032 14 17 10
118.056263129934 -263.138122175154 1953.54593979385 9 10 2
62.865961303769 -252.68036141426 2009.92991284968 16 18 13
24.4094665473669 -246.035258225786 2045.07721757772 15 17 12
-12.6117250390239 -239.656119449314 2078.793289307 14 16 11
-1.21094257113508 -244.66984232986 2048.7434840525 14 17 10
36.4675510640953 -255.97808284303 1983.36592403557 15 18 9
35.5334240360015 -258.160886192008 1969.09111825908 15 18 9
36.3381402338399 -260.776631288149 1952.36953422292 14 17 8
29.9564382026563 -261.676487609232 1945.26837654316 15 18 11
257.828407210134 -228.619605751675 2260.07539731189 17 24 16
228.708722610171 -224.790467862737 2278.50942874342 25 28 21
286.106994776897 -238.597809059424 2202.71170466411 24 27 20
279.359320574623 -239.359712167982 2196.58127581373 22 25 18
237.4690541276 -232.876173212081 2229.23825333122 19 22 15
220.723106585893 -231.535625190645 2234.3972394389 21 24 17
231.561390428639 -235.917393904546 2208.88360337001 26 29 22
271.719478539191 -246.463926812994 2150.24785349841 23 26 19
258.212629117236 -245.830236878266 2151.57557848328 18 21 14
267.343399270757 -249.961581192145 2127.29576548529 13 16 9
130.22391480051 -270.46437817514 1969.73993548164 5 11 7
109.062535740789 -267.912103369625 1981.58539515164 12 17 11
77.9997731806015 -265.388818604738 1991.19342476972 12 14 9
34.01878345763 -257.304028993777 2033.45911611033 13 15 10
9.05602120405424 -253.697702934512 2051.20005631341 13 15 10
33.3768427916144 -264.353856229633 1988.49349295864 15 18 9
29.4665211981751 -265.836901197759 1978.2407912178 15 18 9
29.1061477954844 -268.196973972121 1963.14597715509 18 21 12
11.4707242321508 -266.324226155342 1971.36826317384 17 20 13
224.074352450154 -230.540596778531 2297.35288108619 28 36 25
232.597868636521 -234.398082067635 2275.10431713632 24 27 20
273.67243606555 -245.064776305056 2217.13233404051 23 26 19
272.391948518604 -246.961118357575 2205.07826285056 22 25 18
244.036241795836 -243.178036580811 2222.83055375986 21 24 17
263.646144433987 -249.482427714763 2187.6092588021 22 25 18
265.620803305274 -252.098028610047 2171.73579190814 20 23 16
238.086310813553 -248.443253183298 2188.84771201295 18 21 14
241.366883632197 -251.34584524399 2171.44910860676 16 19 12
228.620199468121 -250.822216348269 2172.09259397676 15 18 11
239.762139181033 -255.449357617374 2145.56251056189 15 18 11
137.519990258332 -281.508735088408 1961.38678808961 5 14 9
123.991039496492 -283.206030933235 1947.86536145755 12 17 10
64.8876326243508 -273.823430629581 1993.99668100386 16 18 15
68.2489290883117 -277.098815217062 1974.18463436484 18 20 15
33.5500875176367 -271.050502932654 2004.64181600967 19 22 15
36.7757318868649 -279.260560037769 1953.82816563692 17 20 11
-24.2509992954758 -266.480636319897 2020.81486064557 16 19 12
255.365614858171 -245.87187881219 2264.37845251314 19 24 17
240.583880631106 -244.896826373897 2267.25408309919 17 20 13
274.16019799874 -254.170606403264 2217.43980025061 19 22 15
262.029923580848 -253.778144585759 2217.29413870712 21 24 17
233.029309298074 -249.763026802676 2235.8154287775 20 23 16
272.223295437597 -260.377547458326 2178.95050969921 19 22 15
243.280752955261 -256.356660181476 2197.51363200364 16 19 12
224.519292543722 -254.503490714529 2204.91982518913 15 18 11
183.815531328557 -247.841334673611 2237.20279377202 13 16 9
123.248872830005 -287.370759085828 1980.6545986378 15 20 16
101.496637037032 -284.546353111127 1993.30814867958 4 9 3
98.2020884625121 -286.215820024717 1982.26555857128 13 18 11
110.727389943239 -291.794330487073 1950.55800712877 23 26 19
76.3331975856696 -285.799243075321 1980.00102374306 23 26 19
54.238349525535 -282.800230933295 1993.64212788453 20 23 16
66.0184592547308 -288.237644813483 1962.63012234936 19 22 15
33.7981625521486 -282.663326521339 1989.94150667402 17 20 13
62.8153301601402 -292.493466306082 1935.58404968954 16 19 12
31.9249317021963 -287.209453639522 1961.38766744253 15 18 11
49.3908604066955 -296.775401418478 1906.06861777509 14 17 10
274.340094761567 -258.805089894868 2244.71930938514 22 27 20
256.272228448003 -259.302245750583 2237.79478141469 24 27 20
238.774098183589 -257.707385397573 2243.6448189856 24 27 20
243.654346570442 -260.974187089375 2224.93393648559 23 26 19
205.321574003378 -254.794927883865 2253.9927983774 21 24 17
186.964830897372 -257.351988154048 2234.49687943313 17 20 13
154.578052481016 -254.549341573038 2244.38184783007 17 20 13
102.189388224565 -291.42328975704 2008.59712321808 9 14 10
98.3245144336893 -292.956372994545 1998.3768196285 9 14 8
77.2961850145157 -290.212176436669 2010.31970194387 13 18 11
75.2691079258878 -292.202277873331 1997.72393715238 21 24 17
64.6955747809055 -292.050548236387 1996.23549796578 21 24 17
49.3010326994225 -290.669564559652 2001.13931491736 19 22 15
47.2335855637973 -292.66108436207 1988.51427783296 18 21 14
-4.82042846111108 -289.392638582587 1996.49536202847 14 17 10
326.208439528848 -279.059333979824 2189.5829620085 19 24 17
262.711117519653 -267.416742726794 2244.89173572392 20 23 16
214.550841863342 -259.040284378688 2284.12925086073 18 21 14
222.292743809865 -262.944889284285 2262.54887602698 16 19 12
219.791959163718 -264.603762157228 2252.08175599102 15 18 11
254.334702453252 -274.537713382848 2200.49434428511 15 18 11
159.600424523904 -255.578744678294 2292.48201627543 16 19 12
167.900415994616 -259.641515335184 2270.07037467807 19 22 15
179.435361981895 -264.467190864519 2243.8241842835 19 22 15
194.172056479468 -270.058630196199 2213.71965334509 19 22 15
166.990152508263 -266.127294590242 2231.08857322486 19 22 15
109.482767536947 -302.421683119013 2000.24225414713 6 11 7
96.3792849722038 -301.642758622552 2001.86312401675 13 18 12
95.5586446250889 -303.970795688627 1987.67014599683 15 20 13
75.1705486642402 -301.319034032436 1998.84134790218 18 21 14
43.9357493329955 -295.852802679448 2024.39622508581 18 21 14
26.1950082125715 -293.805700582645 2032.54334177566 17 20 13
30.8523400414571 -297.533660411559 2011.19786423618 17 20 13
27.6065106666095 -299.234369633791 2000.19043346699 16 19 12
-24.9223156649956 -290.56773608421 2039.96796714901 15 18 11
-28.6854278818627 -292.103378771516 2029.82171420904 15 18 11
349.322966109566 -291.017709684437 2179.10573690327 10 15 9
280.270379817895 -280.248898127568 2226.67755075408 18 21 14
241.578664872177 -273.850063498935 2255.4773198482 16 19 12
222.770360413298 -271.864005431457 2262.84993341401 15 18 11
268.299011962047 -284.401874663721 2199.45119324574 15 18 11
258.19433103299 -284.410700746212 2197.06678516068 15 18 11
232.649873542341 -280.891316787351 2211.91523395812 15 18 11
185.789561714712 -272.449106556997 2250.860417034 15 18 11
224.64368461074 -283.657471549847 2193.74611589881 15 18 11
222.602604146876 -285.50435707874 2182.37596180777 16 19 12
223.841251221507 -288.123892622204 2167.20396095457 16 19 12
87.4998832694049 -311.08022696437 1999.08385795349 15 20 13
53.1075251485058 -304.724496778118 2028.53003097184 14 17 10
28.0282237284974 -300.731689427732 2046.18844705004 14 17 10
38.2066507332475 -305.938504323785 2017.72191992025 15 18 11
-28.3838200585174 -290.963933702197 2090.56733965681 15 18 11
-10.9662161326742 -298.077616477297 2052.5173702486 15 18 11
21.2456839573818 -309.188960640248 1994.29387584355 15 18 11
22.1303302864766 -312.028124705213 1977.62910320421 16 19 12
24.3060635118351 -317.879423441808 1943.35798813009 19 22 15
295.49624541561 -288.096074913082 2237.67535816447 12 17 11
336.106483098429 -299.562408121257 2180.59775882651 20 25 18
257.526680531199 -284.063653350695 2252.16502544229 21 24 17
229.799938254844 -280.01831384485 2269.13955785946 19 22 15
264.654658752018 -290.266624668378 2217.77700727297 19 22 15
253.22648088241 -289.951549191401 2216.90458741752 19 22 15
250.590782471619 -291.659946088495 2206.33941466543 20 23 16
229.102249161309 -289.001134229199 2216.71321623934 17 20 13
241.204327764991 -294.145730450973 2189.64150035623 16 19 12
202.42768804125 -287.41298767478 2219.61643360617 15 18 11
246.386175484653 -300.080965519286 2156.31412004942 16 19 12
230.966417060432 -298.822846280058 2159.9637036972 17 20 13
288.984400180994 -314.983584884985 2079.66285989796 19 21 16
116.457345812364 -325.216593669827 1978.00994688646 12 17 11
64.7374009154866 -314.248046363064 2029.50172872375 12 17 10
58.4950546142982 -315.179449631371 2022.50143319516 14 17 10
10.8448453324419 -307.673725594775 2054.693781639 14 17 10
5.16917960880026 -311.297084075166 2032.0339955831 15 18 11
12.7671070816531 -315.947990309875 2006.64036052985 16 19 12
14.8815978854264 -319.14698211364 1988.39493806253 16 19 12
8.00383605383903 -319.914714367928 1982.16988191066 17 20 13
33.7118003356571 -329.625490513774 1931.58988951354 17 20 13
298.895349110313 -300.169051038376 2221.55126714593 22 27 20
242.973140309286 -289.585930345499 2268.75974930736 20 23 16
265.015456240544 -296.990942739513 2231.59078342776 20 23 16
254.95648414593 -296.975584126421 2229.2393386755 19 22 15
248.974660989131 -297.908693893622 2222.42818776738 18 21 14
240.34380427326 -300.569692307102 2205.04180396701 20 23 16
208.187595579989 -295.305508120312 2227.45734069611 18 21 14
239.645190223695 -305.145218939604 2178.57435723655 16 19 12
249.373526484405 -312.286413194273 2139.89086972055 18 21 14
85.6166403454837 -326.252763314053 2018.63919263825 7 12 6
118.541125133642 -337.671246007248 1960.93041589395 11 16 9
35.195595946194 -317.973390527279 2053.76696877315 15 18 11
64.9146831873884 -328.583488254731 1999.91469214676 15 18 11
58.6108336503002 -329.524115781929 1992.86976488723 15 18 11
35.3923911508427 -325.860637859023 2008.17008482654 16 19 12
7.47654240515905 -320.870368010701 2029.95275718066 16 19 12
7.88011351070583 -323.612339099225 2014.17477177589 16 19 12
15.3915199714358 -328.338003987254 1988.7180371272 17 20 13
37.7875000976933 -339.963593520634 1927.08157246873 16 19 12
66.1958166691483 -350.674870168367 1872.27828324241 16 19 12
49.036862059487 -348.64924241397 1879.61170951186 15 18 11
363.874766100347 -319.566941658303 2179.62886331443 6 11 7
260.982138226896 -300.314392266426 2263.23349263109 20 25 18
259.170923857981 -302.212187520596 2252.0300099871 22 25 18
251.191888633019 -302.665895274728 2247.47857558146 21 24 17
264.94735638701 -308.268508816793 2219.13304357205 20 23 16
250.135906731964 -307.11531785005 2221.98803511697 19 22 15
229.300105455278 -304.50580897874 2231.59943523648 19 22 15
247.554942794315 -311.254870423978 2197.86393991749 17 20 13
247.544302104397 -313.65231986516 2184.25750187094 19 22 15
176.670549922274 -298.896272056085 2250.29136829213 17 20 13
221.406601565837 -312.138196622334 2186.31478383563 20 23 16
194.124897334741 -307.887848562252 2203.61297223814 24 27 20
232.456077021426 -319.704769923671 2146.11649595235 19 21 16
94.1195694999979 -337.64984890326 2008.68876487078 3 8 2
117.221346993743 -346.587350107502 1963.63392309446 15 20 13
107.741922073817 -346.711750412271 1960.4668599216 15 18 11
11.890631040385 -323.149617473954 2070.19482855495 15 18 11
10.5354013586396 -328.018745329235 2042.01515783959 15 18 11
14.5982930546436 -331.79699257744 2021.47383435233 15 18 11
-1.80571705623156 -329.885872354132 2028.11862489082 15 18 11
-18.143532423057 -327.968901309434 2034.81172552452 15 18 11
13.7854167928788 -339.643430969537 1976.38026134678 15 18 11
53.722118513897 -353.693646647889 1906.45006381897 17 20 13
71.4510754136985 -361.547263960622 1866.15197965348 18 21 14
7.78695990306222 -346.175262338062 1937.41509100957 15 18 11
262.146557426901 -309.450012101866 2262.7962946144 18 23 16
261.018458207653 -311.533254624028 2250.85174628761 19 22 15
263.938317782799 -314.600189351994 2234.42615283141 19 22 15
257.961091662609 -315.544766341747 2227.61798185247 18 21 14
264.837704697417 -319.602553307898 2206.64489582932 17 20 13
254.75027171633 -319.567156157133 2204.27292067222 16 19 12
250.060506991931 -320.843463338582 2195.92630439765 17 20 13
244.011537996168 -321.792000243085 2189.06610541939 19 22 15
223.920701425914 -319.284533891993 2197.98199285825 20 23 16
206.576967490082 -317.428621084911 2203.9455723819 22 25 18
237.091131050322 -327.443149127202 2155.61282674162 23 26 19
212.303780195532 -326.207578010542 2156.1772273531 14 16 11
103.856559356721 -349.453857259081 1997.16050516305 10 15 9
116.51342078402 -355.654576132905 1965.54517272517 17 22 15
99.0992994562605 -353.568965577865 1972.69392701985 16 19 12
22.7318454335537 -335.033981810093 2056.99656450172 15 18 11
18.4054998823315 -336.48177571587 2047.67749329828 15 18 11
30.3668494231144 -342.517299462509 2016.79384282599 15 18 11
-2.95279269574888 -335.8095439032 2045.7841025388 14 17 10
62.8589135319295 -357.174428136758 1942.69883111188 14 17 10
3.26770488057049 -342.965867252368 2007.02770452606 14 17 10
20.2492106401824 -350.561393758812 1968.65945209388 14 17 10
24.5961968581558 -354.584825448654 1947.08779625174 16 19 12
17.6295910933186 -355.366555488905 1940.79855881211 15 18 11
265.775495587461 -316.815765533771 2272.80048906835 16 21 14
292.366530489052 -330.453309956956 2204.3137417306 18 21 14
253.688927905235 -323.425185596685 2233.12692865359 18 21 14
250.426750229629 -325.040571043366 2223.34340994025 16 19 12
244.437552627376 -325.990777874261 2216.52653206222 16 19 12
239.784143348791 -327.275132721148 2208.20622986318 17 20 13
243.829491659396 -330.732992072558 2190.12417936473 19 22 15
231.758744340098 -330.181389621558 2190.02247636407 21 24 17
207.72775603294 -326.611955689822 2203.49795704921 22 25 18
191.109638696394 -324.877287599272 2208.7516062965 21 24 17
247.341573026569 -341.600944327109 2130.85857068628 19 22 15
92.6781992410493 -355.500205667253 2012.4939102274 7 12 6
110.287222863413 -363.162243439952 1974.57992751612 11 16 9
95.9498199022826 -361.891478490775 1977.77945563854 16 19 12
48.1855067081374 -351.143059593399 2024.72683559147 15 18 11
10.9335088682934 -345.969552505821 2043.4478667213 14 17 10
31.5887354890805 -357.370662091357 1985.49107072621 14 17 10
47.9949695720729 -364.903929508111 1947.9411435625 14 17 10
42.9074648965457 -369.081518138155 1923.23484745898 15 18 11
326.269454368155 -345.388443708515 2181.88041422114 20 23 16
251.268922484898 -329.299333206299 2249.8698831863 19 22 15
255.530188746594 -332.787794566915 2231.94420121331 19 22 15
236.009325224907 -330.357305683686 2240.03755326663 17 20 13
226.693760704234 -330.461680417575 2236.98937742761 17 20 13
233.540377010822 -334.636008140264 2215.99395583411 19 22 15
228.221000652038 -335.760780072395 2208.42672483431 18 21 14
230.909524652949 -338.926343401092 2191.83263723308 21 24 17
221.537875421329 -339.033170588511 2188.74379196804 20 23 16
231.436931622163 -344.079823106779 2163.78095859906 18 21 14
235.263533626307 -347.600330697565 2145.5400169091 21 24 17
270.677846266595 -359.323120043866 2090.8699592434 18 20 15
116.573775082902 -371.383168629198 1982.80094713952 6 11 5
127.359890662833 -377.242932313316 1953.53660248306 6 11 4
95.8535070606921 -371.053338476718 1978.8982664064 14 17 10
59.6492004438463 -363.44941014564 2010.74235154842 14 17 10
23.5217299372685 -358.532352135613 2027.80720431721 14 17 10
4.67071467931657 -355.800119551927 2037.62300316972 14 17 10
62.9962398861932 -387.183516845211 1880.89013135103 13 16 9
52.3275150502496 -386.924263335713 1879.33293582874 13 16 9
54.0009706735756 -390.3742408738 1860.76652625473 12 14 11
237.146934647156 -332.180739528313 2279.14207483809 19 22 15
274.250561304844 -343.945010887788 2225.69642684077 19 22 15
236.981648560055 -337.005327391936 2253.05998738516 18 21 14
227.004934939255 -336.928878309451 2250.76848299132 17 20 13
241.354325568147 -343.049041197106 2221.61584023021 17 20 13
224.60130257368 -341.251637845226 2226.77201125351 19 22 15
224.680430378554 -343.7624274417 2213.23036869138 18 21 14
221.36708348479 -345.413154795615 2203.40928282904 20 23 16
232.021434086934 -350.696989936995 2177.75774048441 18 21 14
225.950362213673 -351.662492350133 2170.88143272491 16 19 12
235.757981240691 -356.787408464035 2145.85191817673 22 25 18
287.67720216949 -373.024013009528 2072.24578032855 19 22 15
123.585993700213 -385.440075184457 1959.40514924967 6 11 4
89.0339589438853 -378.255729205632 1988.73976636968 13 16 9
43.1065590563353 -367.678944123321 2033.31249025651 13 16 9
64.805136159094 -376.820842145414 1989.70977099622 14 17 10
28.2570858510196 -368.887831696697 2022.54166697264 14 17 10
-0.248534795165511 -363.253736265138 2045.13509882243 15 18 11
48.2127384666535 -380.441075915373 1965.31200088885 15 18 11
44.8444843589493 -382.303631428322 1954.21500203476 16 19 12
75.4027764052183 -397.306955413253 1881.1867718717 15 18 11
62.9335367715509 -396.499601070957 1882.03252535104 12 15 8
31.0614897977071 -389.771975139281 1909.60220506665 12 15 8
42.7958694922754 -396.309770772155 1877.31614409672 12 14 11
68.9992814410996 -407.349816679276 1824.61850601499 15 17 16
252.674311365585 -344.905508276667 2263.16088094804 19 22 15
236.540912612331 -343.251786411131 2267.53046640297 19 22 15
236.100010585043 -345.607002659247 2254.8476677564 18 21 14
264.073944301021 -355.3035362485 2210.85083809546 17 20 13
240.486622956517 -351.726308961657 2223.41294527584 16 19 12
238.546689769656 -353.742548693462 2212.11555166909 20 23 16
220.466942353693 -351.554631198109 2218.78229761208 18 21 14
219.176763391722 -353.746892810381 2206.71970201765 19 22 15
220.512331185155 -356.644450850429 2191.61655282315 17 20 13
217.803554767388 -358.491339406991 2180.99770277667 15 18 11
194.536304632971 -354.883821484086 2193.79198983594 22 25 18
114.90163808352 -392.157226288123 1971.60267265831 5 10 4
88.9351603247759 -387.373400912588 1989.85699896672 12 15 8
69.8012162690662 -384.562464487189 1999.46809534622 12 15 8
67.1371282899047 -386.619635278439 1987.64524467539 13 16 9
74.1121164727359 -391.571144617241 1963.03354165184 14 17 10
39.4111348360941 -384.045949000651 1993.49694709944 15 18 11
-7.09561982090312 -372.881540494994 2040.12273403674 16 19 12
42.3703828028796 -390.700367624387 1958.55471399265 15 18 11
79.4997130239725 -404.923110123069 1892.76399669293 16 19 12
70.5893000625384 -405.1846680328 1888.77339659558 15 18 11
61.6875971757698 -405.444793045185 1884.78941235216 11 14 7
62.2217486547134 -408.615670451577 1867.86887832254 11 14 7
83.5710537211116 -421.353048520825 1805.46802514791 17 19 16
325.643030280215 -370.029813003294 2198.5931833547 17 22 16
273.854071769543 -361.729688367772 2227.78899347592 17 20 11
255.616676751715 -359.513677316715 2234.34159960735 17 20 11
242.193409569482 -358.533323365424 2235.73196554014 17 20 11
224.080223002683 -356.305816193057 2242.37467125858 18 21 12
