ply
format ascii 1.0
comment KinectMotionCapture
element vertex 769
property float x
property float y
property float z
property uchar red
property uchar green
property uchar blue
end_header
61.149094605832 1011.58810926949 2688.23293468852 146 104 82
54.9012558888697 1011.11147810024 2683.70132883627 178 135 116
47.2106020646104 1010.0842516363 2680.59137438325 208 169 152
39.5285136402981 1009.0577087069 2677.48733815667 195 167 156
26.121498016519 1005.83300569921 2680.10322237769 145 125 116
195.694188779038 1016.73864149114 2770.97201579183 23 17 5
163.339420394885 1006.87529090563 2789.46187852998 136 112 100
154.087618523332 1005.29808869319 2787.68750206374 134 100 90
144.853087691535 1003.72252460285 2785.9256540402 190 137 129
141.721579365087 1004.35216207858 2778.71830506879 127 75 64
135.538170635622 1003.87967506819 2774.23342688047 124 89 70
130.867040792815 1003.9574960556 2768.37725161379 135 102 85
123.170040043298 1002.93483364422 2765.26271925703 124 95 79
117.737266263276 1002.7373884775 2760.08834887486 116 87 71
115.298942797398 1003.6384189855 2752.14954795516 60 33 16
104.614955018503 1001.51865181993 2751.80456889729 64 37 20
91.720762851669 998.577984097458 2753.55861185197 127 98 82
84.0680250742434 997.559375072597 2750.47589272247 158 122 106
80.1282871054201 997.911276438115 2743.91627067588 176 139 121
74.6973579904599 997.714578147995 2738.74324131386 175 132 116
67.0518366425741 996.696743324229 2735.66605192664 175 132 115
63.0865234961462 997.046752046584 2729.08788030138 193 150 131
60.5719842919656 997.942504387024 2721.09380223151 194 151 132
60.9546952907509 999.928938569733 2710.2653806659 189 147 125
58.3864157760807 1000.82051657714 2702.23232395425 190 148 126
57.9721975662788 1002.52863651541 2692.05981831071 177 135 113
51.7351882916879 1002.05294239558 2687.53606769869 135 92 73
44.7765210723943 1001.30467338025 2683.72282782523 154 115 98
37.1028333889356 1000.28448666699 2680.62491367046 73 45 33
25.1363765937223 997.631953277356 2681.81791462288 62 42 31
202.303214106075 1011.19238936946 2765.85406444693 25 19 5
165.32093774046 999.780617561705 2788.39201908688 116 90 77
155.298894873374 997.941014583594 2787.29328047982 153 116 107
147.587932400664 996.922348726659 2784.16835273827 205 148 141
145.211560411195 997.813890606433 2776.27470818118 180 126 114
141.295527044053 998.158690992954 2769.73223413837 102 65 46
134.340008280785 997.412947302649 2765.92128943914 144 107 88
125.125526418111 995.850836677802 2764.17404348564 159 126 107
119.688647873631 995.650669226781 2758.99668368321 150 119 101
117.246638957459 996.538028915977 2751.05543633358 63 34 18
105.809640158788 994.162503902283 2751.3983246827 58 29 13
92.1665005051553 990.974771657309 2753.84322481955 123 94 78
86.7434121156636 990.776129210963 2748.67557504219 147 114 97
82.7976550833935 991.119716525426 2742.11154753574 166 129 111
76.6214503074729 990.649007991914 2737.63190065542 167 125 109
68.9711477293731 989.636282266177 2734.55127113097 174 132 116
64.26750009879 989.707466114506 2728.67148940756 177 134 117
61.7514037506117 990.589540821244 2720.67650772788 177 134 117
57.7525672410348 990.929246312792 2714.07398211335 183 142 122
53.7400191596014 991.267661782658 2707.46151015356 183 142 120
50.4395073291652 991.875124468034 2700.1315346157 174 133 113
47.8444761533696 992.751152677943 2692.07900629121 104 63 45
44.5053997563667 993.355491203343 2684.72105865156 90 53 35
41.8672828382669 994.228039345997 2676.63757340277 75 49 36
29.8865111710938 991.596321657705 2677.82000815762 102 82 73
168.070936515522 992.945285350408 2786.64552521698 23 1 0
154.980007718612 990.037729439107 2788.25711730779 190 156 146
147.270954145485 989.024844501332 2785.13389712681 175 122 114
145.658793375499 990.173280187195 2776.56021570335 133 81 68
140.984633602384 990.240340804981 2770.70178947214 79 41 18
134.031257471013 989.497817626329 2766.89241432502 144 108 86
124.818287821647 987.946892471812 2765.14661574086 149 114 94
117.879400192646 987.205602767248 2761.34774986611 150 118 97
113.944790312663 987.541788735051 2754.79176567896 105 74 54
105.509279689219 986.262631427999 2752.37560918599 82 53 35
96.3408717882417 984.715604632767 2750.66183963317 98 69 51
90.1634086265442 984.244913643604 2746.181280611 150 119 101
85.4679683633228 984.311216563784 2740.3077183375 153 120 101
79.285199290593 983.8402749681 2735.82331167783 172 135 117
71.6282167977877 982.832792886472 2732.73757182373 174 135 118
65.4488179118991 982.362124313508 2728.25560966733 175 133 119
62.1988304816332 982.962866408212 2720.96222630429 173 131 117
58.2004462154115 983.294423633833 2714.35998725805 169 131 112
53.4603474382513 983.357516564668 2708.45374033848 172 134 113
47.9847659320107 983.152361683845 2703.24829867079 172 134 115
46.1229447604961 984.282782614054 2694.49354184596 174 137 119
44.2341521911143 985.411197791688 2685.71922271968 118 82 66
46.6340894654009 988.138614806886 2672.65148039044 92 68 56
41.8097393182624 988.194822693339 2666.68412298065 103 84 77
166.983118319938 984.754254695917 2788.28582114214 22 4 0
152.364154265355 981.336207731522 2791.25719538535 71 43 31
147.717325536681 981.39975742083 2785.41885870501 175 131 122
143.06156557563 981.462931685225 2779.57375120509 186 140 127
136.119454687951 980.723949844815 2775.77256041111 178 140 117
131.451742634879 980.786464933916 2769.91907972279 96 60 38
126.020388037975 980.581656401585 2764.74540636283 141 106 86
121.336382990735 980.643210039346 2758.88010966538 157 125 104
114.392695134704 979.904757628879 2755.07777837506 133 102 82
108.200881305123 979.43296381939 2750.58681066149 109 80 62
99.0253050158469 977.896588142018 2748.86789854102 102 73 55
92.097557832755 977.159437462212 2745.07742405525 144 115 97
85.1739334570048 976.422849392663 2741.28964665322 155 127 106
78.9932827874322 975.95207941126 2736.80677653846 160 129 109
72.075243292733 975.215943779361 2733.02305002758 166 133 116
66.6305687227933 975.010723721009 2727.84001312746 174 136 123
63.3790056311474 975.60064402665 2720.54543271936 172 136 122
59.3789386998926 975.924178754033 2713.9419332378 170 137 120
55.3650540025901 976.246594088265 2707.32841129279 173 140 121
47.7072382127268 975.24454093128 2704.24209486245 173 140 121
45.1244433670457 976.094506830487 2696.19859938107 132 99 82
43.2409266241294 977.207158834985 2687.42802497041 131 99 86
48.525083124769 980.959239794151 2671.51556936468 126 104 93
47.2828369302065 982.329829259676 2661.9761355348 104 87 80
126.19372201785 956.404935365669 2863.55889226707 7 8 0
148.999887138314 970.740513587491 2804.82135115589 30 16 5
157.404891002569 975.305896264072 2787.46997957514 37 15 2
148.927626748956 974.039248302167 2785.0236183469 179 142 133
141.985801826613 973.303048202014 2781.22294342238 137 97 85
134.289041289142 972.302978054255 2778.10840515771 192 154 131
129.628311956309 972.360801365832 2772.25996262752 214 176 155
124.958561702138 972.418122499061 2766.40468361828 135 100 80
120.279554302732 972.474932675548 2760.54269131882 127 95 74
115.591159728385 972.531052488367 2754.67418503609 141 110 90
110.893651242694 972.586602845796 2748.79877452311 131 100 82
101.710865021687 971.060755433173 2747.074689097 115 86 68
91.8012474432222 969.272857497475 2746.05771187717 147 118 100
84.8796344669753 968.539240333032 2742.27140762979 158 130 109
80.1799540331958 968.594804328265 2736.39471717139 162 131 111
74.7340173832076 968.38696242874 2731.21045760535 168 135 116
70.0179127228675 968.441315366084 2725.32185474035 175 139 125
66.0254169707679 968.757398028363 2718.72380602196 173 140 125
63.4804258099493 969.597093218478 2710.70736873832 173 140 123
60.1843860919447 970.172776022261 2703.38047415884 177 146 126
53.9653469326793 969.699194864148 2698.86976116949 178 145 126
49.193815665741 969.749166757476 2692.94066170664 110 77 60
45.1346383597162 970.059847470234 2686.2942467448 107 75 60
48.2577845057692 972.983970890399 2672.51673368826 88 64 54
47.7362905624776 974.597179614185 2662.2656863551 92 75 67
132.842659052421 951.088394982423 2858.47074282895 21 22 16
164.745449587878 970.029434419511 2781.6486622126 12 4 0
157.775585451847 969.2938201751 2777.82736955415 25 7 0
148.525151528538 967.773007455635 2776.05427036668 118 92 79
138.532410918089 965.991877729566 2774.97706976936 213 172 152
134.618409376601 966.305297982203 2768.43590969375 188 147 127
128.425870063079 965.833505144239 2763.94441606631 201 162 145
123.738486961022 965.884379339665 2758.07632197433 178 141 123
116.790238796129 965.151412387212 2754.27071260372 150 114 98
111.342442987997 964.94056253039 2749.08538453539 145 109 93
102.159139063413 963.42578552763 2747.36097988872 141 108 91
91.5048655520838 961.391051245526 2747.03797204586 155 122 103
83.8433490545034 960.400000229392 2743.94932309854 153 120 101
79.8881368733793 960.710918374037 2737.37827587712 162 130 109
78.8686127521068 962.061195282012 2728.00019514419 165 132 113
73.4068752758152 961.849623842917 2722.8044623311 170 134 118
67.2070844239308 961.377781243811 2718.30771165669 172 137 118
62.468160403049 961.425028102726 2712.40253055656 172 140 119
59.1770512718086 961.990296708475 2705.07915751469 179 147 124
52.9623353067712 961.517245008754 2700.57158118291 179 147 124
46.0229492197644 960.784936239627 2696.77239945552 165 130 110
41.9750984439462 961.088469112597 2690.13415913193 162 127 108
43.6717372187072 963.460858491755 2677.78981905548 137 109 95
42.4491121601771 964.795100165472 2668.26442489712 104 82 69
190.789900929413 964.52280577228 2799.26561754027 20 19 14
176.685669998467 966.260940933333 2771.75827281962 27 23 11
160.516244551481 962.41328194743 2776.07387617683 27 17 5
156.590517736241 962.717507675633 2769.52416962797 49 30 15
150.372698720365 962.243726643666 2765.01434013421 106 63 44
141.88248892725 960.993355655095 2762.55867685418 98 55 38
133.404982950985 959.744133304997 2760.11222866019 116 74 58
125.693084807692 958.754616732316 2756.98706475496 143 104 87
120.241770681868 958.540842766279 2751.79887689484 161 124 108
114.037017539729 958.068657910136 2747.29852721672 152 115 99
105.592766917951 956.822368589886 2744.87620139528 144 108 92
95.6728103236939 955.06129446504 2743.85186507015 154 119 100
89.4839900497129 954.590460092721 2739.36307230866 151 116 96
86.2537521030631 955.14983595435 2732.08350176262 155 120 100
85.2176498498247 956.47989080315 2722.69330075931 158 123 103
76.0615777527325 954.978203614857 2720.98899782505 164 129 109
69.8551777595595 954.506064576859 2716.48745454156 166 131 111
61.4555218966335 953.263078851958 2714.09717866884 166 134 111
58.1693848955909 953.818056112785 2706.77735790257 171 140 112
51.2323932739385 953.088879127376 2702.98022231433 172 138 111
47.9210749599535 953.641746318832 2695.64184191197 162 126 102
43.8692852814584 953.936954425522 2689.0007040272 162 126 104
42.6834372372422 955.255117170501 2679.50188886843 150 118 103
40.0306107649921 956.058963164056 2671.40739235999 92 66 53
27.3377737397915 953.281148673926 2673.30793236067 203 186 176
113.15912044151 932.449699056901 2857.69389778226 14 22 11
141.064082760874 943.307491324494 2823.63206298429 18 16 4
169.474879932607 955.989749479927 2778.83024132842 30 18 2
165.550176504945 956.285992698886 2772.28123622208 76 55 36
160.849879707314 956.32477849352 2766.40401396347 99 70 52
153.861611088003 955.59400612512 2762.56940402738 118 73 52
145.362269652612 954.351319249628 2760.10715994654 117 74 55
136.875587189592 953.10971763589 2757.65409812199 124 83 65
129.154852486049 952.125090763533 2754.52225869593 131 93 74
122.193003759178 951.396767778517 2750.70710798732 155 122 103
113.737801868265 950.157835929832 2748.27688062421 152 119 100
108.281362018791 949.941436201853 2743.08496371763 147 114 95
100.586915975296 948.959009106331 2739.97248712159 145 113 92
93.6429115307629 948.232360324073 2736.16998611721 142 110 89
85.9627647085781 947.251091624947 2733.06788119937 140 108 85
83.4547793292946 948.053158901734 2725.0780796037 147 115 92
77.2466843395616 947.581061781558 2720.57530779335 146 115 95
71.7712829575063 947.363076572537 2715.36993171339 146 115 95
63.366595626821 946.128057735139 2712.9763432532 148 116 95
59.3477946643213 946.417932624489 2706.35909257886 153 119 92
53.1351390537758 945.945227067905 2701.8530115953 156 120 94
49.0953980883817 946.233345839676 2695.22057217091 157 121 97
44.319510241603 946.266833971349 2689.28823103685 164 129 107
40.9743731704904 946.806098450332 2681.92556027232 168 141 124
37.6109889449103 947.343884706305 2674.54965426862 172 149 133
29.9351284447362 946.362067089836 2671.45065381669 175 159 146
103.736852827697 923.305584662312 2856.99265578875 24 20 8
174.604090930151 948.278888204994 2784.97982654623 13 4 0
171.457892648164 948.821951360218 2777.76109551952 47 32 13
166.765025084694 948.855842574674 2771.88923407929 91 66 46
161.301074614391 948.635439363558 2766.69214676197 107 75 54
155.832484465643 948.414888903629 2761.49140081987 126 80 57
145.813036545072 946.673177282966 2760.39503918395 137 92 71
138.081547265008 945.693235344784 2757.25542726597 135 94 74
131.111358649485 944.967044695092 2753.4342415948 135 97 76
126.398308935545 945.000246472949 2747.54745171383 143 106 87
116.433932894968 943.263115776374 2746.49103606229 156 124 103
110.971087198913 943.043628119329 2741.29445977985 148 117 96
103.269734919953 942.066257460342 2738.17700231818 143 112 91
98.5457911128833 942.098815670421 2732.28231181681 140 109 88
90.1121295809948 940.869992965169 2729.86775072446 137 107 83
86.1181358960654 941.15381210561 2723.26845270149 142 111 90
79.9034416681832 940.681240117362 2718.76089455726 143 114 96
78.0889227515096 941.71834961424 2710.03995550564 145 114 94
69.666055720651 940.490222152509 2707.63322309899 145 113 92
65.6301688257481 940.770766963366 2701.00353920894 149 115 90
56.4922562514347 939.292178160038 2699.31251749816 151 115 91
53.1688829933716 939.822620736929 2691.96528462448 163 129 104
47.6596526210216 939.598967555478 2686.73535647811 164 133 112
45.0264176385833 940.377456217545 2678.65493381885 160 137 119
40.2165987178265 940.402758866633 2672.69795386406 176 154 140
33.2496402865332 939.676222101359 2668.87881359221 105 91 80
162.75386409579 936.581929476571 2796.09215526797 42 30 16
175.74119346882 942.396988029604 2774.65813036564 51 33 19
168.744917869033 941.671063437487 2770.81774055347 104 77 60
159.466080829579 940.192339403543 2769.02426452844 123 90 71
150.20419221807 938.715058483469 2767.2433765672 139 92 66
140.201887387832 936.98852610724 2766.15922473216 134 88 64
134.754290700701 936.767117726151 2760.97398752989 145 101 76
130.808622417502 937.046368141315 2754.40969848045 161 117 92
126.849267600648 937.324748769877 2747.83548336504 163 121 97
117.633340258836 935.851419842107 2746.08763924967 153 115 92
111.421531461485 935.379141349727 2741.58217430224 147 112 90
105.209141616772 934.906875529845 2737.07628820536 138 107 86
101.965772227849 935.432816808746 2729.78732352084 131 104 83
94.2629990023764 934.461006699688 2726.66886415 128 103 83
89.5205722331793 934.486750384155 2720.76074043803 132 107 87
84.0327891666499 934.262683896316 2715.54635780788 135 104 86
83.6755475696007 935.780644379737 2705.41389805471 136 103 84
78.1623469662316 935.554459044134 2700.18107897728 135 102 83
74.8317662228999 936.07369369361 2692.82885895038 134 102 81
65.6670406828694 934.604094476097 2691.11815100553 133 101 80
60.8680495223624 934.625136326413 2685.16899874344 141 110 90
53.1690613573597 933.653095155128 2682.05328207334 148 121 104
49.8007543276873 934.168915091784 2674.67369616015 122 103 89
43.5414041587232 933.692307267585 2670.13374552893 98 81 71
37.9972789924072 933.463019259352 2664.87849286021 95 81 72
180.886300959815 934.677676306046 2780.81919648761 48 36 24
171.592470918601 933.208551302303 2779.01490033662 81 63 51
163.844843047284 932.237936357352 2775.86363645248 108 82 67
156.105442661559 931.268177520312 2772.71863566161 116 83 66
149.134567283917 930.54729782022 2768.89668456591 150 104 80
140.651663156912 929.330855720956 2766.44648917568 158 112 86
136.715880339176 929.602781810203 2759.88932921197 163 117 91
130.505670247333 929.130453599352 2755.38502294844 171 125 99
125.797645312851 929.15337865584 2749.50211806073 171 127 100
116.58544367587 927.691344413707 2747.75703199811 157 117 91
110.378057664846 927.219543703974 2743.25477564294 153 117 91
104.914839529331 926.994659290188 2738.05819651256 141 110 89
104.644656190747 928.497686739455 2727.98877151011 130 103 82
100.636862800729 928.764376607414 2721.37938302328 123 100 82
98.8297726798701 929.769587284135 2712.66366769047 128 102 85
92.5798642659839 929.294521016993 2708.13056939729 127 96 76
92.1994123696286 930.788984304598 2697.98145946192 129 96 77
84.4674547342015 929.820186876228 2694.8418589493 129 96 77
80.3906074552847 930.081521584335 2688.18238469978 126 95 75
71.9368412748298 928.867260752253 2685.75332307738 125 94 74
67.1205193437792 928.88164116114 2679.79157362835 112 85 68
60.1263797737954 928.159056033464 2675.95274918481 105 82 68
53.135865525157 927.436595724179 2672.11684792333 107 89 79
44.7123677456824 926.224189531987 2669.70973790488 71 57 48
37.0177679051 925.257511986019 2666.5969351156 61 52 47
191.335468105819 930.186441112886 2772.31461766866 32 19 11
171.27641512982 925.282135698296 2779.98067252188 110 91 84
161.236599973535 923.57975836162 2778.86974547803 157 130 121
155.030832474296 923.107551075055 2774.36866035719 154 126 114
147.303975443045 922.144354206051 2771.23249127231 153 111 87
138.827259854267 920.936658093897 2768.78682638565 162 120 96
134.898621508043 921.200978062332 2762.23480707531 176 132 105
128.695097042262 920.729310949383 2757.73535071338 181 137 110
123.994013284584 920.747421375235 2751.85745324583 181 136 107
117.784990325666 920.275488054467 2747.35400956048 163 122 94
110.828373747316 919.559109129787 2743.54241777 159 122 95
108.345144194998 920.308994264263 2735.57029788879 143 111 88
107.324631990539 921.545498646169 2726.19092459299 130 102 81
106.272722300839 922.779578969245 2716.78877831176 115 92 74
102.974534837343 923.279810574549 2709.45994461054 116 90 73
100.394313786686 924.022316266502 2701.41747614395 118 89 71
97.7912795613425 924.762924451447 2693.35875478594 123 90 71
94.4339627894575 925.258485410972 2685.98703332945 122 91 71
90.3289627091817 925.50947401315 2679.30709810835 119 90 72
87.6647725596107 926.245237015456 2671.20372449691 117 88 72
81.3522268160085 925.765096426055 2666.62519336423 122 99 85
67.0864623687488 922.615305369962 2669.85426278654 104 84 73
52.1480340435243 919.226770033388 2673.82923667367 64 49 42
44.4468246454162 918.26512357274 2670.71196243555 64 53 47
184.096647014266 920.024699768199 2779.36682027511 188 175 169
173.261332612342 918.090474872246 2778.91278664989 157 140 133
160.921876690113 915.672031031933 2779.83657828465 190 167 159
153.193035372908 914.714180203012 2776.6992923043 180 156 146
149.27472900607 914.970973042875 2770.15472473992 192 166 153
141.551644143054 914.01387691164 2767.02132108174 192 164 150
136.104720620632 913.78469662461 2761.83653250469 181 146 126
127.637509009303 912.586134574748 2759.39780351994 173 137 113
123.692888776735 912.841273648549 2752.83415209607 177 137 111
117.486215045467 912.369709872865 2748.33241328781 178 137 109
113.520641605819 912.62333073466 2741.75356474692 170 131 102
110.286430950609 913.117573081484 2734.4710788626 151 116 88
109.262632080489 914.3348724174 2725.08922571538 146 112 85
108.207439026176 915.549688218095 2715.68460167446 122 92 68
107.859524887323 917.003283571092 2705.55857757272 111 80 59
108.211964512925 918.695048076491 2694.70642460564 114 83 63
105.587718663028 919.42049552487 2686.6322496962 116 85 67
100.745391482485 919.422433538502 2680.65158546364 115 86 70
93.7042251510851 918.70202345859 2676.77897581122 110 84 69
93.2144544854752 920.144485313782 2666.55006049251 104 82 69
81.0839449154646 917.742191788638 2667.62540360166 82 65 57
68.9881121258882 915.342398391982 2668.72560283562 71 58 50
47.5550427250226 909.827899920694 2679.09791747597 255 251 248
186.923566917818 911.594022040026 2787.54888942091 217 212 209
178.393632461519 910.398025948561 2785.06470430435 207 196 192
166.807739376444 908.240990219982 2785.300762699 237 222 217
153.721928852628 905.605444329749 2786.91744291959 254 235 229
147.540519688651 905.135270083807 2782.43402597357 255 240 234
144.400887960346 905.625464590706 2775.22008186866 207 192 185
138.968122130477 905.394672660788 2770.04525386478 185 167 157
134.286470666118 905.403364457119 2764.18139557414 197 171 156
128.087417132191 904.932179027141 2759.68518272594 191 162 144
124.895174177656 905.418768619946 2752.43308136076 183 151 128
119.43600149205 905.186255646922 2747.23910174618 181 144 117
113.971681738864 904.953336062399 2742.04168332992 181 142 113
112.228591032072 905.914681733128 2733.37214035328 152 115 86
111.944491968309 907.351351965649 2723.29258590931 142 107 77
111.624798953736 908.785307564269 2713.1869204236 135 100 72
110.530537204582 909.978198807004 2703.75386359982 130 96 71
111.614163099403 911.883267574186 2692.19780696252 118 86 65
108.981945644683 912.594626875254 2684.11778190737 106 77 59
109.987321855082 914.493595520594 2672.50496950559 119 92 75
101.460177266451 913.29865149456 2670.02251767554 108 86 73
89.3069351621585 910.916442360794 2671.08148321686 107 89 79
71.3847455328609 906.637668061067 2677.82969109304 108 95 89
181.986761671074 900.804409078762 2802.44246424722 229 228 226
176.570418946352 900.571362974605 2797.27953028491 255 254 251
165.762290283665 898.671970908186 2796.84567509441 255 253 251
153.44517800018 896.298830649256 2797.78589358131 255 252 250
140.397729602807 893.690877124944 2799.4302286098 255 246 244
133.492795055802 892.986223100268 2795.65645609274 255 252 251
131.156553542489 893.706195234527 2787.79073946264 255 254 255
127.280550212889 893.950164774451 2781.2767733202 252 248 247
126.41634609811 895.141320610265 2772.01048139507 255 252 246
122.504165671979 895.382717864803 2765.47027667417 255 252 243
122.337961110838 896.806534936136 2755.47612136734 205 184 167
116.887607670788 896.572058307051 2750.2888195428 187 160 141
114.422761484466 897.282627673413 2742.32982701379 169 138 117
111.189749109097 897.755280089352 2735.04810043084 167 133 105
110.911517238537 899.170668522849 2724.9723969669 153 118 88
108.374293023642 899.875743282982 2716.96120270612 151 115 83
110.986170214573 902.228937703344 2704.04491015723 137 102 74
113.544500879807 904.578043591594 2691.09007435692 137 106 85
114.580887770202 906.452330653564 2679.49932276476 126 100 83
111.179095615734 906.911847719447 2672.09517758485 121 98 84
99.729040432317 904.784635677596 2672.42985883619 100 83 73
71.5691348884384 897.257706590653 2689.03206061175 173 163 154
174.694617772735 890.800014755965 2809.45680900675 255 255 253
161.58154166873 888.211239619743 2811.05366625246 252 248 247
146.967759257169 885.154774147437 2814.03092273785 248 244 241
136.239431214034 883.277977651267 2813.6550311705 255 254 251
124.771767537864 881.168277914543 2813.97703635294 255 251 251
120.202401448261 881.174465419947 2808.194268965 255 253 252
114.862698510419 880.945248599007 2803.08720669286 255 255 255
111.035543581245 881.184811270011 2796.60862947671 255 255 255
107.194753564988 881.423448578345 2790.1201632078 254 249 246
110.883438808941 884.002532575142 2776.75057934281 255 252 247
112.258102972846 885.875437708296 2765.40533964269 255 249 238
112.838391264016 887.511159959101 2754.71807517074 222 204 190
110.387352958679 888.209176942512 2746.76932316606 190 167 149
108.659362691615 889.138946562723 2738.11056688152 159 131 107
107.647677990784 890.300052450314 2728.73721092325 167 135 110
107.345846152974 891.691901762169 2718.64428010912 149 114 86
110.702953718007 894.245856839754 2705.03420122553 139 105 78
115.475635501288 897.260984784414 2689.98256497568 135 107 85
119.447201038151 900.038383801287 2675.58401494746 112 89 73
114.568214930666 900.021161459086 2669.57667882544 114 95 80
94.346019497511 895.124390428127 2678.35983749919 87 74 65
57.4632838024582 884.894378692296 2703.44630487869 255 249 242
192.954287701741 887.145035653765 2804.14809840613 255 255 255
162.75380494373 879.451671202651 2820.50523581236 249 249 249
146.586157797991 875.958855309781 2824.82392564832 255 255 255
131.244999197805 872.703124953829 2828.50762444786 254 255 255
122.097393291776 871.311085981964 2826.80971974899 250 252 251
112.201208204886 869.688093769146 2825.80331530897 251 253 252
106.906105339092 869.459562604493 2820.72858805386 253 252 250
97.8009090396399 868.071078771356 2819.06144499135 253 249 248
91.7481097805957 867.611084386751 2814.67131167309 252 251 249
85.6947809207615 867.151047098577 2810.2807942186 254 254 254
88.6948685640081 869.468359615299 2797.6457419625 250 250 250
94.6508946511582 872.706765565207 2782.21773709324 255 255 253
102.786159712946 876.633093394193 2764.66788363631 255 254 251
104.854362379666 878.705667886526 2752.59108505617 255 253 247
105.38188312889 880.312810003547 2741.86571797996 193 179 166
105.869425383365 881.916942033524 2731.11105991601 137 118 103
106.316708074714 883.517991821346 2720.32720122341 150 123 102
112.63667059337 886.958172564129 2703.92900704005 148 121 100
117.407465273387 889.93227250441 2688.87550049683 133 111 90
123.581032381628 893.361191024453 2672.37112411084 118 99 84
112.098474798286 891.2697611989 2672.68242492282 105 89 74
77.2753774809285 881.833038589657 2695.56058191837 255 254 244
215.177773368477 884.565856691871 2795.54281394259 218 219 221
173.988581276355 873.722347057463 2821.20973605234 255 255 255
153.131213010541 868.880224959192 2829.53272119205 255 255 255
139.306769301567 866.115010303356 2831.84833028485 251 253 252
123.985852379004 862.893659359759 2835.54687684698 251 255 254
111.788163677788 860.595135269957 2836.5740459829 251 255 255
101.156404476693 858.758602818607 2836.26836317535 251 255 255
92.8409975002271 857.61229689113 2833.93965082062 255 255 250
82.2542576672691 855.779351766855 2833.66662168432 255 254 250
74.7295670241064 854.864804648491 2830.67754822621 254 253 251
67.2131562087794 853.950858186329 2827.69418555741 254 255 255
67.25138595485 855.324861337783 2817.84797672541 252 255 255
70.2638264417787 857.610434961881 2805.22171854556 251 255 255
77.7244417166902 861.262439905585 2788.41644419008 249 253 254
79.1208516467283 863.082500841226 2777.08670079363 255 254 250
85.6937985350723 866.495620062422 2760.87176330687 244 235 228
94.4224042190056 870.586615387977 2742.51753809655 166 152 141
103.804087605192 874.898736236124 2723.40253178811 146 125 108
114.571270697724 879.658839693747 2702.82409964667 137 116 97
121.551082200387 883.274044947169 2685.67009397814 137 116 97
125.511649187182 885.974260106825 2671.2631799148 103 86 70
164.997884450766 862.037770082252 2839.33550281267 247 249 248
157.345518953382 861.117887998924 2836.25355362835 252 254 253
141.955541561935 857.923632612451 2839.90246850411 251 253 252
128.934913115585 855.415483555678 2841.5670458938 254 255 255
113.642684346713 852.228907922496 2845.28685973159 254 255 255
103.010793085686 850.408604732175 2844.98086891837 251 255 254
91.6387814333177 848.363529988185 2845.3725416325 251 255 254
82.5876789271835 847.000826999794 2843.74503737726 254 253 251
70.5080472120847 844.733483745199 2844.85765200194 254 253 251
63.0181193210317 843.826950509363 2841.8938193966 255 255 255
54.7794484856961 842.694936838531 2839.62110157832 255 255 255
52.5920219866074 843.372119826227 2831.86304739244 254 255 255
48.123961513971 843.36991579415 2826.15397058043 254 255 255
51.1509213932655 845.623926040229 2813.53807794324 250 251 253
50.3833853294111 846.746381238979 2804.34151476895 255 255 255
51.0764346720114 848.317096317843 2793.73566391549 255 255 253
61.3992399944996 852.812091968813 2774.06878665094 247 246 242
76.0743804230666 858.649743513849 2750.15329655281 254 249 245
96.5414355078282 866.276777997504 2720.56437610722 149 144 140
110.951705017084 872.094156562078 2696.45647826339 109 104 100
117.15245590351 875.432375638691 2679.97134856778 92 89 84
66.8486429112152 861.490063067241 2717.54191876963 229 228 224
180.133079954768 857.439033295115 2836.69774917389 244 246 245
161.544841381365 853.370299163886 2842.96389337414 251 253 252
146.133851553595 850.206961658828 2846.59773249155 253 255 254
132.324458464766 847.497333142899 2848.92453365485 254 255 255
119.331030187538 845.015822823584 2850.60896395807 252 254 253
104.836012129944 842.088455860457 2853.67267469058 251 253 252
94.2294667998658 840.286466649318 2853.38544492455 251 253 252
83.6486826274046 838.486504635427 2853.1169002396 251 253 252
74.6212883178745 837.136585291351 2851.50635283669 255 255 255
62.5646273771379 834.892789930572 2852.63573874065 251 251 251
56.6174409666864 834.440813670195 2848.3222070436 250 250 250
46.8836754702884 832.871485562262 2847.4338158502 254 254 254
42.4562700443647 832.866889021547 2841.75390415364 254 254 254
35.0081756956957 831.969061968737 2838.82044167447 249 249 249
32.8225610367632 832.632770145828 2831.06363267761 255 255 255
28.3689590451268 832.62624098096 2825.3650152194 244 244 244
27.6369614160874 833.732277936959 2816.1941314533 255 255 255
29.105545284573 835.503221456543 2804.9164596957 244 244 244
36.4639961608479 839.04925844837 2788.03629296176 255 255 255
49.6593103241891 844.366105378325 2765.51548050326 251 251 251
72.3260120151803 852.559871344398 2733.81859706738 95 95 95
184.484633731716 850.979739732029 2833.6437936782 247 248 250
159.648655981871 845.174132283884 2845.25319727498 251 252 254
140.357117636177 840.932599408223 2852.24396030765 252 253 255
125.014046761251 837.807264731264 2855.92722781526 254 255 255
109.723120792355 834.686094629415 2859.64831737247 252 253 255
95.2550025086598 831.790778755564 2862.73169067024 252 253 255
86.9810196405396 830.671975502553 2860.43344131918 254 255 255
77.1873787992678 829.111418413801 2859.50168963742 254 255 255
68.9432383526736 827.995082115183 2857.22479171317 254 254 254
58.4262704850338 826.216420763785 2857.00261672155 255 255 255
52.4922825508813 825.765394239551 2852.69865769225 255 255 255
41.2563622976738 823.769102507829 2853.18923306154 253 253 253
36.0915873774998 823.539837779158 2848.2089795999 255 255 255
30.1689584865081 823.089791207915 2843.91325994705 255 255 255
25.7470609774266 823.080154797269 2838.23761000603 246 246 246
21.3159499649027 823.070000606977 2832.55498390007 247 247 247
18.3679490716626 823.498829058491 2825.47964624593 255 255 255
18.3784429211316 824.805215200802 2815.61269410006 245 245 245
16.869140962962 825.669716853613 2807.11213904255 247 247 247
19.7711964747711 827.848617540399 2794.40561459608 249 249 249
19.669770411701 829.146474615966 2784.45748611571 176 176 176
4.82505992089122 826.059660629723 2788.5022208162 221 223 222
213.793234183148 850.24206376033 2819.06777460776 254 255 255
178.676549783451 841.634132391827 2839.26693431747 242 243 245
154.633916238582 836.114793409341 2850.21786343625 251 252 254
133.800558158561 831.481389748271 2858.55931127208 251 252 254
119.250380923344 828.609487681619 2861.58361135724 250 251 253
105.521041517259 825.960591790971 2863.96875276631 254 255 255
92.6058378090122 823.534338360395 2865.70987513899 252 253 255
80.4978623555148 821.329889807644 2866.8025558339 251 252 254
69.1907891822154 819.346892172921 2867.24161827016 251 252 254
60.9701873712361 818.240478795912 2864.98212874379 254 254 254
53.5241456354751 817.353501812181 2862.04991472824 255 255 255
46.8457881721402 816.685424921776 2858.44057804493 231 231 231
37.1414322258774 815.145532905295 2857.57336108464 211 211 211
32.7453139985692 815.132368985344 2851.91638122761 227 227 227
26.0805805164899 814.465325687167 2848.31663161738 249 249 249
22.4231921896947 814.6688747482 2841.96093941826 243 243 243
17.2545697379256 814.436609854877 2836.97788160243 237 237 237
15.0670037813931 815.072737543927 2829.21951836768 245 245 245
14.3452686201755 816.141130857285 2820.05588341105 232 232 232
12.1078184989911 816.773406962497 2812.26163304876 229 229 229
8.36799512803132 816.970457097056 2805.84614900852 226 226 226
1.66344199465529 816.300247706859 2802.2175172464 231 231 231
-10.186126348569 814.115587521012 2803.49732852518 215 217 216
251.099250372679 851.531329753459 2797.94827001676 248 249 251
201.698802950335 839.098862378039 2830.00587923961 252 253 255
165.829614429649 830.37687717007 2850.89428605382 248 249 251
144.939219519493 825.790759906691 2859.19433171216 251 252 254
126.463806062616 821.861596975106 2865.54326667985 250 251 253
113.484523109359 819.454597989843 2867.23832864489 250 251 253
98.9982202095527 816.61767226211 2870.30881528396 254 255 255
88.4137280261368 814.866220554992 2870.037828297 250 251 253
74.0118386408071 812.035964390269 2873.16983635387 253 254 255
62.7235035460645 810.073483282114 2873.62258634341 254 255 255
52.9938473449039 808.545043765063 2872.73708669759 255 255 255
48.6196633593581 808.527921357054 2867.09598738998 232 232 232
43.4764811585286 808.294660114822 2862.13107223126 211 211 211
36.0551376615228 807.415011521803 2859.21709409284 233 233 233
30.1529356778674 806.966380782601 2854.93618951252 254 254 254
25.7566767312643 806.947818161073 2849.27878582256 249 249 249
21.3507964841813 806.928426721468 2843.61469772544 255 255 255
15.4378580481609 806.478926209888 2839.32600565611 247 247 247
11.0176674739404 806.458484603445 2833.65124390113 251 251 251
8.82123285550573 807.080222856672 2825.8866731758 233 233 233
7.34452136729713 807.914326371207 2817.40958967291 233 233 233
3.62047042019542 808.104290113871 2811.00550350536 221 221 221
-1.59311374427018 807.865564502701 2805.98952478264 216 216 216
-10.4905335467902 806.557968611269 2804.47370752731 216 218 217
287.01081602682 852.191531800447 2778.28507987614 237 241 242
235.827932157243 839.463235182645 2811.51913770427 247 248 250
188.030970204096 827.612611415089 2842.27202165799 247 248 250
154.541484394203 819.640172467255 2861.18362351056 247 248 250
138.359531820373 816.393776045331 2865.49319119961 244 245 247
121.456582514206 812.937828274692 2870.51406818086 244 245 247
109.266660887395 810.770354153104 2871.54753162869 252 253 255
95.5649895303927 808.178006811005 2873.95301662655 254 255 255
84.9906729334071 806.443629757602 2873.68949262584 253 254 255
69.8294930432954 803.430581570752 2877.50489106628 252 253 255
58.5532552455263 801.488019267981 2877.96651153725 236 237 239
50.3647451385825 800.400276763182 2875.73038054365 218 218 218
45.9997269271906 800.378340710285 2870.09590131928 237 237 237
39.3454361043473 799.71746058352 2866.50375303327 254 254 254
31.9369906884184 798.844174078463 2863.59915721432 236 236 236
26.0479871810619 798.396493075404 2859.32782530173 234 234 234
22.4185809330368 798.585580728628 2852.9923446588 250 250 250
18.7753503168713 798.773667941489 2846.64683736894 244 244 244
12.1222116856128 798.112940898906 2843.0555251066 250 250 250
6.96637582560911 797.875976455858 2838.08171275988 244 244 244
4.7839907114624 798.484981952116 2830.32696784909 243 243 243
3.32124555446534 799.303678216804 2821.86022527402 231 231 231
1.09142389272776 799.90907979894 2814.071074343 231 231 231
-1.16116730190341 800.512577051164 2806.26540764586 211 211 211
-5.64416185900862 800.481442061446 2800.54535825631 203 205 204
253.558364607682 835.191801210994 2807.05898020172 248 252 253
215.044673986728 826.018496835935 2829.73344935104 245 246 248
171.22057449415 815.375881514611 2857.19639831139 248 249 251
147.158989254696 810.04290153229 2868.1345328874 246 247 249
132.55676422203 807.256577967826 2871.12153588541 241 242 244
118.002487629825 804.474128403398 2874.14302287674 245 246 248
102.72023689824 801.484201328717 2877.87106607043 249 250 252
88.2636126375571 798.709423716932 2880.96338218083 249 250 252
76.9392354812672 796.782019866302 2881.39018218402 251 252 254
64.8761399284528 794.646317486204 2882.51545101261 229 230 232
55.1476441620036 793.14498654015 2881.63122437795 211 212 214
47.7342381379411 792.276555626249 2878.72305710282 255 255 255
42.6161677836094 792.039593317381 2873.7763273109 250 250 252
35.9725788650152 791.38204001901 2870.19224839173 221 221 223
29.3329267737512 790.724914776811 2866.61073105388 226 226 228
24.9643013651704 790.69729919897 2860.97331365035 253 253 255
22.0933688120257 791.088160622279 2853.95365217018 253 253 255
17.7014858131956 791.058720664066 2848.2993656023 249 249 251
11.8017010089946 790.610106511912 2844.02021337096 241 241 243
5.15410940962457 789.952348439389 2840.43323178586 240 240 242
0.744794429227369 789.921556040078 2834.76630155213 239 239 241
-0.703755977440323 790.724902586477 2826.30947682814 235 235 237
-2.17950410273371 791.526056172727 2817.83321926673 224 224 224
-1.46758976138095 792.950314096645 2807.24030221909 218 218 218
-3.73989016611231 793.538593093183 2799.42027081146 210 212 211
-12.6392698764419 792.252276098639 2797.90284608193 221 223 222
262.652494371885 828.542002609466 2809.91242204062 241 245 246
242.179928954692 824.291620771504 2817.28231962928 249 253 254
197.399690633405 813.557288408265 2845.287009689 245 246 250
166.16980863787 806.395771869032 2862.13534968619 242 243 247
142.120122324688 801.126367350762 2873.08243207004 239 240 244
125.191450938894 797.744459783745 2878.08533207208 240 241 245
108.323778732236 794.367423728329 2883.13218187901 246 247 251
94.6196844703784 791.829187231927 2885.53618454353 245 246 250
83.2795283513348 789.919443898758 2885.95163549388 241 242 246
72.740732069041 788.220385278628 2885.71403982216 229 230 234
61.4586427557611 786.31528626049 2886.17160816358 235 236 240
54.0411842864721 785.451903996699 2883.26052875683 243 244 248
46.6319990429263 784.589241341897 2880.35515595592 221 221 223
41.5184280409688 784.349726442182 2875.41196938821 236 236 238
33.3585365580746 783.280492939013 2873.19667839768 254 254 255
27.4856301617348 782.83381726239 2868.93702071658 249 249 251
22.3680486742213 782.594146341688 2863.990631595 247 247 249
18.7526602039805 782.767771168996 2857.66552889309 249 249 251
15.1235905994911 782.940337057292 2851.33020860424 241 241 243
9.23257488316942 782.492313811421 2847.05741626491 236 236 238
4.08812489093391 782.250525986005 2842.09153886832 235 235 237
-0.316734772106475 782.214488956836 2836.42810630116 231 231 233
-2.50260853964779 782.795729678273 2828.67069175702 227 227 229
-1.74916639137446 784.198568492755 2818.10806508787 221 221 221
0.440912696443974 786.009659925795 2806.11829286312 214 214 214
0.373200594565581 787.200329946629 2796.19435590617 203 205 204
-7.80390718046564 786.129343268904 2793.96657557788 199 201 200
268.645526565733 822.224869092322 2805.57905609049 250 254 255
234.741855986302 814.506314412306 2824.19198701537 246 250 251
194.696755277848 805.14647527035 2848.22543273338 245 246 250
165.039910218279 798.485414088347 2863.74656242237 240 241 245
141.773453873353 793.484969376771 2874.02775063041 237 238 242
122.504280114261 789.522758303613 2881.03614104919 242 243 247
103.309257067763 785.566434777497 2888.09831472357 246 247 251
90.3948278286197 783.262251316556 2889.84091131091 244 245 249
79.0667673560259 781.372456526968 2890.26523169681 227 228 232
69.3118306786804 779.896067034067 2889.36166933791 221 222 226
60.3473400199501 778.626680512285 2887.79742452555 244 245 249
53.7011500718467 777.974073983154 2884.21119064392 223 224 228
46.2940285154376 777.116925581484 2881.30734178464 245 245 247
38.8947608340722 776.260393917752 2878.4094839679 255 255 255
32.2642613759729 775.609148109019 2874.83463134965 248 248 250
27.9122005380996 775.571593223444 2869.2094660894 243 243 245
22.7948704908192 775.32913471289 2864.26324512252 249 249 251
17.6722040948998 775.086194513146 2859.31344775979 245 245 247
12.544527263199 774.84290815604 2854.36001647189 238 238 240
7.41174865623373 774.599178626334 2849.40288455346 234 234 236
2.27400490580232 774.355066378165 2844.44185688101 233 233 235
-0.633600090421682 774.720911456796 2837.39548405151 228 228 230
-2.81673614698064 775.288643244238 2829.64028018409 223 223 225
-1.31892029985181 776.870117489512 2818.38283961242 219 219 219
1.61130510421259 778.854195047032 2805.69545482744 211 211 211
2.2791387551826 780.225712783524 2795.07031560717 201 203 202
-4.43469730789525 779.567656036576 2791.43501600673 192 194 193
305.543819956894 822.688025483248 2785.39513123994 213 217 218
269.892514793354 814.643482313897 2805.20958662087 247 251 252
228.089717044707 804.978716106183 2830.43766346305 240 244 245
187.270707619413 795.533129894451 2855.14468853958 241 242 246
162.339908510042 790.177717458345 2866.68763443574 236 237 241
137.513845726651 784.830431369805 2878.30654709134 237 238 242
118.255070957436 780.915344674043 2885.32300913109 238 239 243
99.070548591274 777.005964173562 2892.39303274841 235 236 240
88.4959690992213 775.336447606026 2892.12964670061 225 226 230
77.9474783281664 773.669064029371 2891.88488925041 231 232 236
68.9676111539885 772.409215596997 2890.30954598615 229 230 234
59.2355180975219 770.948208666288 2889.42262137125 230 231 235
53.3608052785071 770.500968442577 2885.16165131626 249 250 254
44.425418416373 769.244742925067 2883.61827665321 246 246 248
37.7952646227988 768.596074589538 2880.04398214698 250 250 252
30.4085070050899 767.745833349746 2877.15493052758 254 254 255
27.5803401331873 768.106822221294 2870.16611949205 246 246 248
22.4651519580155 767.861590265793 2865.22173164295 237 237 239
17.3450899788605 767.616072607069 2860.27351474516 240 240 242
11.4679566793452 767.168875272704 2856.01079024944 234 234 236
5.59010449798203 766.721559957077 2851.74754402333 231 231 233
0.458932008078783 766.475033093821 2846.7915622444 228 228 230
-0.950958666417367 767.231864399246 2838.36252717642 224 224 226
-0.901832572953953 768.387759321769 2828.523112578 220 220 222
1.3339580901679 770.142133391508 2816.56648484211 214 214 214
3.52086828774567 771.892686599569 2804.57410878314 207 207 207
4.92200913024154 773.439295014942 2793.24640983517 198 200 199
1.13847839909331 773.582978024017 2786.79897108176 190 192 191
309.180360775363 815.605521196945 2783.05472753554 229 233 234
271.931450355643 807.257549369218 2804.17987558113 242 246 247
217.488012766164 794.492375102617 2839.99083711232 241 245 246
177.480089798208 785.369773399723 2864.05243542222 238 239 243
152.57409015617 780.081640115141 2875.61369976367 234 235 239
133.252036112034 776.207807806521 2882.58420379116 236 237 241
116.345558578154 772.941868619856 2887.6037799928 230 231 235
101.8351878513 770.282403806745 2890.65771822493 222 223 227
88.9247007883141 768.027440018773 2892.40342188725 222 223 227
78.3753586276434 766.376267659704 2892.15812935957 226 227 231
67.8514965562123 764.727050342772 2891.93161227204 215 216 220
58.1228555793527 763.279745913898 2891.04755402621 246 247 251
52.2526268963768 762.832749467584 2886.78983585191 254 255 255
43.3210719332648 761.587648007179 2885.24929535978 250 249 254
35.1692883023529 760.543118216057 2883.04000705336 255 254 255
28.5516968284698 759.898056066106 2879.47454302978 240 239 244
25.7308345288285 760.248554211752 2872.49097409698 240 239 244
22.8916271331441 760.597596071937 2865.49409903617 242 241 246
18.5259197588108 760.547902572437 2859.85868514892 230 229 234
12.6465318721753 760.100373231834 2855.59432457321 231 230 235
5.2667582405892 759.255965586919 2852.71065981973 227 226 231
0.885645948363489 759.204994245362 2847.06407210621 224 223 228
0.222141574913071 760.143502086309 2837.94199199481 215 214 219
1.0136217151131 761.475210225502 2827.40628510987 213 212 217
3.24674795981927 763.199167949055 2815.44757181542 212 212 212
3.2141690378813 764.3266971054 2805.54878382946 201 201 201
6.0924125585311 766.240934969656 2792.82336251603 193 195 194
3.04143472980822 766.573299013554 2785.67288607249 191 193 192
-1.49225898787786 766.510116234437 2779.91562697407 192 194 193
307.260882132981 807.107553352227 2785.32561698613 241 242 244
269.220979555602 798.667073562129 2807.11192599415 241 242 244
206.092567174156 783.882893822467 2850.2030236436 236 237 239
170.047148401893 775.871921915186 2870.96727881004 235 236 240
146.729543336814 771.047162470582 2881.21227809979 232 233 237
128.988266204968 767.617018250723 2886.86060067868 234 235 239
112.87370461825 764.588052306625 2891.22012286071 224 225 229
99.929609924668 762.354801146185 2892.94157361313 213 214 218
86.2481111525693 759.927039264374 2895.36251580609 218 219 223
75.7065002623141 758.292634412909 2895.12320724908 207 208 212
62.8748772670518 756.068334996439 2896.92594200119 237 238 242
53.1609466181733 754.635694498511 2896.05262186175 245 246 250
46.5385496853372 753.992692549216 2892.48368469375 241 242 246
38.3892091447398 752.956426090706 2890.27620929104 248 247 252
32.5419059848984 752.511137507901 2886.03511896838 243 242 247
25.9329831973338 751.869346602271 2882.47595563002 246 245 250
24.6390040148787 752.602091981195 2874.13111975336 244 243 248
22.5615376804567 753.136642781302 2866.45205557735 233 232 237
18.9526518548506 753.277536603814 2860.1312065153 236 235 240
11.568875574087 752.438151771137 2857.24466559755 229 228 233
4.94324298784976 751.795066929277 2853.67338241548 224 223 228
0.564655688194637 751.738684221649 2848.02859771332 220 219 224
0.649919822305556 752.853415792875 2838.2151718513 212 211 216
-0.787469300098875 753.575040831362 2829.76602424492 210 209 214
0.712866674761337 755.074511745382 2818.50999520458 216 216 218
-0.0486183619656799 755.985993910938 2809.31674992899 202 202 202
5.05263472636974 758.45216788007 2794.50052147013 193 195 194
6.41447490600955 759.940856810365 2783.1437447823 193 195 194
4.06919794862359 760.454260016017 2775.27072633064 184 186 185
298.988132949638 797.054924975057 2792.86418683863 242 243 245
251.46427872792 786.371445944937 2822.58533865022 242 242 244
195.481580371234 773.54995023248 2859.75053965801 232 233 235
164.973298209202 767.014956114205 2875.89011960458 224 225 227
145.594078928181 763.229155441236 2882.81962922948 227 228 230
129.4210386236 760.23085027932 2887.13691424384 232 233 235
113.304476322414 757.237060721724 2891.49516424059 208 209 211
99.5804539352756 754.833067260678 2893.88540054925 187 188 190
85.1232153209453 752.23753106879 2896.97817919472 199 199 201
73.0364190267787 750.230070924099 2898.08721089933 207 207 209
62.5283409053021 748.614513430976 2897.87230642761 245 245 247
53.5858771207467 747.389946392123 2896.32396190891 246 246 248
46.1956493710574 746.555266502343 2893.43276801511 244 244 246
38.8136964976344 745.721276483356 2890.54728177303 241 241 243
32.2031873992859 745.081926052914 2886.98698084561 238 238 240
26.3573850033758 744.636609689187 2882.74697831803 236 236 238
23.5465629748286 744.965666637605 2875.77057918812 236 236 238
19.2039729143492 744.906475059922 2870.15216990241 231 231 233
14.8520348169874 744.846575572438 2864.52668596254 228 228 230
8.23353026022655 744.206637164512 2860.96058597847 227 227 229
3.11896352283725 743.952822571107 2856.01660515012 217 217 219
0.242990694067302 744.27678080957 2848.99295098877 215 215 217
1.07755500328865 745.56242175224 2838.48824339798 209 209 211
-2.58951157737886 745.690268022522 2832.12515177652 209 209 211
-1.08110767907865 747.16288050142 2820.8748353028 215 215 217
-0.356524257157709 748.439910484753 2810.2903566035 194 194 196
6.96011167211585 751.441112160823 2793.37741210084 188 189 191
9.05355995428891 753.093771621224 2781.31708213071 192 193 195
10.3653576098126 754.550964624271 2769.92416349313 188 189 191
308.185051094367 790.257522021027 2795.79139452304 227 228 230
286.741127140266 786.093610007228 2803.69231371735 243 244 246
