ply
format ascii 1.0
comment KinectMotionCapture
element vertex 798
property float x
property float y
property float z
property uchar red
property uchar green
property uchar blue
end_header
299.183947303054 98.0525572232387 2267.35490126581 18 21 14
278.262514536518 97.0260968663503 2257.10787162929 17 20 13
276.491633009174 98.2496511197484 2267.18733612839 16 19 12
285.079014557652 100.666112142654 2288.0602479881 25 28 21
282.693075479155 101.800427738672 2297.34675384458 28 31 24
285.176909428416 103.486826485629 2311.63528419743 28 31 24
279.369344204873 104.219360400048 2317.29401412336 27 30 23
263.806597622996 103.849385542098 2312.96465184523 22 25 16
249.586520868251 103.643204823499 2310.11160851362 20 23 14
244.428675668167 104.460076920462 2316.52960102279 20 23 14
249.814624521211 106.446413357257 2333.55993282835 23 26 17
230.601769212559 105.703237840177 2325.82511909628 26 29 20
216.260819298054 105.511891397576 2323.09024994162 23 26 17
191.953768525355 104.244602119329 2310.57247048839 20 23 14
202.358101545534 106.763960878767 2332.45973307214 18 21 12
192.19221294291 107.045438225421 2334.01087691479 17 20 11
187.003615274639 107.865435307098 2340.4589452081 16 19 10
191.131470618453 109.676489852235 2355.93067041796 19 22 13
203.933227543428 112.392934697517 2379.65885433955 17 20 13
165.700758348989 109.715375453539 2354.25469227304 22 25 18
138.847563394317 108.268493851594 2340.04074950329 22 25 18
84.3644188308939 103.97438153142 2299.83830426222 10 13 6
97.8719226064362 106.768036851825 2324.27150661355 13 16 9
59.7944081477153 104.236921752391 2300.10839929893 17 20 13
87.9747406661715 108.512453062513 2338.0927964285 22 24 19
330.995597302054 85.0755131268201 2230.59857957374 19 24 17
309.650806193059 83.8739495423189 2219.38058405053 26 31 25
288.215890019566 82.6836739431928 2208.25041568934 19 22 15
285.653622572901 83.8543784212198 2217.70663996115 18 21 14
289.902710402274 85.8592952216384 2234.44623608176 17 20 13
279.224756596346 86.021397531583 2235.10660250157 17 20 13
301.308031781877 90.1794430219329 2270.66036261436 16 19 12
295.464025385683 90.9170058202868 2276.35453589658 16 19 12
285.153432862712 92.5567946407893 2289.18490309635 23 26 19
288.985555384907 94.4443435724053 2304.9386516909 27 30 23
283.864968694308 95.2596071345211 2311.31988369012 25 28 21
277.358653000749 95.9108954409609 2316.26758190987 24 27 20
261.093439092024 95.4222248841683 2311.23607608441 21 24 15
248.263286035036 95.3468972987759 2309.81763441557 19 22 13
251.50961884382 97.1385252290741 2324.75034861949 19 22 13
247.780432351563 98.1164979741254 2332.56000778433 24 27 18
235.608102527625 98.1272750143007 2331.89285885432 25 28 19
221.280877506849 97.9016900608722 2329.14908327225 22 25 16
217.534248984312 98.8815741779536 2336.97578013106 21 24 15
182.539922910301 96.3516934442895 2314.00190452895 17 20 11
181.580557664508 97.6571613452286 2324.68066172243 16 19 10
185.649255936103 99.5137674411926 2340.20439828018 16 19 10
196.93560407362 102.153274108904 2362.61495832319 17 20 11
198.978590350223 103.757144162795 2375.936207477 13 16 9
162.173784834932 101.11640719122 2351.942730592 21 24 17
81.8719582288745 93.8013554161259 2286.81266012184 21 24 17
96.0263393036946 96.756079291022 2311.9966072081 8 11 4
65.2747018297588 94.8755496606465 2294.63308404818 13 16 9
52.590861025696 94.949533882272 2294.46419324714 17 20 13
35.4925843432157 94.564175733263 2290.24499938419 28 30 25
373.076622738099 80.9312290642986 2265.94253124714 33 39 29
350.540370661108 79.4734886965157 2253.11171825943 15 20 14
306.359860297 75.2401033316266 2216.83939840122 9 15 11
274.111392462617 72.5985504819051 2193.98950654333 14 16 11
286.406981739568 75.6937153371706 2219.58193277157 17 20 13
283.186589949383 76.7887112538367 2228.28596461995 20 23 16
294.285085940983 79.6905296190205 2252.26120438421 18 21 14
295.234911784317 81.2916377528318 2265.251476901 13 16 9
277.042803884184 80.4897616160933 2257.92896898851 12 15 8
283.511426231986 82.770962523747 2276.67442780433 16 19 12
290.739218809245 85.1283958724383 2296.07199939792 22 25 18
286.986839306008 86.1179387692281 2303.90297950215 23 26 19
274.239116433066 86.005370305568 2302.40818762756 20 23 16
266.315766586521 86.4885346921793 2305.95371387333 18 21 14
256.987237479654 86.8047912461389 2308.0854541663 20 23 14
242.049437421599 86.4520531627603 2304.54987248157 20 23 14
238.971893849982 87.5280899193843 2313.1148560928 21 24 15
242.233459517291 89.3529060708909 2328.02753863842 22 25 16
233.56836389637 89.7571713407238 2330.90438134045 21 24 15
223.474606095484 89.9974248143792 2332.3899911011 20 23 14
223.984509878992 91.4808839015973 2344.41759188653 21 24 15
195.402492792724 89.5796710642882 2327.73647921317 18 21 12
173.819302690064 88.5160575222666 2318.15173777653 16 19 10
168.579742699912 89.3480296551669 2324.64864250149 14 17 8
175.521063614659 91.568395385424 2342.93403390722 13 16 7
174.632262179463 92.8837417969551 2353.5412601541 13 16 9
137.762064962492 90.1348882515554 2329.62869777793 17 20 13
81.9487431342232 85.3019335103455 2287.99262242155 16 19 12
59.174148643844 84.2159453002659 2278.17736080256 8 11 4
52.2829232582049 84.9116002870888 2283.50072266057 11 14 7
56.3078465850158 86.8110578443665 2299.06125711634 15 18 11
318.390407027926 67.0923145402332 2218.85032466377 20 27 20
314.515131677318 68.1060814831896 2226.79976185773 18 24 20
262.708932556854 62.7576656738488 2182.67764865482 15 17 12
285.128436063662 67.2701803138843 2219.26238584841 18 21 14
310.428213428585 72.1183422575026 2258.6053351106 19 22 15
301.171161660211 72.4125541422678 2260.66901770031 17 20 13
285.063985628128 71.8231895542314 2255.49579830295 13 16 9
277.117966897719 72.3014204576488 2259.06456425216 13 16 9
300.073187760744 76.7459755742941 2295.12737057955 20 23 16
301.835935041394 78.4460410920222 2308.71268355149 22 25 18
289.824254402687 78.388312803224 2307.89579482141 22 25 18
276.39176567747 78.1602402393691 2305.68114769867 19 22 15
269.169014735731 78.7216235612301 2309.93631746846 18 21 14
260.545032367954 79.1101762311631 2312.77465641775 20 23 14
242.123975818928 78.2878131728009 2305.68252585617 22 25 16
241.148172067137 79.6338342534483 2316.37161298686 22 25 16
244.415217177368 81.4931824512771 2331.27375054329 20 23 14
240.687733756926 82.487120068831 2339.07935893147 18 21 12
246.862773586455 84.6785472041913 2356.7127087345 18 21 12
208.472654331937 81.4813237364392 2330.12465449376 22 25 16
183.400448626876 79.9245898014612 2316.99255567557 21 24 15
173.182080425938 80.1641037789845 2318.60201470276 18 21 12
169.36914683653 81.1684488784699 2326.49093815062 14 17 8
157.689234906948 81.242623257285 2326.74201234899 13 16 7
150.287687349268 81.8256860187564 2331.1718634318 13 16 9
141.438004603112 82.2417429165432 2334.22992323843 13 16 9
105.855173321501 79.563605478314 2311.86269212535 12 15 8
82.4215048295742 78.3238615613058 2301.30771644142 9 12 5
138.029738105454 86.1631212509045 2365.37535549709 10 13 6
118.261788442514 85.3346482204906 2358.20436559985 17 20 13
89.6609468332983 83.5230507432579 2342.94561016269 26 28 23
318.336379719541 57.3231697767888 2207.59465252388 13 21 10
290.941896667021 55.1002004830264 2189.78185646377 14 21 14
263.422261852825 52.8930028905967 2172.09134474452 15 21 17
309.375920279724 60.7620167321783 2234.40543362767 19 21 16
319.739902912043 63.7143305840579 2257.68568348719 19 22 15
305.749041668772 63.3498224238776 2254.62876433297 16 19 12
284.219127031352 61.9840388779015 2243.61887084869 14 17 10
290.603212140615 64.373361461232 2262.43229605563 13 16 9
296.372425129505 66.6627191686803 2280.45416381485 14 17 10
298.773255680862 68.4895749052373 2294.80435828712 18 21 14
292.954101639878 69.2235955730957 2300.47437633857 17 20 13
282.298949715304 69.3252734544953 2301.12103085728 18 21 14
285.472141006826 71.2319747642994 2316.10936787383 21 24 17
268.548406238255 70.5270160388281 2310.34684097608 21 24 17
243.898490548072 68.8444071999936 2296.81400618634 22 25 16
233.116051725467 68.9618957420896 2297.58472166769 24 27 18
233.515740782717 70.5082763361623 2309.71212969234 23 26 17
245.894164058483 73.560636265248 2333.81137992493 20 23 14
256.260617405974 76.3343153763219 2355.69866914672 18 21 12
240.577920327696 75.8273815808842 2351.50866195585 18 21 12
219.173203007839 74.6223580701766 2341.76759473919 20 23 14
178.50277445841 71.0557290071324 2313.24745352797 24 27 18
179.668145713641 72.6827010095113 2326.02020143791 20 23 14
155.872945015624 71.2465779500698 2314.43601017083 14 17 8
132.696616755585 69.909810286213 2303.63983189986 13 16 7
166.162647287285 75.4483624942067 2347.52439121192 13 16 9
129.271020518322 72.469519495045 2323.66710103849 11 14 7
100.154753383591 70.4620290455054 2307.53255218759 10 13 6
116.527818049688 73.8972002577544 2334.69336955804 10 13 6
127.21440844232 76.6298502371189 2356.26882204926 10 13 6
116.152939187328 76.7815309565364 2357.31156528592 20 23 16
89.7366214491893 75.1430222020072 2344.10902870911 19 21 16
303.017209219669 46.9088770919401 2191.75476399841 17 25 14
298.402508111228 47.8517265066348 2199.03203416261 13 20 13
331.057272875128 55.625009763923 2258.97925396455 20 23 16
311.688758975809 54.4648139021084 2250.04373762118 19 22 15
273.227043529787 50.6679758085055 2220.78124575939 16 19 12
264.543929652531 51.0426804562033 2223.68034990336 14 17 10
305.704120509888 58.2830842943229 2279.51138100179 14 17 10
292.665046221164 59.5674396447347 2289.43539088611 18 21 14
289.58384365466 60.6767592175881 2297.99942658965 18 21 14
283.754731215602 61.411898934345 2303.67916808266 19 22 15
273.768871909479 61.5902546194113 2305.0667815091 22 25 18
258.896463455395 61.1236928870607 2301.48308808057 21 24 17
246.063234834133 60.9404014923073 2300.08365749639 21 24 15
232.492154840281 60.6699160124005 2298.01256432064 21 24 15
237.793818105835 62.8836252795733 2315.09298735551 20 23 14
250.885753691481 66.0965736117835 2339.8768837386 18 21 12
260.560836075946 68.8396045084548 2361.038335022 15 18 9
235.000091252866 67.0182932048802 2347.01355787176 15 18 9
214.997094487856 65.9372879106464 2338.69638806209 17 20 11
204.150371567946 66.0435370052574 2339.5322619458 21 24 15
176.181558008966 63.9852532808292 2323.68269127326 20 23 14
135.94946038988 60.4107007157521 2296.14536137634 20 23 14
125.610711637958 60.6329409964693 2297.87725095705 18 21 12
172.700770680852 68.0254506455831 2354.88223854583 13 16 9
146.629394383714 66.2681255699902 2341.35506886129 10 13 6
79.2914731897913 59.4457392560868 2288.78488986404 10 13 6
123.659549030954 67.9011205162954 2354.00373016337 6 9 2
335.07727186773 41.7321751640052 2215.94727963321 18 26 15
319.826084421597 41.0957993630059 2211.34790847063 16 24 13
292.43703517772 38.6984708006844 2193.55548678196 24 26 21
300.603089540218 41.5091613391302 2214.78817797349 22 24 19
314.92752320417 45.189030535414 2242.5305784825 19 22 15
312.440526587857 46.4172253022737 2251.90356066749 19 22 15
287.563535069961 44.4344515370647 2237.22367045878 16 19 12
284.369623669486 45.5688652646017 2245.8955809535 15 18 11
260.018850342981 43.7025084788701 2232.09285124079 15 18 11
271.178654034555 46.8668576944204 2255.96840960764 16 19 12
296.173706006234 51.9437609949149 2294.16323849962 19 22 15
291.724235577082 52.8706031398972 2301.27846018221 20 23 16
285.210213470203 53.509206150528 2306.23568586548 21 24 17
269.686511267108 52.9067189424406 2301.90191716584 20 23 16
254.802675322521 52.4063528963663 2298.33456766712 18 21 14
241.26134788857 52.1023888354068 2296.23921572121 20 23 14
229.772650830679 52.0880820106076 2296.31348820857 19 22 13
212.64832540612 51.3215369437412 2290.75925323185 17 20 11
239.71953096335 56.5020505525056 2329.71127384131 17 20 11
243.022614669983 58.4624484103206 2344.56268944315 14 17 8
227.303260680245 57.8843038714275 2340.41927018204 12 15 6
199.487288431301 55.7229352555821 2324.43316173116 13 16 7
194.280377620036 56.5619955177411 2330.89659771644 18 21 12
121.027127825746 50.0724033061159 2282.73433132329 19 22 13
117.092937098398 51.1165731974546 2290.73777881479 22 25 16
129.687633170084 54.2821893749085 2314.60552773988 20 23 14
67.0941883450396 49.3737605225679 2278.29646047088 11 14 7
15.321067852069 44.3813877194987 2241.17376113163 10 13 6
9.76259359719212 45.2644565722443 2247.980138205 6 9 2
335.819499839257 33.6648220840713 2217.8194968651 21 29 18
330.609967027687 34.5076292589358 2224.28532058537 15 20 13
293.184262510554 30.5055509562673 2195.44129828712 21 24 17
290.580807691353 31.7619382239341 2204.92609619183 25 26 20
319.728233508699 37.7361797356295 2248.78397118399 18 21 14
322.671602836028 39.7775701194137 2263.98061782206 18 21 14
312.763521722935 39.9137080433739 2265.29723611971 16 19 12
291.254747271121 38.3580242031437 2254.29441729918 15 18 11
263.509305780937 35.9186381561468 2236.86211445741 15 18 11
252.761362255252 35.9750426357807 2237.60760379674 17 20 13
281.136760084948 41.6752938066551 2279.43845316858 20 23 16
293.864594167187 45.080623326458 2304.55547387146 20 23 16
286.665717233013 45.6172594281828 2308.79093186914 20 23 16
265.604419273103 44.1905304231521 2298.74161212662 18 21 14
246.541112952586 43.0685266786318 2290.91428468517 16 19 12
242.032698923672 44.0080698013271 2298.0864988767 17 20 11
226.354811677043 43.3869630614869 2293.90859016322 16 19 10
216.926847859009 43.6477861355982 2296.14692579642 16 19 10
199.752112218908 42.8442189771826 2290.6482207579 18 21 12
217.032204084024 46.7886911858963 2319.66722872397 17 20 11
199.82824028265 45.9887478900231 2314.19701207637 15 18 9
181.853563098495 45.1004054136063 2308.08828125366 14 17 8
169.92163133704 46.6043220013735 2319.71458766426 16 19 10
134.673809469307 43.4403970045374 2297.08648643987 22 25 16
140.086600476719 45.7265175120848 2314.0458556346 22 25 16
116.837765866742 44.2040630898308 2303.34878382076 19 22 13
97.8159654872211 43.2620014318935 2296.87089216423 12 15 8
25.2953634292497 35.3339754147196 2239.69156403636 8 11 4
20.4682381405852 36.3132622607247 2247.17438911529 7 10 3
95.9984452853599 49.2415552485362 2341.71917057707 23 26 19
349.240470693494 27.581260705188 2233.73163552976 29 39 28
293.206030212351 20.5266379022572 2184.14170208539 25 31 21
253.632380846608 17.7976884902841 2165.74458447053 19 18 13
326.5538487415 30.6306450552695 2257.22633598248 16 17 11
315.297834491913 30.5438249421155 2257.08026843386 15 18 11
299.257308805818 29.7424331327722 2251.87220178838 14 17 10
268.176268818256 26.6955035417522 2230.75676996161 14 17 10
270.414147737354 28.6726084615337 2245.24657104991 15 18 11
250.782436977168 27.3826102807687 2236.5915978062 17 20 13
259.232513160389 30.2707707859087 2257.5308011039 20 23 16
273.963714054109 34.0614077661713 2284.85290431052 19 22 15
267.398764814371 34.7008437932678 2289.86024042811 19 22 15
248.361401751588 33.5240841750438 2282.01524384243 18 21 14
248.005272992333 35.075092425177 2293.47593469064 15 18 11
254.646120037974 37.6264792069848 2312.01043848135 15 18 9
238.305214913419 36.8627799349886 2307.09508211812 14 17 8
227.509650590793 36.9059832844538 2307.88981073405 16 19 10
222.306322909898 37.7501772896292 2314.34892985293 17 20 11
195.270294934979 35.5109065621941 2299.01674842404 17 20 11
167.410654654115 33.1871616492813 2283.09766427818 16 19 10
198.928753288436 39.1911621098696 2326.01427491816 16 19 10
205.08411300101 41.6153858879268 2343.63276012613 17 20 11
163.587230329267 37.4340134575006 2314.60724955911 16 19 10
149.033730980395 37.0095499130367 2312.11756189869 21 24 15
150.188369566731 38.746375875292 2324.88439329822 19 22 13
137.020692432644 38.5236912999503 2323.82289732622 9 12 5
69.0917594792544 30.8973134875106 2270.54152201753 7 10 3
22.7191233848303 27.8949923613935 2250.43417136141 5 8 1
17.9059144541545 28.8780577637746 2257.90261882215 13 16 9
291.274300795896 11.8913919499339 2183.08515773756 17 25 14
245.010273429535 6.26610599024191 2144.83645756752 18 19 11
270.537980729519 12.0232509710101 2185.23596889856 20 21 13
280.721524645578 15.3226069051112 2208.64410440251 14 17 10
263.239651422029 14.2802320575061 2202.06877787913 15 18 11
270.135038814832 17.0393142942829 2221.73706920449 14 17 10
271.656658303942 18.9481230281663 2235.53097348177 13 16 9
262.977516096669 19.2785002462497 2238.43268527347 15 18 11
263.185671394972 20.9709828618518 2250.72903317916 16 19 12
253.126565834113 21.0933722282215 2252.19765301679 18 21 14
241.666262186942 21.0104585501408 2252.25387049053 17 20 13
241.226183640666 22.5936920248476 2263.79316184414 17 20 13
248.436336958689 25.3129954866858 2283.15442739623 20 23 16
252.942323967895 27.6094058932553 2299.5958362059 21 24 17
252.6306610396 29.1763834160366 2311.00967373312 15 18 9
246.762056666108 29.9162262236437 2316.72793618606 17 20 11
240.192995124009 30.5534182123501 2321.74002539056 17 20 11
228.000473712554 30.371815719959 2321.12102277433 15 18 9
200.980801090818 28.0492393003898 2305.78491278287 13 16 7
192.208796213886 28.3912385658227 2308.77712084478 15 18 9
199.003688421411 30.9719338900263 2327.15466156476 15 18 9
195.215082802524 32.0223590320708 2335.0122785261 15 18 9
185.740983470307 32.2619005244796 2337.29991065737 15 18 9
127.685291566828 25.6405474461621 2292.48689131432 17 20 11
113.74284894162 25.2975588525092 2290.7952826498 13 16 7
94.0134533991532 24.1564757719145 2283.63254941189 7 10 1
86.4499975863211 24.727961495147 2288.2245510247 5 8 1
40.6151285848324 20.0032228963217 2256.50181202015 6 9 2
14.8353951424873 18.0971407440431 2244.12393221822 9 12 5
255.212673790898 -2.33467598392645 2144.47864659945 12 20 9
284.015295338346 4.10505113216808 2188.61011875971 13 19 7
281.384124924134 5.40505860426593 2198.11599161281 7 13 1
275.396716309624 6.15980785765263 2203.95002526715 18 21 14
276.179179806701 7.99780533631889 2217.07147892613 17 20 13
288.074180079366 13.2765618547627 2254.07457444696 13 16 9
276.027698702064 13.052178537829 2253.31721274713 14 17 10
269.424255765376 13.6909088041289 2258.36287798596 15 18 11
249.767943482265 12.2954773772765 2249.74791740592 15 18 11
217.636150871357 8.98675105096619 2228.29802043453 10 13 6
247.517645078284 15.2904736408237 2271.37791966285 9 12 5
261.671486514513 19.1225655245796 2297.84997516937 13 16 9
259.268255436908 20.3938859943566 2307.13374081807 17 20 13
256.884312826316 21.6627330617143 2316.3983804597 16 19 12
236.358960885815 20.1832276068366 2307.24190589312 18 21 14
229.060059314459 20.7160094915991 2311.57692164374 18 21 14
209.81261451795 19.4627692368252 2303.95218097191 15 18 11
211.621595108128 21.365074590649 2317.46169262458 15 18 11
199.34733658071 21.1694111784829 2316.92593437061 18 21 14
179.955341816492 19.9343602517632 2309.44170773682 19 22 15
173.273262557694 20.5831060115244 2314.56431756239 19 22 15
160.889928148453 20.4012060164903 2314.13483904447 20 23 16
29.1431088731189 9.70274768763196 2246.74386462545 12 13 5
24.3255732116046 10.6974829201608 2254.21488379808 14 15 7
282.726607619721 -6.21199346290835 2175.82764337922 19 27 16
296.171762206983 -2.2122525038672 2202.97865694297 18 26 13
305.017991627528 0.992589299987579 2224.89457817985 20 26 14
293.023637201129 0.737090851729794 2224.09005245002 12 15 8
278.962649554667 0.1529523447662 2221.13489327817 13 16 9
299.480984845687 5.22485566001724 2255.27377541741 14 17 10
296.319731706202 6.40871902398021 2263.90594714152 14 17 10
270.639679789249 3.95097402440586 2248.67646116179 15 18 11
272.923301810299 6.01950674621698 2263.10732568443 16 19 12
245.03608637416 3.25089935958728 2245.86446523702 18 21 14
208.759276137022 -0.816560630926888 2220.14064095701 14 17 10
266.982759579913 13.4448102130859 2316.0872105493 10 13 6
248.600302481316 12.2273825130797 2309.01514054434 12 15 8
225.95643200023 10.3688654495677 2297.76700031911 15 18 11
202.51857901442 8.41413820512288 2285.90494480529 19 22 15
201.459192341105 9.92233826395261 2296.65306103049 17 20 13
194.792556567993 10.5664317016945 2301.76102285764 16 19 12
194.478531296141 12.177062483005 2313.17075429439 18 21 14
192.071249741283 13.4625031703264 2322.4564551649 13 16 9
164.826572958735 11.0058087051419 2307.36326237787 13 16 9
167.375223657963 13.0411496412597 2321.53585523667 13 16 9
55.9333720083628 4.90012419083091 2273.28026181424 4 5 0
77.9709109691664 9.78087353535478 2305.93880472482 15 16 10
292.170845849231 -12.9645766920481 2187.28548587414 21 29 18
305.642644632615 -8.88983430077356 2214.39895617833 11 19 6
307.784993678982 -6.7713002863587 2228.96237884203 14 20 8
264.747800170161 -12.2958500821872 2194.58005630364 13 16 9
264.14454096124 -10.6274745493389 2206.2684666665 13 16 9
271.719380408594 -7.60099737516146 2226.63944052029 15 18 11
269.83980529854 -6.16980882175971 2236.79648893693 15 18 11
275.494484809384 -3.49846886796767 2254.87563332378 15 18 11
255.878436291428 -5.00751683015838 2246.23748270404 15 18 11
254.725881631855 -3.46882675056492 2257.07360970511 17 20 13
235.694761155306 -4.85244189136513 2249.25332513692 16 19 12
239.380242052539 -2.53000729857017 2265.08841512202 13 16 9
235.802120316006 0.309858016272424 2285.22573738605 8 11 4
234.048168107449 1.72542909719814 2295.26034866007 11 14 7
198.391808392992 -0.548523417287894 2282.82543492057 17 20 13
205.74889792904 2.30667074014784 2302.02104389257 16 19 12
196.27664510213 2.50537724920014 2304.31253996748 14 17 10
186.785076595703 2.70659422189917 2306.62318359425 14 17 10
170.899885176081 1.92201471502651 2302.67495435066 12 15 8
176.975632114847 4.54070534288342 2320.34409194644 12 15 8
187.390477328286 7.80688743154223 2342.11053560497 12 15 8
114.760472491005 3.42600185545588 2318.52376876534 12 13 5
56.7338355678828 -3.59276074271214 2275.15754366849 2 3 0
32.446650501043 -5.50783215540679 2264.13268850996 17 18 12
261.512552922593 -19.4309134808767 2204.51523901338 18 21 14
276.546955086332 -15.0710759452868 2232.86870275898 17 20 13
282.851205052747 -12.233900758808 2251.69555086577 16 19 12
237.465321967245 -16.4009553402902 2227.9466683455 14 17 10
241.753659978118 -13.9149139833338 2244.57617845631 15 18 11
244.034245135484 -11.7811675817349 2259.0000822341 17 20 13
246.36170466886 -9.65323475417096 2273.37863614928 15 18 11
248.735739099748 -7.53118435065914 2287.71147208044 10 13 6
239.349877537277 -7.35704236830909 2289.92114882097 10 13 6
210.042703824677 -8.70747848067621 2283.79776374595 12 15 8
266.404426218975 2.14699997005036 2352.3395040652 13 16 9
245.154929300613 0.386383532972656 2342.52675492915 13 16 9
237.200827073116 0.783784758484563 2346.11549450156 10 13 6
204.516629336498 -2.76401300639972 2325.24914079827 9 12 5
235.421445699509 3.83344311252637 2367.2697901528 13 16 9
224.630908668087 3.78136311861416 2368.07360943078 15 18 11
163.966376987084 -4.10892635845994 2320.37077968526 14 17 10
162.981388500635 -2.57194701416269 2331.04076384527 19 22 15
145.555836260688 -3.6036266366411 2325.82483832071 21 24 17
97.5596146989046 -7.64198787117221 2303.23213035709 6 7 1
62.5873443068721 -11.3046045048449 2281.82068032578 17 18 12
286.33121619505 -28.8514214552938 2195.43239316424 17 20 11
284.378473970085 -27.3789557817361 2205.65599686727 14 17 8
291.898341320574 -24.2375839510957 2226.06457744583 19 22 15
304.911292104317 -20.1526446886121 2252.21493634386 18 21 14
256.255752994256 -26.9030984501235 2212.25661404493 15 18 11
306.754843719365 -16.2960425463398 2278.15480947338 15 18 11
312.51417990724 -13.5460209551812 2296.11839912118 15 18 11
260.822064692155 -20.731599026678 2253.57144001151 15 18 11
256.249550134328 -19.7465169095518 2260.80057633234 17 20 13
262.014143816445 -16.9970106870143 2278.7590213819 18 21 14
248.508521357551 -17.5442167497423 2276.66416492958 16 19 12
246.733023189205 -16.093586899685 2286.71498998941 10 13 6
243.591805908036 -14.87976584312 2295.32283807614 11 14 7
200.768564889089 -20.3200528848915 2263.54942218969 10 13 6
219.197545077849 -15.4857922711798 2294.12987536446 10 13 6
209.74918166463 -15.317204773212 2296.4024383171 13 16 9
270.512043621688 -3.54942250769352 2368.94092767506 14 17 10
218.259922915784 -10.459405679427 2328.32657665005 15 18 11
193.998597229458 -12.7178763340141 2315.90988768466 15 18 11
171.052023271427 -14.7330556819216 2304.98549110404 16 19 12
169.3155490872 -13.2868957878263 2314.9982254283 19 22 15
168.314647932728 -11.7289279650837 2325.68090901494 17 20 13
173.053533009341 -9.25844758719391 2341.86531913507 25 28 21
69.7384477300509 -24.0460434670173 2253.93080757653 23 26 19
98.3570038709281 -15.9962807278095 2305.09198127513 20 21 15
302.433411188205 -36.0833287846072 2201.76687722256 20 23 14
256.209599985112 -42.6896850488701 2163.62324357046 11 14 5
248.78501439969 -42.1690038399598 2168.0851917216 26 27 21
283.324750720602 -32.2273541094494 2230.09118907981 15 18 11
331.005058924119 -21.8692347991015 2293.15695698639 17 20 13
298.932376324234 -24.0435137673194 2282.81664230189 14 17 10
287.600686426784 -24.2732244935242 2282.7668409605 13 16 9
284.47753418723 -23.0511217170046 2291.35552615927 18 21 14
275.172431212869 -22.9145037456156 2293.49055446041 21 24 17
265.847488498713 -22.775375307427 2295.64457502857 15 18 11
249.916839338847 -22.0108010387712 2302.84914765127 10 13 6
162.704325792331 -33.3955051880658 2238.09776204275 9 12 5
167.104372507372 -30.8420827587622 2254.6060470239 10 13 6
175.776899195643 -27.5838764791648 2275.26999891979 16 19 12
174.672033916225 -25.9940281264201 2286.05120849097 19 22 15
169.357388994457 -25.116693071719 2292.61596904295 21 24 17
144.218824562643 -27.542090048831 2279.67815343966 19 22 15
120.394989654937 -29.7187788446915 2268.23185165851 23 26 19
139.908628741652 -24.7188023676492 2299.1279769409 21 24 17
86.021011906789 -31.8082076438943 2258.74730693999 21 24 17
139.26478709131 -21.3213876373704 2321.93742309746 25 28 21
75.8143377099918 -29.8988581443464 2272.85155007275 11 14 7
279.771525201474 -46.7456573834431 2190.42091684316 24 27 18
267.031511375363 -47.239826727673 2188.9748702146 13 14 8
269.100433852076 -44.9825978490313 2203.59104534904 17 20 13
336.872527854407 -30.6460786931697 2288.62768729601 17 20 13
287.633000305151 -37.8743505978236 2247.9026483033 17 20 13
291.924935814432 -35.2673643767382 2264.51071044691 16 19 12
293.544158654369 -33.1630848180577 2278.17880265144 16 19 12
307.530491880817 -28.8392115673692 2304.74451121523 16 19 12
303.777330016417 -27.7368363874996 2312.5595916535 17 20 13
288.329734545059 -28.7287694397345 2308.20780776987 20 23 16
276.970424590381 -28.9765476393881 2308.18810391829 16 19 12
275.967232220704 -27.3809784476074 2318.86750524958 13 16 9
259.018988529309 -28.6033763219244 2313.20579335472 11 14 7
177.243018073483 -41.1757890236703 2241.81447357791 10 13 6
179.542007938972 -38.9466645204006 2256.20634220868 8 11 4
197.294450994888 -34.0473950931902 2286.03208916546 6 9 2
163.21262120588 -38.1476468225123 2263.80143857023 9 12 5
134.608200023754 -41.2589945438427 2247.32143090262 12 15 8
151.779576424605 -36.4961523733736 2276.32744020887 15 18 11
136.094341856142 -35.5677888551248 2284.68101385258 23 26 19
97.2641991798731 -40.3285847931782 2258.76100470264 22 25 18
149.64346762894 -29.7178660852786 2321.3743673365 21 24 17
69.8964227170742 -41.2857258467508 2256.32195360594 20 23 16
56.5102283621646 -41.6967421997299 2255.50528381898 17 20 13
33.7273512547074 -43.6520587620706 2245.826733312 24 25 19
279.846805382957 -55.0929195579275 2191.57988421408 14 17 10
295.370805131878 -50.2471347315807 2220.79259468236 10 12 7
307.644841997552 -46.0546899417924 2246.24390743649 16 19 12
281.443645018021 -49.1314783469617 2230.20651123511 16 19 12
282.277021878615 -47.1112375299546 2243.25047168566 15 18 11
281.787611863777 -45.3494268533067 2254.81201844235 15 18 11
283.3774842241 -43.2117178363644 2268.50465308967 16 19 12
287.748531792292 -40.5740771301956 2285.0292872278 17 20 13
294.924536903555 -37.439407328653 2304.36340933238 16 19 12
288.403292274732 -36.8304562414692 2309.33218962805 18 21 14
271.520171927946 -38.1046050553941 2303.61345805557 18 21 14
278.118347970235 -35.1094959867324 2322.1247528232 16 19 12
270.898458991236 -34.6248511289514 2326.38876037515 12 15 8
237.208169772347 -38.8830850511344 2303.79231606288 11 14 7
219.423319121216 -40.255853115348 2297.56668257704 10 13 6
226.782168983977 -37.1436404261987 2316.72255629185 7 10 3
159.07610663799 -47.3195775842599 2260.76253445579 9 12 5
138.911119497956 -49.0299352312379 2252.69924148607 10 13 6
186.457449999164 -38.8638845679439 2311.67537309861 11 14 7
154.286279831522 -42.6751861948875 2291.75576835083 9 12 5
141.851880202852 -43.0209356059417 2291.40121522281 22 25 18
147.894587773591 -40.1675209431113 2309.06846928959 23 26 19
100.759346662475 -44.6430191644776 2287.10231298429 20 23 16
54.4360339021015 -50.7096960958836 2254.64603443462 18 21 14
17.2517776016705 -55.1642136343437 2231.29743376425 13 14 8
261.805857486151 -66.9701018840724 2172.99100021627 29 34 27
269.201335675363 -63.5971455216872 2193.48887297814 28 33 27
294.896085353404 -56.7169538695047 2233.55618510886 14 17 10
290.993782478743 -55.5801945831409 2241.51428281911 15 18 11
279.636412609169 -55.8721732316411 2241.49952308337 17 20 13
279.819740411685 -53.9583146469493 2253.78746794585 16 19 12
277.990067375129 -52.4365423175708 2263.88157462329 14 17 10
236.47475027427 -58.4012084941851 2232.30378327635 13 16 9
277.833220697507 -48.7575973512693 2287.58272684462 14 17 10
291.230926055526 -44.4177514576261 2313.31368151591 15 18 11
277.808611689015 -45.0948790738364 2311.1553012452 21 24 17
247.03202044624 -48.967581102108 2291.27684327958 21 24 17
215.420214315871 -52.9502783925254 2270.82677613609 19 22 15
231.015886617516 -48.2411317363031 2298.57160044416 14 17 10
250.922265319935 -42.7833191218445 2330.42697081894 12 15 8
158.705374197638 -53.9836012258212 2273.45190510114 12 15 8
141.341984240917 -55.2398536279957 2268.20744326917 10 13 6
120.375923563102 -57.1184874819898 2259.5475899967 10 13 6
142.639103507836 -51.3111986722857 2293.26203526406 16 19 12
167.90648415546 -45.0212199990525 2329.58989858504 20 23 16
188.348386324313 -39.6301888874277 2360.92335651812 25 28 21
230.347077419172 -81.6625769441401 2139.80176970371 13 18 11
280.042970704573 -69.8315724956435 2206.31665300284 7 12 6
282.148138329498 -67.4819440485472 2220.88284171145 15 18 11
298.512726738852 -62.3508764500342 2250.63557986232 16 19 12
282.425858965673 -63.5947237068425 2245.53892631628 19 22 15
286.020446979584 -60.9964125611618 2261.42349984413 18 21 14
261.680589280455 -63.8161860820392 2247.75084532916 15 18 11
254.350220710632 -63.3291067707438 2252.12386309483 14 17 10
249.758215830386 -62.3149210503222 2259.36805209409 15 18 11
275.468435564046 -55.5267302646699 2298.01669060106 15 18 11
282.024981140214 -52.4290891927866 2316.55417085165 21 24 17
215.947706656001 -63.0694298683171 2260.46262438772 22 25 18
220.356451383136 -60.3549618021322 2276.93846963949 21 24 17
230.394396391645 -56.6056295627678 2299.00777139186 15 18 11
237.030813580623 -53.5175914929812 2317.46769511172 13 16 9
243.737334848765 -50.4383117784419 2335.85896108373 11 14 7
214.000694220148 -54.1030479470607 2317.75123599916 12 15 8
179.90642679137 -58.5266057215516 2295.58072065636 11 14 7
182.372698841477 -56.2206999714578 2309.79512737018 10 13 6
162.936479398567 -57.9129703960496 2302.4223933382 11 14 7
159.046106132341 -56.7679188300839 2310.36741917561 13 16 9
154.455500034671 -55.7525769830295 2317.60971044609 17 20 13
169.148318923894 -51.2808344164819 2343.45201328266 24 27 20
147.445923540589 -53.3411336525039 2334.13295416218 18 21 14
240.487640928598 -88.1669667519501 2151.94871518252 22 27 20
255.894358442581 -83.0469817120086 2181.23736197203 14 19 13
253.880232231544 -81.47018667388 2191.50650104613 17 20 13
270.162112727019 -76.2394947074929 2221.32664494007 16 19 12
280.463939475335 -72.2415601126912 2244.51407422208 14 17 10
272.48087014966 -71.8986725004056 2248.13963563942 14 17 10
270.629579994609 -70.341896928364 2258.25003497111 15 18 11
259.217176504733 -70.6702520219237 2258.29496301458 15 18 11
261.083908620581 -66.4922047676862 2284.16397027496 17 20 13
274.503674893865 -62.0035164078576 2309.85101927978 18 21 14
263.106405528009 -62.3332617166927 2309.88146222957 20 23 16
223.90371453023 -67.9877748879338 2281.6293336095 23 26 19
254.143708975106 -60.3211014566355 2324.15213110479 22 25 18
227.706801798855 -61.6244420378945 2320.83954334277 15 18 11
186.319705325197 -65.6783775333112 2303.02246640251 14 17 10
178.918295280451 -65.1865659574958 2307.46532997633 13 16 9
192.0417003735 -60.880233964748 2332.05637504584 14 17 10
202.942953885093 -55.1892561882782 2365.73462171563 18 21 14
149.949650493866 -63.0775746691087 2326.00087358526 20 23 16
259.334042640978 -90.7731891752938 2186.04851923462 22 25 18
276.465947915325 -81.3179917423954 2241.32349998306 18 19 13
271.874683531948 -80.2936166842526 2248.56544767831 17 18 12
268.656105097703 -78.9952742386984 2257.23762430927 17 18 12
245.600628895864 -81.6764267578874 2245.10289049277 19 20 14
269.816907502097 -74.8979508323561 2282.40265184044 16 19 12
276.992959339582 -71.5577380387888 2301.70601053875 15 18 11
269.05413433786 -71.2279744320433 2305.28991425264 13 18 11
255.564234955908 -71.9860687816566 2303.21027590719 16 21 14
244.114429454708 -72.3307736663587 2303.29509903479 18 23 16
247.255047788522 -69.8220405449185 2318.22680144102 21 24 17
235.085283719331 -70.2992313737747 2317.62888827456 22 25 18
216.578822886683 -71.9885714762272 2310.74970425761 17 20 13
186.767707122288 -75.8281023333255 2292.74143082044 15 18 11
175.130288157545 -76.1485142739048 2293.00896640424 15 18 11
212.178302366078 -67.1875620253364 2341.33286533269 13 16 9
173.709426677454 -72.6167670082823 2315.15290328844 12 15 8
215.28500072443 -62.8855096039693 2367.36948703437 15 18 11
178.101388920348 -68.0295640949097 2342.70491247033 19 22 15
133.607751610399 -74.4864950405147 2311.32357500111 18 21 14
209.779877850541 -111.691582498613 2120.73634739391 27 30 23
235.187688641785 -104.267016922766 2161.00813585278 21 24 17
231.747445314598 -98.8630789413595 2194.80001854293 18 19 13
266.503898384065 -89.6761639598333 2243.94916504701 15 16 10
261.904633750142 -88.6453552109541 2251.19810621264 14 15 9
264.158300190414 -86.21663115386 2265.60548094777 14 15 9
254.788188893452 -86.1673158836978 2267.81762893338 14 17 10
263.297861861711 -82.4915107306927 2288.58123820755 13 16 9
275.341444160591 -78.1301741311637 2312.81952429981 11 16 9
243.176329395312 -82.6703066616593 2291.5847180195 13 18 11
240.7173992189 -81.2300066453949 2300.89848075153 16 21 14
241.063057751489 -79.2384202570676 2313.01407850592 24 27 20
242.840119899284 -76.9748289018801 2326.5018877305 24 27 20
184.035424171089 -84.7149669297316 2291.10012777495 16 19 12
183.306737361324 -81.0038448041031 2313.94746061304 15 18 11
131.588960261379 -87.1484048599565 2286.85947598918 15 18 11
128.346136082066 -85.8341653910213 2295.5533794303 17 20 13
132.971282865257 -83.023775917468 2311.80049494127 20 23 16
207.679064851106 -118.67581844813 2132.35688437156 26 29 22
212.946451034925 -115.451162806657 2150.73883694039 19 20 14
287.472972757675 -95.5542718703794 2255.16971587999 17 18 12
249.563291632128 -101.533858374207 2227.0989021989 15 16 10
279.72571481754 -93.2073946277301 2271.01812169883 13 14 8
290.928456006614 -88.8991098684876 2294.68196932215 13 14 8
247.998117740932 -95.8474992513159 2261.82089013456 15 18 11
234.458637964376 -96.6592685700032 2259.79875683287 14 17 10
234.250794763808 -92.7437393519296 2283.51558230627 14 19 12
216.49253433097 -94.3964859862319 2277.30492505098 16 21 14
220.25078090298 -91.6664090412916 2293.00750828373 23 26 19
228.252759516757 -88.0978958688667 2312.87421394716 24 27 20
199.22579748409 -91.9916354354219 2295.51252344576 21 24 17
173.874991971362 -93.1441974490784 2293.93329214732 18 21 14
144.128433424895 -95.1152037607998 2288.33828055407 15 18 11
138.055712725869 -94.3489626836226 2294.25533188294 15 18 11
127.711987121113 -94.4174174408439 2296.03479030974 15 18 11
109.493222474522 -96.0105548990934 2290.27261033603 21 24 17
219.19311648816 -124.793984268118 2145.91667073446 11 13 8
224.493385072071 -121.527574115345 2164.25979929538 18 19 13
252.93647212497 -111.222442797734 2219.51293969648 16 17 11
308.168370318364 -97.3446031101391 2290.14700783835 17 18 12
305.053287546972 -96.0271109581077 2298.7135814279 16 17 11
288.948295869553 -97.4719775135012 2293.66429790924 15 16 10
293.377882862794 -94.5578426825907 2310.09027366403 12 15 8
233.84526151017 -105.11742929271 2260.24071402053 12 15 8
227.854842122804 -104.363170504103 2266.0778099073 12 15 8
213.556831163563 -105.340426729375 2263.41645885797 13 16 9
213.096676560179 -103.430367295212 2274.92704345699 14 17 10
218.237400776079 -100.373510727802 2292.04266454453 16 19 12
208.779189501775 -100.339374410048 2294.34454055253 20 23 16
193.700795382174 -101.449155971542 2291.06079938672 24 27 20
158.21166777221 -106.701732521962 2267.56377295926 23 26 19
171.135464028635 -102.077965046357 2292.30611572857 19 22 15
160.867874290775 -102.172706117243 2294.01385521973 15 18 11
153.40872624599 -101.69495338889 2298.51646921463 15 18 11
140.972618164818 -102.210737795512 2298.18874370329 14 17 10
143.449713938793 -99.7431568179756 2312.36816892929 13 16 9
205.003088338395 -134.375971878821 2144.41952885796 19 20 14
187.306315713537 -136.130171493598 2138.1628080066 18 19 13
250.296964958678 -120.175785295775 2217.78933432993 17 18 12
276.935494359114 -112.289941172948 2258.18807140843 18 19 13
288.745916436295 -107.688957671894 2282.62246934019 15 18 11
297.919644651717 -103.692571737672 2304.09618955564 14 17 10
308.552140237087 -99.4112411014157 2326.9137118251 12 15 8
234.608846051521 -113.285492092356 2262.10694655746 11 14 7
219.646328773331 -114.446009252536 2258.71529883249 11 14 7
214.324691775746 -113.541676916552 2265.28301243274 12 15 8
209.006859641972 -112.637632595421 2271.84699031545 13 16 9
220.401243453492 -108.21722877152 2295.30430067489 15 18 11
229.798796236754 -104.247775204228 2316.56007821981 18 21 14
193.076578500246 -109.927377883409 2291.51648631435 22 25 18
180.051856751446 -110.628264078957 2290.38371152212 24 27 20
181.771966938065 -108.267615457177 2303.91406770642 25 28 21
188.476477021555 -104.895184039727 2322.26400312086 22 25 18
158.441004334068 -109.074070586181 2304.5290138896 18 21 14
143.179562154583 -110.195149190244 2301.42837400917 14 17 10
130.002877762897 -110.875993547672 2300.44353819282 10 13 6
103.225981702479 -114.293664326459 2286.44511127283 17 20 13
199.682412108179 -144.190228218502 2139.8176315838 19 21 16
223.921641399191 -136.583577955487 2178.38910807452 9 12 5
263.943473187279 -125.515477423354 2233.36756749732 6 9 2
281.773065585165 -119.470259594267 2264.36458050342 19 22 15
276.534419338599 -118.574635238529 2270.85117009676 6 9 2
294.210309803486 -110.615032413621 2313.05381635386 13 16 9
238.125501576401 -120.846737350334 2266.8172888131 12 15 8
231.456800862693 -120.244081925444 2271.933425677 13 16 9
219.245988222008 -120.838576182229 2271.39361174426 13 16 9
220.883931427556 -118.438779281673 2284.99943701492 14 17 10
212.818811319275 -118.133480445035 2288.71236951895 15 18 11
220.79819525738 -114.399733448806 2308.57709054233 18 21 14
219.054707091393 -112.758093907774 2318.56756020573 20 23 16
184.340333147789 -118.09869950967 2295.73144974969 22 25 18
181.144122853472 -116.747539835784 2304.37360812376 27 30 23
199.141216063101 -110.957896050653 2333.82515476205 26 29 22
178.338140801475 -113.311742904758 2325.07335299383 20 23 16
147.515869911892 -117.720234321449 2306.73669219009 15 18 11
127.233377428365 -119.902332044384 2298.85946889872 10 13 6
204.481726695442 -151.727512275293 2146.08488945167 26 28 23
216.554685804857 -146.7801192626 2171.62429437259 18 21 14
294.55293140205 -126.8922135086 2266.94105307651 23 26 19
308.386555512676 -121.686806125548 2293.52811368999 12 15 8
256.816692650215 -131.247662144423 2251.21082123023 14 17 10
252.209748683014 -130.189150301859 2258.46329358218 18 21 14
266.828603649823 -124.842452668261 2285.66663502802 13 16 9
267.798047409816 -122.568897352181 2298.53803926369 14 15 9
241.885788988829 -126.254829502062 2283.72066329954 14 15 9
244.241421288652 -123.676198529545 2298.00462825217 15 16 10
249.420483812875 -120.494517407846 2315.06372981819 15 16 10
219.159294120267 -125.069877658295 2296.19423239032 14 17 10
214.590509930648 -124.014790694607 2303.40931771462 15 18 11
196.728823962848 -125.83818679135 2297.32658546049 18 21 14
189.330448465665 -125.384873743689 2301.77212574937 19 22 15
199.216779053445 -119.199543853945 2334.96823154165 28 31 24
181.953668345386 -120.857912405482 2329.68362352463 26 29 22
160.369360081923 -123.409559146147 2320.31992309511 25 28 21
147.952002186426 -124.000467472376 2319.98468165472 24 27 20
165.475141867704 -118.298024185142 2348.50251218877 19 22 15
197.009764974086 -159.863712565605 2151.87302826911 19 22 15
236.272197966071 -148.574402975103 2206.15631584446 22 25 18
326.151765544569 -125.727534974808 2313.32656046615 16 19 12
245.289615120934 -142.20072260838 2240.18708956029 13 16 9
245.440284785635 -140.039801048207 2252.47128647851 13 16 9
273.079567205812 -131.647590776515 2293.21832963661 14 15 9
278.196279339413 -128.415385451412 2310.33187860702 14 15 9
241.960379984774 -134.514605621811 2284.8673846412 14 15 9
209.705937632214 -139.661057510304 2263.81089571189 14 15 9
255.047822579865 -127.439325111249 2321.83808900658 15 16 10
258.216329536281 -124.687935056574 2336.70623300954 13 16 9
209.779433937522 -133.369236429384 2299.65032938288 14 17 10
195.404604612764 -134.466180417581 2297.08261206319 16 19 12
202.041907681652 -130.939371164849 2315.47680590199 18 21 14
196.078976220856 -130.187368805209 2321.28693937054 24 27 20
206.351021012594 -125.906342241598 2343.04519238861 26 29 22
188.400038588413 -127.763697153153 2337.05581409171 28 31 24
148.380088553396 -134.35345900279 2309.75380296514 27 30 23
153.011233014778 -131.299998609775 2325.95869907527 25 28 21
171.261154054856 -125.357331034512 2355.13656709108 20 23 16
212.647158348766 -164.792938815567 2169.66468217344 0 3 0
205.814325964891 -164.179248131045 2174.94217320557 15 20 13
272.660794672371 -144.177272224411 2269.97966362805 8 11 4
245.514890579296 -148.355614160807 2253.62627536889 20 23 16
271.094158851124 -140.306510459646 2292.21858823504 14 15 9
287.217122960437 -134.496676851605 2320.69403225022 14 15 9
238.58390585724 -143.564285281918 2282.47292763431 13 14 8
250.619889714014 -138.709512623675 2306.64582945792 13 14 8
249.568849125394 -136.86197454168 2317.33550388601 13 14 8
255.505848440826 -133.443968989128 2335.02394368403 14 17 10
234.285905567903 -136.161875667232 2325.32299618154 15 18 11
182.180768955875 -145.771273535556 2284.96166009176 16 19 12
186.674858265253 -142.660921149429 2301.29458322413 16 19 12
203.897469522782 -136.742844693963 2330.0789724375 22 25 18
195.132878294255 -136.617880515227 2333.09589632798 24 27 20
97.3555845309035 -153.949319523137 2261.29324596765 18 21 14
93.5495449372681 -150.525434353763 2281.57091399558 19 22 15
170.398220052704 -131.778071086731 2366.8614967954 17 20 13
252.8081444872 -159.311335685323 2238.08417637297 12 15 8
266.593025927173 -153.864438927662 2264.68394715485 20 23 16
249.695501512742 -155.701427877953 2259.06270656083 10 13 6
247.147405327723 -154.142851278349 2268.44753123016 14 15 9
252.877817775118 -150.653689311997 2286.33093579717 14 15 9
251.772330440846 -148.780859594314 2297.07093855585 13 14 8
260.384104069126 -144.663224601929 2317.667858108 13 14 8
244.090068836926 -146.327343458423 2312.83870302816 13 14 8
236.786276114237 -145.902817452421 2317.19491377796 15 16 10
214.118406510089 -148.993377162901 2306.15303824386 14 17 10
199.756199436151 -150.156881290949 2303.58262440212 15 18 11
182.539516787789 -151.951600850124 2298.27206525487 16 19 12
181.449261694653 -150.079069755738 2308.99698630932 20 23 16
166.97598991571 -151.227833598346 2306.53502059573 23 26 19
104.531903870946 -160.949647314864 2269.3718068711 16 19 12
141.778742858772 -150.526579322992 2317.28250762821 14 17 10
150.718723508262 -146.447828607707 2337.55925983568 24 27 20
-86.0183427833623 -191.935894671603 2148.59393068699 7 7 5
170.008015938077 -190.013498994836 2139.21506006108 0 5 0
237.452022952641 -166.956346344709 2247.37773902612 17 20 13
230.06513921639 -166.527979389164 2251.81589269004 14 15 9
209.593854997316 -169.210035881928 2242.78312675304 13 14 8
225.619775330482 -163.214717951742 2271.3275221707 13 14 8
227.928004244016 -160.500394353125 2285.63850407578 12 13 7
235.835543121752 -156.487512920185 2305.53331235834 12 13 7
238.948901501407 -153.623704764973 2320.43960436711 12 15 8
244.20693046877 -150.278418619618 2337.3961103367 13 16 9
203.3315321928 -157.652284463844 2308.22496786779 13 16 9
195.249888321451 -157.384927635294 2311.95991652503 13 16 9
168.856530759841 -161.322773858908 2297.65751190956 17 20 13
171.993287115131 -158.460706529361 2312.54082667591 19 22 15
168.811126857946 -157.056624499341 2321.16121125429 21 24 17
147.192546703866 -159.841934165104 2311.86607859706 21 24 17
134.028035061033 -160.686344683904 2310.89333006837 21 24 17
164.354355481098 -151.730819960056 2351.72300361828 27 30 23
-47.8015913766203 -192.622098549597 2185.84748937916 11 11 11
-60.7884024994529 -193.236983622485 2186.08126716427 5 5 7
139.555484349909 -206.247462920703 2108.08859779256 11 13 10
134.56896007483 -205.115152665397 2115.70709162829 15 17 14
193.047634090376 -188.432496956838 2189.78739723021 24 27 20
254.634088427399 -171.128298173368 2266.3577423493 13 16 9
232.884991473119 -174.212841586274 2255.8195321035 15 18 11
226.186297318334 -173.623255353727 2260.96738451869 15 18 11
209.82133836095 -175.360222910059 2256.21942475243 14 17 10
212.77660465733 -172.44185529242 2271.2746406722 13 16 9
211.618176903746 -170.524095567514 2282.06057341441 12 14 9
239.719280951041 -161.658648701309 2322.27907670781 15 18 11
245.676949153252 -158.105055345494 2339.92695217762 14 17 10
226.504182019948 -160.499745847111 2332.39642348828 15 18 11
203.04618391477 -163.873358613721 2320.76408303631 15 18 11
184.417105875905 -166.082834310932 2314.08319768951 18 21 14
151.60262190923 -171.568502657103 2293.63297440625 22 25 18
161.102965132933 -167.19406590042 2314.72682318577 21 24 17
179.205247988548 -160.864984577462 2343.9938484761 22 25 18
162.570808464561 -162.565193549453 2339.50805399342 26 29 22
158.72239791436 -161.318742701292 2347.39642346387 26 29 22
236.917102044667 -183.817723848432 2248.98411830896 6 9 2
255.605013595582 -176.96169851715 2280.42588003081 12 15 8
244.841884610814 -177.398183406558 2281.25929758898 11 14 7
218.178409680639 -181.716584713933 2265.86446007102 10 13 6
210.775739550517 -181.296504654917 2270.31917681511 10 13 6
226.268282311527 -175.316249597371 2297.97854101497 11 13 8
239.793655846099 -169.855595777906 2323.41672653571 14 17 10
232.490315261243 -169.447256449401 2327.77454284783 12 15 8
243.376345410216 -164.677060455702 2350.26804746137 14 17 10
220.667622681643 -167.956891905923 2339.29437612223 14 17 10
194.346513659356 -172.060672095629 2324.94509044889 17 20 13
186.967057280253 -171.641705207366 2329.37692012121 21 24 17
173.210732637831 -172.721991758744 2327.6098037066 23 26 19
171.475518518809 -170.96643386128 2337.57555787771 24 27 20
168.340577680463 -169.5460585995 2346.14664474261 26 29 22
244.518301978077 -190.268896363498 2257.97651090996 21 24 17
252.247843608487 -186.072457973121 2278.02094345225 14 17 10
250.42124764179 -184.292082471389 2288.07377311789 12 15 8
231.365522546798 -186.805650482717 2280.44492784033 11 14 7
220.539849644625 -187.252753891159 2281.34168400353 11 14 7
232.908447406878 -179.76095819897 2317.54774183474 13 16 9
227.679566334533 -178.843596540691 2324.0214217019 12 15 8
