ply
format ascii 1.0
comment KinectMotionCapture
element vertex 778
property float x
property float y
property float z
property uchar red
property uchar green
property uchar blue
end_header
42.3705826430547 1016.95549091183 2919.20209866233 17 19 14
62.2565852405454 1028.26980356269 2883.03516003628 18 18 10
54.0620394183651 1026.92222419589 2880.79333749897 22 18 7
71.8519793513801 1035.6905356607 2855.44497756334 21 15 3
68.9403436161498 1036.4209096839 2848.39752917609 28 20 7
71.3272718660099 1039.2303857498 2836.55580860188 129 119 109
75.9376362884807 1042.92724341398 2822.62470028077 63 53 44
64.6293595099041 1040.38656960499 2823.06035993513 25 16 7
46.6087915950162 1037.09194553595 2819.86105974287 10 6 0
103.175811327045 1008.36569415445 2995.35090574454 21 22 14
92.618094740379 1006.12920075638 2995.0968721273 16 17 9
-19.8403094369217 972.428441510071 3044.32597992824 17 18 10
93.3394088745181 1018.41624721142 2931.45538809867 18 19 11
97.6791434661703 1021.81440738357 2918.56191258221 20 20 10
94.9274690920219 1022.54340154531 2911.63041661007 20 20 10
82.8055377778973 1019.71982202948 2912.70954990637 18 19 11
83.1537749932489 1021.63219835957 2903.09079907102 17 20 13
61.7667377712756 1015.26463367463 2912.25712584248 17 18 13
94.5639789226762 1029.58629498542 2874.34883930363 16 17 12
77.8224295763241 1024.99293576234 2879.48095734695 26 23 16
83.4262061765059 1028.96318474957 2865.0366373427 28 23 17
85.8992356712203 1031.7487380657 2853.25691774791 24 15 6
76.8633855370697 1030.1093918467 2851.6387745331 25 11 0
76.986746023628 1032.00683656369 2841.85693012638 19 3 0
76.3151734396454 1033.60742893154 2832.73235478563 58 38 27
80.1572181347483 1036.97154377227 2819.47792079562 85 67 55
88.4733875731851 1042.09622072531 2802.06498417955 41 25 12
92.1875497781728 1045.45099130301 2788.71779811277 19 7 0
75.5714965733132 1040.8698897005 2793.94095307454 23 13 3
74.7382419695839 1042.4592958237 2784.69911432668 31 27 16
52.2267928820828 1035.53699840618 2795.51788884545 31 28 19
121.878510488323 1009.66280302599 2971.8617124449 15 16 8
101.617853856405 1014.13197613619 2925.08365913613 16 18 7
96.5306563326376 1013.97059191525 2920.15998701288 18 18 8
82.8398816773501 1010.58154739469 2922.56933583409 17 17 5
83.2249951058888 1012.47509425838 2912.97692750067 16 17 9
58.6993749358951 1004.98751981847 2924.80309091306 16 19 12
79.2385550014769 1014.49756646295 2897.74606649152 18 19 14
64.0718280349737 1010.53020950605 2901.55290445286 19 20 15
65.1438175369274 1012.7113172027 2891.22484716683 19 16 9
89.233382135125 1023.66198346505 2860.5733916613 18 11 5
71.0007566817485 1018.52666546927 2867.09221942089 28 18 9
74.9994584456259 1021.86702755239 2853.95122917086 28 12 0
78.9408340227426 1025.20334301321 2840.76866144771 72 52 41
79.0259153884518 1027.07683610302 2830.95894636965 76 54 41
82.8635841317489 1030.40564631096 2817.70116133386 94 72 58
85.1330716108412 1033.14747763251 2805.77396280464 52 33 19
91.1200800191425 1037.34208401788 2790.3732610249 32 18 5
79.7633488943923 1034.83696516993 2790.77368070552 33 21 9
100.635778179764 1044.84274013207 2761.49067345856 45 39 27
57.1412470475305 1029.83448714843 2791.64078847665 53 49 38
118.458640004694 999.425718018884 2984.15233995239 21 22 14
104.290137514612 1004.29671679989 2941.79265452028 13 14 6
111.849992603022 1008.79408012499 2926.29863975955 15 16 8
107.540961528157 1008.92047265933 2920.70520364178 18 19 11
93.0297704341521 1005.26501198807 2923.75350225688 20 20 10
51.2002256217894 991.438843323628 2950.17614788712 16 18 7
79.7462926054817 1003.77771438044 2916.58685997525 16 17 9
83.2187541287075 1006.8100126442 2904.29786316946 15 18 11
68.8060488077515 1003.1638551412 2907.41789782264 18 19 14
66.0385720294632 1003.87250049656 2900.47454880277 19 20 15
80.9844218440578 1011.24689623494 2877.99812225729 28 23 17
78.8995428707096 1012.23924130907 2870.31629779641 23 14 9
74.4930432647028 1012.36162115338 2864.65218433527 27 14 6
73.134870896149 1013.64091981516 2856.26328737117 24 4 0
75.5608080387997 1016.36447800796 2844.44940998487 87 65 54
78.6981896544088 1019.37375338553 2831.91738998763 81 55 42
83.2980495172353 1022.95673512326 2817.97838436006 114 88 73
83.3027560668778 1024.80316508417 2808.11026678247 105 82 68
80.2588188948503 1025.49305843719 2800.96641074063 29 13 0
76.4456197047028 1025.89332740907 2794.49876434663 36 22 9
66.6271922957327 1023.98729513836 2793.54729445307 28 22 10
67.2852916476314 1026.11539663327 2782.91893087756 37 33 22
192.838247130558 1018.92865534899 2924.53887547692 18 19 11
140.343182130632 1001.66812538847 2958.03378517414 30 31 23
138.713132571122 1009.49274433169 2913.66253390682 16 16 8
119.367684280175 1004.12778274686 2920.60852608179 17 17 9
104.815673941721 1000.49936511968 2923.62737093381 19 19 11
95.8016933394101 998.89208069096 2922.02524380864 19 16 9
89.9334614183851 998.438733928777 2917.76894096409 19 16 9
88.7442234354792 999.71278972877 2909.50277606227 16 17 9
86.7510705757417 1000.69749984126 2901.88711266907 13 19 9
76.205544777598 998.51845193837 2901.64220738735 13 21 10
75.7388921297966 1000.07703642368 2892.66597010334 13 21 10
93.7473865011707 1008.52544093572 2867.47442455248 18 21 10
114.694970351361 1018.11146997926 2839.47910346382 29 23 11
84.1205831844567 1008.46926088529 2856.79006045439 24 12 0
77.3856080706912 1007.72424757358 2853.13929072985 50 27 13
75.2287879513198 1008.69868600353 2845.40492941921 75 47 33
79.130530536188 1011.9622489491 2832.19326238833 136 107 91
84.4905709285033 1015.79380264922 2817.57155028644 140 111 95
83.738853041941 1017.33269906851 2808.38856340333 134 105 89
79.9420257591223 1017.72640816387 2801.93275212727 83 57 42
77.6344111110405 1018.69042286974 2794.08902384644 55 32 18
81.2973873875089 1021.93661462743 2780.70418203458 84 68 53
80.4213299734995 1023.46681226608 2771.43101471345 117 105 93
168.334077962554 1002.6323540825 2944.98152212188 17 20 11
209.729447188823 1019.09337768737 2902.20082531557 8 9 1
92.1547617098826 981.892732497132 2971.17076681872 17 14 7
115.727079952518 992.031964870714 2942.61060605426 17 14 7
125.690086200866 997.297393180844 2925.1571728911 16 16 8
119.789350817665 996.840636606138 2920.87729032179 15 16 8
94.2234540777438 989.243515450186 2933.1835223245 16 17 9
85.239763509283 987.649986791459 2931.603717244 19 16 9
103.651350406128 996.043581348042 2906.70410444404 19 16 9
102.426289203649 997.299012085965 2898.41158170922 16 17 9
90.2849289233938 994.563305456916 2899.47737010385 13 19 9
87.4862813287276 995.248107444868 2892.51159839963 11 21 10
99.3652110020915 1001.33963176617 2872.74583898964 13 21 8
104.201968565327 1004.86376907857 2858.97797302511 19 25 11
99.7482808809442 1004.97206058443 2853.27987503572 28 22 8
91.4514398330573 1003.65950842954 2850.96407392594 22 10 0
83.9323327337982 1002.6320692647 2847.97818180047 57 31 16
80.9962869007492 1003.30818995946 2840.91276320856 90 58 43
83.3643656970362 1005.96845229825 2829.05662246625 131 99 84
87.1999385125313 1009.19212282937 2815.79678549447 138 106 91
87.1988675137114 1010.99529781437 2805.9239660767 146 114 99
83.3939060653353 1011.380461768 2799.46221488761 111 83 69
84.0840789479596 1013.46230149414 2788.85716225105 56 30 15
90.7287489862525 1017.80337687786 2772.69891868723 83 64 50
86.8392940700966 1018.18253233171 2766.17588594594 127 111 98
123.738260087213 989.160047226576 2927.4064395904 15 16 10
116.266631639685 988.138067445037 2924.45499340567 14 17 10
100.149215917189 984.005103298422 2928.80685459522 15 18 11
91.9345576637713 982.704466322145 2926.55068989975 17 16 11
94.6861426052794 985.361324754312 2914.97254370507 17 17 9
126.256097343999 998.464340104417 2878.63847163043 16 19 12
95.3764172494029 988.971801433501 2895.72916784966 14 20 10
98.7719028497347 991.901855478026 2883.3838516675 14 20 8
102.888103602472 995.110143447623 2870.32736996062 16 20 6
98.4614918280267 995.215072229339 2864.64888284332 17 18 4
95.5643554892931 995.882874214549 2857.61162843831 28 14 1
95.7176331287668 997.675133585038 2847.85064435266 36 17 3
95.8354023096741 999.465064427096 2838.06420211017 80 48 33
91.3421663879879 999.566079146874 2832.33710342419 93 56 40
88.3606031631103 1000.2284157205 2825.23861848426 140 104 88
85.3611581416964 1000.88966213208 2818.12716512653 138 105 88
83.8559974773165 1002.11087113349 2809.63141897431 140 107 90
80.0625999857321 1002.48896622535 2803.17801493911 144 115 99
84.5235835387559 1005.94873752352 2789.13771082563 66 39 22
88.9228617604845 1009.40397759385 2775.05235777205 114 92 78
87.2821099223762 1010.61540743272 2766.45856362797 127 109 95
70.7138245704893 1006.23061038775 2771.71734084707 140 130 120
146.134034102327 983.144348827056 2946.08121668349 11 12 6
45.2368886458534 950.771220394302 3011.10886110168 15 16 10
125.742520340817 982.441571057833 2926.35497247954 14 16 11
117.477303555351 981.144784204036 2924.06217632684 15 17 12
100.569122001931 976.767103188929 2929.0745915798 16 19 12
96.2777501382024 976.875161471861 2923.49415861148 15 18 11
113.888648244484 984.819519238126 2899.24716505301 16 17 11
133.708752389328 993.593180305613 2872.90046831878 16 19 12
133.152190967729 995.088132401448 2863.85843745828 16 19 10
96.8710637170598 983.730284508487 2885.66990656097 17 19 8
94.806048163103 984.670588795069 2878.00221791987 18 18 6
98.1198721591459 987.562781323585 2865.59751172197 26 20 8
93.6870248223611 987.662425449995 2859.91447754463 21 3 0
100.752846485233 991.942137837071 2844.0609304886 39 16 2
100.093944573178 993.43119932283 2834.94497546243 90 52 39
96.3529846593367 993.804700358636 2828.52956127661 96 54 40
91.0772984583224 993.621056426384 2823.46913693886 158 121 103
85.0385816097443 993.159155939505 2819.0892026057 151 118 99
82.7805288224228 994.086739145939 2811.2812182427 136 103 84
81.2539527593477 995.290451252397 2802.77015346274 139 110 92
87.9706406921397 999.545046335892 2786.6633846908 82 55 38
93.8623852359215 1003.51650944661 2771.19278831498 130 107 93
88.4727412332209 1003.32523638617 2766.04942041474 137 118 104
75.6260556190207 1000.3633845657 2767.83779458163 133 120 111
110.339044224854 964.834593205363 2966.97484773031 6 9 2
71.107506021479 952.701626321631 2990.34897920261 15 18 11
113.014356545709 968.94011780211 2946.70260782944 15 18 11
140.411065567568 980.157715904572 2914.74481406938 15 18 11
156.573904539797 987.47421264678 2891.91498456005 15 18 11
106.498826475379 971.471596628087 2924.70049275561 16 19 12
105.33245547489 972.68297122989 2916.4502926477 16 19 12
144.056765979807 988.027776863431 2874.1980022424 16 19 10
139.603712512568 988.119321377511 2868.49998470672 17 19 8
121.132108011456 983.227516200542 2874.84680489498 18 18 8
90.3129005817034 973.914985612218 2891.98225081593 24 18 6
93.6861736492895 976.779075336353 2879.62049817245 26 16 4
97.0063202967291 979.639349536872 2867.22050820388 31 15 2
98.7346556773012 981.94357929723 2856.13383706071 68 40 26
100.418863347411 984.244712171437 2845.01516111215 114 81 66
101.293745301349 986.266944752549 2834.5434116243 99 53 38
99.840044852193 987.459344019315 2826.08482415333 94 45 31
93.7952069196824 986.997067144002 2821.70045060931 141 100 82
88.5085660852889 986.810384986931 2816.63206963483 144 109 87
85.4861555214366 987.448860598131 2809.50385272668 148 113 93
85.4626279611939 989.186111237509 2799.61442014848 133 102 82
92.1709364700178 993.393975371076 2783.50163472882 112 83 65
94.3056872146801 995.948468028243 2771.47581375812 127 104 88
87.4210909221609 995.205781377335 2767.71629775601 123 104 89
64.8876627847126 988.703016796385 2778.52126420894 140 128 116
147.77478924086 968.868245663442 2945.96328719267 13 16 9
148.269788641795 970.617103525897 2936.45009914443 22 25 18
142.361622342312 970.160043683176 2932.16482820921 17 20 13
120.577008059812 964.197535805824 2941.04499457737 16 19 12
122.629055333525 966.496086642351 2930.19296032902 15 16 10
127.005478971653 969.616602336472 2917.32467516131 15 16 8
119.516243401542 968.611238813832 2914.36054936229 15 16 10
130.091576870905 973.923275987144 2896.11620472324 17 18 10
145.271726009867 980.875325020953 2873.80748748887 17 19 8
121.562621981214 975.83934308323 2875.1214711059 22 18 7
106.263850292343 972.092736571277 2878.83370517454 28 16 4
105.72492266853 973.552385113424 2869.80457308795 31 15 2
108.242595938194 976.104312383074 2858.05603335638 39 17 4
105.323900117226 976.738823075363 2851.00298139563 93 60 45
103.154790756724 977.645482712716 2843.25966251591 145 108 92
100.198222842667 978.27746303744 2836.17914344984 109 61 47
98.750025743422 979.454356538267 2827.7244669349 119 67 53
94.9924888190301 979.811100747026 2821.29695084373 113 72 52
94.2561155823989 981.257382720427 2812.1246185144 124 88 66
93.4886719760724 982.701446366452 2802.92975137474 146 111 91
97.2159668609898 985.776903112986 2789.59067068828 130 97 78
98.6294443868143 988.031847837269 2778.27550272838 117 89 68
101.498473784053 990.827486558 2765.54786636935 127 104 88
92.3508179118833 989.270789583649 2763.84909142371 135 116 101
74.2739948964473 984.456490896925 2770.48248972165 116 104 92
181.819451909795 973.059689657118 2918.78885357297 12 15 8
158.272900649169 966.592426632819 2928.85956527517 16 17 9
141.192343671699 962.315190692073 2933.74753067866 19 19 9
147.992642597671 966.220744673387 2918.93493644425 17 17 7
154.722472810889 970.121257443423 2904.07152687837 18 15 6
128.219614539566 962.582605074332 2916.93386825636 22 18 7
141.987670020996 968.928954555649 2896.06879394184 18 14 3
137.586560281515 969.013475253715 2890.40839594594 27 21 9
137.874345633322 970.728041529421 2880.74482031768 25 17 4
127.195512355671 968.638265124456 2880.40372977687 26 14 0
116.543128205381 966.55109898592 2880.08153151744 35 19 4
109.022317847456 965.550954607687 2877.09483739391 70 47 31
110.026636957967 967.533607724874 2866.7167191854 86 58 44
110.99098328015 969.513331677871 2856.3099034898 106 74 59
108.066704613293 970.136805083715 2849.25245402188 135 96 79
103.589037278128 970.217942080427 2843.53683512895 145 102 85
100.633329318255 970.839656391001 2836.45688746263 137 88 73
99.9495882766341 972.270775060854 2827.32233805255 133 81 67
97.7124137222249 973.159493944856 2819.52958638772 130 89 69
100.006176117596 975.666108859028 2807.61879384589 140 105 83
99.9813695518026 977.360180593938 2797.72821537961 147 112 90
102.184286570969 979.860212689099 2785.75153374256 132 101 80
102.081794862883 981.548469011635 2775.80461020253 132 104 83
102.693604257681 983.503397402268 2765.14210737035 136 113 97
99.526359348328 984.110234767407 2757.90844222325 136 117 102
86.64701693532 981.220058688142 2759.67350583151 127 111 98
195.058821934865 969.993332956007 2908.60876529279 16 19 12
156.302047398244 958.449357201173 2931.09500980606 27 28 20
143.20786270734 955.561252985161 2932.70434015651 22 20 8
148.418474933346 958.88381094783 2919.20646837633 18 14 3
149.607591912492 960.853365518538 2908.96254221688 22 14 1
157.865145362715 965.246280715572 2892.73844373166 23 13 1
145.566997910771 962.629906408653 2893.69117820127 25 15 3
139.586868375071 962.170242907262 2889.3537263923 23 11 0
132.823533909313 961.442039834257 2885.68218903844 29 16 0
126.064330055679 960.714350618345 2882.01364865625 52 35 19
117.751756449278 959.449991829736 2879.68668678795 71 50 33
114.111683770062 959.79814957635 2873.34427954279 110 81 63
113.555615837344 961.218950190195 2864.30252530807 122 89 72
112.96861206837 962.637722606819 2855.23833475221 132 95 77
109.270657193232 962.982266638716 2848.85394916379 145 102 85
104.791484558803 963.058193106731 2843.13691817792 142 97 78
101.068565095359 963.401262781275 2836.73472223577 150 103 85
98.8592413060534 964.278665683425 2828.96180839023 149 102 86
98.1499966065109 965.689267792044 2819.80896139084 143 105 84
101.963641576614 968.700684462218 2806.53215334833 145 110 88
103.44941437014 970.906939806172 2795.26914714953 145 110 88
104.136210307262 972.843019413694 2784.66061371234 136 105 84
104.030526935672 974.509579504615 2774.71156104866 137 109 88
106.890382704823 977.239593275865 2761.97694212755 134 111 95
104.46063395428 978.101240689815 2754.04445219587 137 118 104
96.787793459165 977.098030107959 2750.94723817346 124 107 97
167.109500213654 954.602568183251 2922.85342416199 19 19 9
151.596304615184 950.935017461019 2926.4106181957 23 19 7
148.050210009232 951.279496898569 2920.13631903008 24 18 6
155.580175783192 955.361250629997 2904.61853172291 29 19 7
154.34650299914 956.502589972537 2896.31918837341 33 17 2
145.209468481057 954.975848684319 2894.62826480548 31 15 0
137.660650694209 953.983651584393 2891.62130775354 38 21 3
129.337474838855 952.726369464423 2889.28640145642 50 32 12
127.275996885215 953.599449824915 2881.62093679484 91 66 46
119.739878244002 952.609356886084 2878.62319628258 111 83 62
116.873016696641 953.215197275875 2871.60728039521 132 97 77
114.762508721828 954.085500534157 2863.90625875836 133 95 76
113.402317218165 955.219936103083 2855.51516432 127 86 66
108.164635088899 955.025988309873 2850.48223775381 141 96 77
104.458243970861 955.362201703667 2844.09169435655 139 94 75
103.801398543478 956.757572253951 2834.97675555695 154 111 92
104.640691291031 958.680375707092 2824.47870306575 155 112 95
104.678775173277 960.335750053132 2814.6335192175 147 111 89
106.199569132355 962.517479834705 2803.39577638219 143 111 88
105.40504786674 963.903071214437 2794.18098389588 140 108 85
103.824686061845 965.022299261422 2785.63020627839 135 107 86
105.227804382384 967.195511648776 2774.3071147191 136 109 90
107.336901648087 969.629274871079 2762.26208547564 131 108 92
104.90799522508 970.477488420719 2754.33013812001 135 116 102
91.2667648321359 967.372118336858 2756.77683950126 120 103 93
184.312072246711 952.803440831186 2909.37728673978 18 16 4
171.937890785531 950.223732878679 2910.27479377874 36 27 12
161.982062907448 948.440634758933 2909.22434203856 34 21 5
158.386155245224 948.77379003794 2902.9138749663 36 19 3
152.406854086609 948.314014412886 2898.57702309763 77 54 36
144.851895888984 947.326925431459 2895.56534612748 101 75 58
138.090813943587 946.604411627098 2891.89576496799 121 90 69
132.117705682463 946.14633257211 2887.56341105633 124 92 69
130.832150642725 947.269190101501 2879.22636353844 128 92 68
123.287329974701 946.284176993147 2876.22204599455 137 96 74
120.412298031546 946.878731449032 2869.20044452446 152 107 84
116.744767452835 947.209250895247 2862.8380431205 151 105 81
113.836234756344 947.801808342283 2855.79214612413 150 104 81
108.598931998658 947.605382042165 2850.75948201837 150 105 82
104.125193143411 947.671413026864 2845.04633997242 152 110 88
106.535445157744 950.09725173836 2833.219584094 142 106 84
108.133362579685 952.257448506466 2822.03764063385 140 105 85
106.640937237991 953.366833144151 2813.55056017639 139 107 84
105.121729779488 954.474287106952 2805.04405501164 135 105 81
103.575785048656 955.579873771588 2796.51815796934 133 102 81
105.777609038252 957.990679546895 2784.54023202293 129 102 83
107.930878027324 960.397899930174 2772.52679488268 125 99 82
112.286920067784 963.584863157074 2758.40903460051 128 106 92
107.600597369993 963.635893359264 2752.54200448544 127 109 97
106.635930809455 964.990255878556 2743.20371186343 110 96 87
190.335740050401 947.221237955985 2905.06955728859 133 129 117
177.94517256396 944.662377866504 2905.9555858237 69 57 43
167.973642624133 942.89197739902 2904.89352116295 80 64 48
161.986057133948 942.431590394534 2900.55066070877 85 66 49
152.837178775308 940.925766217882 2898.85155171438 115 88 67
145.282195851433 939.944350895796 2895.83988555785 122 94 73
138.521279270308 939.224957166176 2892.17044007824 128 93 71
133.332165929469 939.02806308936 2887.17241266277 135 99 75
132.045524904632 940.134761555559 2878.83449604226 146 104 80
126.056860967298 939.676378218359 2874.4908639477 154 110 85
123.176157691982 940.259838833986 2867.46509501539 165 117 94
118.727799021923 940.321782642146 2861.77062538199 161 114 88
115.043063112431 940.643380543975 2855.3957062772 158 110 87
110.574493952655 940.704274156849 2849.68628583202 153 108 85
107.633250574331 941.284084969088 2842.61661160008 152 111 89
112.334869676475 944.458298510008 2828.74930292524 145 110 88
115.447012354636 947.109336625991 2816.19717214127 142 110 89
113.174258107789 947.941931060395 2808.37804923967 143 112 91
108.600464397194 947.995744521097 2802.59260788666 131 100 79
105.532079147759 948.566808763045 2795.4307214959 127 96 75
108.486617040846 951.206393497712 2782.76428162615 123 96 77
109.882124190491 953.325040630222 2771.43539618288 119 93 76
114.235984045663 956.473770265499 2757.31586032735 124 105 91
110.29437113762 956.777545456431 2750.75463532873 123 107 94
195.562443242806 941.341501176597 2901.41820969797 164 154 144
183.95490733181 939.06292578829 2901.63796312388 146 130 117
171.583215677138 936.528107911642 2902.5375024538 143 124 110
164.001913239372 935.54958925426 2899.50706586917 138 117 100
153.267709250298 933.537295718602 2899.12622838399 135 108 89
146.500814009669 932.820095764193 2895.4521654814 139 112 93
139.738039478023 932.103588096058 2891.78109327526 158 126 101
136.114597992237 932.42047303172 2885.45058393419 158 122 96
131.696054295191 932.47849934079 2879.77770796811 166 129 102
127.268717200254 932.536280878708 2874.0981617634 172 133 104
122.832308940094 932.593686013969 2868.41203777087 171 132 103
119.161616719248 932.908067835448 2862.04755716184 171 132 103
116.250547486014 933.479140638134 2854.99941807486 171 130 102
114.091999116842 934.306180914499 2847.26335179537 164 127 101
111.911279495559 935.131773176697 2839.51091129057 163 129 102
112.77306026525 936.983222595191 2829.02909390131 154 124 100
115.887287585806 939.601928954991 2816.47831055238 131 103 81
116.66278899951 941.447214838471 2805.93362172013 142 114 92
113.600011675254 942.007860010535 2798.77574785938 131 103 81
111.27679175997 942.823461498905 2790.91995524511 121 93 72
114.973178693403 945.685518689043 2777.55738781419 126 99 82
117.858767974002 948.28744574678 2764.84106935727 115 89 74
122.193003759178 951.396767778517 2750.70710798732 115 95 84
115.235236296216 950.668884550646 2746.89462362446 121 102 95
189.200169796212 930.244331949477 2916.51161652427 186 175 171
182.407416939431 929.526063243023 2912.81909794749 149 139 130
179.604541995179 930.090975394311 2905.84965448168 157 140 130
168.040024643057 927.835480960413 2906.10070988857 156 138 126
160.469811290836 926.863585690511 2903.07805109045 153 134 120
147.374282584606 924.100774862358 2904.68704177121 151 128 112
141.41330699611 923.64367868916 2900.36348807136 153 130 114
136.238216728175 923.442554052649 2895.3758993291 164 136 115
134.978365602819 924.518802676381 2887.057249044 169 139 115
130.564960689139 924.572156701544 2881.38778014858 172 140 115
127.701584444973 925.135333995015 2874.37446921191 172 138 111
124.04299448216 925.442441229489 2868.01843046376 176 141 113
118.82057772258 925.239215189995 2862.99652309369 179 144 116
116.685364342179 926.054394424819 2855.27701829002 174 139 111
116.840188867383 927.63153250254 2845.51636042011 163 129 102
117.72826124603 929.460546768151 2835.05319426377 141 107 80
117.043558362111 930.778383346637 2825.91766827458 152 122 98
118.620287136396 932.855910728394 2814.71994597482 155 125 101
121.676827393885 935.437861363982 2802.12715786779 134 106 84
124.680100095695 938.015925298588 2789.49602976297 123 96 75
123.084584714312 939.069223185026 2780.93393304523 119 92 71
124.483910989075 941.133872581252 2769.60754265808 119 93 78
125.08562947306 942.942018996678 2758.93668675263 110 87 73
127.900428302657 945.506178195086 2746.16856500836 116 94 81
121.675915688456 945.032751064233 2741.6538849749 107 90 82
193.212116753914 922.533719962339 2923.08631108789 180 180 180
184.01892489439 921.056029863784 2921.35522079566 255 254 253
171.645562163978 918.564390877379 2922.2537674367 255 252 249
167.279971487348 918.613672461562 2916.61893947441 255 253 250
154.954533194401 916.12652368559 2917.55254478375 255 253 248
147.421662646432 915.163209774105 2914.55700004764 255 252 243
133.571466997825 912.174568447052 2916.85310378671 255 250 241
129.227366291863 912.227024810087 2911.23387044365 255 250 242
125.660440676711 912.532058612376 2904.94427063499 251 238 229
127.568910373721 914.605632899914 2893.98701438662 244 230 219
127.087514086957 915.918372062824 2884.99884386906 189 171 157
125.015781733978 916.724295709369 2877.32531093554 168 149 134
119.811529851462 916.519673524368 2872.31656460077 179 154 134
118.479357729068 917.575366362255 2863.94538316239 182 155 134
117.893544259606 918.881199908069 2854.88148342241 180 152 130
119.589591784071 920.940254102315 2843.77016426071 162 130 105
120.472607634648 922.744483256161 2833.30320697779 165 133 108
116.716391436732 923.037348832422 2826.87632475156 151 119 94
119.061359601868 925.339367094724 2815.00161604264 139 107 82
121.35762953259 927.637858463647 2803.09158707991 139 109 85
128.16519637243 931.438354523572 2787.04839826606 104 81 63
126.561814291521 932.474894647892 2778.4808084056 108 85 69
130.976485280478 935.514250386349 2764.40450736135 101 79 65
131.561930531453 937.296773114011 2753.72201933 113 94 80
132.107579966645 939.076479785107 2743.0103737216 113 93 84
119.880302348288 936.601693802443 2744.01490594177 98 85 79
202.046773128914 916.348558596259 2925.75400860872 203 207 210
188.01379053174 913.370859072222 2927.9176616103 254 255 255
178.83586159544 911.905626919545 2926.19740436177 246 246 248
164.877608185365 908.934628116657 2928.41496960933 245 245 245
157.342737013692 907.97599138137 2925.41799826921 255 251 250
141.068726291496 904.2586447045 2929.658445586 255 252 249
135.16122194661 903.805342604026 2925.3736735495 255 253 249
122.926696298604 901.347962696878 2926.37333416052 255 253 247
117.825230859759 901.147295703236 2921.43882546913 255 254 250
112.718993614404 900.946431729872 2916.50115107265 255 254 250
111.529552235355 901.995764205191 2908.23340597966 255 254 250
111.095524978691 903.293282510768 2899.27949718628 255 251 244
109.070724628792 904.08933719766 2891.64023075217 255 252 243
110.134476976583 905.882099976172 2881.30423513374 206 188 174
114.26044432082 908.669567044784 2868.25270189664 160 139 122
117.555738112803 911.20376707486 2855.83274945578 169 146 128
118.484422285563 912.986912547183 2845.39908579824 170 142 120
120.911376218493 915.265092866882 2833.58339510115 154 124 100
120.989207261387 916.793456017463 2823.76667595817 145 113 88
124.854193403321 919.562110706936 2810.52585658951 148 116 91
124.087719107925 920.836221979917 2801.33083128175 129 101 79
128.611078525692 923.845608957176 2787.33316900138 113 91 77
130.040617577123 925.858219565799 2776.02841691409 107 88 73
132.937092658572 928.363347356966 2763.31949949916 107 89 77
131.259175053898 929.378186034659 2754.69747284773 105 88 78
125.046351899448 928.905885111857 2750.19127245757 94 77 69
223.379891559118 912.605606073291 2927.61359628538 163 167 168
212.512086044621 910.646056743472 2927.13617536303 237 241 242
198.445140280786 907.692898389335 2929.27503756913 249 253 254
186.030572395449 905.241355079494 2930.14391680651 248 252 253
172.848941494465 902.544217492602 2931.6908228167 250 254 255
159.706635585329 899.85044490006 2933.26625339708 249 253 254
150.591852466283 898.40203805058 2931.59185712256 249 251 250
134.335861315944 894.721638986215 2935.84555435849 249 251 250
126.068842850282 893.526151174427 2933.55196522898 253 255 254
116.232848490047 891.836332145126 2932.58856136323 254 255 253
107.996087152056 890.643773448638 2930.31692110784 254 255 255
102.918693187465 890.442557631002 2925.40015403897 247 251 254
98.6213219180643 890.488702894772 2919.81476389477 249 253 255
94.3147395505966 890.534470778142 2914.22298899453 255 255 255
89.9992259507516 890.5798632366 2908.62444327471 255 255 253
91.119280179945 892.352523258104 2898.32945474424 255 249 244
100.732068186241 896.835901397847 2880.61788518808 255 248 239
107.936090401044 900.57317399387 2864.86206957403 255 252 241
111.980182631195 903.319655571408 2851.75097571983 137 119 105
115.197559538612 905.81571036976 2839.27464093043 155 136 121
119.128842129427 908.554009009466 2826.08172751301 126 103 85
130.649451854949 913.746396494423 2806.05166002057 156 133 115
128.343961820836 914.509186916702 2798.20845267707 119 98 81
127.536438261928 915.761332671203 2788.98355862248 101 83 71
121.391096699242 915.293960815573 2784.52630204501 96 80 67
128.851323908242 919.239634917099 2767.72223386445 98 81 71
221.696418465453 903.160904981536 2938.69662116274 173 175 174
218.135015382587 903.437888370682 2932.41088267471 253 255 254
207.281942774287 901.496081607379 2931.94423182008 252 255 255
194.842159796267 899.064133213301 2932.79522582779 247 251 250
178.416118755355 895.404718753414 2936.92546208313 254 255 255
164.453026463659 892.487884408799 2939.14008835282 254 255 255
151.334041470481 889.820844139275 2940.73226569033 249 253 252
141.445152138497 888.139595306004 2939.73085501747 252 255 255
124.418212618798 884.251273915692 2944.65965878923 252 255 255
115.386138905916 882.820978519215 2943.04531206642 252 255 255
107.95368829946 881.882657857169 2940.12298496173 252 255 255
98.9519581021638 880.455477805822 2938.53065068077 252 253 255
89.9675055467162 879.02981692378 2936.950849026 252 255 255
82.5694393790082 878.094998710521 2934.05346567535 247 251 254
75.9623323525172 877.405679337264 2930.49537787988 252 253 255
70.1396029370134 876.961156753593 2926.27210546885 255 255 255
72.0964793100709 878.958117858857 2915.34955219213 255 254 251
76.3365767081687 881.683795338383 2902.38044129028 255 253 247
79.7455635269921 884.161557677054 2890.0429159599 255 252 243
82.3302707248539 886.391877798106 2878.34134154984 255 245 236
94.0969763336072 891.540156424257 2858.48945079503 142 128 117
108.830354351078 897.654011039542 2835.85261402015 136 120 107
119.620646910373 902.543369715516 2816.5266257567 119 101 89
127.263178364868 906.453687433095 2799.85453472721 122 106 93
100.606070028761 899.432426623661 2813.84300873784 86 76 67
232.19720647219 897.430927148635 2940.10436539635 251 251 251
226.192365886774 896.966872024023 2935.74897777565 239 239 239
217.754425385265 895.771577417726 2933.33148459333 255 255 253
203.667611530823 892.87141537376 2935.4562124333 253 255 252
191.238016452683 890.46232742262 2936.31441318268 252 254 251
173.211954664235 886.352269451805 2941.75313986622 253 253 251
156.054043309311 882.491095973403 2946.58713686906 254 254 254
140.557786721203 879.121236464899 2950.15782374054 254 255 253
129.901264893394 877.213275651371 2949.83382817769 253 255 252
117.679407690617 874.82216227576 2950.84300806806 253 255 252
107.07962633099 872.919216279649 2950.56017028254 253 255 254
96.5061562642377 871.018749896206 2950.29612419744 253 255 254
88.3259695958452 869.847263671888 2948.06560286364 253 255 254
80.9455712173639 868.91913420233 2945.18106115025 253 254 255
73.5737743828593 867.992000272837 2942.30275992227 253 254 255
66.9930951397983 867.307510316452 2938.76385465295 254 254 254
58.8556603285899 866.140383626576 2936.56434713469 254 254 254
56.178279278968 866.664440964703 2929.68566993359 255 255 253
54.2590328342287 867.428530030006 2922.12246538876 255 255 253
53.8648785390809 868.673358279121 2913.1971944706 252 247 243
51.1249069350996 869.193241241543 2906.27312289686 255 252 248
56.8302840212462 872.360150657259 2891.89809170282 210 203 197
64.7708945769261 876.243893607208 2875.44194996867 98 91 83
65.7471217772794 877.958052525884 2865.04210735893 103 94 87
38.4597044483073 870.780231360819 2879.8079005493 198 189 184
244.356631832519 892.158622048817 2940.24644171187 251 251 253
232.62754797404 890.002293496613 2940.37870164102 255 255 255
221.742876313036 888.090357390912 2939.88900078247 255 255 255
212.506643229692 886.663188882153 2938.12696489036 255 255 253
200.05202113724 884.273700724844 2938.96712229979 255 254 250
185.212008916872 881.164724294371 2941.77981951341 254 253 249
167.201489853237 877.097029202457 2947.2300280262 255 252 249
151.66396266806 873.756337309169 2950.77123917784 255 254 250
135.378844666986 870.179862892291 2955.00434813691 255 255 251
120.746730061104 867.088505156729 2957.96784401019 255 254 250
106.958708341932 864.241285383052 2960.30944080859 255 254 252
96.3889286224329 862.357199403558 2960.04844738197 255 254 252
89.0112816204782 861.434300948281 2957.16563221924 254 254 252
81.6420995307001 860.512337578932 2954.28925266542 255 254 252
72.7072323225197 859.112559899372 2952.74552759061 255 253 250
64.5746610821267 857.953653652762 2950.54958741679 255 253 250
58.8029758276405 857.513086983949 2946.36333804492 255 254 252
53.0309884958102 857.072734818762 2942.17687077723 254 254 254
50.3719290913569 857.587343296297 2935.31142746738 253 254 255
43.0381543303953 856.669622423205 2932.46073693093 253 254 255
39.5824405176999 856.944533422811 2926.25160435331 243 244 246
35.3415408351614 856.980496792553 2920.70710009429 245 246 248
34.1696504568745 857.968042138194 2912.45176513232 251 252 254
34.5054865162955 859.42942342032 2902.82174005555 247 248 250
27.91946287106 858.748861806266 2899.27898041287 253 253 253
16.7596184563323 856.643606734006 2899.82415286021 255 254 253
4.86902352858554 854.303346310722 2901.07372942347 255 251 250
266.390436572842 889.720853867395 2932.73940639946 233 233 233
246.423889644046 885.18864969858 2939.23936899744 254 254 255
232.242477309208 882.334713044014 2941.29575452085 254 254 255
219.732083017417 879.961975514778 2942.09556631797 255 255 255
208.879609087157 878.069505898608 2941.6295993602 254 253 251
194.816630075802 875.226119565093 2943.77189316675 254 253 249
176.762310109331 871.195621393529 2949.19053788004 254 253 249
155.554739995674 866.218665561346 2957.25897126713 255 252 251
140.048802425452 862.913441262962 2960.82296757816 254 253 251
126.996426077369 860.325531262857 2962.46412623143 254 253 249
111.588645233774 857.028567831458 2966.0996147683 255 254 252
98.6216995838145 854.447986518981 2967.80244660206 255 254 252
89.6629699657057 853.05650226887 2966.24175964192 255 254 252
84.6799762782875 852.851751474648 2961.3931129662 255 254 252
75.7450959291179 851.462666873441 2959.84943252776 255 254 252
68.4018329496738 850.548598391161 2956.99188227932 255 254 251
59.4971101360766 849.162494580998 2955.4700787803 255 254 251
56.8723830998943 849.668473294546 2948.62948002544 255 254 252
51.1071361417459 849.228667174798 2944.44790176431 253 255 254
47.677026343413 849.497109019539 2938.25729731558 253 254 255
40.3518581095956 848.585522058311 2935.4128769038 253 254 255
33.0352387704931 847.674916013595 2932.57436425975 252 255 255
28.0425497894048 847.471540928185 2927.718990704 251 255 255
23.8147539110374 847.503188908836 2922.18396381398 246 250 253
20.3450650215578 847.76945040903 2915.96495107056 253 254 255
14.5660206643474 847.329900653835 2911.77337207894 253 254 255
8.02341357123293 846.655664224012 2908.26211805975 255 254 255
1.48461327574267 845.981676443436 2904.75362492885 255 254 255
-6.56781403627216 844.839180222137 2902.61586591908 252 252 252
-21.4164090693874 841.588831441539 2906.65695629598 250 250 250
272.062991735226 882.453317551905 2938.04978782 255 255 255
259.441814713812 880.092515721403 2938.76935130886 251 251 253
240.310895284146 875.844568749448 2944.64148130367 252 252 254
224.513788167326 872.546953100482 2947.99473561283 255 255 255
211.210637594911 869.961967935602 2949.45411749397 255 255 255
199.5701907126 867.852011909743 2949.65086714474 253 253 255
185.532324298041 865.03802264399 2951.81151451058 253 254 255
167.502593911594 861.050609889115 2957.24790849432 254 254 255
149.538390789128 857.068575675595 2962.73212631052 254 254 255
134.048177021837 853.797315405892 2966.30798765338 254 254 255
121.812981875307 851.470411139717 2967.30752933845 253 253 253
105.620659991364 847.972549383298 2971.60830637181 253 253 253
93.4660953972006 845.652416066342 2972.66633316123 253 253 255
85.316492288956 844.507603696626 2970.45811761119 253 253 255
80.3469398176175 844.301263677501 2965.61950118714 254 252 253
69.8454246026166 842.455925445426 2965.40819042164 254 252 253
63.3071624408852 841.782698185468 2961.90009124758 253 251 252
54.4172454052605 840.408667182804 2960.38908192414 253 253 253
53.3747469860257 841.37235238479 2952.22771957533 253 253 253
47.6207146344589 840.93351451706 2948.05427592623 250 254 255
44.2022268415836 841.194712971173 2941.87205982808 251 255 255
36.1115029716648 840.056462790858 2939.70656033323 251 255 255
28.8078232570732 839.152341687216 2936.87746074664 252 253 255
22.2843666426349 838.481698307832 2933.38040199467 253 254 255
16.5348586003713 838.044123116839 2929.21024450965 252 251 249
11.5526484455595 837.839196822236 2924.36216494449 252 251 249
7.33082213301905 837.866200794564 2918.83173647434 255 254 253
3.86310513477062 838.124725497957 2912.61381953153 255 253 254
0.381846039446909 838.382392115721 2906.38608128718 253 253 255
-6.14878683126707 837.711993434583 2902.8835270763 247 248 250
-11.1622653372847 837.505022363716 2898.01306453588 248 252 253
-19.1986824237074 836.372067795738 2895.88696001068 243 249 249
272.781133879069 873.786056284941 2947.17232835739 176 178 177
263.447408392918 872.382225461257 2945.33944187485 250 250 250
255.772255505316 871.447782270931 2942.24119434719 255 255 255
237.468360348684 867.477899107578 2947.47922370591 250 250 252
222.494822965305 864.447303165869 2950.19552269193 255 255 255
206.755481327205 861.187644469961 2953.59084468884 255 255 255
192.692287503112 858.398667349859 2955.73325836644 251 252 255
175.434956833088 854.68190601455 2960.49591566203 252 253 255
158.238956961478 850.970232645524 2965.30305873381 252 253 255
143.519606780515 847.961483322106 2968.20373410491 252 253 255
127.242530275011 844.491944603278 2972.44321416612 251 252 255
115.025877717111 842.188299600682 2973.45661005918 251 252 254
102.844209248912 839.887717316389 2974.49508770172 247 248 250
94.6791872407244 838.749721258873 2972.27572918803 247 248 252
85.7330046532847 837.381288567604 2970.72396012186 247 248 252
79.1798408789499 836.709134734192 2967.20535836494 248 248 250
67.1026052892185 834.417789347321 2968.3195884165 248 248 250
61.3606937762636 833.979276220726 2964.15493306686 249 249 251
53.2623420486931 832.847756588142 2961.98393806676 249 250 252
51.4421524539959 833.56467743615 2954.49259750721 248 252 255
44.9139056831491 832.89572667583 2950.99178036506 249 253 255
39.1684748755585 832.457884348165 2946.82457720136 249 253 255
31.8694188136135 831.559335523874 2943.99885762394 250 254 255
23.8042346824479 830.431458737536 2941.85192497405 254 255 255
17.2960842348644 829.76474380005 2938.36598188741 251 251 251
12.3321833936942 829.558433060914 2933.53116812196 255 251 248
6.59547545933359 829.122014309043 2929.37029556592 255 254 250
3.15518210230792 829.374396499085 2923.17222749284 255 250 246
-1.06230289184772 829.396375223251 2917.64492068316 255 254 255
-5.28900469049276 829.417895644162 2912.1106356168 251 251 253
-10.2840841939087 829.209666882199 2907.25350453556 249 250 252
-13.0135622568215 829.687742854427 2900.33682819304 245 249 250
-15.0064070220264 830.393295077611 2892.7199741544 240 246 246
-20.7842260039242 829.954322542003 2888.52928638722 230 236 236
264.13821417822 863.761451212147 2954.44269564548 253 255 254
255.651472408716 862.601862693806 2951.98971176387 252 253 255
248.818845030658 861.905814571706 2948.26839984729 251 252 254
235.443522306202 859.363723252445 2949.67538538395 249 250 252
222.107573921806 856.825071027482 2951.11122611672 249 250 252
203.926755488417 852.906680402861 2956.43873723856 248 249 251
189.059319200578 849.915388154173 2959.232150254 246 247 249
167.762618900801 845.086545702408 2967.23672149051 247 248 252
152.201537789563 841.874844377517 2970.76151126115 247 248 250
138.303523732288 839.127268509991 2973.02387698234 244 245 247
124.449267356327 836.38335699028 2975.31798214119 242 243 245
113.842423851748 834.56137883103 2975.03014049711 240 241 243
102.462705695398 832.512344478998 2975.41650102287 236 237 239
95.0962885614808 831.611923285557 2972.54194048291 236 237 239
83.7667104324771 829.567358683247 2972.96437674767 233 234 236
74.8438433796665 828.211997262123 2971.42987029571 240 241 243
64.3586075022582 826.400886321739 2971.23023966041 238 239 241
59.4133503343484 826.191615500295 2966.40922057521 238 238 240
52.8924373792687 825.525588869633 2962.91373468391 242 242 244
48.7253684114592 825.54454234018 2957.42296020416 241 242 244
40.6435334029456 824.423023599242 2955.26398918268 247 248 250
34.1324091247674 823.758387398728 2951.77560635497 246 247 249
26.0717449436405 822.638822706172 2949.63199241571 250 250 252
21.1220306087698 822.430564912246 2944.80774736624 250 250 252
13.8504857605728 821.53998020934 2942.00201159463 251 251 253
8.12750590329969 821.104554097183 2937.85109584256 255 254 255
1.63613312492084 820.442175170395 2934.3770427321 253 251 252
-0.256721897053058 821.141260545368 2926.83293511338 227 225 226
-4.46265154865944 821.158847823219 2921.31368829755 228 228 230
-6.39394650689873 821.855177597551 2913.74170079102 230 230 232
-10.6251143174256 821.870899534511 2908.20414884686 234 234 236
-11.837643760845 822.790748829879 2899.91901086545 234 234 236
-13.832042369001 823.482563942967 2892.30125530874 225 226 228
-16.6015195243265 823.946765143523 2885.35551249206 225 226 228
-25.392543030953 822.604224938971 2883.91635270538 201 202 204
266.219483020969 856.769074848509 2953.44566634585 254 255 255
255.259084265866 854.932026975432 2952.90174310138 250 251 253
245.966674930474 853.554066639058 2951.09893861737 249 250 252
231.780473464423 850.809073193257 2953.15240421619 246 247 249
218.454379655496 848.295893494482 2954.59551776439 246 247 249
202.725364565258 845.102779202451 2957.99836827973 245 246 248
187.048723107181 841.91415709235 2961.43950278954 243 244 246
165.756035707304 837.137616849448 2969.44724798382 245 246 248
146.161871893951 832.822458519842 2976.2182584292 245 246 248
131.474783705299 829.876365311867 2979.14263857261 242 243 245
120.851839435617 828.069223999561 2978.84349476888 239 240 242
110.255121273583 826.264446269718 2978.56337480229 234 235 237
100.483453020745 824.688691603783 2977.64718006306 232 233 235
90.7333485642856 823.114873435663 2976.74692166578 232 233 235
81.7995796767628 821.769372372705 2975.20426770882 232 233 235
72.882940693463 820.425438254472 2973.67403952189 231 232 234
65.5638006799659 819.535070750191 2970.8340965764 234 235 237
59.0409676964647 818.871397816053 2967.33723073745 237 237 239
52.522077246715 818.20823386094 2963.84351998047 242 242 244
44.4402813532481 817.094723959992 2961.68461788067 241 241 243
37.1527736787192 816.207685339162 2958.8673282772 246 246 248
29.8734004997758 815.3214355492 2956.05623401578 245 245 247
24.9334210711321 815.111088329739 2951.23874094722 248 248 250
19.2135871783008 814.67561835671 2947.09010554974 255 255 255
11.9482493857128 813.790923796276 2944.28919371696 255 255 255
7.77274409372897 813.804941661225 2938.79198408893 235 235 237
2.05158716436316 813.369782714188 2934.64239116944 226 226 228
-1.37233918722823 813.607071623399 2928.45640591448 236 236 238
-6.33721122313879 813.395603982367 2923.62086198852 230 230 232
-8.26100986807221 814.078859707998 2916.05424249684 230 230 232
-10.9665999040716 814.536944896638 2909.15478183756 234 234 236
-13.6901659293005 814.993802446559 2902.24198930481 234 234 236
-16.4320675952689 815.449125219658 2895.31619157787 227 227 229
-16.933763995568 816.572564523458 2886.31234623367 227 227 229
-21.9703532268689 816.355894786315 2881.42508110963 209 210 212
-37.4893468988153 813.019521553433 2886.21478610461 214 215 217
279.293269848608 851.589224681668 2953.0157199987 253 255 254
266.650725645287 849.313748968251 2953.72052063203 252 254 253
254.043685229317 847.041557305889 2954.45078087584 245 246 248
243.113505734649 845.223805285806 2953.92886195546 243 244 246
228.115980695202 842.28131036431 2956.62851250373 239 240 242
212.350309173638 839.117786871817 2960.00493987295 238 239 241
199.080180150189 836.634054115739 2961.48877264306 238 239 241
185.8495620986 834.153820908096 2963.00126548579 237 238 240
164.558767992778 829.429341060153 2971.01035238848 239 240 242
144.966373566432 825.160817117225 2977.78317618964 239 240 242
129.476667530403 822.020605807758 2981.35977490952 236 237 239
119.662968689529 820.454600193173 2980.41345515793 233 234 236
109.070012855788 818.666556803058 2980.13614734614 228 229 231
98.5031823349081 816.880858471527 2979.87749573235 230 231 233
87.1654429078186 814.873640137894 2980.2944993412 226 227 229
78.2421467009011 813.539860853225 2978.75949662702 228 229 231
70.1285505945339 812.43118301347 2976.57756634959 225 226 228
64.3985857741942 811.99351821458 2972.42157570933 231 232 234
56.3040321889172 810.886801238109 2970.25345969398 234 234 236
49.008251768079 810.004170656858 2967.43019532775 242 242 244
39.3697550581171 808.454090939428 2966.61096400767 239 239 241
32.8788502820601 807.796350199817 2963.13727365542 247 247 249
26.3918868370672 807.139048239607 2959.66644268067 248 248 250
23.794203505787 807.593448361179 2952.8451872289 251 251 253
18.8537960806023 807.380448099733 2948.02766493535 251 251 253
12.3632916038185 806.723337226979 2944.55426795899 244 244 246
5.87667701152528 806.066720709696 2941.08369334691 224 224 226
0.162215611361205 805.63204443138 2936.93895660424 222 222 224
-4.02065312453392 805.640278421708 2931.43667423914 233 233 235
-7.44880845464713 805.869148963068 2925.24728618968 231 231 233
-8.60548653681037 806.760365024137 2917.00249101899 231 231 233
-11.3082544860639 807.20768597128 2910.10502162762 234 234 236
-14.0290836097723 807.653663249499 2903.19445249949 233 233 235
-16.7679883148093 808.098464564744 2896.2704795632 229 229 231
-18.0193971539346 808.982614174561 2887.95727072919 229 229 231
-23.0512586137444 808.763449378128 2883.07312575261 223 224 226
-32.5795647883611 807.223431455429 2882.33382486816 207 208 210
281.380743002593 844.558348583489 2952.02328780497 254 255 255
269.558598773846 842.527709811335 2952.08872292922 246 248 247
253.650821487032 839.384647466554 2955.36253291329 242 243 245
242.72256368483 837.583589803423 2954.84179715198 240 241 243
224.450235377956 833.780380167279 2960.10355422803 236 237 239
211.14399845759 831.318097745463 2961.56132026326 235 236 238
194.619160975336 827.969722003525 2965.6218068193 235 236 238
179.775964441909 825.070606606216 2968.43325864394 234 235 237
160.930260437181 821.065323785327 2974.51337652886 237 238 240
142.154556726645 817.06577151275 2980.64426814727 237 238 240
126.672041629566 813.958942104074 2984.22624881816 234 235 237
116.06307681804 812.185732638324 2983.93741089348 231 232 234
105.480289968637 810.414882854711 2983.66756188446 225 226 228
95.7228612284324 808.867595030023 2982.76212833901 230 231 233
85.9871765581959 807.322297334383 2981.87217313729 226 227 229
77.8625526979191 806.220612307182 2979.68228402568 218 219 221
69.7508634789852 805.120273849257 2977.50177833226 223 224 226
64.0233026339141 804.682863542989 2973.34753167403 221 222 224
56.7188074565785 803.804854527202 2970.51826768099 229 229 231
50.2089490389288 803.147908340038 2967.03084145402 242 242 244
39.7838558540968 801.39126735347 2966.87537991816 240 240 242
30.9479576055036 800.076517041153 2965.40383023463 248 248 250
24.4676308315843 799.422500940814 2961.93782696791 249 249 251
22.6544630049421 800.086101709039 2954.45130656116 251 251 253
17.7188730402089 799.87073314174 2949.63697007454 230 230 232
11.2325127729584 799.216597082422 2946.16688686915 225 225 227
4.75022716752349 798.563019733036 2942.69946582602 229 229 231
