ply
format ascii 1.0
comment KinectMotionCapture
element vertex 761
property float x
property float y
property float z
property uchar red
property uchar green
property uchar blue
end_header
240.689174000476 635.271332014264 2648.47201405235 177 177 179
238.534932955487 635.477549234102 2656.24870355339 179 179 181
234.056422199967 636.010453524487 2662.03407723451 178 178 180
229.582316816478 636.542271728291 2667.81523683919 186 186 188
224.328729709549 637.183341081649 2672.9373767282 191 191 193
217.503953319875 638.044689870295 2676.75335496165 189 187 190
210.671784627369 638.906629801123 2680.57624864854 179 177 180
203.832645517189 639.768904706506 2684.40635239612 177 175 178
196.986177879908 640.631762714126 2688.2433094552 186 184 187
190.926338859112 641.383747928936 2692.73276677967 192 190 193
184.067442493333 642.247347211698 2696.58195618974 199 197 200
177.99917027952 642.999687938567 2701.07973525501 199 197 200
171.927439676653 643.752005937627 2705.58061406891 200 198 201
165.051181757058 644.616778412151 2709.44720820333 202 200 203
155.757442563856 645.81947107429 2711.41304888608 184 182 185
145.639729060858 647.136846976972 2712.76324878846 187 185 188
136.306686769731 648.343773755278 2714.76783006993 215 213 216
127.764144607075 649.439352713081 2717.42079951505 205 203 206
116.773250188888 650.876848536034 2718.20341798472 189 187 190
106.568900726816 652.203613088459 2719.63826103684 202 200 203
95.5269938011956 653.646655316132 2720.47071592429 213 211 214
88.5433881849877 654.522025270084 2724.44200376352 201 199 202
81.5526429179192 655.397941477512 2728.42030064556 196 194 197
76.1966290621445 656.045259872665 2733.64322820467 220 218 221
66.727473230122 657.266456453057 2735.78086317386 200 198 201
56.4147876483219 658.604814585837 2737.32157206826 206 204 207
45.2529156227897 660.060975380421 2738.27121515488 185 183 186
34.8931269577126 661.404622948193 2739.8579163311 192 190 193
26.1719812821162 662.519179587107 2742.68543681184 195 193 196
17.4359360365082 663.635319709432 2745.5275187477 182 180 183
3.67869928336484 665.450633313021 2744.7502489519 174 174 176
-15.9708978667865 668.085812233902 2739.78396349157 185 185 187
-43.2301061594638 671.779149531693 2729.46454165504 146 146 148
-62.1872221721076 674.314865732729 2725.24222205268 145 145 145
-79.5214246298821 676.623545956806 2722.27569975295 145 145 145
-91.0004248263174 678.116560448487 2723.53480884096 154 154 154
-100.813785255873 679.377257545038 2726.00840590474 197 199 198
325.198767798535 618.037247884037 2506.16809778769 198 199 201
333.075806969371 616.877016857546 2524.02395785694 201 202 204
338.811130600047 616.012734131491 2539.71176629322 208 209 211
337.951384869327 616.058320494375 2549.06056261698 199 200 202
334.891759296061 616.406997747816 2556.29834749018 208 207 212
330.357909681747 616.958541170384 2562.13625646253 185 184 189
324.337797944358 617.714494429415 2566.58533969011 191 190 195
318.314330285912 618.470268029444 2571.03811979242 194 193 198
310.789249899278 619.432314646885 2574.11737999241 168 167 172
305.505733499281 620.084999917114 2579.26752328443 200 200 202
298.716767197929 620.944441941403 2583.04788554775 209 209 211
290.410847654058 622.012077860777 2585.47001520337 153 153 155
276.792355397158 623.80991740719 2583.14064341209 156 156 158
266.92503930058 625.090714387892 2584.24760133703 165 165 167
260.838297525504 625.850749659638 2588.76258369929 130 130 130
259.323656948522 625.981625380898 2597.33218523888 167 167 167
259.358084705915 625.89953792563 2607.22917136491 163 163 165
257.887325843214 626.024160995725 2615.75645969463 169 169 171
252.594176640206 626.673696940673 2620.91663397134 173 173 175
246.53123412393 627.428373184634 2625.40877537977 171 171 173
242.009422314433 627.971099954057 2631.23569588948 172 172 174
242.137714908221 627.875115435784 2641.04152682523 178 178 180
239.965046653302 628.09485977526 2648.83451551577 178 178 180
236.252275103905 628.525657472884 2655.29183731503 176 176 178
231.767617645332 629.061990250048 2661.08280803429 179 179 181
228.851510930036 629.383021721131 2668.18216259448 188 188 190
222.811766649681 630.131883986351 2672.65212711522 191 191 193
214.410922621516 631.203879666642 2675.16787381623 181 179 182
207.570746470997 632.06140393275 2678.99937166062 174 172 175
202.303117676248 632.703123056268 2684.13535911746 181 179 182
197.036066094129 633.344415600005 2689.27083644194 188 186 189
190.182189470039 634.202428683141 2693.11586681216 192 190 193
181.729982308784 635.278835593558 2695.68196588573 193 191 194
174.858167995267 636.138330374811 2699.54492749438 195 193 196
169.578077648006 636.779733472582 2704.69333616556 198 196 199
161.894244462788 637.749468918029 2707.92910383592 200 198 201
151.789301259135 639.04960818255 2709.26917020986 193 191 194
142.466987920631 640.242222301986 2711.26487504551 180 178 181
132.318684220286 641.547061251341 2712.64730442228 189 187 190
123.766311772019 642.633206115249 2715.31142984129 211 209 212
114.387990402049 643.831688522542 2717.36222199175 196 194 197
104.990755118963 645.032155585238 2719.43116476434 177 175 178
94.7598126105462 646.345820311112 2720.89435125324 205 203 206
86.1403610171245 647.439006315275 2723.62404657755 209 207 210
80.7815383366335 648.086973651546 2728.84966742791 180 178 181
75.4233980846406 648.734619081555 2734.07465819429 214 212 215
66.7749366110879 649.83057770966 2736.83275096581 200 198 201
55.6375731322385 651.265309507474 2737.76122389963 206 204 207
44.4737459559414 652.703023661883 2738.71553488522 188 186 189
34.1119779072518 654.030881241608 2740.30653537197 181 179 182
24.5581358149431 655.248201608489 2742.52850011019 195 193 196
12.4884562647178 656.807500842479 2742.94745635467 176 174 177
0.388297058416587 658.370360715197 2743.39581524536 167 167 169
-18.4323847097461 660.847055275981 2739.04707563601 180 180 182
-44.8588840173816 664.357383726436 2729.34471941307 145 145 147
-68.860802773437 667.536281153704 2721.53477001616 143 143 143
-85.3680768967191 669.694806245821 2719.18653567867 139 139 139
-96.0163659087732 671.055940804028 2721.0574752367 156 156 156
-100.765575539338 671.615128134919 2727.10777228049 194 196 195
330.393928984027 609.94506849032 2512.1246252623 203 204 206
339.018922681066 608.73288167548 2530.66200594877 199 200 202
342.557141374251 608.204139724541 2544.23091349199 207 208 210
340.967574404659 608.364025720603 2552.8709681831 200 201 203
336.43282602171 608.918938770604 2558.70893377454 213 212 217
331.902270425021 609.472792533838 2564.54289242936 200 199 204
325.140838812398 610.325624987392 2568.29722707339 177 176 181
318.37180500371 611.178780199372 2572.05872526496 206 205 210
310.84641466123 612.132905100097 2575.13946408196 175 174 179
302.558865270425 613.188613251071 2577.54511482299 175 175 177
295.008984649479 614.144705132829 2580.6498821296 194 194 196
286.693065289887 615.202869361446 2583.08334166181 159 159 161
275.334813358083 616.668249122418 2582.80938317947 152 152 154
266.222227035315 617.831757183993 2584.6014656928 150 150 152
260.893793159152 618.487569356263 2589.7957505479 139 139 139
260.141424013685 618.529866732331 2599.03874428799 163 163 163
258.648177029512 618.671195499592 2607.58555671803 165 165 167
256.408426323527 618.912310820921 2615.44200065235 171 171 173
249.57433629123 619.768111295989 2619.26804750893 173 173 175
245.814201699297 620.212028123606 2625.7701246659 172 172 174
240.517861696557 620.861022818336 2630.93354745046 175 175 177
241.416189244744 620.680847402663 2641.40441283087 179 179 181
238.465048882978 621.015553527302 2648.53653521208 177 177 179
236.304233171034 621.244182178869 2656.31644105478 176 176 178
230.259190401634 621.991943338028 2660.79182979646 180 180 182
226.556709891045 622.42617423072 2667.23808717533 188 188 190
219.726967121856 623.277947503436 2671.06041235413 191 191 193
212.103997806349 624.2352925849 2674.23757259252 178 176 179
205.25774711281 625.088334418119 2678.07576504955 173 171 174
199.194271284762 625.836296479457 2682.56942839771 184 182 185
194.710885571262 626.372881714732 2688.35909894211 189 187 190
187.850934404153 627.22641236498 2692.21082392498 191 189 192
180.984053182495 628.080508776676 2696.06968477716 193 191 194
172.514876623276 629.14796880996 2698.65395705829 196 194 197
167.22872758154 629.790135702439 2703.80826921412 199 197 200
159.538929658966 630.75266230623 2707.0510254205 198 196 199
150.231318176053 631.930449881339 2709.03432245299 196 194 197
140.099695814731 633.217618112664 2710.40279873793 176 174 177
129.945690028828 634.507123341794 2711.79349452909 181 179 182
121.387103165502 635.583450280607 2714.46490419718 215 213 216
112.813954956954 636.661246057486 2717.15089424469 203 201 204
105.038931680501 637.63215791825 2720.47704115001 175 173 176
96.4380044352629 638.712807027004 2723.1901944704 190 188 191
87.8222855284219 639.79484910912 2725.91783024856 212 210 213
80.0105562284199 640.769562783816 2729.27986487145 173 171 174
70.5461291200669 641.963817205927 2731.41644834537 192 190 193
61.0632716054584 643.160028222725 2733.57138214331 209 207 210
50.7369126252049 644.467972094209 2735.13016413904 199 197 200
42.8678820485007 645.448612191131 2738.54822385414 191 189 192
33.3309507913557 646.650755529975 2740.75597688317 175 173 176
21.2836168381711 648.186257882083 2741.15592294621 189 187 190
6.70889076095182 650.057117021335 2739.76531321031 174 172 175
-7.90792053991973 651.932822959032 2738.41544052693 163 163 165
-28.4204937074155 654.591305811763 2732.88574938028 170 170 172
-54.8698496623956 658.037409181258 2723.21558258496 132 132 134
-77.2143202115814 660.936903327285 2716.63521477742 141 141 141
-91.2144625523275 662.727526280563 2716.10280308825 138 138 138
-101.032300057529 663.96225181172 2718.58468454036 165 165 165
-104.101113851031 664.300942278112 2725.83306949484 185 187 186
334.855116573603 601.985029180252 2517.3728841194 196 197 199
344.226620779122 600.726454636749 2536.59340992325 198 199 201
345.565746434361 600.517536578511 2548.04737589291 208 209 211
341.765745855851 600.979675126403 2554.58668524358 208 209 211
335.008979745764 601.827627732806 2558.33677037191 198 197 202
329.731076943914 602.481787166372 2563.48112139729 217 216 221
324.453507958071 603.135432766514 2568.6252168828 190 189 194
316.935243853669 604.081170250736 2571.70011889654 209 208 213
309.40565377424 605.027804834634 2574.78613517997 192 191 196
299.61222670263 606.269376696755 2575.82585550822 182 182 184
292.054255486618 607.218527735 2578.93968274898 154 154 156
282.220619869727 608.464061153348 2580.01840739881 196 196 198
273.1207586518 609.613240784654 2581.79963358866 166 166 168
263.243444439655 610.863147138345 2582.92142325334 143 143 145
260.188598382829 611.22238000391 2590.1525640392 149 149 149
259.43381710928 611.281197894332 2599.39551133333 161 161 161
257.173715830645 611.536023836905 2607.27013726329 168 168 170
253.39686561078 611.988285592721 2613.78791775116 174 174 176
246.554513852975 612.839892401915 2617.62245060329 173 173 175
243.556732661641 613.189736449972 2624.79865063926 173 173 175
239.026662509212 613.738975377695 2630.63314715342 180 180 182
239.920416147645 613.580972204424 2641.10493960409 180 180 182
235.412635512589 614.126529689828 2646.91750857158 177 177 179
233.243810073591 614.367005320922 2654.70395505524 177 177 179
229.530710737918 614.808412799064 2661.1596963882 182 182 184
224.2620884319 615.451967266432 2666.2963991534 188 188 190
218.210146061304 616.197237006843 2670.77900753167 189 189 191
209.797252032519 617.249405065993 2673.30965057517 176 174 177
202.944949131554 618.097843712914 2677.15453331257 174 172 175
196.875395247709 618.844036350223 2681.65449378008 186 184 187
193.177516796465 619.2812252098 2688.09574405977 190 188 191
187.107268918683 620.026679772501 2692.59650276063 191 189 192
178.646944593573 621.082763265213 2695.17366609016 192 190 193
170.969266520665 622.03650880372 2698.40568494428 197 195 198
165.678970440871 622.679375402719 2703.56401175388 198 196 199
157.183729582242 623.738622333925 2706.17538016253 194 192 195
147.870181107598 624.903831406393 2708.16643181277 198 196 199
136.927428511382 626.280358210291 2708.91025593594 174 172 175
129.994418086625 627.135125311344 2712.83468493677 176 174 177
122.245012779285 628.095672392045 2716.13692473004 215 213 216
113.67340953632 629.162672050607 2718.82263842346 205 203 206
101.835083792535 630.653591191625 2719.02196346599 178 176 179
94.8561266222017 631.512866333749 2722.9910141359 182 180 183
87.8703255086428 632.372578443968 2726.9671342009 206 204 207
80.0584563214111 633.339348962097 2730.33048172895 179 177 180
68.1315620004792 634.839972396809 2730.6159845455 180 178 181
58.642809472786 636.023658587716 2732.77862334237 208 206 209
51.6092540960891 636.888165574141 2736.80111757401 197 195 198
43.742038882741 637.860674992918 2740.21857631714 189 187 190
32.5497929580512 639.264290701997 2741.20614727532 173 171 174
19.6701633297485 640.886276797035 2741.0028836702 180 178 181
2.59432122635683 643.052160818663 2737.80124877765 177 175 178
-15.3691944500456 645.332384811743 2734.04727814976 165 165 167
-41.753189880974 648.703790581202 2724.32324766051 172 172 174
-67.3948265142639 651.977924232336 2715.29366784744 129 129 131
-83.8870540371985 654.065205121457 2712.94102187546 132 132 132
-97.0605390795529 655.721700701069 2713.02446055372 149 149 149
-109.423982322832 657.272863395197 2713.73633106507 169 169 169
337.326504611727 594.32261608035 2510.38328546069 192 193 195
341.516413866588 593.776449059516 2524.72453937785 201 202 204
345.021911022609 593.316933762695 2538.31570822194 192 193 195
344.150778341614 593.412886719662 2547.66870563704 208 209 211
341.085622041613 593.787087085035 2554.90821029884 203 204 206
335.067666202457 594.535987143793 2559.35619514752 192 191 196
329.789379669204 595.190312890452 2564.50090264285 202 201 206
323.76644647441 595.938706978362 2568.95424270352 214 213 218
317.739989740894 596.686955576049 2573.41110319362 169 168 173
310.960938088954 597.530287556969 2577.18400112089 212 211 216
300.420138526376 598.850775630997 2577.5369624395 160 160 162
290.605298938423 600.078430709876 2578.59966476551 177 177 179
277.74849041273 601.691777788458 2576.95810699328 159 159 161
267.880046924967 602.925070082936 2578.0732056062 185 185 187
259.506104955618 603.968140829392 2580.56651325771 164 164 166
259.483738368428 603.950471934195 2590.51037597244 156 156 156
258.726501911133 604.025874735648 2599.75331005772 163 163 163
255.699616600817 604.388822832584 2606.95647414138 169 169 171
252.684873707582 604.749827403127 2614.14786787773 174 174 176
247.377128875869 605.401380265468 2619.32223773 174 174 176
245.15117729741 605.661454045608 2627.16217687477 172 172 174
239.852241055726 606.311070881642 2632.32808581076 176 176 178
238.425026816669 606.469005947856 2640.80721018702 174 174 176
233.913011134977 607.017927831852 2646.62348736178 178 178 180
232.51777870893 607.171136494358 2655.07121404334 176 176 178
228.022604369952 607.717155626853 2660.87153438322 180 180 182
222.749771788651 608.361358803973 2666.012322135 192 192 194
215.12577541744 609.303265591936 2669.19278402793 188 188 190
209.06232009283 610.046933382067 2673.68672386528 174 172 175
202.995762334565 610.79056646356 2678.18408743704 173 171 174
196.92593452498 611.534199005196 2682.68469829789 186 184 187
192.436141338693 612.077194042743 2688.47978419152 190 188 191
185.570118587644 612.920980623596 2692.33931635818 191 189 192
177.901246180406 613.866127027066 2695.56386200452 192 190 193
168.626329180063 615.014318410114 2697.51906723677 195 193 196
164.928986179432 615.455377641098 2703.95955160888 190 188 191
155.630095966208 616.605883602631 2705.93822050222 192 190 193
146.312690850928 617.758297842062 2707.93533076636 191 189 192
135.366007133292 619.116509170631 2708.68576557047 183 181 184
129.235859369202 619.864397815777 2713.2453081456 175 173 176
123.102693128748 620.612359105788 2717.80817521749 205 203 206
114.533140693821 621.668413831909 2720.49380792645 218 216 219
101.88350476171 623.240766477825 2720.06949298317 188 186 189
93.2745873655714 624.301135125699 2722.79357808478 177 175 178
87.1014278581463 625.052735988553 2727.39528329272 202 200 203
79.2876731294094 626.011770379664 2730.76198442954 199 197 200
67.3588484290675 627.491231485361 2731.05253192437 168 166 169
56.2225683600972 628.870042192294 2731.98819412898 215 213 216
49.1830223976741 629.730174099332 2736.01728373562 193 191 194
40.4834135008034 630.799911942975 2738.83004207508 191 189 192
29.2833875752225 632.185815326791 2739.82795656309 179 177 180
15.565621034622 633.889832288789 2739.02794185779 161 159 162
-0.687402650023206 635.914112096951 2736.44707447056 182 180 183
-22.8303563925114 638.682706616949 2729.68594440256 172 172 174
-54.2488028961876 642.623679800898 2716.37522268799 170 170 172
-79.0810230192069 645.730950008376 2707.98345197667 105 105 107
-93.0799527678983 647.468066345103 2707.45740657823 93 93 93
-105.432530881202 648.996689508252 2708.16181918773 162 162 162
-116.127358398393 650.315467522347 2710.08489460605 165 165 165
343.239260565589 586.218384112053 2517.04592140528 191 192 194
343.043900285185 586.248352166641 2527.15452869431 201 202 204
341.40540422104 586.455697668969 2535.83581836333 199 200 202
341.26119060249 586.478215404093 2545.89473741501 198 199 201
337.448675929533 586.952781816503 2552.44463661351 217 218 220
333.644254991732 587.425797165554 2558.98672785984 193 192 197
328.361705036754 588.080778321917 2564.1355721267 198 197 202
323.079501142594 588.735067194725 2569.28417506927 205 204 209
317.050572133053 589.48110484046 2573.74347950175 171 170 175
308.022637663954 590.596672892482 2575.45858698547 172 171 176
299.726473877539 591.621387983294 2577.87737270944 167 167 169
288.403747788255 593.019133534173 2577.57813284702 159 159 161
272.521975232116 594.978996450668 2573.22121907182 117 117 119
258.099466759285 596.758164414721 2570.27575976051 143 143 145
251.975921192942 597.512932626296 2574.82806730075 148 148 150
255.736616999374 597.047427643609 2588.16670538541 153 153 153
256.494177454905 596.951999781453 2598.76449107635 166 166 166
254.225481405984 597.229550790705 2606.64429298534 170 170 172
249.673728813746 597.788363518357 2612.49890547931 175 175 177
245.894489264133 598.251435976176 2619.0171229479 175 175 177
242.894008415417 598.61789575505 2626.19354798581 173 173 175
239.133492669607 599.077710209583 2632.69399181389 177 177 179
237.703733008431 599.249601003527 2641.17324333948 176 176 178
233.965716376306 599.705753523713 2647.65188644738 178 178 180
230.235825664125 600.160599836352 2654.12231561156 176 176 178
226.514461498472 600.613886453798 2660.58484615326 182 182 184
220.455569213641 601.355196897557 2665.07494108142 191 191 193
214.393175484095 602.096549010182 2669.56816899531 186 186 188
206.756136049446 603.031772441095 2672.76290848229 172 170 173
201.471196310843 603.676381510063 2677.91565882961 174 172 175
196.186961336331 604.320547919361 2683.06777476067 188 186 189
190.903282315869 604.964290428858 2688.21940127335 189 187 190
184.032974270246 605.803264113884 2692.08356230279 189 187 190
176.360028600507 606.741022194065 2695.31324474995 192 190 193
169.473592295462 607.581262507714 2699.19323417226 194 192 195
163.379527578903 608.323527834597 2703.71811471376 190 188 191
154.076823780706 609.461174566416 2705.70280898389 192 190 193
144.755206607901 610.600746916924 2707.70566206699 191 189 192
135.415117050193 611.742222185368 2709.72691509293 184 182 185
129.284758597586 612.48760173161 2714.2870377286 170 168 171
122.342387191437 613.332698669036 2718.22219156829 195 193 196
112.959537520688 614.478516128192 2720.28492640271 216 214 217
100.305976415697 616.027245354487 2719.86800074523 188 186 189
90.06328522397 617.278455942757 2721.35242238659 180 178 181
83.0653374753245 618.129215916126 2725.34158951972 194 192 195
75.2416031276195 619.081501674287 2728.71886016871 196 194 197
68.2276099998305 619.93375370321 2732.72374007537 171 169 172
58.7386757060817 621.090808899047 2734.89049541806 207 205 208
50.8802761582281 622.046639192922 2738.30166524242 196 194 197
39.7047168006832 623.411059903217 2739.27845919645 198 196 199
29.3312035966506 624.676358000838 2740.89036906021 180 178 181
13.9524976064727 626.558320238537 2738.87923507007 160 158 161
-2.30429054393344 628.548341978626 2736.30716918049 188 186 189
-34.4625042756452 632.497735325915 2722.31289344494 174 174 176
-63.399104434672 636.049652914813 2710.84589182189 148 148 150
-84.899634583774 638.684819555298 2704.88345552894 98 98 100
-95.5512105300227 639.982623182362 2706.76701934518 101 101 101
-107.067704675367 641.386852861169 2708.07614499329 160 160 160
-120.298233246329 643.002113239496 2708.22266112545 157 157 157
345.494684429078 578.593666802893 2520.18424785112 188 189 191
348.237917997737 578.290543012837 2533.09199394968 199 200 202
342.201020892056 579.0380438764 2537.55933239845 201 202 204
338.37202140067 579.52065735149 2544.12407407099 192 193 195
336.029540102713 579.824611123462 2552.07324350622 221 222 224
333.703099719782 580.126116863519 2560.00718373573 187 186 191
329.906193422447 580.603151292071 2566.5408809728 192 191 196
323.882553475352 581.346386251781 2570.99568536585 204 203 208
317.108334570926 582.17902531876 2574.7653647114 175 174 179
307.331306727938 583.371000923397 2575.7961306684 159 158 163
298.281945600429 584.475366541028 2577.53383301359 184 184 186
283.944019654637 586.213030837338 2574.51051622653 147 147 149
266.54097994727 588.31772231566 2568.80868114534 122 122 124
248.319503069025 590.520182562902 2562.48820677449 124 124 126
245.204809247027 590.911655090594 2569.77435010989 106 106 108
250.468433913631 590.298398191402 2584.4762139232 164 164 164
254.262065004895 589.860702296694 2597.77803661209 166 166 166
252.751698089408 590.058191710468 2606.33388670997 173 173 175
249.728387633003 590.436610723417 2613.53121431622 176 176 178
245.948779662024 590.905154758639 2620.04898893592 175 175 177
242.177665272692 591.372261192068 2626.55887962241 175 175 177
237.642505155939 591.930410464287 2632.39677575937 179 179 181
234.660217572983 592.302006765069 2639.55437543973 179 179 181
231.690136721346 592.6715924628 2646.7001508217 176 176 178
229.510259637028 592.946025159517 2654.49221507108 179 179 181
225.786612701054 593.405142626123 2660.95615064049 187 187 189
218.943434651101 594.237924609272 2664.794286314 188 188 190
211.309230211415 595.165255672143 2667.98703925563 179 179 181
203.663996878274 596.093505351664 2671.19060828036 171 169 172
199.158943199572 596.644779812109 2676.99996221545 178 176 179
195.447902639966 597.10025717365 2683.45157963072 190 188 191
190.16203237054 597.744452831376 2688.6053151109 188 186 189
183.289707180664 598.578478514846 2692.47254834886 186 184 187
177.205611699896 599.317554127788 2696.98766288819 190 188 191
170.321047493194 600.152474076707 2700.86691747874 192 190 193
163.429198353559 600.987853694473 2704.75300033454 190 188 191
154.126339896603 602.112192968702 2706.73981501951 191 189 192
144.80456752653 603.238516898333 2708.74478032662 191 189 192
135.464322771557 604.3667437459 2710.76814557656 186 184 187
126.105142306382 605.497016965565 2712.80967397175 171 169 172
118.345559650463 606.43496468804 2716.12536019788 172 170 173
108.953114061768 607.568651872431 2718.19975461198 207 205 208
101.98067501508 608.41171443779 2722.16472890052 186 184 187
90.1118578204994 609.842024583327 2722.40329038749 185 183 186
82.296972732633 610.78558777306 2725.77306278245 180 178 181
72.8334756343259 611.926770946448 2727.91656665003 192 190 193
67.455092370361 612.577499049203 2733.16120340886 187 185 188
57.1413680531485 613.820222756881 2734.71707850914 182 180 183
48.454449292838 614.867544811425 2737.52054839924 199 197 200
35.6198379092842 616.412503361361 2737.28396564912 202 200 203
25.2366066610659 617.663046020888 2738.90770652172 191 189 192
7.35717548630488 619.813198984039 2735.08946318212 157 155 158
-9.74735809665228 621.870128532804 2731.93242277642 194 192 195
-46.0942940930944 626.236544209109 2714.95041433776 179 179 181
-74.2212621969993 629.616309918031 2704.12212724781 145 145 147
-89.8793568641034 631.499219611664 2702.3886281524 96 96 98
-99.7027463128304 632.681763054076 2704.88339741443 123 123 123
-109.544502930589 633.866314087944 2707.39644666769 153 153 153
-121.937034261653 635.356939783601 2708.14581158015 141 141 141
308.573735997804 575.482982016638 2475.12023170463 161 163 162
347.749865586076 570.98361739762 2523.32030955632 193 194 196
346.831840658411 571.135074650437 2532.71166815487 200 201 203
342.261283773277 571.709761819261 2538.58260735419 203 204 206
337.694714854227 572.283428560066 2544.44939942106 189 190 192
336.088910305606 572.512716998719 2553.09498277548 219 220 222
333.762020609241 572.82507067712 2561.02776585932 183 182 187
329.221709404827 573.393894026288 2566.86919947857 187 186 191
320.960812761498 574.394467545298 2569.25653252188 209 208 213
314.178479029157 575.222822420892 2573.03490321312 185 184 189
303.644426671734 576.48685229913 2573.38950895396 157 156 161
293.083541284302 577.753616250068 2573.77035619551 186 186 188
276.47359483808 579.723399284678 2568.71781650871 143 143 145
257.541741078467 581.963125367288 2561.68033969045 124 124 126
241.566921347509 583.858884447773 2557.4252976543 121 121 123
240.709938873574 583.996113827543 2566.75780522535 87 87 89
245.961450898877 583.421992992634 2581.46625061931 174 174 174
251.267719533003 582.840687410914 2596.12104595171 164 164 164
251.277888898607 582.874819289397 2606.02494385262 173 173 175
249.016630277581 583.172720439046 2613.89435254389 175 175 177
242.929898552242 583.915358640052 2618.41189620608 174 174 176
238.380273705204 584.478633675641 2624.26339844845 175 175 177
233.06288340307 585.130753845697 2629.4472625476 178 178 180
232.391036079223 585.241505612409 2638.60017939946 179 179 181
230.967004221775 585.439315197341 2647.07025018728 176 176 178
229.562812837271 585.634223831531 2655.52071000943 181 181 183
225.058720913074 586.189753778608 2661.32814210702 189 189 191
218.213547515953 587.017526043506 2665.16933746593 185 185 187
211.360981815999 587.845889450585 2669.01744827829 175 175 177
204.501444621357 588.674705905647 2672.87275276962 173 171 174
198.422268488023 589.412217855456 2677.38321343295 179 177 180
193.919532251002 589.965499949787 2683.18996938679 189 187 190
187.837726516201 590.702635776726 2687.70309687404 187 185 188
180.959411817614 591.532168307381 2691.57694186872 187 185 188
175.664874510822 592.176748956963 2696.7392269435 189 187 190
170.371042506628 592.82082791016 2701.90088579288 190 188 191
163.478964932677 593.650988100145 2705.78796691648 190 188 191
154.175950739947 594.762137990211 2707.7768856346 190 188 191
144.050816438434 595.968880382757 2709.15080608408 190 188 191
134.708314338012 597.084136856537 2711.17799208501 188 186 189
123.732850575994 598.389661137708 2711.96479302123 174 172 175
114.349218217032 599.509264132629 2714.03251740497 165 163 166
105.757743814149 600.536252342747 2716.74387712855 197 195 198
101.216545451025 601.090314350184 2722.58871127136 189 187 190
90.9754028374801 602.309381649525 2724.07600807377 187 185 188
79.8950032510546 603.626188787449 2724.96534423357 176 174 177
70.4255686225084 604.754852494909 2727.11659452805 187 185 188
65.0412318799387 605.406449065892 2732.36701481991 190 188 191
58.0123900684049 606.249768674182 2736.38829773889 174 172 175
49.3271013079868 607.286283890482 2739.19140841898 197 195 198
36.4946417151444 608.806898853895 2738.95662472232 197 195 198
23.6278552022777 610.33150049596 2738.75500109333 200 198 201
4.08383576656091 612.635940475431 2733.73275847293 160 158 161
-16.3578333483572 615.045258784544 2728.16914712266 192 190 193
-56.8910841925754 619.801654342492 2708.20168792616 184 184 186
-83.3703352077126 622.91662945584 2698.61048582114 140 140 142
-94.0209387113917 624.18259830033 2700.49745131251 110 110 112
-101.333721604017 625.058600883635 2704.795523551 126 126 126
-108.653264482575 625.935147788537 2709.10056594696 146 146 146
-122.731603762333 627.601474628233 2708.6641758855 137 137 137
301.342791193544 568.789497009262 2469.11985424601 170 172 171
346.34852344761 563.799351950945 2522.93987567553 197 198 200
346.892560015054 563.802725167118 2533.73509098758 201 202 204
343.056768318228 564.297562853228 2540.30510852947 201 202 204
339.229070895067 564.790790439265 2546.86732631006 186 187 189
336.148346040619 565.199458329602 2554.11685864944 194 195 197
332.338780170562 565.689456644048 2560.66154881469 186 185 190
327.051232834442 566.345244706189 2565.81523629458 167 166 171
318.784204897918 567.335917814536 2568.21012107904 189 188 193
311.995722756046 568.159740600462 2571.99526707271 190 189 194
301.455623510272 569.405780698237 2572.35853634476 172 171 176
287.885534900419 570.99289636795 2570.01224391337 165 165 167
269.756513266028 573.093891639921 2563.61495659767 151 151 153
252.316471043598 575.117330293031 2557.96187469302 135 135 137
239.354482652964 576.636024012368 2556.43875180667 102 102 104
239.249906453933 576.704670793508 2566.45149246198 74 74 76
244.496707647658 576.16889692063 2581.1586102751 168 168 168
249.036023440411 575.711892232872 2595.13972018106 168 168 168
249.804252262096 575.679513412166 2605.71759340592 173 173 175
246.772396039605 576.075285150825 2612.92084235894 174 174 176
240.679523021245 576.816102931032 2617.44475347328 173 173 175
236.123729135561 577.382927206809 2623.30185708607 174 174 176
231.57252949815 577.948628547244 2629.15490235377 178 178 180
229.347995557668 578.251158073138 2636.98715882238 176 176 178
227.139600646762 578.551240236129 2644.80375071521 177 177 179
226.503432936314 578.672943853183 2653.91961850483 184 184 186
223.551278632164 579.055955332606 2661.04560823547 190 190 192
216.701733829145 579.879043495029 2664.89149893136 178 178 180
208.277458940232 580.879928161559 2667.44102300024 170 170 172
202.195663678664 581.615634378436 2671.95468922516 174 172 175
198.473612998507 582.083939692953 2678.41534388705 181 179 182
193.970574551613 582.640090389311 2684.22197596162 187 185 188
188.680280344118 583.28507963003 2689.37998718649 185 183 186
181.009993736815 584.199032900202 2692.61054748587 186 184 187
176.510644629344 584.753729064564 2698.41339312906 188 186 189
168.826143034559 585.66870776503 2701.657917563 188 186 189
162.729491001865 586.40363331678 2706.18645216323 190 188 191
153.424198743617 587.501756476326 2708.17922053718 190 188 191
144.100434638975 588.601723517095 2710.19039704481 190 188 191
132.342132153645 589.977426075163 2710.32694892738 191 189 192
121.360779865589 591.265058549437 2711.12224165825 181 179 182
113.589245399365 592.188709342011 2714.45190928869 164 162 165
106.618003048075 593.021347431183 2718.41757381603 172 170 173
99.6394518127377 593.854743052752 2722.39004636832 198 196 199
91.0242474874501 594.873387744048 2725.12654126608 189 187 190
82.3942706051062 595.893658875581 2727.87746514421 181 179 182
72.930569405151 597.008331807308 2730.02508988988 174 172 175
64.2690719765473 598.031927947447 2732.80682270159 179 177 180
53.9474337197534 599.243688229005 2734.37513284172 162 160 163
47.7263302320945 599.990057108598 2739.02555825761 180 178 181
35.7162788550864 601.393368796733 2739.40801989378 191 189 192
22.0191703018155 602.988283790562 2738.60361672492 205 203 206
1.64107182417572 605.341928161044 2732.98544521789 163 161 164
-22.135498971954 608.081934896201 2725.01658981814 188 186 189
-63.5159065599722 612.822076972742 2704.47586273125 190 190 192
-90.0105292908684 615.87195541731 2694.90920838444 130 130 132
-99.8383562875471 617.028568242151 2697.41255457314 121 121 123
-108.004717665242 617.996391201942 2701.12776253625 126 126 126
-114.497881678852 618.773991254718 2706.04373212244 139 139 139
-124.370088209986 619.935563205858 2708.59007704621 136 136 136
349.335077588588 556.126054609173 2526.77626837306 198 199 201
347.686721865286 556.389176204786 2535.45944298913 200 201 203
343.852281097401 556.889252270371 2542.02700696643 198 199 201
339.28898607499 557.468036316263 2547.89012951207 183 184 186
337.686123676402 557.723961572684 2556.52885435799 181 182 184
332.397859062125 558.380400262985 2561.68315794313 205 204 209
325.623892783816 559.198147338155 2565.4547874571 169 168 173
316.607798949775 560.259887856486 2567.16609270115 178 177 182
309.066333652912 561.160549594915 2570.27069601752 180 179 184
297.769451285924 562.470521767702 2569.95910366576 168 168 170
283.438598367409 564.111352115855 2566.94307527331 150 150 152
262.287080239814 566.496693854482 2557.8371702596 153 153 155
244.072749558995 568.561989289904 2551.52953466636 131 131 133
234.115824910462 569.726166429855 2552.74304941158 81 81 83
236.272837289998 569.566840085874 2564.79475929942 80 80 82
243.792778306586 568.820565863288 2581.52679332017 159 159 161
247.566957175021 568.482280018994 2594.83290174985 172 172 174
246.037777412082 568.722770612559 2603.40107772776 174 174 176
242.229526483625 569.211777594153 2609.94460865512 174 174 176
237.661160958034 569.783371041525 2615.81349121071 174 174 176
236.178094448412 570.01679353494 2624.33658286651 175 175 177
230.854238577046 570.670053121277 2629.52669896626 178 178 180
229.401639619555 570.898914031809 2638.02054793436 175 175 177
224.864688359816 571.464866600265 2643.85906937901 177 177 179
223.444302877983 571.688929380008 2652.32163905121 185 185 187
218.924067591194 572.252037524136 2658.14398169229 190 190 192
213.626485179575 572.899891530064 2663.30880680054 177 177 179
209.113271685323 573.461406839753 2669.12441211805 169 169 171
205.390484159721 573.935718374499 2675.58524860363 173 171 174
200.888247361108 574.495053818133 2681.39027608336 182 180 183
194.021733915263 575.313486694649 2685.25404278364 188 186 189
185.564687006636 576.306191348166 2687.83698111292 184 182 185
179.473554408104 577.038946866877 2692.36035556337 184 182 185
174.174613883313 577.684377456184 2697.52688747799 187 185 188
167.281458633933 578.504648803778 2701.41650031581 187 185 188
160.381395665596 579.325365159411 2705.31324469067 189 187 190
151.871621546976 580.322757906364 2707.94818686274 189 187 190
142.543601790639 581.4100064916 2709.9651312356 189 187 190
130.781558418877 582.764879863574 2710.1088142603 191 189 192
120.603278926306 583.945594353198 2711.53935558282 187 185 188
113.638652083926 584.772576046494 2715.49894898286 166 164 167
107.47816164616 585.510772968609 2720.09039255592 165 163 166
98.0625519873168 586.607235619181 2722.19295316195 198 196 199
90.2583581760648 587.526086310423 2725.55609929967 185 183 186
81.6261422325803 588.536038360333 2728.31043391237 189 187 190
73.797977120893 589.457275395701 2731.69669336317 173 171 174
62.6762362637345 590.741318333434 2732.63192455042 174 172 175
53.1734163673136 591.846993117463 2734.82006250426 157 155 158
44.4765412284971 592.863786134244 2737.63793140385 170 168 171
34.1117500323027 594.064475258071 2739.250729363 175 173 176
21.2391943602008 595.54180356957 2739.06182157203 198 196 199
3.35027903625384 597.572691885832 2735.2702855535 159 157 160
-27.0805516894788 600.988037559546 2722.47344360597 179 177 180
-68.4719377725416 605.614161656406 2701.96047013455 195 195 197
-93.3054296091145 608.413892847009 2693.61541638598 103 103 105
-102.302916619948 609.465634325461 2696.72663195096 115 115 117
-112.155405348311 610.611865330085 2699.25566419029 134 134 134
-119.50027816922 611.481167994409 2703.58693028904 134 134 134
-127.696113039502 612.444391951721 2707.33208559655 142 142 142
345.230250210997 549.112719323233 2513.46781803359 197 201 202
349.396383714565 548.780009355339 2527.80113276404 201 202 204
349.213905491917 548.902703544228 2537.88324309714 204 205 207
345.383127128211 549.407788968526 2544.44676771391 203 204 206
340.086083926994 550.066366293661 2549.60947247636 185 186 188
335.528383156599 550.646698948514 2555.46647312134 184 186 185
330.974896161785 551.225999154975 2561.31944202029 210 209 214
324.196883352871 552.038965611744 2565.09613421427 197 196 201
315.921525666721 553.0093421022 2567.50229039451 162 162 164
306.883995083488 554.059822489417 2569.23620904787 197 197 197
294.832156680135 555.428084310014 2568.24843685632 158 158 158
278.99203282878 557.196119378515 2563.87851737375 143 143 143
258.581547488349 559.447100903082 2555.47352354659 139 139 139
237.339106597556 561.786852561095 2546.46464437483 116 116 116
228.120819192256 562.857260229756 2548.37511198108 85 85 85
234.813002170147 562.245900803735 2564.49227230503 90 90 92
243.849389325321 561.385155557528 2582.5695281377 164 163 168
248.385556589559 560.99863224209 2596.54334746297 172 171 176
244.564562621498 561.495185091275 2603.09807929911 173 173 175
239.985779942861 562.071351518271 2608.97696819927 172 172 174
235.411234480082 562.646525064179 2614.85145838684 173 173 175
235.462435561827 562.731062361833 2624.70716128812 175 175 177
230.908422525096 563.302851390034 2630.56176270334 176 176 178
227.907150319592 563.709509734012 2637.73303223986 173 173 175
223.366152620204 564.278819370655 2643.57541352768 179 179 181
221.163408878209 564.599535829197 2651.38334398638 187 187 189
217.416881435802 565.083457704143 2657.8659963142 188 188 190
211.333276258342 565.81505788093 2662.38206668328 171 171 173
206.030211018608 566.463396693567 2667.55226466668 165 165 167
202.299337938897 566.944182157331 2674.02017338313 178 177 182
197.789039819023 567.507334877857 2679.83264168219 186 185 190
192.493701943677 568.153549641314 2684.99548021206 186 185 190
185.615784003212 568.967801750568 2688.87085181767 183 182 187
179.52439819901 569.698053530339 2693.39484775662 186 185 190
173.429827108542 570.428323568683 2697.92200403331 185 184 189
165.737178988754 571.328525622572 2701.17680206891 186 185 190
158.033585932804 572.229753646614 2704.44231694998 189 188 193
151.120226725738 573.046498234974 2708.35251386993 190 189 194
142.593524110785 574.035115854974 2711.00556324904 189 188 193
130.026057109867 575.454611632312 2710.52224552084 189 188 193
120.652967601745 576.533464872864 2712.58552349374 185 184 189
112.879218022783 577.441561785685 2715.9196896205 161 160 165
107.527516414637 578.09101963511 2721.13801884357 154 153 158
96.4860983574818 579.34777667912 2721.9975211462 198 197 202
88.6776208796558 580.259308094173 2725.36566497198 191 190 195
80.8583475449613 581.171817201151 2728.74438474078 187 186 191
73.0281494556664 582.085467671728 2732.13378425935 175 174 179
61.9044313814037 583.351155204339 2733.07369177328 173 172 177
50.7542923961015 584.619790215225 2734.03940000644 163 162 167
40.4023568028138 585.803202462608 2735.64198567666 166 165 170
30.8542581244722 586.900681751408 2737.87595957891 170 170 172
18.8025266830545 588.26618759269 2738.30573566483 196 194 197
0.077597248160366 590.346583214987 2733.92014754111 165 163 164
-37.0187935909669 594.395763089299 2716.31267467748 185 183 184
-76.7645115781348 598.730596089382 2697.04239979172 171 171 171
-100.780979126193 601.381433748299 2689.32494456349 105 105 105
-109.79597130748 602.424767642865 2692.45478565874 119 119 119
-118.825672270092 603.469719937725 2695.59899359242 133 133 133
-125.344128580423 604.245260260824 2700.54038323029 136 136 136
-133.553581814326 605.202299206509 2704.29997591621 151 151 151
351.126974286992 541.139443766976 2520.12701856938 204 208 209
353.114187695123 541.062202203784 2532.33520925117 203 204 206
351.474415410382 541.351262481018 2541.00568881806 203 204 206
346.178646845597 542.010357259482 2546.16705136832 205 206 208
341.620236182809 542.594022693007 2552.0242643637 187 188 190
335.588038913058 543.326778549218 2556.48911511156 181 183 182
330.293214681475 543.984191605575 2561.64978848279 201 200 205
322.769848047701 544.867770544499 2564.73894438947 213 212 217
313.745506163863 545.903749528928 2566.46224761236 158 158 160
303.955082779025 547.017671554556 2567.51751398334 193 193 193
292.644054029866 548.286510835825 2567.22571077961 160 160 160
278.299563645723 549.864771344437 2564.23281022907 142 142 142
257.134409446883 552.139067283779 2555.15652071434 135 135 135
231.360349056559 554.884909901771 2542.08545503842 124 124 124
223.639451377981 555.789498824983 2545.36765692614 93 93 93
231.836395393561 555.067854033994 2562.84102390142 107 107 109
241.624703038872 554.18158874246 2581.59229274123 168 167 172
246.916795429834 553.753030497232 2596.23858930302 174 173 178
243.85601233949 554.177392740814 2603.4663373993 174 174 176
239.274783862661 554.756593103462 2609.34686875686 172 172 174
234.698104693664 555.334941555944 2615.22334633843 173 173 175
233.976595396475 555.517628829688 2624.41460838544 174 174 176
229.418535920094 556.092774926076 2630.27306964383 174 174 176
225.638805773865 556.587516522387 2636.78709359728 171 171 173
221.867622086471 557.080843335308 2643.29317773713 183 183 185
220.438531236116 557.333053809927 2651.75989390996 189 189 191
215.910056710942 557.902907579229 2657.58975907809 186 186 188
209.822140929044 558.632469585742 2662.11007333978 168 168 170
204.514886672605 559.281454428149 2667.28433559578 165 165 167
200.779795753549 559.768373656097 2673.75552612138 180 179 184
197.053148797665 560.253756637706 2680.21855872326 187 186 191
191.755598145523 560.900456747731 2685.38352283919 186 185 190
185.666998332083 561.628188500428 2689.90478686503 184 183 188
179.57540157011 562.355960699652 2694.42935876909 186 185 190
171.094253712516 563.329783703787 2697.03935823849 186 185 190
164.990440269309 564.058329415052 2701.57594716286 186 185 190
156.48523742324 565.034401891454 2704.20916327841 185 184 189
149.567989778629 565.846493353338 2708.12424704637 186 185 190
141.03723867253 566.825006961209 2710.78281000562 188 187 192
130.881334673943 567.971381826531 2712.19620751332 188 187 192
119.895837532068 569.203604893571 2713.0038056315 175 175 177
108.883688624265 570.438758610897 2713.8370983564 151 151 153
101.900258195038 571.257394915176 2717.816935283 156 156 158
94.9096273286791 572.07653920509 2721.80350942806 196 196 198
87.912129914248 572.896270734864 2725.79715320507 192 192 194
78.4571435967551 573.970394872268 2727.94211703772 182 182 184
68.9836625587681 575.046542681017 2730.10548514548 175 175 177
59.491395159128 576.12465906528 2732.28687959148 174 174 176
49.9807183425558 577.204758882605 2734.48659955209 161 161 163
37.977603791417 578.543627678672 2734.87169744893 158 158 160
26.7708813050316 579.800024679446 2735.89540270767 166 166 168
13.8808860533723 581.23149193347 2735.73059092126 170 168 169
-7.34657443522169 583.529251973893 2729.54686096685 178 176 177
-47.7889424818145 587.824363064828 2709.55766929358 166 164 165
-83.388085171098 591.618771120456 2693.33488068274 116 116 116
-105.747376019995 594.038594163706 2686.8401248314 112 112 112
-114.774259194935 595.072884724933 2689.98277261786 128 128 128
-122.135448860011 595.933865873267 2694.3314715005 134 134 134
-127.819887268747 596.620346586365 2699.87474132222 147 147 147
-136.879038029606 597.658102263333 2703.0492569979 166 166 166
353.376624468524 533.563674375725 2523.26350604388 204 205 207
351.712911692385 533.869803759505 2531.95557390813 198 199 203
350.802082426786 534.101288599129 2541.32795906549 204 205 209
345.504012890283 534.760643967225 2546.49156799965 206 207 211
340.943280722052 535.347403082656 2552.35062903942 190 190 192
334.169798463257 536.150215957293 2556.12432302516 187 187 189
328.129606803256 536.88089680794 2560.59708116365 172 171 176
320.600127429848 537.757197110007 2563.6933828905 193 192 197
311.569667317865 538.78067940835 2565.42460860913 166 166 168
301.773193801154 539.879295144018 2566.48814511347 154 154 154
289.7074144697 541.201077940053 2565.52108604914 179 179 179
276.856390630321 542.600435006044 2563.90541162829 135 135 133
260.956210761781 544.300443054214 2559.60518302247 136 136 134
231.418993792692 547.344101796003 2543.14174809333 138 138 136
225.967489295494 548.017109587121 2548.45570238948 111 111 111
231.894042777617 547.567712728509 2563.89229680636 129 129 131
238.639852208611 547.03553990058 2579.94450152502 168 167 172
243.161209807029 546.721056482346 2593.92237960204 171 170 175
241.618874698354 547.003818591212 2602.49703347924 176 176 178
237.797855752972 547.510975940042 2609.0505606198 175 175 177
232.44863852751 548.168582620154 2614.26521842051 175 175 177
229.410496592111 548.596989939101 2621.46988565486 175 175 177
226.384581569592 549.023502048442 2628.66269149512 174 174 176
221.822740504962 549.601467180672 2634.52415343228 171 171 173
220.369308239704 549.870751373698 2643.01251750182 187 187 189
219.713987278929 550.059971146724 2652.13742589378 191 191 193
215.963104699953 550.55548567289 2658.6230273898 184 184 186
207.529605159443 551.515458995634 2661.18775835282 166 166 168
199.864904065796 552.399046803339 2664.41726015667 166 166 168
194.546342131114 553.049250767367 2669.60257091867 183 182 187
192.379024490162 553.385432666326 2677.37303695 188 187 192
188.648654593458 553.876516762834 2683.83858602287 186 185 190
184.135395824413 554.445042032572 2689.65353807188 185 184 189
177.246097606985 555.249849058077 2693.54160644001 186 185 190
171.145194985796 555.975875451808 2698.07567722912 187 186 191
164.243658020795 556.781547224406 2701.97577104526 186 185 190
156.535830287282 557.66747596693 2705.24775225088 184 183 188
148.817015369707 558.554406521212 2708.53049582535 184 183 188
140.284127967385 559.522692992052 2711.19269172472 187 186 191
130.931408621443 560.572884544275 2713.23997801047 188 187 192
121.55983940737 561.625023193599 2715.30535687183 174 174 176
107.315732038044 563.164960497519 2713.63534797429 153 153 155
98.7063075777872 564.141244553494 2716.37236426402 155 155 157
92.5205512578446 564.874767341089 2720.98925022463 189 189 191
87.1466373984173 565.526701069181 2726.22927060779 196 196 198
76.8728928987024 566.669769203523 2727.7601742085 180 180 182
65.7579725747026 567.897462638959 2728.69696093733 177 177 179
57.0786224739899 568.880910805845 2731.50235556926 176 176 178
48.3845641304597 569.86591833631 2734.32212523049 162 162 164
38.026669578922 571.018209154351 2735.935227968 155 155 157
25.9934997924511 572.339153324335 2736.35315825173 164 164 166
9.78809815162052 574.080099226253 2733.76687809861 164 162 163
-15.6005246602473 576.745929224036 2724.57562099296 178 176 177
-57.7262587554426 581.09830261276 2703.41541687064 154 152 153
-90.0113815993091 584.462874535039 2689.63326226874 103 103 103
-111.549692282107 586.746796168731 2683.76059430484 113 113 113
-119.75199017356 587.687601174922 2687.5154809991 129 129 129
-122.085029681788 588.036596219235 2695.44861751717 130 130 130
-126.085795179126 588.553305951012 2702.17888596094 162 162 162
-135.984901628596 589.665302020191 2704.75960803697 171 171 171
350.758569722032 526.294899383091 2511.35057885771 219 223 222
350.521425365362 526.482068165841 2521.47744415319 206 207 209
351.043148428856 526.596508081242 2532.27873933687 197 198 202
349.39658159658 526.913462126096 2540.95184330323 206 207 211
344.829492932784 527.50425282634 2546.81695841258 207 208 212
339.529407062503 528.163508572389 2551.98258432008 189 189 191
332.751543307028 528.961579647827 2555.76099219065 188 188 190
325.966211739017 529.760090924669 2559.5467506479 174 173 178
318.430597290382 530.629233343289 2562.65020252719 173 172 177
310.138854660182 531.569655343509 2565.07705645966 167 167 169
299.591517368009 532.723437166201 2565.46114895155 149 149 149
286.771058255547 534.09272941934 2563.81956687125 162 162 162
