ply
format ascii 1.0
comment KinectMotionCapture
element vertex 808
property float x
property float y
property float z
property uchar red
property uchar green
property uchar blue
end_header
139.368043889033 136.071018708718 2985.05577483384 19 22 15
130.350021773576 135.731185566707 2983.45713782018 19 22 15
122.958714835168 135.322003318132 2980.56731682889 18 21 12
124.405882572326 134.522446222124 2970.49613659746 19 22 13
141.023671802969 133.040759553076 2947.95184018311 17 20 9
142.348758990662 132.231013852005 2937.79210954876 15 18 7
144.429942503332 131.381812905147 2926.94525279848 15 18 9
135.350311444704 131.036675096627 2925.30192727793 17 20 11
121.536463049474 130.911606367191 2927.63858999939 18 21 12
108.555155346584 130.753469405656 2929.34357510971 18 21 12
118.44783902229 129.530832559218 2911.80630028377 18 21 14
121.184746166 128.633850891579 2900.1995129395 20 23 16
100.38154096475 128.848177683502 2908.58707947407 18 21 14
103.085954829778 127.948474082191 2896.95672327151 17 20 13
101.847958907344 127.232416322759 2888.64483790424 17 18 10
108.347178727173 126.136830117453 2873.58865323944 16 17 9
103.161239960223 125.603995254904 2868.59152001104 13 14 6
101.830330599384 124.880276047178 2860.21224090265 14 15 7
83.5347543172689 124.996343232202 2866.71203356428 19 20 12
64.5408513901682 125.156635267079 2873.94085497471 20 21 13
23.222564922917 124.894372641367 2882.27609920219 19 20 12
94.773873144407 119.594026414138 2798.25428078326 19 20 12
96.9873319426924 118.653952538982 2786.26781629192 17 18 10
315.683152270702 131.612772606349 2973.27862643681 0 2 0
326.412259606216 130.405768925662 2956.3477721571 9 14 8
327.860559306133 129.582331325415 2946.27729155018 8 13 7
291.759084365649 130.36305046762 2964.57507431697 9 11 6
225.054249685221 132.48521224315 3006.39421769924 11 13 8
250.707016158465 130.628073619404 2978.04641764278 9 12 5
283.367025707132 127.673866769174 2935.0104078375 9 11 6
302.809414682957 126.035334591343 2910.80752524033 8 10 5
276.171811146344 126.446963974609 2922.37742001513 7 9 4
245.551580636425 127.052518914128 2937.23727235175 8 10 5
179.156021015585 129.304669773879 2980.5163108745 10 12 7
150.521309123356 129.865078143655 2994.34491161846 12 15 8
110.645243026155 130.961131238953 3017.31852418283 15 18 11
155.948007758298 128.111462451908 2972.33212830888 16 19 12
150.922061511014 127.588885360103 2967.45102903003 17 20 13
131.399150944579 127.751353777234 2974.29637253693 17 20 11
126.402335216491 127.231091774495 2969.4364023195 18 21 12
140.617876316059 125.787541151809 2948.8559680226 17 20 9
151.528849078033 124.489320598768 2930.82145321109 16 19 8
136.864166795138 124.425426273072 2933.7766747793 16 19 10
134.95313550181 123.741523184836 2926.21238568435 18 21 12
118.764411849523 123.760896671848 2930.53329216552 18 21 12
107.369939258529 123.548760200243 2930.91826113663 21 24 15
105.456548456986 122.864580927382 2923.35196570787 19 22 15
112.159350681103 121.741500783302 2908.44322301038 19 22 15
95.2955019691619 121.809767153115 2913.51029568624 16 19 12
107.388682583445 120.399720174925 2893.86214889514 13 16 9
98.9161428714729 118.435172419708 2872.88865576482 13 14 6
74.4328513459132 118.920229286307 2884.78559258722 15 16 8
60.0641795927261 118.880972296688 2887.95552329855 19 20 12
81.0626870750055 116.951145045397 2859.93878775513 19 20 12
70.5157214397123 116.704573433505 2859.70262707812 19 20 12
50.2590919237744 116.176138462428 2858.60177376908 19 20 12
-11.0697103336643 118.744154499471 2904.32037612472 21 22 14
332.055336368522 123.387037401992 2961.63804430164 193 198 192
337.717365667249 122.350165874564 2948.4456274984 9 14 7
320.748882885748 122.341211178623 2952.20142093511 10 15 9
294.66622817072 122.759746451251 2962.93860830437 8 10 5
268.688140587245 123.186842443424 2973.75164198059 9 11 6
271.011753278636 122.302958899725 2963.08035164147 10 12 7
324.19826928066 118.212624463295 2904.04071264224 9 11 8
290.881230438468 118.9989886727 2920.65161678825 8 10 5
265.092989295236 119.441400022368 2931.60264625286 7 9 4
231.225601730701 120.289592862286 2949.04994066842 7 9 4
170.571945200603 122.46676201493 2987.84518212437 14 16 11
151.725274008679 122.623961548937 2993.94568266839 13 15 10
154.867082189404 121.699708974704 2982.63227859434 13 16 9
170.914195275574 120.124154760804 2960.9088480356 12 15 8
165.84909613869 119.59501996436 2955.99903829842 12 15 8
151.115667827379 119.555169862489 2958.90484066928 13 16 9
135.62680450371 119.560195165092 2962.49798153284 17 20 11
148.220141000482 118.128343233658 2943.21200349141 18 21 10
142.342286915808 117.639236965114 2938.94854420614 19 22 11
134.074127059551 117.274678221339 2936.65833647778 19 22 11
116.286624948016 117.411806942698 2942.29151300013 18 21 12
107.277380299448 117.093326361543 2940.69934711447 18 21 12
95.125140364626 116.944561227754 2941.77005750698 16 19 12
94.8228599351411 116.164601602945 2932.90113196496 14 17 10
109.414076816149 114.575380733103 2911.35725858163 17 20 13
103.100217137253 113.295063403355 2898.12787653783 12 15 8
103.423970197454 112.459406458249 2888.4774572856 14 15 7
106.041991908455 111.491182935294 2876.78412649997 14 15 7
93.119825535283 111.386204277005 2878.5319592026 16 17 9
53.9756548204915 112.765100183358 2903.27290210993 19 20 12
63.5398752873186 111.404581298077 2885.49681889442 19 20 12
65.3355433828757 110.475837320779 2874.44258302394 18 19 11
86.996554594454 108.396890113045 2845.67002414422 21 22 14
55.2253398883389 108.556671086781 2854.75251006994 15 16 8
-6.12734437009466 111.322326630056 2900.45480093645 21 22 14
324.71747414889 115.407400866944 2958.74862068412 11 19 8
307.781954208154 115.436275763957 2962.5285012019 14 19 12
301.742983735678 114.934505605979 2958.14818106362 5 8 1
296.299782266347 113.598224006095 2944.31434316043 10 11 6
334.088210717161 110.883610126972 2906.23257835505 8 10 5
328.739092124029 110.3282358435 2901.11703842161 8 10 5
274.833452086583 112.255047179588 2933.68657983733 8 10 5
247.444174607183 112.850483023909 2945.94783225167 9 11 6
245.542530147522 112.139484820051 2938.39021063067 10 12 7
165.249483995202 115.518619446418 2992.59746805616 14 17 10
160.256333617254 114.992441021137 2987.74012496142 13 16 9
175.557505933377 113.390998490904 2966.71085151908 12 15 8
164.831183547499 113.161531332115 2966.34475794334 10 13 6
174.320186950174 111.850221206583 2949.74943415408 11 14 7
164.395671577872 111.576787102976 2948.72932826345 13 16 9
152.082849934002 111.436222114289 2949.68367108344 16 19 10
146.212241610859 110.947269690576 2945.42546518459 16 19 10
134.749218992408 110.766789940744 2945.76060664838 16 19 10
113.756326678688 111.119959106496 2954.01166268802 17 20 11
107.940459818948 110.635441351813 2949.7931625067 17 20 11
94.2011087226509 110.597151500642 2952.18426946213 17 20 11
86.0351610408649 110.248729394599 2949.96823925561 14 17 8
90.487472717613 109.181347167724 2937.13375441804 15 18 9
126.30887824272 106.301960743526 2897.62521811004 15 18 9
135.258590665679 104.945453502958 2880.63872184825 15 18 9
99.5904832705552 106.178022278393 2901.72331844008 14 17 8
101.48475020949 105.229440225088 2890.74045849161 14 17 8
89.3500538087437 105.103544342863 2891.82400240364 14 17 6
58.6564057803196 106.086785241617 2909.10261912652 14 17 6
65.9553433945783 104.814088044776 2893.39023322644 16 19 8
59.3130762351999 104.371380608976 2889.80790623836 18 21 10
67.268332509911 103.042795864597 2873.33598003113 18 21 10
65.1867667354264 102.316285640187 2865.64755656084 15 18 9
64.6094841652456 101.49391410935 2856.57906127353 19 22 13
54.8620241060891 101.235256603346 2855.68738140432 18 21 12
59.5630895264576 100.078242241217 2841.79743835351 16 19 10
95.9549709554155 96.0301367078987 2789.11024605782 21 24 15
94.3670442343243 95.234485393755 2780.54428522966 16 17 11
343.570625439824 106.897971647058 2945.19970328296 12 20 9
299.826989318657 108.35651928793 2969.07716674691 16 22 12
302.149812088472 107.417159363183 2958.40502277798 7 10 3
313.578539049929 105.989183527172 2940.74488732199 9 12 5
299.196569140559 105.925345703444 2942.67001678014 11 12 7
309.68077100665 104.531876447897 2925.56068081421 8 10 5
301.096496797381 104.157227372116 2923.04126393562 8 10 5
269.47900946396 105.038001125815 2938.41461418512 8 10 5
265.085495743184 104.445418282514 2932.75629304235 9 11 6
233.666301299412 105.342499524537 2948.27317816296 10 12 7
206.247924052481 105.2122934047 2951.86381465676 13 16 9
181.63662870683 105.769328103748 2962.43328673094 12 15 8
173.323940935634 105.416725366132 2960.11086032629 11 14 7
161.792675585471 105.249387136214 2960.39659774188 11 14 7
139.013614232448 105.732199335349 2969.82384612914 13 16 9
132.393169391207 105.293649503295 2966.25735966427 14 17 8
126.577421929844 104.808723214506 2962.03894396808 14 17 8
119.163070083446 104.417319428201 2959.13221280558 15 18 9
110.162829977378 104.12054875292 2957.54697894691 15 18 9
109.125472012579 103.353368818052 2949.38028137306 15 18 9
103.306505403046 102.868062254729 2945.15953012149 15 18 9
98.276829604977 102.335131130811 2940.27567476647 15 18 9
110.578340437974 100.751831109427 2920.77737895907 15 18 9
121.206583903045 99.2558108888491 2902.53661127516 15 18 9
113.718155450115 98.8581475824985 2899.57644317103 14 17 8
104.674784002411 98.5576633258 2897.9596291953 14 17 8
106.55735333554 97.5802183383202 2886.96814320629 14 17 6
84.3067264537112 98.1068150374644 2896.77839231917 13 16 5
74.5447829227501 97.8599038087548 2895.87627256937 14 17 6
50.8961480330332 98.4968365427149 2907.14400245155 17 20 9
64.3296435797414 96.7811268745276 2885.99526810448 19 22 11
70.738103056577 95.500539834774 2870.87235226443 18 21 10
74.3018409889711 92.6218202618539 2838.85781922964 18 21 12
50.0896740672738 93.3254581408332 2850.95240721937 16 19 10
75.9626851966191 90.7189336235128 2817.81973595625 18 21 12
78.9973479456467 89.6110917755875 2805.19269332711 21 24 15
370.48398215487 96.9668149125987 2916.48950439541 16 22 12
310.063640601193 99.4805842298769 2952.98551254475 13 16 9
276.549872513246 100.52038110314 2969.4550871485 13 16 9
305.126079814579 97.2119583954444 2929.63261986837 9 11 6
294.903435122498 96.9407344505565 2928.39640486632 8 10 5
269.884727480555 97.5267185463687 2938.67068170672 8 10 5
281.911836589205 95.9739968016019 2920.20865774751 9 11 6
227.516917129405 98.2923169924709 2953.66082424399 10 12 7
241.160706620655 96.6419211839832 2933.90019839901 10 12 7
209.904097929342 97.6367261196153 2949.5354403911 12 15 8
169.84768926027 99.175533654987 2972.38085589198 12 15 8
159.13708341745 98.9791981009136 2972.02632339182 12 15 8
179.151622767677 96.930374866488 2947.00079550003 12 15 8
164.38064605717 96.9761771967615 2949.87951760442 14 17 10
140.014986264836 97.6159018648018 2960.62747497432 14 17 8
142.192592595308 96.6353240880783 2949.84985173288 14 17 8
128.343206460429 96.6416805019563 2952.16141808272 15 18 9
119.318557908822 96.3532727279806 2950.5582379037 15 18 9
121.436814834813 95.3676330763963 2939.73756537299 15 18 9
126.680630188886 94.1779017474404 2926.24120209111 15 18 9
137.39459170163 92.6310637337645 2908.06261032416 16 19 10
131.464406995469 92.135910850863 2903.76118482728 15 18 9
123.175287191879 91.7926106785898 2901.45589046465 14 17 8
92.169069449255 92.9240006896057 2918.50837465859 13 16 7
103.507597476082 91.3130421239367 2899.54718307416 12 15 6
104.616808163007 90.359315426062 2889.23022966524 12 15 4
108.017122677635 89.2481363765589 2876.86794442377 12 15 4
64.8636599516994 91.2254933372712 2904.88126941295 15 18 7
75.2437233291587 89.6508038869707 2886.46019221195 17 20 9
66.265050831547 89.3662654680696 2884.89065513173 19 22 11
71.9030782609944 88.0932639997007 2870.4443117103 18 21 10
69.0457766508343 87.3898268298461 2863.42898875349 18 21 12
91.382594550427 84.953535255531 2833.90948991547 18 21 12
73.9409760417997 85.2413430362974 2839.79387358522 16 19 10
60.3623606271855 85.2705011835582 2842.30184290398 15 18 9
77.1238916165449 83.1826344250318 2817.38830980104 17 20 11
74.8715472618162 82.4137420457593 2809.57616509638 22 23 17
371.231001074969 90.1084115344044 2925.64214054599 13 19 9
326.567635118519 91.8543283699499 2950.08936443515 15 21 11
330.493846160894 90.7552938167882 2938.10866880113 15 18 11
326.878371677986 90.0973570259717 2931.77899724625 13 16 9
305.821288896956 90.4818994966004 2938.74834805199 12 13 7
298.913829343669 90.0248030974384 2934.97370455515 9 11 6
298.614444879493 89.1673961824119 2926.10648607439 9 11 6
293.343852682175 88.6087795944594 2921.0478551782 8 10 5
263.433433377547 89.5625906679862 2935.18869768541 8 10 5
286.063825533859 87.2875112170976 2908.35290692086 9 11 6
274.235486827645 87.1329836022112 2908.42335440908 10 12 7
227.409243971211 89.1730586640803 2936.24488811562 12 15 8
154.804453460343 92.8684871175699 2984.91091512783 12 15 8
181.404533060766 90.3295699620944 2954.77602149584 13 16 9
158.538974418073 90.9191570121556 2964.14110698754 13 16 9
166.38673662362 89.5512546239077 2948.82609351311 14 17 10
176.570394076736 88.0213033556026 2931.49790070295 14 17 8
169.033317793546 87.6296613136483 2928.50249724736 14 17 8
161.504186347457 87.2386479561487 2925.51285635815 14 17 8
134.853341752688 88.1069366083869 2938.31079658276 14 17 8
127.39300163364 87.7215604369523 2935.37075807104 15 18 9
117.56230397333 87.4952620840058 2934.41890139387 15 18 9
135.420260251049 85.4159223139003 2910.30023357221 15 18 9
159.452455748919 82.9001004810339 2880.77401619367 15 18 9
106.277601150349 85.5995732747815 2916.3476009878 13 16 7
98.0486159817677 85.2689711183748 2914.08596382337 13 16 7
74.978995798372 85.9601945182053 2924.53867218667 12 15 6
119.045270380903 82.0231596707656 2877.41507938557 13 16 5
81.2085691679547 83.7423913592441 2900.635485447 13 16 5
90.0599306060363 82.2200136885055 2883.57685229093 15 18 7
77.9570239488869 82.1610177054742 2884.68407460471 18 21 10
68.2007415643176 81.9409764366491 2883.78590036537 18 21 10
56.1596850258059 81.8872046839295 2884.93769113484 18 21 10
92.4337519274125 78.370664636096 2843.28399815183 18 21 12
103.247731493164 76.6553068442318 2823.94172691387 17 20 11
99.4971522713262 74.0805464485878 2797.74234750871 17 20 11
99.4480952677508 73.1244148258634 2787.82106005709 18 21 12
326.976443427847 84.2812671225547 2950.34735925478 11 16 9
349.262066496242 82.003757905955 2924.49695681963 12 17 10
338.940887779023 81.7511123095782 2923.18911202592 15 18 11
308.719584207176 82.7583163433127 2937.1048583391 14 15 9
285.247650883721 83.3550888275685 2946.03040627968 10 12 7
296.546248787271 81.7421490181702 2928.27500061353 9 11 6
281.400238693622 81.8165469658903 2930.88229233433 8 10 5
279.442937560903 81.044317775865 2923.28371937922 8 10 5
278.282319040883 80.2167584532674 2915.02736176487 9 11 6
264.840778815195 80.1896806599874 2916.39937833809 9 11 6
210.700939878439 82.8509681649741 2950.03819534647 12 15 8
145.442894857608 86.2881547247466 2992.91280828878 13 16 9
160.730103513541 84.3989301570149 2971.87195461842 14 17 10
171.053666134895 82.8256127272182 2954.6452568693 14 17 10
142.60149980506 83.857804701719 2968.60857846412 14 17 10
149.638434231929 82.4968590439376 2953.94085049542 13 16 7
159.810947551695 80.9107373699181 2936.60458902801 13 16 7
170.694594283329 79.2621655341645 2918.54819591861 13 16 7
123.287937271914 81.6331934470366 2948.42072461739 14 17 8
110.294842914294 81.6429824646174 2950.11801590834 14 17 8
94.9617399777991 81.8226168729897 2953.82524970722 14 17 8
80.4712352539587 81.9508246334736 2956.90770934006 14 17 8
48.6820184616041 83.312831813884 2974.62908004047 13 16 7
128.685968161849 76.7226258073789 2897.96355952995 13 16 7
77.2714563444259 79.4893998731258 2932.34322753249 13 16 7
118.371739702843 75.615882051362 2888.01058159274 13 16 7
51.6116513838942 79.5361953019518 2935.97455052503 14 17 6
114.256068051756 74.0528599661301 2872.66787664202 14 17 6
88.9049936907278 74.978625234816 2885.17330254874 16 19 8
69.8476454362398 75.455990821902 2892.35773712741 18 21 10
49.3219604887511 76.0543349694372 2900.94872361715 17 20 9
42.7156891803024 75.623564915094 2897.39255125479 15 18 7
66.0068333215182 72.9413208589938 2867.32828697163 15 18 9
93.7158789187143 69.897579582449 2833.05430842968 16 19 10
85.4109226328137 69.568619486168 2830.73760649837 17 20 11
90.7968628820259 68.1914950597586 2816.10799229687 18 21 12
140.655275671604 62.3705038205607 2750.94156977118 16 19 10
381.611914211372 75.012088587095 2928.1505791725 11 17 7
377.934643604871 74.3321783775827 2921.77599898914 11 17 7
329.058267242319 76.5993232174209 2949.34753394747 10 15 8
335.48742177807 75.2692962182135 2935.47440660333 17 20 13
323.537878176377 75.1428272339101 2935.45713219867 17 20 13
280.90054214377 77.0592043089253 2958.90385857358 14 15 9
280.684717892557 76.1696332490637 2950.0967572797 10 12 7
274.656831603732 75.6659530742616 2945.72446262809 9 11 6
286.748485259228 73.9367746380322 2927.30862907743 8 10 5
287.243146327252 72.9817091453693 2917.78120538257 8 10 5
263.943219706003 73.6493668826098 2926.83180370016 9 11 6
252.17395523684 73.5370992478189 2926.94528941866 9 11 6
181.383580426482 75.7138530172332 2955.92213210257 14 17 10
143.964505924618 77.4426666692989 2976.97467100155 14 17 10
155.08318346552 75.7560003493794 2959.08875826254 14 17 10
156.461984164052 74.7496278474066 2948.96696974498 15 18 9
185.060147482419 71.7839136193006 2916.57296346541 15 18 9
165.495614716197 72.2649845300943 2923.38974793586 15 18 9
122.083451518506 74.4889970078136 2949.98174816175 15 18 9
78.0814985070157 76.7882861778859 2977.38132060834 16 19 10
115.966570966169 73.1041040369392 2936.89463079431 16 19 10
106.952997725724 72.8479291177517 2935.29964261048 14 17 8
81.3956013817467 73.8243158621495 2947.65546323936 13 16 7
124.364269669374 69.6931482739618 2902.20587110284 12 15 6
128.633714188856 68.4298981360135 2889.2378298508 13 16 7
60.899043812376 72.6063866462932 2937.73163765837 14 17 8
127.640917824662 66.6012445603319 2871.21688289431 14 17 6
85.1044876500868 68.8985610600765 2898.44409197704 14 17 6
80.7702489022555 68.2862403785468 2892.82864055111 17 20 9
72.559953370551 67.9726707471562 2890.58063817641 18 21 10
79.7828394376023 66.458212791627 2874.81189632083 16 19 8
43.8742170501678 68.3132836163679 2896.9603281867 14 17 6
58.7356080976056 66.1918511508168 2874.37428295954 14 17 8
65.0680360136136 64.7276161901469 2859.19561448254 16 19 10
82.7634393641481 62.3449423434085 2833.72224102179 17 20 11
65.3581748685603 62.7577024336636 2839.63390587653 18 21 12
154.673394964162 53.5323810323643 2738.82670506282 16 19 10
379.503525579707 67.4753743936501 2930.28939267957 25 28 19
373.31593810436 66.9588014495628 2925.80126192523 11 16 9
360.432807892521 66.9005739249953 2926.3425929488 10 15 8
287.483478350295 70.9854230942882 2972.29104997567 15 18 11
252.348499624519 72.5033938519305 2990.05786969311 16 19 12
312.856954650741 67.3789516228589 2935.0857859614 16 17 11
268.665886203459 69.5397398988814 2959.87748979993 13 15 10
278.364314147537 67.9318599546392 2943.43248014548 12 14 9
283.860136563909 66.6089426593313 2930.11812754798 8 10 5
325.444836549435 62.7022172985575 2888.60655061485 7 9 4
262.709348634046 66.2398470158288 2928.36988680751 9 11 6
268.922209922264 64.849247854977 2914.33995153939 10 12 7
254.692920466046 64.9317692922193 2916.3765036549 11 14 7
199.86444633496 67.9846107626715 2950.75313424193 12 15 8
193.937571555743 67.4882025534785 2946.45410182326 13 16 9
142.574114586127 69.4293460344911 2969.75067997603 13 16 9
177.760986825167 65.8780148888504 2932.24882667327 14 17 8
178.241955817938 64.8987446232449 2922.71164917592 14 17 8
148.298437640227 66.2129318277241 2938.06535960902 14 17 8
124.288499016012 65.2201463370436 2930.53619051328 14 17 8
138.189753234302 63.1985644252276 2909.7249951065 13 16 7
106.233049694145 64.7262945005944 2927.32579050821 13 16 7
131.838693540911 61.7737750610162 2896.46791419897 13 16 7
108.63762257071 62.6332224638223 2906.82618316936 12 15 6
86.3143466370739 63.4388221623123 2916.58518063937 12 15 6
77.341934583766 63.1964966697995 2915.0201012286 12 15 4
94.0528773676821 60.9005606612616 2891.30387837335 14 17 6
75.7341770817979 61.4045082584588 2897.78887264192 18 21 10
69.8590254525362 60.9120213540768 2893.52735530066 18 21 10
105.627525426462 57.026884008214 2852.74033567365 16 19 8
67.5638681430657 58.1703881897174 2867.14716042734 16 19 10
65.4639557584189 57.3571476193731 2859.44529227853 16 19 10
62.5788033705352 56.6055904893846 2852.40924148448 16 19 10
107.568612778717 51.8365527958953 2802.24581464167 17 20 11
127.12620242665 48.1229122290585 2764.52935180784 21 24 15
418.62453282187 57.0311283059859 2901.78033592612 18 21 12
381.283942515105 58.7205476029499 2920.41949689449 11 16 9
344.941904013846 60.3632386632473 2938.54725605989 10 15 8
300.408264944981 62.6211544081721 2963.0911151138 15 18 11
305.204284647087 61.3315884979099 2950.50466615474 16 19 12
285.858345888025 61.7942435450016 2956.24478417683 13 16 9
253.328970655875 63.234990560403 2972.19496043206 13 15 10
245.723195407193 62.8585188175398 2969.14953799381 11 13 8
285.089880266708 58.997556530556 2929.73600520168 10 12 7
286.414996752706 57.9372028341931 2919.57502642739 9 11 6
318.84342502512 54.5360578126322 2885.01501441828 8 10 5
277.502106392406 56.6698001647635 2908.1670213565 8 10 5
257.543263969285 57.2103804409883 2914.69826376836 12 15 8
240.097117802188 57.5708937730319 2919.34469688061 12 15 8
211.360248543598 58.8077799946752 2933.10266806322 13 16 9
179.511114753375 60.304534887946 2949.54595507069 13 16 9
158.284796672339 60.9989595531979 2957.62952431643 13 16 9
158.051077825397 60.0676669224993 2948.80953399726 14 17 8
159.390198602364 59.0076859962415 2938.65870912052 14 17 8
150.290742499437 58.7653996213256 2937.00182744208 14 17 8
114.087909849989 60.6781668032509 2957.70194114746 14 17 8
125.778921723998 58.7931207059785 2938.99458984184 14 17 8
135.786144944347 57.0272968449952 2921.53759582689 14 17 8
83.2089908557827 60.3018075609434 2956.31234252753 13 16 7
111.356894123938 57.061792054998 2923.59054373848 13 16 7
106.273895799105 56.5049601763123 2918.66791268381 13 16 7
112.168924995232 55.0453780627676 2904.40693025999 13 16 7
88.2691372407325 56.0362446799737 2915.49438681551 13 16 7
73.8307219393795 56.2577158435652 2918.6153740569 12 15 4
85.1115094360191 54.338137568793 2899.61046743321 14 17 6
92.415992523498 52.7363576684772 2883.90043469624 17 20 9
84.1742264176215 52.435622602021 2881.62968364031 17 20 9
78.2586647314698 51.939279530167 2877.33885265417 15 18 7
99.2624111522953 49.1420724813172 2849.3212270024 14 17 6
79.4628258849217 49.8257856466618 2857.2039744277 15 18 9
73.5069639174726 49.3262226104425 2852.88391259784 16 19 10
80.5137958488773 47.6996471706865 2836.95768611432 16 19 10
77.5601024211734 46.9309724462645 2829.8721562308 17 20 11
67.8169585792028 45.723394360312 2819.09762234507 20 23 14
411.833577515497 50.7282891999871 2916.58756082802 23 26 17
438.402277150824 47.7720229523687 2887.66284186341 20 23 14
411.917972061846 48.7439425969251 2898.11166730589 15 18 11
345.352157743147 52.737122515468 2938.80602996177 9 14 7
313.336938555668 54.1756158564787 2953.89388086191 14 17 10
284.599751768888 54.4268221296691 2957.76545273364 13 16 9
286.607941027884 52.3358064054421 2938.213545496 12 14 9
249.23574439465 54.2550182145913 2958.06599493737 12 14 9
299.150381464575 49.3989557180078 2910.23690886358 10 12 7
293.026605231884 48.885476098641 2905.79505190914 7 9 4
294.259686952402 47.7921364372553 2895.56748256584 6 8 3
271.808404387072 48.5686869489322 2903.99850152768 12 15 8
263.26753493154 48.2511144725884 2901.5108387856 13 16 9
184.757274851436 52.5702684204459 2945.89931864773 13 16 9
140.931147354926 55.1442154286921 2972.19270532933 12 15 8
133.507351218501 54.7870414893191 2969.27930118036 13 16 7
146.94838483774 52.7222815769542 2949.36959444086 13 16 7
133.083587056814 52.8886828406939 2951.67079921829 13 16 7
142.39838832378 51.1426041966382 2934.94699039494 13 16 7
125.373604709567 51.5758126497647 2939.89954090624 13 16 7
75.0855693274781 54.804446067491 2972.62808186723 12 15 6
80.4287536137522 53.3900820835913 2959.20232095924 12 15 6
99.1231812567404 50.8347830167225 2934.45258162458 12 15 6
120.828374136165 48.0000355976757 2906.94325933088 13 16 7
101.576868291499 48.6453799087917 2913.98809025128 13 16 7
84.7467069532724 49.0948075929533 2919.08151428047 13 16 7
74.2191108127526 49.0089925217339 2918.86020922716 15 18 7
75.388163277081 47.9094248373331 2908.58589768641 17 20 9
92.8101430771964 45.380338200354 2884.14890315539 18 21 10
85.3417358441697 45.019191801748 2881.20313934916 17 20 9
97.9397935539326 42.8834529678968 2860.68198186066 15 18 7
89.8315626864412 41.5372448167604 2848.62185583389 14 17 8
74.6684892494809 41.8607651819309 2852.45278197931 17 20 11
74.8111140418004 40.8083663081904 2842.66996113962 17 20 11
41.455236965243 42.7978350781267 2862.96420894709 18 21 12
62.8550469715643 39.8047965978943 2833.99766968686 20 23 14
61.4122476560275 38.885537672834 2825.53628871525 29 34 27
405.998819798775 42.4255992706301 2912.31576567794 17 20 11
396.387096975861 42.1634752890182 2910.28713596346 15 18 11
361.671885209949 43.8671619906389 2927.12415776704 8 13 6
325.434705548869 45.7144419238267 2945.32896762646 13 16 9
358.492107359416 42.1089355791403 2911.22387682771 14 17 10
290.583419006353 45.5069907610409 2944.76597491358 13 15 10
301.061729593454 43.67158225978 2927.65012972438 12 14 9
304.857862866502 42.3613902252163 2915.5740683851 11 13 8
285.584094772739 42.9161470342522 2921.36697097625 10 12 7
288.515897369161 41.6688485498926 2909.89939860416 8 10 5
296.304885665316 40.0145226027916 2894.54032787672 8 10 5
259.983267210166 41.9891559407225 2913.91960795161 12 15 8
271.806742757657 39.9944077052273 2895.30802120387 13 16 9
213.779090864597 43.8127190710053 2932.30981780716 13 16 9
148.750847439613 48.2653028714946 2975.35616201772 13 16 9
138.89837967787 48.1166852357977 2974.38891719757 12 15 8
145.157712097193 46.6049608867422 2960.39176184415 13 16 7
151.350524281828 45.0876339758922 2946.34665065194 13 16 7
154.276450367903 43.8390379511988 2934.87481169979 13 16 7
141.99208317103 43.893432380518 2935.85106374056 13 16 7
136.108248281095 43.3988081836183 2931.58324089252 13 16 7
141.333523488637 41.9357853447614 2918.07205318738 13 16 7
121.172571312188 42.6866100478289 2925.69288348448 12 15 6
132.657237600357 40.6627462345714 2906.83524472095 12 15 6
118.073541465722 40.9312956884143 2909.85115324667 13 16 7
112.170167744726 40.4349392687574 2905.56915750896 13 16 7
82.0051402941755 42.1111019524342 2921.9991612493 14 17 8
45.731876433516 44.3607540953009 2943.88525536156 16 19 8
110.797453736461 37.4658752515872 2878.62117838228 18 21 10
101.74031317381 37.2479168842905 2876.99480089118 18 21 10
85.7352864010878 37.6687545817762 2881.45120113303 17 20 9
112.226229977293 34.1890189224159 2848.7623537784 15 18 7
117.757109839499 32.6158621677843 2834.23681645314 15 18 7
91.8957163426639 32.8877514341849 2837.72314375826 18 21 12
55.3744438091694 35.2527307456429 2860.66507187486 18 21 12
72.2737203288561 32.5974189970652 2835.84851922574 19 22 13
66.2864696736909 32.0944020339026 2831.50568557147 20 23 14
370.467282904792 38.5524956729683 2948.29482688494 26 28 17
413.152199263737 34.1032586222767 2907.57807235201 21 22 14
400.163277443832 34.1222334027208 2908.04339830311 15 18 11
337.796559648921 38.1681521023787 2945.60627067453 8 13 6
356.748309766719 35.6045085158634 2922.27806425595 8 13 6
336.411352198415 36.2526446930095 2928.53574772152 14 17 10
294.54401857434 38.6945149675981 2951.30799589547 13 16 9
290.98706942666 37.9806794092074 2945.02046746681 13 15 10
305.600843702937 35.7447864642345 2924.72500200538 12 14 9
302.79297324622 34.9549912486015 2917.74507532609 11 13 8
295.856154094563 34.5110348505402 2913.94921498652 10 12 7
293.843227307453 33.6492241693195 2906.30986405952 9 11 6
274.633798955552 34.2524477371833 2912.14965339631 9 11 6
257.124867407738 34.7213087447071 2916.75141532553 13 16 9
202.258925432647 38.4256980131028 2951.10418489088 13 16 9
221.478295284138 35.7444521381775 2926.73405494355 13 16 9
155.610562399538 40.4643149232983 2970.40852025621 13 16 9
148.96732558938 40.0443062645138 2966.82560532137 12 15 8
164.858470284069 37.6374921797672 2944.98489945199 13 16 7
163.778676758135 36.7147368658031 2936.78665141428 13 16 7
154.668911547913 36.5030003547327 2935.12215670802 13 16 7
142.383363401693 36.5786724638697 2936.09766042905 13 16 7
168.335824334111 33.2155054332206 2905.48911921564 13 16 7
140.933189729209 34.6538693584708 2918.97999499076 13 16 7
146.100435311123 33.1471925052674 2905.4265192554 11 14 5
124.368342203352 34.0919489395445 2914.37974599945 12 15 6
130.273048172256 32.5085550259283 2900.12515134355 13 16 7
114.132453161094 32.9530914689198 2904.483395315 13 16 7
110.572126663773 32.2373692245327 2898.19340901707 14 17 8
106.217060632613 31.5934698796538 2892.56299397384 17 20 9
120.533174981802 29.1924929267902 2870.81558118962 18 21 10
101.358937385918 29.9364653436425 2877.91663060633 17 20 9
98.5118528027602 29.1421789825052 2870.90825402137 16 19 8
80.982452929347 29.7472396023945 2876.73061005461 14 17 6
131.241541861502 23.8530607039472 2822.97048859946 14 17 6
110.579092473168 24.7493502906189 2831.46384077972 16 19 10
42.557108960029 30.2583631264038 2882.22619191977 18 21 12
67.2127464577272 26.7862107791066 2850.67700369083 19 22 13
79.518738569746 24.4937618981952 2829.94332785025 18 21 12
80.3392374746639 23.3150557577577 2819.4159415439 19 22 13
395.046518664969 27.8546990388344 2921.59409508698 17 20 13
414.018398619463 25.2106878072335 2898.28007413864 15 18 11
367.521972382402 28.0879523083204 2923.87457174534 12 15 8
349.641077980743 28.5647565002433 2928.2064356205 13 14 8
345.153559351752 27.9057553609006 2922.47963189184 16 17 11
319.87969537092 29.0328251059834 2932.57168116236 17 16 11
319.572978634606 28.0182356555214 2923.69835120052 11 13 8
286.993369913546 29.8029059856463 2939.61385416699 11 13 8
289.183462309803 28.5738346113006 2928.84402367205 10 12 7
297.085592304344 26.8354441799525 2913.56654597315 10 13 6
310.653935707106 24.5837432156156 2893.74788744235 10 13 6
263.587599349822 27.6942893828353 2921.40079439346 10 13 6
202.871812034851 32.0600538473955 2960.16208158425 12 15 8
249.027508443551 26.8937126280125 2914.54692857628 12 15 6
210.517663088178 29.3097560098297 2936.04785094266 13 16 7
228.826556734787 26.6079924275537 2912.25263006685 12 15 6
192.126638429447 28.8933003771471 2932.59457724139 11 14 5
178.127402868544 29.1292557285731 2934.79867750824 13 16 9
177.013305139795 28.186739212141 2926.57546152744 13 16 9
160.663961515479 28.649031038202 2930.78246910881 12 15 8
180.291892718471 25.775072159805 2905.47250124576 13 16 9
162.364130772775 26.3872724136757 2911.00640675201 11 14 7
158.790946616395 25.6618457023092 2904.7070505076 10 13 6
122.745130691027 28.0019355538936 2925.52344793775 13 16 9
117.655088633484 27.4316329677996 2920.59534802211 13 16 9
104.686687075359 27.6125720542865 2922.31140655923 14 17 10
123.160635543724 24.7827373493967 2897.4004465885 15 18 11
117.227901849208 24.282971863641 2893.09714991182 15 18 11
113.636428994928 23.5559440761527 2886.78452769024 20 23 16
104.581356340518 23.3591083756644 2885.15975626042 19 22 13
92.5591638571239 19.0926480845045 2848.01509808969 14 17 6
48.303586382878 22.4391014839382 2877.7064845793 19 22 13
48.5290595923935 21.3265011829263 2867.98341739321 18 21 12
86.7658619897753 16.3417185565151 2824.03941747818 19 22 15
46.5954080432627 19.3250716054942 2850.51488039602 21 24 17
419.042704239788 18.0620009495301 2904.35645873397 21 24 17
366.558973147439 21.5755443538165 2934.25940503515 14 17 10
424.066918956346 15.4608291246725 2882.04761320361 13 14 8
414.393299331957 15.2247277238411 2879.9742449863 13 14 8
369.733250952987 18.0985330240662 2904.42958683562 17 16 11
331.092643470298 20.46973037096 2924.60015868508 17 16 11
317.493760707499 20.623401358896 2925.8590298235 12 13 8
309.721673455194 20.2582605306572 2922.69339613488 11 13 8
284.639920406619 21.4634451782421 2932.92510638742 11 13 8
342.728863788849 15.1082512033584 2878.66290628821 10 13 6
334.852439949129 14.7338812783467 2875.42159003353 10 13 6
248.446723491067 21.5893473580971 2933.86109596613 10 13 6
222.030907484266 22.9700310931097 2945.59697218284 13 16 9
208.743571121107 23.1490005576962 2947.08181809686 14 17 8
241.752477217822 19.0071538080072 2911.70352394409 14 17 8
189.293316229099 21.7991631771071 2935.44514930259 13 16 7
191.400564030249 20.5343748443723 2924.61508207923 14 17 10
184.6327481835 20.1083318961353 2920.94212105428 13 16 9
172.264771750925 20.2199880564355 2921.85775854072 12 15 8
147.156740857064 21.5659305193548 2933.30616901769 13 16 9
157.185898887284 19.5260165559417 2915.86368769413 11 14 7
134.572132345221 20.649395114126 2925.41400641231 10 13 6
126.302616664911 20.3849812329524 2923.12302859461 12 15 8
96.7252359031168 22.2196653234962 2938.74509075063 12 15 8
92.4766728319861 21.5728828633329 2933.19157289545 14 17 10
84.292171800147 21.3156353223412 2930.96255478667 15 18 11
84.7335826877753 20.1985621710017 2921.3957082989 16 19 12
64.0559658793962 21.1964720053524 2929.87858001926 19 22 15
104.974659176763 15.9896077464627 2885.40754190637 18 21 14
90.2606236289429 14.1719818049184 2869.79137589713 14 17 6
113.571266604122 10.6548143434026 2839.73701768318 15 18 7
77.602457453366 13.2492380749509 2861.8455638481 14 17 6
50.2242259095071 14.9809840811507 2876.59094706726 19 22 13
54.2630644847639 13.4461567202177 2863.4543590527 18 21 12
81.8377541724047 9.42302870610343 2829.07772778069 19 22 15
72.7910822904461 9.23777680814453 2827.45910492436 20 23 16
315.960990409952 20.6294717709026 2990.20957565161 19 22 15
366.395959015276 15.0337889401329 2943.98927379566 16 19 12
381.252168339293 12.6131419875874 2923.86832438166 15 18 11
446.275290099152 5.60077454415345 2865.98368409948 14 15 9
400.606553351104 8.66220959436459 2890.94408771147 14 15 9
313.465105800195 15.5776412167686 2947.61551358168 16 15 10
331.50127533937 12.8362388968224 2924.85771950838 17 16 11
365.993971590485 8.54182602924805 2889.31924709752 13 14 9
330.803402392251 10.72165633979 2907.04941502126 12 14 9
311.437255910283 11.442096917485 2912.7761897683 12 14 9
300.366912705069 11.3916530677139 2912.16161494721 11 14 7
294.244842461894 10.8761907470842 2907.7209846582 11 14 7
214.480170895151 17.3829922251432 2961.09207771686 11 14 7
174.27964331202 20.168717603978 2983.83933422598 13 16 9
197.511799231175 15.8062422770651 2947.54831979612 13 16 7
213.437872022082 13.1796523022325 2925.73182084088 13 16 7
205.833515729871 12.8325102362974 2922.68757559505 13 16 7
212.729114491747 11.0615488863257 2907.91531357623 14 17 10
197.07216256649 11.5055119601321 2911.38912120868 13 16 9
171.057505679094 12.9873397013271 2923.41631854653 12 15 8
134.770967944509 15.5142433091506 2944.05886337141 12 15 8
112.188033490452 16.6971944673525 2953.63154019811 12 15 8
149.257605588867 11.8833826482762 2913.78299160112 11 14 7
91.0545003239989 16.6788234418006 2953.13291539943 10 13 6
97.1111229386419 14.9837784125637 2938.98817730419 12 15 8
98.3758714456586 13.7667998820242 2928.78264315796 15 18 11
57.97494705718 16.8287852916691 2953.85610031613 16 19 12
56.1423391397939 15.9387266208456 2946.34761778137 17 20 13
82.4030693775839 12.1246387796787 2914.72493245719 17 20 13
96.0219310334587 9.59701217397985 2893.70675591623 17 20 13
80.0192034398801 10.1585386479973 2898.1655354985 14 17 10
96.0597769166824 6.21748568649128 2865.309169426 14 17 6
87.9778701038711 4.80033303300012 2853.26747244335 15 18 7
75.8796731006979 4.95622875291468 2854.37919735465 19 22 13
72.21366371411 4.20586684055607 2848.01242381816 17 20 11
89.0868670200704 1.21780566165838 2823.17528469852 18 21 14
92.9235423092041 -0.369992266845365 2809.89187589711 17 20 13
340.011201535919 10.9682553205743 2973.01176955401 16 19 12
344.059130692783 9.51464859702511 2961.1172195238 20 23 16
393.901305229687 2.63880984485274 2905.81456451923 14 17 10
401.024995337747 0.844994075932637 2891.20782949985 13 16 9
320.538809215316 7.38826847093535 2942.82102937252 15 16 10
296.985406825031 8.54834188291109 2951.69007740115 15 16 10
359.774287362701 1.41376294378642 2894.65553668603 13 14 9
379.188133377125 -1.59098344765446 2870.42474806564 12 14 9
322.569353025387 2.77076837760101 2904.74550846151 12 14 9
292.189578025955 3.50462549240416 2909.89914554041 11 14 7
186.909953222324 11.6998940639576 2974.42539734021 13 16 9
162.319984375941 13.0707989350652 2985.01445186171 13 16 7
175.98589895618 10.6287827038156 2965.26585525241 13 16 7
209.786896951816 6.14050558185869 2929.22497405392 13 16 7
219.149482268072 4.08417993436772 2912.53423344543 13 16 7
201.049340539062 4.80387467964324 2917.94372164878 14 17 10
183.014376746836 5.52895869393652 2923.40019155015 13 16 9
149.8276898638 7.82185776448749 2941.3485526155 11 14 7
102.413054770484 11.6105575364318 2971.22247861991 12 15 8
95.0502248090399 11.2885678435877 2968.35344836741 11 14 7
109.141256113004 8.73198045307788 2947.67741098887 11 14 7
115.200933828007 6.99574022682825 2933.53438446227 11 14 7
103.02617775963 7.16639352940596 2934.5903903464 12 15 8
74.3432804041704 9.09007015002955 2949.62600227138 15 18 11
118.406995714152 2.17084922379954 2893.83989795716 17 20 13
87.4770767946549 4.35426564725722 2910.95302151746 17 20 13
90.181264943757 2.93407057843181 2899.31986529671 16 19 12
90.5059576999339 1.76256522230381 2889.66842611172 14 17 10
80.7255690405393 1.68582322706493 2888.75350255838 13 16 7
120.397439503654 -3.80578041016169 2844.61221033253 13 16 7
105.897341408466 -3.38177116275046 2847.68950829562 14 17 6
92.9808548220921 -3.12377916032874 2849.44329691487 16 19 8
83.931542867361 -3.2883839837457 2847.82315927196 18 21 12
71.8446708205907 -3.11007340097075 2848.94291294452 17 20 11
83.3948263751143 -5.58123040511793 2828.89544649039 18 21 14
128.247122159595 -11.8338244330599 2778.62481858175 17 20 13
311.69211145941 6.19329191002047 2994.45266083019 15 20 13
317.50110825537 4.55003764546558 2981.36371245402 24 29 22
382.918557779822 -2.89423583252574 2923.76274109455 16 21 14
458.860931981075 -11.4335938652268 2857.72931133947 15 18 11
363.470550666396 -4.37796551910225 2910.89198694283 15 16 10
329.822305420862 -2.18219140484904 2927.26993143779 16 15 10
324.520339169347 -2.78112266824071 2922.18835261837 12 13 8
348.168999462411 -6.27637447029686 2894.84950911436 11 13 8
326.278808781107 -5.2245590172732 2902.45363319922 11 13 8
306.117245104923 -4.33217041841663 2908.83970062696 10 13 6
303.26477173699 -5.18272392651603 2901.82713259272 10 13 6
247.189531078318 -0.609308537340703 2936.54269415246 10 13 6
174.237387478798 5.74329606202961 2984.97067109588 14 17 10
224.581669780699 -0.534060858886992 2936.21080825416 13 16 7
218.597295462388 -1.03923455929428 2931.87004879356 13 16 7
221.519845681532 -2.47089484701735 2920.39512982387 13 16 7
196.128103183653 -0.952932375275745 2931.63874301965 14 17 8
177.283940571157 -0.102889696919239 2937.74457147354 13 16 9
141.641908963032 2.53303318330547 2957.61984811884 9 12 5
121.966812418163 2.39691428863642 2955.70751100013 10 13 6
120.924127578675 1.39285173293136 2947.53575200396 10 13 6
116.676396732863 0.728552497102769 2941.98304319777 9 12 5
118.757172241588 -0.622171087353907 2931.1333503657 14 17 10
110.522615684561 -0.860233340010896 2928.86814311574 15 18 11
109.804226644112 -3.05836718650396 2911.04424839396 18 21 14
110.964452660942 -4.33428636987759 2900.76293959497 17 20 13
97.2400236144031 -3.96787257674408 2903.16691376646 17 20 13
96.8031866415711 -5.07347813657122 2894.19879585373 16 19 12
76.7626113959392 -6.30954126284997 2883.37009863232 15 18 7
103.212971156603 -10.4854389829959 2850.6480105286 15 18 7
104.89815605217 -11.8694644389897 2839.51137693817 16 19 8
76.0574116765973 -10.9484768794885 2845.78134353642 18 21 12
65.5156273146336 -10.9233022137593 2845.5503153235 21 24 17
350.958028141942 -5.11477544450384 2966.04427659757 17 22 15
370.722919459729 -9.34393698773128 2933.4159209467 16 21 14
447.851196820107 -19.4475786264807 2857.1183356784 14 17 10
366.384686845425 -12.3460066331963 2909.25874238603 15 16 10
350.192955910494 -11.84816343588 2912.34515021506 15 14 9
306.675622032603 -8.53217399047088 2936.39607331362 11 13 8
292.315411662989 -8.19076919290374 2938.33902936028 11 13 8
276.348122415317 -7.67460471471346 2941.58793808211 10 12 7
306.524034271408 -11.9603446129239 2909.0959525689 10 13 6
302.030441144251 -12.6501877124809 2903.36458908627 10 13 6
226.302072354255 -5.84208754960744 2953.48773268098 10 13 6
226.879198173774 -7.03594945597677 2944.01917437047 12 15 8
183.448283917554 -3.5585418872395 2969.36859914087 12 15 6
229.550920578602 -9.60657920784472 2923.71051602491 11 14 5
211.388566241512 -8.81073253279138 2929.07529070552 12 15 6
179.5597274666 -6.52848430323572 2945.53756315833 13 16 7
164.787106962048 -6.06792421400459 2948.41719447115 13 16 9
154.078465155433 -6.04085295781959 2948.06521734229 8 11 4
127.372276642155 -4.25818790252655 2960.82766907602 8 11 4
155.908393156437 -8.52835659417517 2928.382076425 8 11 4
127.684032396423 -6.56340083862339 2942.51496929441 9 12 5
153.613418282102 -10.5878147577292 2911.88635114132 9 12 5
124.691419637329 -8.52647138983878 2926.74933074821 15 18 11
111.70001257468 -8.2265147541172 2928.44902047447 16 19 12
106.627215976061 -8.81118227454536 2923.53364387584 18 21 14
96.0484160517838 -8.77347289022268 2923.27584578266 18 21 14
121.54193827664 -12.8348993254781 2892.33107328436 17 20 13
116.383457943752 -13.4268770052226 2887.35325121375 17 20 13
116.674180321314 -14.6459422022616 2877.67694527637 16 19 12
109.935665244128 -15.0606303755829 2874.02498804173 14 17 10
97.7764935568697 -14.8456587871091 2875.0928103342 14 17 8
67.1080449713788 -12.4657719968206 2892.39647448081 15 18 7
91.281471746469 -16.4832681140641 2861.73029024068 15 18 7
83.9552650618045 -18.0355579578266 2849.00069528265 18 21 12
83.3264205830018 -19.176702573148 2839.89320701887 18 21 12
103.992894919393 -22.8688769142954 2811.62655244959 22 25 18
116.15007506075 -25.5708269549998 2790.78292543156 19 22 15
327.573811534093 -11.3719915748487 2974.99840097667 10 15 9
388.78799004561 -18.8460717981135 2920.52600988067 17 22 15
323.66272960649 -14.3848326786099 2951.15081850507 17 18 12
375.972390591258 -21.0308477666516 2902.57879665834 16 17 11
373.898139568163 -21.9954568922728 2894.89446978956 16 17 11
317.036646326202 -17.1547456363365 2929.04170845549 12 14 9
279.476324337874 -14.3197862068323 2948.7624202544 10 12 7
277.573572183194 -15.2704916531249 2941.2027814772 9 11 6
320.101821416921 -21.0047340563369 2899.13091016712 10 13 6
300.794946701979 -20.1061749966207 2904.90155448823 11 14 7
241.435090554536 -14.8450718632142 2942.18024692783 11 14 7
204.408598189559 -11.9658506359227 2962.28816740792 14 17 10
231.074953055727 -16.0369655835553 2932.19355724657 14 17 8
236.446700769932 -17.7968337449202 2918.7870470073 12 15 6
223.935202345964 -17.5896240620695 2919.5991263367 10 13 4
196.916110426657 -15.76249702421 2932.13497292242 10 13 4
163.305366562549 -14.3350240577868 2941.12540264308 11 14 7
171.02747679706 -16.3711240375342 2925.71591682077 12 15 8
168.285775414549 -17.2360337392828 2918.78357704581 13 16 9
179.870689864185 -19.7364181623071 2899.9961966431 12 15 8
176.258343272661 -20.5169348430749 2893.66817167212 12 15 8
163.914008969217 -20.2961427719097 2894.60179511444 17 20 13
115.248134042602 -15.8715800134585 2926.04196469069 18 21 14
84.1575859938715 -13.4402647415312 2943.04019490077 20 23 16
108.2240850048 -17.4158810110603 2913.53145072431 20 23 16
132.122884166821 -21.4056997902755 2883.90135988699 18 21 14
139.441101020495 -23.4762522088585 2868.19890862501 14 17 10
121.743791624652 -22.6011304983305 2873.90091137474 14 17 10
119.654942965575 -23.5692717175867 2866.20627895438 15 18 11
109.793508291913 -23.613058810082 2865.23277033876 15 18 9
87.5880687170092 -22.1700101322852 2875.08071318174 17 20 9
80.1156692552869 -22.4862389418834 2872.13228284017 18 21 10
81.8718940534722 -23.9198620182817 2861.0468963695 18 21 10
82.0507670842456 -25.1705116781178 2851.28934847212 18 21 12
102.058171562907 -28.856563908138 2823.77998773662 18 21 12
103.631471420047 -30.3055137672272 2812.56191743919 17 20 13
123.390779622972 -34.0124010017432 2784.87289536239 18 21 14
284.136960648097 -14.2249652509317 3007.72226625769 16 21 15
341.272136798511 -21.4584318845545 2956.46961567819 16 21 15
315.050560941866 -19.8124718949182 2967.11260777236 15 20 13
287.260872786722 -17.9775727632437 2979.08987206857 17 20 13
318.819698616132 -22.5476711870216 2946.36361896925 16 19 12
341.860163378021 -26.2293262578405 2919.81797400505 17 18 10
289.808318863698 -22.9063138279983 2941.3874881452 13 15 10
332.459134354524 -28.7916067075248 2899.40370263015 8 10 5
318.040223631025 -28.4016060663 2901.30435168508 9 12 5
272.460217266015 -24.5328844126221 2927.56820354033 12 15 8
255.754313107933 -23.8539412442066 2931.51753568614 13 16 9
213.784083212178 -20.3238192209929 2955.4560354727 15 18 11
226.583954818248 -22.9421201993991 2936.31376954136 16 19 10
240.907331375096 -25.7534921932903 2915.80457918386 14 17 8
237.295910229574 -26.5419694457544 2909.47718476658 13 16 7
211.045999568993 -24.7399745011469 2921.33546333369 13 16 7
196.186726278007 -24.2273476207704 2924.15254192092 11 14 7
194.233075954616 -25.1977097783114 2916.55590640988 12 15 8
173.022139531185 -23.9352046446558 2924.65350358705 15 18 11
152.693030889829 -22.7591244241728 2932.15458767714 15 18 11
153.165800591974 -24.007174230392 2922.61010491767 15 18 11
171.090285575865 -27.3192656177837 2898.53312656792 14 17 10
178.577300640713 -29.4223254679145 2882.952876075 18 21 14
118.797138508836 -23.5377827944826 2923.6354419455 18 21 14
103.459155256268 -22.9051180607325 2927.34143258702 19 22 15
94.4619691019111 -23.0234806973846 2925.759021798 19 22 15
121.541572580936 -27.4922581871603 2893.49160240067 17 20 13
162.506939609899 -33.6829663622247 2849.04941570848 13 16 9
116.940161033199 -30.6199310907078 2869.14300360937 14 17 10
102.435962929552 -30.077702746833 2872.21763371483 15 18 9
88.7520206341001 -29.626906846216 2874.65138500824 18 21 10
81.2769843058572 -29.9382308168334 2871.70136246685 18 21 10
66.8929725709173 -29.3856685985848 2874.863170579 18 21 10
86.2760513403673 -33.0571577769648 2848.13662768407 18 21 12
140.664511186832 -41.1697411982104 2789.94792994435 17 20 11
99.4595295931768 -37.2535863868801 2816.91320314688 16 19 12
321.630928109368 -25.6578515215311 2980.49909372231 12 17 11
311.400422383806 -25.7030098134733 2979.25803067941 14 19 13
302.869192193494 -25.9319779935005 2976.77780444463 15 20 13
294.350830062889 -26.1601426924435 2974.30691061074 17 20 13
295.024124665864 -27.4110956381475 2964.90777792633 17 20 13
304.816917859994 -29.6909915223328 2948.52777176227 18 19 11
292.944648037768 -29.5489251200207 2948.56787495413 20 22 17
286.897671050728 -30.0597976448194 2944.18170461729 17 19 14
276.721841129268 -30.1018604643322 2942.98058738782 11 13 8
319.271267764245 -36.1575415582442 2900.92243987752 10 13 6
291.75087529477 -34.2305677460927 2913.09538873974 11 14 7
187.346999548274 -23.4246274985239 2985.68052201642 13 16 9
272.178198484248 -34.4137916549508 2910.0217281698 15 18 11
195.204524292479 -26.688033638221 2961.71713915599 17 20 11
186.865480579309 -26.9029859094701 2959.37630399329 17 20 11
204.470452576835 -30.1601980076296 2936.30331294161 15 18 9
188.520912960649 -30.6927087108101 2930.91393164513 14 17 10
186.589941296581 -31.6752136967816 2923.3336748724 14 17 10
167.001234845599 -30.5512114468997 2930.13619189687 15 18 11
