ply
format ascii 1.0
comment KinectMotionCapture
element vertex 762
property float x
property float y
property float z
property uchar red
property uchar green
property uchar blue
end_header
115.584438414468 604.882735033981 1924.153052888 204 204 206
101.034591371472 606.67093875778 1921.33270717792 208 208 210
83.7302954055121 608.787300268554 1915.53109327612 211 211 213
66.3634355175682 610.91095926753 1909.79052770813 211 211 213
45.5302900617296 613.447754789385 1900.34608912195 211 211 213
32.8075925013089 615.017229405022 1899.99475082725 211 210 215
17.3110380140433 616.917190557253 1896.68107258741 212 211 216
6.56988290408744 618.24935691032 1898.64817319955 212 211 216
-13.1459707539916 620.652224587285 1890.947860454 213 212 217
-23.959311134083 621.992239657364 1892.98581991152 211 212 214
-45.8754566070616 624.657220895226 1883.18062339948 210 211 213
-69.2660716276592 627.498150498518 1871.97977321788 200 202 201
338.634477186525 568.062030315769 1834.21720218971 37 39 34
335.491510219309 568.519717202935 1844.35545335829 55 57 52
331.114796409929 569.117344526241 1852.86433160848 198 198 198
327.377221021714 569.641398695283 1862.16631935604 197 197 199
327.435526879116 569.7310798853 1876.26527264018 192 191 196
323.739562306987 570.248754904192 1885.52722090984 192 191 196
320.058295247665 570.764000417706 1894.77459556986 203 202 207
315.119962061035 571.422257109343 1902.41496201005 203 203 205
307.637170524834 572.371040793451 1906.87143617189 211 211 213
298.866273184722 573.466984575424 1909.75111176308 203 203 205
289.437265119675 574.637903839867 1911.85597252953 212 212 214
282.563433979784 575.515916319204 1917.13510928661 197 197 199
266.645050271507 577.42994726673 1911.40407771199 210 210 212
244.191417165359 580.093508632198 1897.88209626857 182 182 184
226.836608714747 582.173161761161 1890.71882033383 163 163 165
215.930732385385 583.51325552821 1891.43141056582 161 161 163
206.304159334357 584.70629642556 1893.72952455819 179 179 181
196.657504225488 585.901351303863 1896.04694482338 183 183 185
190.935211958039 586.645246368237 1903.03622758806 179 179 181
185.216525953535 587.388084079691 1910.02242339861 184 184 186
176.856073210645 588.43397800332 1913.9188281022 193 193 195
163.84102957419 590.014555000993 1912.43924353775 192 192 194
153.44728325819 591.293489943247 1914.06922966111 190 190 192
147.699550140757 592.037643789675 1921.08373731803 194 194 196
139.279160198469 593.088617058939 1925.03890982159 199 199 201
127.491809541083 594.526878420395 1925.1953986466 203 203 205
110.289273832179 596.58842562941 1919.3008368351 202 202 204
96.3987202323717 598.268600165134 1917.25901681632 208 208 210
79.7575549023901 600.265670491375 1912.23344489282 210 210 212
63.7366081015362 602.191244934327 1908.01980102141 209 209 211
44.2571269395273 604.515605851686 1900.09637015782 208 208 210
31.5302767535379 606.061367784075 1899.75266020593 208 207 212
16.7144271478898 607.847828961358 1897.19705436242 209 208 213
3.91124394404585 609.401916569347 1896.92791369445 210 209 214
-13.7468199915762 611.516172843266 1891.47790776926 211 210 215
-25.2530365911854 612.920096306271 1892.77721076308 208 209 211
-45.7881149411294 615.366521742501 1884.4670531114 213 214 216
-72.6505491447593 618.543990375179 1869.57880810732 201 203 202
336.836233824513 559.721238226647 1847.15469076731 126 128 123
331.210439830482 560.463995320914 1854.04831751146 200 200 200
327.472427912152 560.998659941453 1863.34917051979 197 197 199
328.160307256668 561.045798977414 1878.24648289591 197 196 201
325.729670839705 561.434779229 1889.10444342636 196 195 200
320.785839694118 562.099553901633 1896.74964390831 190 189 194
314.57716826905 562.902953644586 1902.79620428329 202 202 204
305.81629400031 563.987196376865 1905.66765622648 199 199 201
296.399309748646 565.143567737928 1907.76272734225 212 212 214
288.887835313543 566.08953975511 1912.24809960985 213 213 215
280.724141753633 567.107090927761 1915.95330858232 214 214 216
264.154346392423 569.052782240312 1909.44754970285 200 200 202
240.397938643206 571.793234069112 1894.37372188422 190 190 192
223.031662079026 573.828560088753 1887.22872332517 156 156 158
212.113758099826 575.151313145611 1887.95548229865 174 174 176
203.128630216355 576.259993635549 1891.04600950643 183 183 185
193.47209435278 577.442718271981 1893.37540175346 180 180 182
189.054399391821 578.044922232341 1901.92429846803 181 181 183
182.010588504062 578.93724116967 1907.36977529727 186 186 188
174.301425341214 579.902886766572 1912.04854764741 192 192 194
161.941575322982 581.384043191387 1911.34994976949 191 191 193
153.537128543193 582.426107218993 1915.29060725903 191 191 193
145.120622905974 583.469101768921 1919.24310184147 195 195 197
136.023099873294 584.587410853663 1922.44381599182 199 199 201
122.883737445549 586.154411672387 1921.0896883782 202 202 204
107.686339460171 587.950260495536 1917.49433106641 201 201 203
93.1128467667155 589.67693323312 1914.70656008968 208 208 210
76.4620249829688 591.634755255918 1909.69671589161 209 209 211
59.7523561260318 593.599478205805 1904.74394991113 208 208 210
40.261218608109 595.874241588306 1896.83942447527 208 208 210
30.253209822185 597.093078304394 1899.51249718031 208 207 212
17.4869662133732 598.618921558891 1899.21084945152 209 208 213
5.37214043596368 600.071989359502 1899.69033752644 209 208 213
-12.9707227143694 602.219592409487 1893.498171546 210 209 214
-24.4753102404709 603.604381508591 1894.79868489637 204 205 207
-47.0856303263778 606.228575211107 1884.27193309894 211 212 214
-79.5063981857296 609.948884869309 1863.48701369003 201 203 202
330.1148727331 551.629698287974 1825.26756719421 22 24 19
335.059326335352 551.261324098043 1845.91849199001 151 153 148
331.932172650456 551.742963753362 1856.03750012681 199 201 200
330.708349868923 552.022616449484 1868.54772976167 200 201 203
330.145025507019 552.23119248087 1881.82948911961 188 189 193
330.247960639139 552.367965572552 1895.8771647117 194 195 199
324.683218047504 553.103379980439 1902.71125175661 189 190 194
315.942167054182 554.174686191586 1905.56493090644 198 197 202
305.271281338512 555.450423019134 1906.05368391279 225 224 229
297.131803758641 556.457668217068 1909.73636927767 192 191 196
288.980084469405 557.466102864021 1913.43103504086 212 211 216
276.953831143508 558.885803381222 1912.41025387229 211 210 215
257.789844574038 561.064382133311 1902.77816943709 208 207 212
235.309434079604 563.596824358755 1889.30181984572 189 188 193
220.525819650799 565.311850340179 1885.30751492612 147 146 151
210.251519108049 566.547304270436 1886.8253161055 176 175 180
199.953476207307 567.785089607167 1888.36668705847 179 178 183
191.597610147725 568.815840006345 1892.26077532403 180 179 184
186.516109971617 569.496921646779 1900.03993518371 189 189 191
180.78288831963 570.246840033117 1907.03951858643 190 190 192
173.069281499895 571.207574760623 1911.72309153591 193 193 195
162.031722767948 572.523108945982 1912.57007423574 190 190 192
154.291989297818 573.485957976376 1917.27927884223 193 193 195
145.210046838899 574.592042306422 1920.46632806592 197 197 199
135.443221974773 575.771156882329 1922.90577248623 201 201 203
120.959779570734 577.45516490323 1920.03488606742 198 198 200
107.775142844716 579.000393793491 1918.72893438278 204 204 206
93.2014988233685 580.694770691449 1915.94608698788 207 207 209
79.2577394966831 582.321799295571 1913.96495598789 207 207 209
61.8771040701476 584.317994221252 1908.25690886774 209 209 211
45.1145402579862 586.248461055134 1903.36173139872 207 208 210
32.3893053492776 587.745474974053 1903.02396022971 207 208 212
18.9441292395163 589.320010863846 1901.97239644288 206 207 211
3.40020199136859 591.120389905908 1898.72047824728 207 208 212
-15.6369737884634 593.297041910281 1891.79657223127 209 210 214
-29.9113183630007 594.961500282172 1890.13818516602 208 209 211
-51.8448135505039 597.451172559519 1880.37612776478 206 207 209
-86.3617404909416 601.298225815626 1857.40292686674 201 203 202
331.456269197941 542.788591507264 1828.07640887368 33 35 30
337.028011816833 542.40492494869 1849.52359592604 190 192 187
334.532439925124 542.835690541834 1860.4402003296 199 201 198
333.315653647982 543.135697990214 1872.94009634609 199 200 202
330.869262538254 543.559202125462 1883.80893674642 193 194 198
331.605466652316 543.658287419539 1898.65024643575 197 198 202
326.044229828649 544.395795529208 1905.48054275304 200 201 205
317.306807383053 545.45573507136 1908.33229869005 196 195 200
305.364032009235 546.841842017228 1907.2339256382 202 201 206
297.224267347618 547.840985708323 1910.91809347867 211 210 215
288.430418754949 548.906636448961 1913.82469945922 198 197 202
275.758438639195 550.367954021461 1912.02207423825 211 210 215
252.071414953551 552.954595573438 1896.90208011055 214 213 218
230.221472357634 555.355752743857 1884.23631760944 163 162 167
216.721199656539 556.90494944657 1881.82596351335 141 140 145
207.737955692724 557.992163660968 1884.91779266722 177 176 181
196.778360994871 559.281770751402 1885.69118794198 179 178 183
189.723191831387 560.171262786445 1891.14869936385 179 178 183
185.292777563497 560.790932831869 1899.70764505848 188 188 190
179.555070366931 561.544024358649 1906.71087584251 190 190 192
169.853750908745 562.703558922614 1909.0881663436 191 191 193
159.469307764676 563.93332042747 1910.71618209228 189 189 191
152.386446792987 564.823368051528 1916.20077193124 194 194 196
143.29833267775 565.919321184018 1919.39544708746 200 200 202
134.194279476255 567.016752972154 1922.6057314473 200 200 202
121.719608926547 568.461494252132 1922.02653419699 198 198 200
110.555346366433 569.771183002474 1923.00019962396 203 203 205
95.9893534534979 571.432221470907 1920.21468197062 206 206 208
79.3461986444397 573.308407595097 1915.20929010351 206 206 208
62.6441718044926 575.191320886211 1910.26102691903 208 208 210
43.8416453883907 577.292441856123 1903.11561191198 206 207 209
31.7946738114934 578.695100727709 1903.53483233842 206 207 211
18.3473256366118 580.242961687122 1902.48936798742 205 206 210
1.42840491752683 582.150964044687 1897.75311332014 206 207 211
-19.6800024731689 584.494087480113 1888.61030071218 208 209 213
-33.9662313082929 586.130441700991 1886.96786867463 207 208 210
-57.2959357962577 588.706234667402 1875.74572051284 206 207 209
-86.9679131498233 591.942655575369 1857.97070515591 200 202 201
330.930666215963 534.137566355978 1828.46004882619 29 31 26
334.002566063691 534.047025030006 1846.67797996856 195 197 192
332.749139809571 534.373574895211 1859.21067490821 198 200 197
335.294558306958 534.329903118465 1876.52757319767 197 198 200
334.743592724684 534.584980722887 1889.79018719255 193 194 198
333.594841590338 534.896519630314 1902.22081896189 196 197 201
327.4051753332 535.697523469869 1908.24886103764 203 204 208
319.943034631458 536.622075266758 1912.68807223594 202 201 206
309.921393348277 537.796180031605 1913.96438425742 198 197 202
301.1551066916 538.847859701158 1916.8456857463 206 205 210
289.806019514471 540.152088635029 1916.58678239094 217 216 221
272.632251398328 542.026809979139 1909.2743573981 215 214 219
246.999085981815 544.731661571808 1891.81837359087 219 218 223
226.428869267112 546.943209110738 1880.74366722806 142 141 146
216.164353088728 548.14540949362 1882.25666724876 154 153 158
207.830246475557 549.158143842776 1886.1318108267 172 171 176
197.523764929821 550.364573188139 1887.68585803873 172 171 176
189.159585210743 551.379965284523 1891.59080968351 176 175 180
182.754910409106 552.20217748481 1897.82922383591 187 187 189
175.69044779975 553.088844264081 1903.29604351648 189 189 191
167.299415306889 554.105924521216 1907.22707301117 187 187 189
159.55946483678 555.058527294188 1911.93834533621 187 187 189
153.141354896145 555.880074454162 1918.19019907291 199 199 201
143.387743081983 557.030941412342 1920.62035988285 204 204 206
131.607585414318 558.382496340622 1920.78252113569 194 194 196
118.454069647387 559.870435151534 1919.45413332733 197 197 199
107.952613073533 561.095842158701 1921.19898873443 201 201 203
94.0535973116177 562.658497174364 1919.18294110145 205 205 207
78.7579176582711 564.360592075727 1915.69903572752 206 206 208
61.3752362861066 566.270891469875 1910.00571558367 206 206 208
43.2494081589239 568.256318031403 1903.62233807303 206 207 209
32.5654629967302 569.501782183431 1905.54544290877 206 207 211
19.1198389294902 571.022418069152 1904.5022903474 204 205 209
3.57563145653916 572.752836440971 1901.26099057569 205 206 210
-22.3458184785081 575.519766472755 1886.91592102624 207 208 212
-40.0919892086855 577.4723513465 1881.57730141284 207 208 210
-64.1313638373751 580.055070044406 1869.64193325384 206 207 209
-89.6568456666298 582.788268503018 1856.32589419335 199 201 200
342.227387424374 524.386549683461 1844.18949060465 29 31 26
334.098302439212 525.371845640432 1847.86510005758 197 199 194
335.348790500873 525.487621229256 1863.61049852588 201 203 200
337.90122251354 525.480510492283 1880.91502858527 197 198 200
337.987350021324 525.700012837874 1894.9671670492 195 196 200
333.688054365038 526.325738359459 1903.39501502748 193 194 198
327.498007069035 527.126613328538 1909.42345452745 205 206 210
320.035576849785 528.04565855402 1913.86376708977 204 203 208
311.289238030527 529.084431930337 1916.7275054677 204 203 208
300.607504021127 530.304041751864 1917.23532653707 185 184 189
288.61454551408 531.646954302719 1916.19283234908 221 220 225
271.437029137318 533.476329396461 1908.89083159044 197 196 201
245.800413536684 536.100828647382 1891.45014990807 206 205 210
225.874190485746 538.192771917272 1881.1708729356 148 147 152
213.659062499807 539.562100302753 1880.3450920756 166 165 170
204.01397361764 540.690205021719 1882.67085225883 169 168 173
195.002360066589 541.758882363431 1885.79359257389 174 173 178
187.940546686566 542.643492031373 1891.25842341272 179 178 183
180.874358347721 543.528181481777 1896.72758685852 187 187 189
172.485393628602 544.53739408456 1900.65772585919 189 189 191
164.08427384995 545.547608306295 1904.59978697483 186 186 188
158.986371529726 546.244851247143 1912.39284577293 188 188 190
151.235922180887 547.192644812646 1917.11525443852 200 200 202
140.142312022046 548.457396752207 1918.0254026276 202 202 204
127.014282605389 549.915645600615 1916.67609466016 191 191 193
117.201226101791 551.059500175121 1919.16632135271 197 197 199
106.022810375537 552.333174139166 1920.15936405257 200 200 202
94.8168366736208 553.609909442135 1921.17931976508 205 205 207
76.1393389508083 555.59933931586 1913.92591947057 206 206 208
57.391615375642 557.597137485595 1906.74135549708 206 206 208
39.9346351738874 559.473166496177 1901.12688033708 207 208 210
30.6058112055521 560.573164833762 1904.55998605622 207 208 212
18.5230517885038 561.936580461996 1905.0205444712 205 206 210
2.97675665527741 563.632234533634 1901.78645592539 205 206 210
-19.5043355610682 565.994001128116 1891.17016555511 209 210 214
-39.3136677209207 568.101294694016 1883.60670191021 207 208 210
-66.1202564501009 570.882469893694 1868.72157352078 206 207 209
-98.5938032895759 574.2115705087 1848.04688494508 200 202 201
357.256175710119 514.401973915561 1864.74958612783 37 39 34
342.307887263092 515.978914546141 1859.52230457948 189 191 186
339.200272588441 516.511090935853 1869.61477872499 205 207 204
339.251520006544 516.762352006457 1883.6968597079 197 198 200
339.340911235557 517.008155786524 1897.74186990787 198 199 203
336.308825094455 517.529113546425 1907.76066336964 190 191 195
330.76016682124 518.272452964172 1914.57794497758 209 210 214
320.763949652361 519.41116867409 1915.8339031226 209 208 213
311.381426185286 520.49561743055 1917.9053842994 206 205 210
301.33921353317 521.639247069572 1919.20629036263 203 202 207
289.348218182178 522.957544970167 1918.16582260821 190 189 194
269.598254898455 524.971142610847 1907.72275868909 189 188 193
243.31080379823 527.573450023759 1889.51473690518 195 194 199
222.729361306396 529.667826440214 1878.46849574573 148 147 152
209.855006704676 531.072395019328 1876.87521885741 165 164 169
201.500789834162 532.071330221026 1880.77237172614 170 169 174
193.13436529618 533.071214704915 1884.68150668564 184 183 188
187.376942576549 533.835623972706 1891.70298036035 187 186 191
179.651089582431 534.777086529329 1896.40156236046 189 189 191
170.598764174704 535.838276918594 1899.56583671933 189 189 191
163.51358794032 536.721422221471 1905.05374580843 186 186 188
157.087247699299 537.544360754542 1911.31356671074 193 193 195
149.99552151308 538.427139368483 1916.80837203729 199 199 201
139.564679504093 539.612921529133 1918.48896267261 191 191 193
126.434536483403 541.044488077212 1917.14569717755 187 187 189
115.948600023256 542.236082323233 1918.88047623563 198 198 200
104.765872972146 543.491501780542 1919.88016031093 199 199 201
92.881043962227 544.811376917721 1920.15094401324 205 205 207
74.1977388710864 546.753066527132 1912.91036651154 206 206 208
53.4082780723995 548.889381704066 1903.48173923511 206 206 208
38.6618615879706 550.47445161497 1900.88661297504 208 209 211
30.693896823013 551.438934128432 1905.82255104509 207 208 212
19.9799007531714 552.655223100855 1907.77980895516 205 206 210
5.81027877779094 554.18919052928 1906.03671730532 205 206 210
-15.9745780697254 556.424603089142 1896.1646393104 209 210 214
-37.8453072887126 558.670369475273 1886.37630355877 206 207 209
-67.4167811425437 561.628347819215 1868.54264043025 205 206 208
-100.58794869864 564.922284591733 1847.14898742173 200 202 201
348.640718965331 506.526885199505 1854.63071489225 34 36 31
347.396037176136 506.916726644478 1867.14537198111 206 208 205
344.929372332 507.407488446644 1878.02406600362 204 206 203
341.229512732916 508.000662842857 1887.27872331764 195 196 198
339.434258048768 508.431991454775 1898.91672848528 197 198 202
336.401668089042 508.966280714977 1908.93405185647 188 189 193
330.85264706127 509.712142554412 1915.75132087223 209 210 214
319.58460817627 510.942421799741 1915.42252725435 211 210 215
309.560312553188 512.06793009824 1916.70831976911 209 208 213
300.791494926584 513.08718810016 1919.59726429885 213 212 217
290.723138350781 514.217366449452 1920.92611975952 181 180 185
269.690281047763 516.283693687719 1908.91537651929 201 200 205
240.175662713499 519.078182873513 1886.79835285039 194 193 198
220.232298052456 521.059008000057 1876.55252096322 151 150 155
207.350037422949 522.437565537066 1874.97093929803 161 160 165
198.987732649908 523.429264711682 1878.87719305517 170 169 174
191.266446505268 524.365905788857 1883.5719527188 182 181 186
187.468479418045 524.964371933637 1892.9232501007 186 185 190
180.399422172541 525.843775085878 1898.3957058838 190 190 192
170.030421977721 527.007726522524 1900.01811325493 189 189 191
160.959801742007 528.059783313212 1903.20190459032 186 186 188
155.188366927526 528.826253872334 1910.23698782439 195 195 197
148.090259579634 529.707019467336 1915.73808942015 198 198 200
138.320337915581 530.819417919545 1918.19046962251 187 187 189
127.192766981815 532.050062448361 1919.13938242354 187 187 189
116.708331520396 533.225205111443 1920.87476466247 198 198 200
104.854597089012 534.520062480956 1921.11803076177 199 199 201
92.9695192813043 535.818327423731 1921.39225550126 205 205 207
74.2862423012514 537.711541113926 1914.15881480453 207 207 209
54.1754355805768 539.731915324184 1905.49031933824 206 206 208
37.3893049306071 541.463312895001 1900.64830427968 206 207 209
28.7344322006979 542.482813710015 1904.84097327263 206 207 211
18.0142863670105 543.683661530605 1906.80662018461 203 204 208
3.15212579149415 545.249179872756 1904.32931923133 203 204 208
-15.8869118056262 547.183868580516 1897.44336193896 207 208 212
-35.6866464522874 549.18759538252 1889.88533710207 203 204 206
-68.0208557436832 552.300582246848 1869.10422579931 202 203 205
-102.581940527356 555.615288665578 1846.25355492245 198 200 199
335.670942950774 498.92112381563 1838.87689969012 32 34 29
346.242506579694 498.393187144287 1866.716463854 210 212 209
346.27570221706 498.700621436087 1880.80816814447 202 204 201
343.207243819404 499.253689900914 1890.85867168851 194 195 197
340.787254658106 499.753427635885 1901.68968942901 204 205 209
337.126381623997 500.351181137175 1910.90495571795 200 201 205
330.311115311454 501.201420413416 1916.12970376103 186 187 191
319.676832899643 502.358909884282 1916.59958605323 200 199 204
309.014725702942 503.519612267269 1917.09662390114 212 211 216
302.802247120272 504.321369085178 1923.14720766349 205 204 209
292.739545682576 505.43450014952 1924.4729670697 192 191 196
269.138685494945 507.646854545891 1909.32273079288 213 212 217
235.104429729736 510.711816456837 1881.73475724676 226 225 230
217.087836210232 512.479823862782 1873.85779545244 159 158 163
206.793362979606 513.62074515458 1875.40993813376 167 166 171
199.731342463989 514.49808183868 1880.87571176314 173 172 177
191.358424864314 515.482332573578 1884.79360509016 184 183 188
186.249470918299 516.199000170454 1892.59510520237 189 188 193
178.519009311787 517.130075514172 1897.29979884824 189 189 191
168.144064711804 518.278487903523 1898.93074360797 187 187 189
159.728309206965 519.26601615928 1902.89069119192 190 190 192
153.289449279554 520.09035609127 1909.16273720174 199 199 201
146.850148845607 520.914102899017 1915.43530830456 195 195 197
137.075889188089 522.01349843205 1917.89358018235 184 184 186
124.606426023082 523.336638175333 1917.32718457607 191 191 193
113.443191374373 524.552260000526 1918.31373232228 198 198 200
102.252336051287 525.77083313116 1919.32727160479 201 201 203
91.7085242659566 526.936124288337 1921.12307145938 202 202 204
73.0215420657556 528.781319667128 1913.90074502848 204 204 206
55.6212069071558 530.521419752935 1908.25011073897 206 206 208
38.8387580707987 532.212031533241 1903.4101298651 204 205 207
31.5524130330167 533.108494681716 1909.09617202003 204 205 209
18.7864612942348 534.464411952268 1908.8193494462 203 204 208
3.92626694443177 535.997413434431 1906.34523982142 202 203 207
-15.7992501063648 537.94130661374 1898.722359198 206 207 211
-37.6698004143745 540.068523104073 1888.95136740796 202 203 205
-72.0860605675586 543.257825719246 1865.97541815952 202 203 205
-106.658303340995 546.466261702726 1843.15153405536 192 194 193
340.121520021261 489.891518312157 1845.71102352554 28 30 25
344.46494830199 489.90451930177 1865.4851611057 212 214 211
347.621798207862 490.003100986202 1883.5911211282 202 204 201
345.812550333769 490.47399267983 1895.23717433412 195 196 198
342.140121215119 491.084184248831 1904.46173980287 198 199 203
336.586991630347 491.836120144756 1911.28185309157 196 197 201
328.502003314101 492.780239844749 1914.9197597332 204 205 209
320.404646275536 493.725506036935 1918.56977924789 193 192 197
311.657346480067 494.720645690324 1921.4409209346 222 221 226
305.452268574768 495.521174691126 1927.48433718575 215 214 219
291.547944728906 496.91273957471 1924.08193828769 202 201 206
263.438881265732 499.39938650273 1903.44849544058 193 192 197
230.03337246441 502.30086049315 1876.6772396257 188 187 192
213.296362993524 503.922179377717 1870.3858067742 164 163 168
206.236468617349 504.796889275098 1875.84985735362 171 170 175
199.172281865708 505.671655506088 1881.31849984123 173 172 177
192.103656918022 506.546450522772 1886.79154526862 185 184 189
183.720199819717 507.523361511446 1890.72098928487 190 189 194
174.010197633318 508.603806105162 1893.11825348449 187 187 189
165.598466768331 509.583102074848 1897.07542126986 186 186 188
158.49668773586 510.459894844135 1902.58109392658 198 198 200
151.390587968025 511.336642622505 1908.09106378703 201 201 203
142.950268227253 512.317950515927 1912.07632338723 190 190 192
132.497209382444 513.45782521107 1913.78576077229 188 188 190
122.689328524672 514.547293674348 1916.27922405751 193 193 195
110.849131864303 515.797809931172 1916.51560054716 200 200 202
101.668387220622 516.838687902035 1919.81039927229 203 203 205
90.4477461791608 518.041497314181 1920.85584608417 204 204 206
74.4631397330369 519.623609670122 1916.65654140778 204 204 206
58.42384799293 521.212072218934 1912.51093932297 201 202 204
42.3297458583298 522.806913769435 1908.41882195647 202 203 205
31.6403862476635 523.97203733114 1910.35917772375 202 203 207
16.8210039909384 525.468063672104 1907.84966815495 201 202 206
1.95481859619973 526.969387566111 1905.38618966005 202 203 207
-15.7116206221786 528.697038612217 1900.00164059827 205 206 210
-37.5820687265964 530.765037516377 1890.23929965193 202 203 205
-78.9197063447484 534.403996432255 1859.89981483492 203 204 206
-110.734366603479 537.283230932638 1840.0542414774 194 196 195
318.443710558162 482.749045157807 1818.69752081017 31 33 28
355.168050335956 480.51181779844 1880.33420735645 216 218 215
351.471344129119 481.13668673897 1889.58071102355 195 197 194
346.533706237295 481.848799215968 1897.21276500616 188 189 191
342.23296290087 482.514511198511 1905.63614057076 197 198 202
336.047724889862 483.314249161362 1911.65997242866 197 198 202
329.228065857508 484.159250226828 1916.8901945547 186 187 191
322.403715977135 485.004324966692 1922.12472603114 202 201 206
313.662022315571 485.987789676099 1924.99202629563 210 209 214
304.264565098264 487.019090116047 1927.08653004714 216 215 220
288.431545621059 488.518423084474 1921.33202270934 216 215 220
259.026513849671 491.008262890556 1899.1512050088 204 203 208
226.899070666193 493.70398914922 1873.97537704445 177 176 181
210.152274436966 495.283448635934 1867.69951154738 161 160 165
203.082454444124 496.156566273427 1873.17399158819 173 172 177
197.310623759574 496.934126946723 1880.20749097106 177 176 181
190.888928774426 497.758779655713 1886.46244571116 189 188 193
181.191033523274 498.824593860482 1888.8501877522 190 189 194
171.472982347767 499.892372389425 1891.25731675584 186 186 188
163.053161426221 500.864668478885 1895.2235526662 186 186 188
157.265125666423 501.641441555733 1902.27326033477 202 202 204
148.82893333042 502.614609107676 1906.25596234192 201 201 203
139.715479289839 503.638348649232 1909.48613571381 188 188 190
130.586190004931 504.663540717599 1912.73215687657 192 192 194
120.772161723689 505.740221331194 1915.23361468277 194 194 196
110.938136418912 506.818905205816 1917.75429590585 200 200 202
99.0663587522289 508.051158464794 1918.02506990672 203 203 205
88.5122670040319 509.185312720068 1919.83567993691 203 203 205
73.8749691292924 510.628192392323 1917.15321293952 202 202 204
59.8692710503159 512.025208083142 1915.26758384432 201 202 204
43.7789893380094 513.581827959762 1911.17732188872 203 204 206
31.0459526586619 514.885713076971 1910.87550450384 203 204 208
15.5401605575203 516.401654402639 1907.62775731379 202 203 207
3.4150239588655 517.661968676062 1908.14563523177 204 205 209
-14.9357776980907 519.398662210069 1902.02242239476 206 207 211
-40.9453571079874 521.723867706024 1887.83049125211 201 202 204
-85.0607370266134 525.441547369803 1854.56939775503 203 204 206
-114.810134552437 528.066078951882 1836.96169874878 194 196 195
357.729754809463 471.362017001335 1870.64060191693 33 35 30
356.51004009051 471.833802967006 1883.11835497158 216 218 215
353.44268480038 472.426844207519 1893.16151731276 195 197 194
347.882653113549 473.185593036643 1899.98781538428 192 193 195
343.585388337975 473.858709345241 1908.40664233037 193 194 198
334.244738975314 474.870949587432 1910.44721428936 202 203 207
327.418941880985 475.713776011815 1915.68385301268 201 202 206
320.588431603046 476.556796864006 1920.92480541867 198 197 202
311.203084310445 477.573420607221 1923.00945304529 209 208 213
299.87897704171 478.723068480323 1922.74859128491 200 199 204
282.10788319078 480.315181376726 1914.65384182224 203 202 207
253.327444758352 482.666234111561 1893.29021568916 182 181 186
223.119469030106 485.123160572551 1870.49468846778 183 182 187
206.361056969478 486.660801300744 1864.23653845726 165 164 169
200.577854380689 487.442848924328 1871.28100498185 176 175 180
196.100184397477 488.133708863529 1879.87601662316 181 180 185
190.980665120553 488.86798378435 1887.68540591035 188 187 192
180.627259377562 489.965811209347 1889.30210086033 188 187 192
171.564180378597 490.974459752252 1892.48481935621 187 187 189
163.144042102962 491.938481244703 1896.45259338571 190 190 192
157.35556810657 492.717904196602 1903.50234457931 200 200 202
147.593158136208 493.77616579898 1905.95526696156 195 195 197
137.810687366581 494.83643870233 1908.42747490264 190 190 192
129.342150693933 495.804307728427 1912.44307843403 197 197 199
120.861397098465 496.773258179063 1916.47031587431 199 199 201
110.356423508398 497.886065321644 1918.2353059413 200 200 202
97.8097133947053 499.144878424153 1917.7551251464 202 202 204
85.2276232259932 500.407621025325 1917.30949649097 203 203 205
71.9336540698823 501.722737939296 1916.14612397525 202 202 204
57.2435072502273 503.139421386533 1913.52034639402 199 200 202
43.1865629389128 504.512600540307 1911.68879075287 203 204 206
28.4043134748213 505.939715612796 1909.15293066944 203 204 208
13.5749192457273 507.372315319312 1906.66273756608 199 200 204
1.44386544902586 508.611779921168 1907.18991076354 203 204 208
-14.8482119192028 510.153812551347 1903.30185302402 203 204 208
-40.85753306392 512.403564359804 1889.12081744229 202 203 205
-85.6640916634621 516.026122327174 1855.14322422032 205 206 208
-118.191401808425 518.76435160472 1834.60925392737 194 196 195
364.666447088639 462.324421022697 1880.67547054218 24 26 21
356.603754028728 463.242997568763 1884.29501293167 205 207 204
355.413720776097 463.731782294402 1896.74044160021 191 193 190
349.231178027066 464.531681711681 1902.76157316023 194 195 197
344.307629675382 465.251865772293 1910.37844304466 185 186 190
334.337044950964 466.290169479265 1911.62378864359 198 199 203
326.243503554122 467.210541555021 1915.27369850918 203 204 208
316.866440180857 468.212911961446 1917.3522267184 196 195 200
308.106603412329 469.176711047814 1920.24011208481 205 204 209
297.412116852666 470.264953827217 1920.78001261656 189 188 193
280.916401831221 471.727049348884 1914.27216611129 211 210 215
246.985357863876 474.315593249844 1886.65211609795 207 206 211
219.34007074307 476.508399285277 1867.0188132023 210 209 214
205.159454002709 477.836494244583 1863.90015805993 167 166 171
198.722572854402 478.663886974308 1870.16978791067 176 175 180
195.541068250812 479.278453777545 1880.32312073878 185 184 189
189.765890392428 480.060977014926 1887.35921044994 186 185 190
180.718658776455 481.05724922994 1890.52802147611 187 186 191
170.998302372799 482.098120702602 1892.94175429853 188 188 190
161.257842114218 483.141067872913 1895.37480591689 193 193 195
154.141291510751 484.011231322422 1900.89612677254 196 196 198
145.694569434358 484.969287050774 1904.8911806465 191 191 193
138.565464704961 485.839971708457 1910.42489090044 192 192 194
131.431871622536 486.710645544001 1915.96272191281 198 198 200
120.95055188786 487.804654058859 1917.70733962269 199 199 201
109.774522566835 488.946185920505 1918.71720528991 197 197 199
95.8805398983156 490.2713286588 1916.73126393166 198 198 200
85.3161692642672 491.374227938743 1918.55670051915 201 201 203
69.9924341649494 492.799285998459 1915.14160054201 200 200 202
58.010192193751 494.000589761276 1915.52664155224 199 200 202
43.9552217631687 495.343904687216 1913.69787758016 203 204 206
29.8569613002075 496.692041390407 1911.91105075162 204 205 209
13.6627927632227 498.185098377546 1907.93334451595 198 199 203
0.158896057749214 499.496900737354 1906.97892304971 203 204 208
-19.5781850994718 501.237335084004 1899.39759688153 202 203 207
-49.051795268463 503.650487652363 1881.54727867897 201 202 204
-93.8808054283404 507.127746303535 1847.6134553638 204 205 207
-119.490370965274 509.29023015809 1834.46526403726 192 194 193
352.320211813682 454.460151124627 1865.75758693122 23 25 20
354.201556110907 454.795765101972 1882.26095313173 206 208 205
353.629033467955 455.270431213712 1895.51218067906 193 195 192
349.323904277778 455.960696415186 1903.93628250623 197 198 200
343.770210583761 456.722980448356 1910.75576435558 194 195 199
334.429215579267 457.707932213119 1912.80071276706 184 185 189
324.434400203101 458.732543432032 1914.07214350513 202 203 207
314.41558766294 459.759767092981 1915.36701766399 162 161 166
307.560578090056 460.599642221474 1920.63310101061 173 172 177
298.782538898423 461.554371475492 1923.5407400115 213 212 217
278.442108193242 463.203636770082 1912.32095781452 198 197 202
241.93062995571 465.832156894497 1881.58943359607 206 206 208
215.560916706714 467.859877037576 1863.54768524749 161 161 163
202.663032294109 469.078475803182 1862.00526006644 170 170 172
197.516537166721 469.827650379747 1869.83923460931 176 176 178
194.330773077681 470.456127044506 1879.99507913997 185 185 187
188.551299089467 471.241727536854 1887.03498015462 190 190 192
179.499873941862 472.22750124261 1890.20950709478 187 187 189
171.089330500832 473.174391570554 1894.1702852903 191 191 193
162.6666112802 474.122227160717 1898.14301450562 194 194 196
154.892587370245 475.030076406464 1902.89439896992 194 194 196
145.784664604671 476.020967594575 1906.12427251824 183 183 185
137.990252244616 476.930384658367 1910.89567129207 203 203 205
128.187496875688 477.965427402585 1913.3920889886 198 198 200
117.696027900979 479.044512001042 1915.14865295021 197 197 199
105.839591198722 480.210496298006 1915.41398767027 190 190 192
95.2967286777144 481.294998430707 1917.22078547389 188 188 190
82.0319741389195 482.55288868352 1916.03686048682 196 196 198
67.3748679615742 483.901143849846 1913.3880488874 191 191 193
54.0276616338393 485.168308053057 1912.2846290598 199 200 202
42.0020627785482 486.352964330096 1912.715184588 207 208 210
29.2625753860492 487.584777192666 1912.4304251044 202 203 207
14.4348789614499 488.952297154819 1909.94816481387 206 207 211
0.932749419279677 490.236810044259 1908.99602190015 204 205 209
-20.1786174483551 492.014841453746 1899.94000629318 202 203 207
-52.4143202073049 494.518055792207 1879.15120066052 199 200 202
-99.328422814946 497.983147612959 1843.03863742638 201 202 204
353.658231238286 445.754433270808 1868.5494337953 24 26 21
353.047173899978 446.258504771508 1881.83491860311 202 204 201
352.470368437446 446.757786528415 1895.08709871398 191 193 190
346.905255402414 447.524501114613 1901.91692746197 188 189 191
342.602844580135 448.221706272691 1910.33730418708 192 193 197
334.521206727545 449.124420259099 1913.97800351516 190 191 195
326.427200421889 450.028251219344 1917.63081981172 181 182 186
317.685287411028 450.968254071686 1920.5047615368 207 206 211
310.202060654292 451.839325778041 1924.97281583344 153 152 157
300.152705522092 452.853167882776 1926.30033486786 196 195 200
275.967896752555 454.657245471091 1910.37306413944 203 202 207
238.162798401305 457.232006442002 1878.0999129191 195 195 197
213.718040261782 459.068517412374 1862.42631996012 158 158 160
202.755908725424 460.151152440028 1863.23248689151 170 170 172
195.661330489394 461.016039748369 1868.73276867285 175 175 177
191.817970044854 461.695692098501 1878.11680520192 186 186 188
184.724177440027 462.559418926669 1883.61647835832 189 189 191
178.280979275751 463.385632560944 1889.8925553691 187 187 187
168.55230472534 464.400279585928 1892.31842419613 194 194 196
160.780398222793 465.302967486229 1897.06846888817 196 196 198
152.339349042784 466.24435698829 1901.06035275313 191 191 193
144.548936551226 467.148257454851 1905.82859494907 186 186 188
136.750437566697 468.052633594992 1910.60513468971 201 201 203
125.609978992098 469.152753675569 1911.58613656504 198 198 200
115.779133477854 470.177316086147 1914.11165933787 197 197 199
105.928552308892 471.203763763413 1916.65683910798 189 189 191
94.7129057882425 472.311799805375 1917.71133374959 190 190 192
79.4224601102198 473.662989536103 1914.27409459176 197 197 199
64.0810356269728 475.020104720224 1910.88660236169 191 191 193
54.1159669696718 476.058875524684 1913.54331070535 200 201 203
39.3685307212257 477.385023938316 1910.98746557025 206 207 209
25.9387833414801 478.634583560079 1909.96861217692 201 202 206
12.4698251252071 479.888437673729 1908.98806099989 206 207 211
-1.03831843138735 481.146701002717 1908.04576976496 208 209 213
-24.9080692577688 483.035968209733 1896.04445449027 204 205 209
-61.9878857283065 485.735171708724 1870.11757952003 199 200 202
-102.699605232065 488.667011901221 1840.67796991889 201 202 204
353.130314052898 437.149931421594 1868.92849566228 15 17 12
353.140562878999 437.647455063226 1883.01489135267 193 195 192
351.311435482359 438.232893656857 1894.66375523656 195 197 194
346.369990821711 438.971255414724 1902.29570976463 186 187 189
342.065275688802 439.67665289052 1910.71716388328 182 183 187
334.613062528477 440.539451147101 1915.15564403248 187 188 192
327.152391954765 441.402932297651 1919.60242158677 202 203 207
319.683347358783 442.266984338244 1924.05776813366 164 163 168
310.930823687796 443.196973333794 1926.94372644476 203 202 207
298.325346712923 444.325637551878 1925.12422864231 167 166 171
274.135148895731 446.054737510904 1909.21339097873 197 196 201
239.542026547476 448.331200914873 1880.8800106284 210 210 212
215.101426643117 450.091573191579 1865.21320390411 162 162 164
203.495959618769 451.188503052497 1865.23952823948 169 169 171
195.753704945818 452.084386489553 1869.9611339231 176 176 178
190.607725487835 452.843373336231 1877.79314614939 187 187 189
182.203478032406 453.773961153787 1881.75008184206 185 185 187
177.062049155473 454.531355410864 1889.57747281615 187 187 187
167.329268004994 455.532957307948 1892.00934762196 199 199 201
159.553118428104 456.430578076674 1896.76435466938 199 199 201
150.447048771337 457.399888935789 1899.99557761647 184 184 186
143.313372010638 458.263159694676 1905.53492373609 196 196 198
134.845791099298 459.198694806112 1909.55401927884 196 196 198
121.699146129964 460.389655481643 1908.26270190562 199 199 201
112.525078503523 461.365474656352 1911.56048591558 192 192 194
101.323237643746 462.453342517123 1912.60425218023 188 188 190
90.0935771425702 463.544140835373 1913.67487279771 194 194 196
75.4640275766345 464.824603509787 1911.00905461848 196 196 198
62.1402048936832 466.035364591818 1909.89075084262 191 191 193
51.4906594808258 467.099202332038 1911.80654052309 202 203 205
38.7763830675909 468.279718387678 1911.50432781006 204 205 207
23.979874530379 469.579119053446 1909.00116548857 199 200 204
10.5049078835799 470.806693418293 1908.03046490726 206 207 211
-5.06786387193969 472.155233553094 1904.87397132706 208 209 213
-28.9491000905131 473.978488338797 1892.89381782364 202 203 207
-65.3497100436571 476.521274543302 1867.73284630865 199 200 202
-112.990789183603 479.717789637298 1830.96496772297 200 201 203
356.333709889568 428.371258692672 1874.13018250967 19 21 16
353.857590936356 429.006889881226 1884.99685297021 191 193 190
351.404178000601 429.639173826973 1895.84180858277 190 192 189
345.206784660805 430.439942927134 1901.8775584602 188 189 191
340.268124579549 431.182641666229 1909.50610685584 181 182 186
334.073183515228 431.98227605453 1915.53958929739 179 180 184
327.243822621587 432.811028974625 1920.78150914191 210 211 215
320.410020811694 433.639827469842 1926.02816998793 201 200 205
309.746754358927 434.648271063437 1926.54886277683 194 193 198
296.497979118197 435.780447165008 1923.9507412895 217 216 221
274.226500549679 437.343461759496 1910.41020018761 169 168 173
245.423950075683 439.22507970606 1889.13791389538 214 214 216
218.420484832131 441.031220085802 1870.3416685625 199 199 201
203.588541122543 442.260922025513 1866.46708601457 170 170 172
195.196881743986 443.182610781479 1870.41283683823 178 178 180
189.397287680514 443.978767489409 1877.471157181 188 188 190
180.335878574598 444.933543883664 1880.66017972844 185 185 187
175.843281471038 445.664808713762 1889.26438023769 189 189 189
166.106205921261 446.653284258277 1891.70212167267 199 199 201
158.984843671903 447.513204028133 1897.2297345752 197 197 199
149.21576896096 448.504816005052 1899.69912592891 186 186 188
142.740577458382 449.332645186088 1906.00673402046 199 199 201
133.605878242643 450.293578137737 1909.2672869519 194 194 196
122.455275089957 451.357030663732 1910.26378199179 197 197 199
113.282890582183 452.321757906104 1913.56153402279 190 190 192
100.741538817263 453.458714565193 1913.09404263747 197 197 199
86.8198159575031 454.668384787943 1911.15271448657 203 203 205
72.854868089264 455.883032459218 1909.25357374335 191 191 193
64.2580536575594 456.823508010234 1913.40026988744 196 196 198
54.2924145278425 457.835195587212 1916.06154760783 203 204 206
41.5857585031256 458.990396846459 1915.7555092522 198 199 201
24.7502694092674 460.363265157206 1911.01549832614 198 199 203
11.2770951527237 461.563694293493 1910.04702992774 207 208 212
-7.72472418122749 463.05751167624 1903.18893709717 208 209 213
-31.6135451123478 464.814291782396 1891.22614025404 198 199 203
-76.9921723036 467.718154044751 1856.50593319399 198 199 201
-122.589262688735 470.649203250975 1821.99864509651 197 199 198
357.670897118141 419.693921302683 1876.91866113655 47 49 44
353.950597530244 420.395858894252 1886.17720266685 192 194 191
350.245244309906 421.095456954594 1895.4215858569 182 184 181
345.299031782159 421.844663907171 1903.05633419045 190 191 193
339.730242052871 422.618711867385 1909.88873008072 186 187 191
333.533049464155 423.418423705219 1915.92443687227 172 173 177
325.434570081515 424.297891200794 1919.58563375183 176 177 181
318.59450457063 425.12460290046 1924.83848513101 201 200 205
309.200234228184 426.060266929428 1926.94395928845 197 196 201
297.228187924821 427.107910363318 1925.9243396196 185 184 189
278.165766524024 428.464485490713 1916.31289124724 219 218 223
248.089068139419 430.305974954891 1893.47796500234 203 203 205
219.803287132238 432.081062376122 1873.12517347314 185 185 187
203.68096575114 433.331916038889 1867.69501017743 173 173 175
196.587182096791 434.187959344762 1873.19547222513 186 186 188
189.489052920533 435.044065684197 1878.70057796597 187 187 189
181.080374754644 435.958730276206 1882.66426686541 188 188 190
175.93434210031 436.727040903713 1890.49495386572 191 191 191
166.854068492886 437.672283765179 1893.70411819402 197 197 199
158.416503561879 438.589027319021 1897.69618480859 192 192 194
147.984327249639 439.597511006504 1899.40430506366 191 191 193
139.516573395233 440.517087368185 1903.42593103768 200 200 202
131.036696099905 441.437690847204 1907.45944396026 193 193 195
122.544674105078 442.35932412354 1911.50486454538 194 194 196
112.034720877696 443.375548918074 1913.2890742947 191 191 193
100.160006030354 444.457241743968 1913.58501772564 202 202 204
85.5636050151363 445.669085627422 1910.89608653087 204 204 206
72.9436133057799 446.790556983334 1910.50931233593 192 192 194
62.9936063636554 447.787271248441 1913.15728011191 202 202 204
51.6672152130462 448.85085978804 1914.32831512961 201 202 204
39.6328328875541 449.950011192872 1914.77989251434 195 196 198
25.5204231187105 451.151435097904 1913.02913808519 199 200 204
12.049037553302 452.324542565484 1912.06293162076 207 208 212
-6.95062414039871 453.769514076878 1905.21025346197 207 208 212
-32.2136822850378 455.525964768046 1891.77764885479 196 197 199
-75.5231248528552 458.177283292672 1859.2911025248 197 199 198
-134.263205983248 461.605874564499 1810.83815793784 195 197 196
358.38590994369 411.048479884769 1878.9033446146 62 64 59
354.043404193292 411.783467344315 1887.35795198839 184 186 183
350.963360236906 412.470646728076 1897.40013862826 180 182 179
345.391078972672 413.248024324245 1904.2355095456 184 185 187
340.451708692338 414.001073171027 1911.86323343803 176 177 181
332.361383256999 414.871506009492 1915.51733080377 162 163 167
324.892150949133 415.719171933885 1919.97494777016 168 169 173
316.143560558852 416.616025831448 1922.86189762838 184 183 188
307.378711934401 417.514428102736 1925.76476330452 220 219 224
296.040054149215 418.513606858746 1925.54025184986 219 218 223
275.691494005397 419.866592621636 1914.37267013301 214 213 218
244.321127310634 421.659606718207 1889.99538380477 215 215 217
217.959891748522 423.267726868205 1872.00723368352 171 171 173
203.773255301643 424.401423375929 1868.92328820496 174 174 176
196.030112433112 425.280612668604 1873.64824326717 188 188 190
188.27872282452 426.16038628979 1878.38163894266 186 186 188
181.171730079636 427.014261837687 1883.8955382062 189 189 191
174.715358059649 427.841428619881 1890.18455617559 194 194 194
166.944763890793 428.722178544787 1894.93687796606 193 193 195
158.506923584344 429.630701178372 1898.93043308094 183 183 185
149.396146942957 430.567818760166 1902.17108828566 202 202 204
140.269157574016 431.506433047936 1905.42728391403 198 198 200
131.12628936658 432.446623295909 1908.69935237952 194 194 196
121.967396769323 433.388332437809 1911.98710880913 190 190 192
111.455275523674 434.38849618056 1913.77584524908 200 200 202
99.578431032977 435.448756953692 1914.0770710954 204 204 206
84.980009012098 436.628422762458 1911.39490269451 199 199 201
73.7066630861412 437.667309132146 1912.51691398991 201 201 203
63.7583425062078 438.650247974413 1915.16524318478 212 212 214
54.4686428063281 439.605292597822 1918.58092202264 198 199 203
40.4012117010968 440.771856658517 1916.79065538538 192 193 197
26.9728032495284 441.913039690516 1915.78649042922 202 203 207
10.7683724362904 443.18066830073 1911.85195515925 208 209 213
-5.4907059299123 444.454583377135 1907.97109442225 205 206 210
-34.189839784728 446.292554452196 1890.85363068208 195 196 198
-77.5041951436504 448.801551876813 1858.39299782271 195 197 196
-144.552137203676 452.406193061681 1801.15993651276 192 194 191
354.126161739763 402.565525570488 1874.46807358671 87 89 84
351.017272242667 403.270051645149 1884.53634044159 191 193 190
350.429891476326 403.89046175813 1897.78111926734 180 182 179
344.855355444172 404.670600294335 1904.61832113682 171 172 174
339.913497105267 405.428988188594 1912.24738875732 184 185 189
330.558029188367 406.333548911906 1914.31892858757 192 193 197
321.182201775108 407.240276529359 1916.41002759068 160 161 165
311.786371090141 408.149129541767 1918.52101384785 157 156 161
304.282354671744 408.994752953903 1923.01347383262 200 199 204
293.573334687911 409.951322479198 1923.58726751886 195 194 199
270.010789171797 411.357312928493 1908.51816444606 197 196 201
237.980501004061 413.069692619212 1883.39119830815 207 207 209
213.535839910277 414.528037309117 1867.77306395043 163 163 165
203.865430224869 415.469529911724 1870.15188709688 181 181 183
195.472945797 416.36643783349 1874.10211980318 191 191 193
189.021254292663 417.19378115706 1880.3864638586 187 187 189
181.262981675893 418.068361739575 1885.12712414982 190 190 192
172.841502305242 418.967568651581 1889.10580947317 194 194 194
164.407772211461 419.867789242454 1893.0965101244 187 187 189
155.30310706326 420.793698891138 1896.33275305366 192 192 194
148.164618925923 421.646696452014 1901.87839531559 199 199 201
138.370808497262 422.599955227667 1904.37768034706 196 196 198
128.557228641242 423.555309918481 1906.89662477878 192 192 194
119.390272374305 424.487126381172 1910.19385068526 195 195 197
108.201631477027 425.497850079036 1911.2359110656 198 198 200
97.6557772649187 426.48548976707 1913.05999588972 202 202 204
84.3963912494075 427.580833803532 1911.89476413947 190 190 192
74.4695925599395 428.547938905646 1914.52406199884 211 211 213
63.1703613259993 429.570628816967 1915.67417161719 212 212 214
51.165299621831 430.6233479389 1916.10383370464 188 189 193
38.4483897526926 431.706720513327 1915.81859381634 204 205 209
27.0605827145172 432.739043622696 1917.05523673523 208 209 213
9.48792929322284 434.024399045577 1911.64292809049 208 209 213
-8.83337414872276 435.345122794948 1905.55190324242 200 201 205
-38.2298378123007 437.126222310231 1887.71839458477 196 197 199
