ply
format ascii 1.0
comment KinectMotionCapture
element vertex 798
property float x
property float y
property float z
property uchar red
property uchar green
property uchar blue
end_header
-230.425506830215 134.010419249535 2148.9999294281 97 78 63
-223.322331905365 133.268684148788 2137.00008392334 128 100 86
-216.792494058609 132.838532328606 2130.00011444092 122 90 75
-210.696250200272 132.657676935196 2127.00009346008 129 96 81
-202.107727527618 134.665697813034 2158.99991989136 154 125 111
-195.409402251244 134.110197424889 2150.00009536743 78 56 43
-188.935682177544 133.67922604084 2142.99988746643 82 64 52
-183.439254760742 133.934289216995 2147.0000743866 46 34 22
-77.5049403309822 123.767323791981 1983.00004005432 19 20 14
-73.148287832737 125.579670071602 2012.00008392334 22 21 16
-67.3216208815575 124.95768815279 2002.00009346008 28 27 22
-61.5492574870586 124.335519969463 1991.99998378754 29 28 23
-55.8593943715096 123.775579035282 1983.00004005432 35 34 29
-50.4219420254231 123.714804649353 1981.99999332428 31 30 25
-45.1033003628254 123.965956270695 1985.99994182587 24 25 19
-39.5228713750839 123.467922210693 1978.00004482269 24 27 20
-34.0377055108547 123.156972229481 1973.00004959106 24 27 20
-28.5361241549253 122.65856564045 1965.0000333786 21 24 17
-23.1016855686903 122.284837067127 1958.99999141693 16 19 12
-17.672723159194 121.723681688309 1950.00004768372 15 18 11
-12.3561527580023 121.786564588547 1950.99997520447 17 20 13
-7.03767593950033 121.911711990833 1952.99994945526 18 21 14
-1.70126208104193 121.537320315838 1947.00002670288 20 23 16
3.58384335413575 120.538517832756 1930.99999427795 19 22 15
8.90539493411779 121.224977076054 1942.00003147125 18 21 14
14.1845503821969 121.037349104881 1939.00001049042 21 22 14
19.4673575460911 120.974406599998 1937.99996376038 19 20 12
24.7829519212246 121.098563075066 1940.00005722046 22 23 15
29.9698244780302 120.660752058029 1932.99996852875 26 27 19
35.1548232138157 120.347626507282 1927.99997329712 15 16 10
40.4381714761257 120.40887773037 1929.00002002716 17 18 12
45.8215847611427 120.719641447067 1934.00001525879 15 18 11
51.3377860188484 121.279895305634 1942.999958992 15 18 11
57.2235733270645 122.526586055756 1963.00005912781 15 18 11
62.8357157111168 123.024061322212 1970.99995613098 14 16 11
68.560503423214 123.646184802055 1980.99994659424 11 13 8
73.5181495547295 122.894994914532 1968.99998188019 8 9 4
78.7305384874344 122.642986476421 1965.0000333786 6 7 2
83.8779956102371 122.328408062458 1960.00003814697 6 7 2
89.6806865930557 122.949853539467 1970.00002861023 8 9 4
95.6340655684471 123.69592487812 1981.99999332428 9 10 5
100.480027496815 123.006418347359 1970.99995613098 6 7 2
105.319283902645 122.379198670387 1960.99996566772 11 12 7
110.667906701565 122.375890612602 1960.99996566772 3 4 0
115.54279923439 121.873192489147 1952.99994945526 13 14 9
120.930604636669 121.931999921799 1953.9999961853 17 18 13
126.646459102631 122.302636504173 1960.00003814697 15 16 11
131.990507245064 122.298710048199 1960.00003814697 25 28 21
137.26395368576 122.232243418694 1958.99999141693 24 27 20
142.531424760818 122.165620326996 1957.99994468689 18 21 14
148.850157856941 122.972324490547 1970.99995613098 13 16 9
156.725853681564 124.964199960232 2003.00002098083 10 13 6
160.695418715477 119.776651263237 1919.99995708466 15 18 11
176.773026585579 123.696632683277 1983.00004005432 12 15 8
184.287413954735 125.125974416733 2006.00004196167 8 11 4
190.034538507462 125.307559967041 2009.0000629425 13 16 9
194.726854562759 124.802947044373 2000.99992752075 17 20 13
199.875071644783 124.610058963299 1998.00002574921 20 23 16
205.828309059143 124.915964901447 2003.00002098083 19 22 15
210.753187537193 124.59809333086 1998.00002574921 23 26 19
216.299295425415 124.65426325798 1998.99995326996 28 31 24
221.406400203705 124.460883438587 1996.00005149841 28 31 24
227.40550339222 124.766193330288 2000.99992752075 26 29 22
233.896508812904 125.320732593536 2009.99999046326 32 35 28
239.840224385262 125.563383102417 2013.99993896484 9 12 5
245.926678180695 125.868201255798 2019.00005340576 11 14 7
251.790404319763 126.048192381859 2022.0000743866 11 14 7
254.870235919952 124.856673181057 2003.00002098083 18 21 12
244.84957754612 117.432050406933 1883.99994373322 18 19 5
245.591714978218 115.368351340294 1850.99995136261 88 66 52
249.132469296455 114.675909280777 1840.0000333786 144 107 91
253.717482089996 114.482007920742 1837.00001239777 123 86 68
258.707880973816 114.474982023239 1837.00001239777 90 59 41
263.984501361847 114.592470228672 1838.99998664856 133 106 87
267.808526754379 114.086776971817 1830.9999704361 122 96 79
271.141290664673 113.394133746624 1820.00005245209 149 120 104
275.627017021179 113.199882209301 1817.00003147125 164 122 106
280.713230371475 113.254755735397 1817.999958992 160 117 101
286.589622497559 113.620989024639 1824.00000095367 156 118 99
292.337894439697 113.924816250801 1828.9999961853 116 79 60
297.94979095459 114.166215062141 1832.99994468689 141 106 86
303.582578897476 114.407517015934 1837.00001239777 131 104 83
309.404075145721 114.710979163647 1842.00000762939 112 87 67
314.910441637039 114.889770746231 1845.00002861023 112 94 74
319.218367338181 114.632584154606 1840.99996089935 125 112 95
-231.075406074524 128.511607646942 2154.99997138977 104 86 72
-223.851189017296 127.742677927017 2141.99995994568 118 90 76
-217.104032635689 127.212077379227 2132.99989700317 119 87 72
-210.900396108627 126.979514956474 2128.99994850159 126 90 76
-196.142166852951 128.726497292519 2157.99999237061 74 52 39
-189.911022782326 128.493368625641 2154.00004386902 62 46 33
-184.982553124428 129.154905676842 2164.99996185303 47 37 25
-77.5072872638702 118.358582258224 1983.00004005432 20 23 16
-71.8052983283997 117.883294820786 1975.00002384186 24 27 20
-66.7183548212051 118.422545492649 1983.99996757507 23 26 19
-61.1494332551956 118.125982582569 1978.99997234344 23 26 19
-55.2413500845432 117.053300142288 1960.99996566772 24 27 20
-49.9655455350876 117.233939468861 1963.99998664856 27 30 23
-45.1273880898952 118.608266115189 1986.99998855591 28 31 22
-39.544053375721 118.13198029995 1978.99997234344 28 31 22
-33.8834710419178 117.237694561481 1963.99998664856 27 30 21
-28.3482000231743 116.522297263145 1952.00002193451 26 29 20
-23.0905991047621 116.881236433983 1957.99994468689 24 27 18
-17.7548304200172 116.941526532173 1958.99999141693 24 27 18
-12.4641992151737 117.479242384434 1968.00005435944 19 22 13
-7.06672063097358 117.061667144299 1960.99996566772 13 16 7
-1.69694481883198 115.927591919899 1942.00003147125 12 15 6
3.58952069655061 115.450002253056 1934.00001525879 14 17 8
8.84146522730589 115.091644227505 1927.99997329712 14 17 8
14.2361912876368 116.165801882744 1945.99997997284 19 22 15
19.4277707487345 115.448974072933 1934.00001525879 18 21 14
24.579307064414 114.851370453835 1924.00002479553 21 24 17
29.9087222665548 115.149036049843 1929.00002002716 20 23 16
35.11942923069 114.968977868557 1925.99999904633 20 23 16
40.4184423387051 115.087240934372 1927.99997329712 21 24 17
45.9651350975037 115.802258253098 1940.00005722046 18 21 14
51.3921938836575 116.099268198013 1945.00005245209 17 20 13
56.8754822015762 116.455793380737 1950.99997520447 18 21 14
62.5188127160072 117.050915956497 1960.99996566772 17 20 13
68.1818798184395 117.586188018322 1970.00002861023 16 19 12
73.4830349683762 117.464698851109 1968.00005435944 13 16 9
78.6527916789055 117.164015769958 1963.00005912781 13 16 9
83.7521478533745 116.803504526615 1957.00001716614 12 15 8
89.8199677467346 117.755897343159 1973.00004959106 11 14 7
95.2509269118309 117.812842130661 1973.99997711182 9 12 5
100.788943469524 117.989003658295 1976.99999809265 8 11 4
105.913229286671 117.687560617924 1972.00000286102 11 14 7
110.953398048878 117.326304316521 1965.99996089935 9 12 5
116.256222128868 117.263309657574 1965.0000333786 8 11 4
121.924459934235 117.5582036376 1970.00002861023 24 27 20
127.102553844452 117.375552654266 1967.00000762939 19 22 15
132.533177733421 117.431454360485 1968.00005435944 11 14 7
137.758523225784 117.30819195509 1965.99996089935 9 12 5
144.064366817474 118.079796433449 1978.99997234344 5 8 1
169.561088085175 117.043048143387 1962.00001239777 11 14 7
176.154136657715 117.873273789883 1975.99995136261 10 13 6
184.200882911682 119.598060846329 2005.00011444092 10 13 6
189.094081521034 119.234889745712 1998.99995326996 16 19 12
193.856596946716 118.811964988708 1991.99998378754 17 20 13
199.180528521538 118.746817111969 1991.00005626678 22 25 18
205.012083053589 118.979707360268 1995.00000476837 25 28 21
210.548207163811 119.033575057983 1996.00005149841 26 29 22
215.87261557579 118.96800994873 1995.00000476837 25 28 21
221.301719546318 118.961967527866 1995.00000476837 22 25 18
227.184608578682 119.19429898262 1998.99995326996 24 27 20
233.321219682693 119.545735418797 2005.00011444092 25 28 21
240.08509516716 120.195105671883 2016.00003242493 17 20 13
246.420726180077 120.605818927288 2023.00000190735 12 15 8
252.170950174332 120.71830779314 2025.00009536743 16 19 12
244.336426258087 112.06141859293 1879.99999523163 41 29 17
245.598390698433 110.326312482357 1850.99995136261 102 86 73
249.139174818993 109.664127230644 1840.0000333786 133 110 94
253.448069095612 109.359487891197 1835.00003814697 131 104 87
258.151441812515 109.233573079109 1832.99994468689 84 55 37
262.986689805985 109.167166054249 1832.00001716614 139 108 90
266.206681728363 108.445234596729 1820.00005245209 127 91 75
270.552486181259 108.199954032898 1815.99998474121 161 122 107
275.482565164566 108.192943036556 1815.99998474121 158 112 97
280.874967575073 108.364544808865 1819.00000572205 149 106 89
286.754220724106 108.714759349823 1825.00004768372 146 108 87
292.185544967651 108.886137604713 1827.99994945526 137 102 80
297.957450151443 109.176553785801 1832.99994468689 142 110 89
304.086089134216 109.585963189602 1840.0000333786 121 96 76
310.587674379349 110.114328563213 1848.99997711182 107 84 66
315.94243645668 110.225714743137 1850.99995136261 114 97 81
-232.046753168106 123.150341212749 2164.00003433228 100 86 73
-224.797874689102 122.416593134403 2151.00002288818 94 76 62
-218.026056885719 121.910274028778 2141.99995994568 118 90 78
-211.89683675766 121.74529582262 2138.99993896484 111 79 66
-196.783870458603 123.241774737835 2164.99996185303 61 39 26
-190.621629357338 123.076245188713 2161.99994087219 87 71 58
-79.2684480547905 115.512520074844 2028.00011634827 18 21 14
-72.4254697561264 113.464117050171 1991.99998378754 23 26 19
-66.3503631949425 112.383835017681 1973.00004959106 22 25 18
-60.6259107589722 111.759059131145 1962.00001239777 22 25 18
-54.6513721346855 110.507540404797 1940.00005722046 23 26 19
-49.5599396526814 110.964730381966 1947.99995422363 24 27 20
-44.9015870690346 112.618021667004 1976.99999809265 28 31 22
-39.7849977016449 113.416731357574 1991.00005626678 28 31 22
-34.1087467968464 112.620279192925 1976.99999809265 27 30 21
-28.4506883472204 111.595787107944 1958.99999141693 27 30 21
-23.0794828385115 111.482597887516 1957.00001716614 27 30 21
-17.9275572299957 112.679481506348 1978.00004482269 27 30 21
-12.5912353396416 113.249570131302 1988.00003528595 23 26 17
-7.09936069324613 112.224459648132 1970.00002861023 18 21 12
-1.7118495889008 111.597940325737 1958.99999141693 13 16 7
3.61189828254282 110.857337713242 1945.99997997284 13 16 7
8.91510024666786 110.74323952198 1944.00000572205 10 13 4
14.163451269269 110.287174582481 1935.99998950958 15 18 11
19.3881560117006 109.944894909859 1929.99994754791 18 21 14
24.7077774256468 110.172130167484 1934.00001525879 21 24 17
30.126666650176 110.684044659138 1942.999958992 22 25 18
35.3028029203415 110.284350812435 1935.99998950958 20 23 16
40.4615439474583 109.941467642784 1929.99994754791 22 25 18
46.0375584661961 110.680788755417 1942.999958992 18 21 14
51.5258014202118 111.078128218651 1950.00004768372 18 21 14
56.9937489926815 111.361406743526 1955.00004291534 19 22 15
62.0742812752724 110.904015600681 1947.00002670288 19 22 15
68.0107921361923 111.927472054958 1965.0000333786 16 19 12
73.2611268758774 111.754588782787 1962.00001239777 16 19 12
78.2143101096153 111.182846128941 1952.00002193451 16 19 12
83.4977775812149 111.123614013195 1950.99997520447 16 19 12
89.3217772245407 111.747696995735 1962.00001239777 16 19 12
94.9641466140747 112.086825072765 1968.00005435944 13 16 9
100.485943257809 112.254932522774 1970.99995613098 12 15 8
106.238536536694 112.650699913502 1978.00004482269 11 14 7
112.141780555248 113.160192966461 1986.99998855591 11 14 7
116.614528000355 112.245798110962 1970.99995613098 7 10 3
121.742263436317 112.014681100845 1967.00000762939 24 27 20
127.816990017891 112.637609243393 1978.00004482269 25 28 21
132.73897767067 112.235374748707 1970.99995613098 44 47 40
138.673365116119 112.687155604362 1978.99997234344 43 46 39
148.481115698814 111.938990652561 1965.99996089935 30 33 26
151.570379734039 110.283710062504 1937.00003623962 15 18 11
165.057018399239 112.267687916756 1972.00000286102 12 15 8
171.035021543503 112.661622464657 1978.99997234344 10 13 6
177.407130599022 113.283082842827 1990.00000953674 10 13 6
182.82787501812 113.278187811375 1990.00000953674 14 17 10
188.815519213676 113.614715635777 1996.00005149841 17 20 13
193.375319242477 113.09727281332 1986.99998855591 19 22 15
198.585718870163 112.978175282478 1985.00001430511 23 26 19
203.681722283363 112.802058458328 1981.99999332428 24 27 20
208.866119384766 112.682729959488 1980.00001907349 22 25 18
214.363500475883 112.734012305737 1980.99994659424 19 22 15
220.198377966881 112.955905497074 1985.00001430511 16 19 12
227.077066898346 113.689757883549 1998.00002574921 20 23 16
232.629209756851 113.740615546703 1998.99995326996 19 22 15
240.567862987518 114.929273724556 2019.99998092651 18 21 14
248.132631182671 115.890115499496 2036.99994087219 21 24 17
254.668235778809 116.33874475956 2045.00007629395 22 25 18
258.319705724716 115.478813648224 2029.99997138977 23 24 18
246.032416820526 107.679173350334 1893.00000667572 34 31 22
245.870187878609 105.397641658783 1853.00004482269 98 89 80
249.145656824112 104.651942849159 1840.0000333786 120 103 93
253.730863332748 104.47496175766 1837.00001239777 94 75 61
258.298933506012 104.297913610935 1833.99999141693 144 115 101
262.419193983078 103.950195014477 1827.99994945526 127 94 79
265.62836766243 103.261262178421 1815.99998474121 149 112 96
270.410388708115 103.197775781155 1815.00005722046 143 104 89
275.792866945267 103.361621499062 1817.999958992 137 95 81
281.499654054642 103.63906621933 1822.99995422363 126 87 70
287.232667207718 103.916384279728 1827.99994945526 111 73 52
292.352616786957 103.966236114502 1828.9999961853 142 110 87
298.289865255356 104.300193488598 1835.00003814697 141 113 91
304.75452542305 104.804515838623 1843.99998188019 107 84 66
311.267107725143 105.308711528778 1853.00004482269 130 111 96
316.803485155106 105.471804738045 1855.99994659424 113 97 82
-233.017891645432 117.73955821991 2173.00009727478 120 108 96
-225.535288453102 116.932600736618 2157.99999237061 89 73 60
-218.540698289871 116.342201828957 2147.0000743866 105 81 69
-212.39772439003 116.185143589973 2144.00005340576 106 78 67
-80.7559862732887 112.040854990482 2065.99998474121 23 26 19
-71.8457326292992 107.162103056908 1975.99995136261 24 27 20
-66.5876194834709 107.380904257298 1980.00001907349 24 27 20
-60.9366111457348 106.948778033257 1972.00000286102 24 27 20
-55.1036335527897 106.082588434219 1955.9999704361 24 27 20
-49.6630854904652 105.867080390453 1952.00002193451 23 26 19
-44.3804413080215 105.976819992065 1953.9999961853 25 28 19
-39.6462269127369 107.605047523975 1983.99996757507 25 28 19
-34.0751893818378 107.117928564548 1975.00002384186 26 29 20
-28.4369606524706 106.196753680706 1957.99994468689 28 31 22
-23.1980606913567 106.68558627367 1967.00000762939 29 32 23
-18.0458854883909 107.987858355045 1991.00005626678 28 31 22
-12.5599186867476 107.554368674755 1983.00004005432 22 25 16
-7.17523973435164 107.98854380846 1991.00005626678 23 26 17
-1.7197624547407 106.741189956665 1968.00005435944 24 27 18
3.64355347119272 106.469973921776 1963.00005912781 21 24 15
8.95203743129969 105.873174965382 1952.00002193451 14 17 8
14.20774217695 105.330474674702 1942.00003147125 10 13 6
19.3485133349895 104.462198913097 1925.99999904633 13 16 9
24.7851237654686 105.220936238766 1940.00005722046 16 19 12
30.1120020449162 105.328671634197 1942.00003147125 15 18 11
35.3220254182816 105.056598782539 1937.00003623962 11 14 7
40.5255705118179 104.838609695435 1932.99996852875 13 16 9
46.1573116481304 105.650961399078 1947.99995422363 14 17 10
51.3951182365417 105.486936867237 1945.00005245209 15 18 11
56.8204112350941 105.70240020752 1949.00000095367 18 21 14
61.9803592562675 105.429627001286 1944.00000572205 18 21 14
67.7703991532326 106.187127530575 1957.99994468689 17 20 13
73.1884762644768 106.293685734272 1960.00003814697 16 19 12
79.1380852460861 107.10509121418 1975.00002384186 16 19 12
84.5272541046143 107.102885842323 1975.00002384186 18 21 14
89.4608125090599 106.558255851269 1965.0000333786 18 21 14
94.6289747953415 106.338873505592 1960.99996566772 16 19 12
100.284770131111 106.661610305309 1967.00000762939 15 18 11
106.671147048473 107.68911242485 1985.99994182587 11 14 7
112.257726490498 107.848860323429 1988.9999628067 13 16 9
115.966893732548 106.273375451565 1960.00003814697 10 13 6
120.87906897068 105.890668928623 1952.99994945526 24 27 20
125.946447253227 105.670504271984 1949.00000095367 22 25 18
132.203802466393 106.426119804382 1963.00005912781 7 10 3
137.83623278141 106.639415025711 1967.00000762939 12 15 8
143.781125545502 107.069410383701 1975.00002384186 27 30 23
148.409590125084 106.523439288139 1965.0000333786 31 34 27
153.843760490417 106.573686003685 1965.99996089935 32 35 28
159.930601716042 107.057444751263 1975.00002384186 28 31 24
165.814757347107 107.378423213959 1980.99994659424 12 15 8
172.249585390091 108.024463057518 1993.00003051758 10 13 6
177.590131759644 107.96570032835 1991.99998378754 10 13 6
182.648971676826 107.744261622429 1988.00003528595 13 16 9
187.212288379669 107.251726090908 1978.99997234344 15 18 11
192.017897963524 106.921695172787 1973.00004959106 23 26 19
198.390826582909 107.458598911762 1983.00004005432 22 25 18
204.406410455704 107.77859389782 1988.9999628067 21 24 17
210.031941533089 107.88169503212 1991.00005626678 18 21 14
214.044436812401 107.171937823296 1978.00004482269 15 18 11
220.536842942238 107.708260416985 1988.00003528595 11 14 7
227.082908153534 108.2444190979 1998.00002574921 15 18 11
233.682543039322 108.780391514301 2007.99989700317 14 17 10
241.28857254982 109.74957793951 2026.00002288818 15 18 11
249.600768089294 110.98937690258 2049.00002479553 18 21 14
255.297362804413 111.03730648756 2049.99995231628 21 24 17
258.453458547592 110.001876950264 2030.99989891052 24 27 20
248.132050037384 101.270020008087 1870.00000476837 40 33 25
250.641316175461 100.235059857368 1850.99995136261 79 62 54
254.703998565674 99.8499169945717 1843.99998188019 102 82 71
258.868634700775 99.5188876986504 1838.00005912781 136 106 95
262.425601482391 98.9712253212929 1827.99994945526 126 92 80
266.366183757782 98.5859706997871 1820.99997997284 141 105 91
270.863831043243 98.4172075986862 1817.999958992 127 91 77
276.406288146973 98.6273214221001 1822.00002670288 126 89 73
281.969606876373 98.837323486805 1825.99997520447 111 74 56
287.553787231445 99.0472212433815 1830.00004291534 108 72 50
292.519360780716 99.0405380725861 1830.00004291534 140 109 88
298.459351062775 99.3584543466568 1835.99996566772 128 100 79
304.761618375778 99.7845157980919 1843.99998188019 122 99 83
311.106324195862 100.210443139076 1851.99999809265 129 110 95
316.810756921768 100.41980445385 1855.99994659424 113 97 84
-234.846636652946 112.690903246403 2190.00005722046 130 122 111
-226.899564266205 111.718758940697 2171.0000038147 81 69 57
-219.767615199089 111.106641590595 2158.99991989136 82 60 49
-213.492795825005 110.906064510345 2154.99997138977 97 73 63
-208.491414785385 111.374408006668 2164.00003433228 103 76 67
-80.1326781511307 105.580270290375 2049.99995231628 31 34 27
-73.7383514642715 104.449190199375 2028.00011634827 25 28 21
-67.1611055731773 102.854371070862 1996.99997901917 26 29 22
-61.4635422825813 102.443985641003 1988.9999628067 25 28 21
-55.6685440242291 101.775929331779 1975.99995136261 25 28 21
-49.2827631533146 99.7685417532921 1937.00003623962 24 27 20
-44.2453399300575 100.336320698261 1947.99995422363 26 29 20
-39.1077250242233 100.800968706608 1957.00001716614 23 26 17
-33.6965098977089 100.595876574516 1952.99994945526 25 28 19
-28.4667667001486 100.957252085209 1960.00003814697 27 30 21
-23.0335630476475 100.597344338894 1952.99994945526 28 31 22
-17.8469568490982 101.422026753426 1968.99998188019 26 29 20
-12.5919235870242 102.401107549667 1988.00003528595 25 28 19
-7.09974858909845 101.474195718765 1970.00002861023 24 27 18
-1.71369081363082 101.010710000992 1960.99996566772 22 25 16
3.60838323831558 100.135020911694 1944.00000572205 21 24 15
8.91099963337183 100.083336234093 1942.999958992 21 24 15
14.1203245148063 99.4134172797203 1929.99994754791 13 16 9
19.4695834070444 99.8250693082809 1937.99996376038 11 14 7
24.7091241180897 99.6184498071671 1934.00001525879 13 16 9
30.0817899405956 99.9268069863319 1940.00005722046 14 17 10
35.4688502848148 100.183501839638 1945.00005245209 9 12 5
40.8201664686203 100.285522639751 1947.00002670288 8 11 4
46.1111478507519 100.232891738415 1945.99997997284 13 16 9
51.449328660965 100.28313845396 1947.00002670288 14 17 10
56.9093786180019 100.539267063141 1952.00002193451 18 21 14
62.0776489377022 100.280202925205 1947.00002670288 19 22 15
67.3568323254585 100.227020680904 1945.99997997284 18 21 14
73.2277482748032 100.997783243656 1960.99996566772 15 18 11
79.260379076004 101.871363818645 1978.00004482269 16 19 12
84.743469953537 101.97226703167 1980.00001907349 16 19 12
89.6452814340591 101.403519511223 1968.99998188019 17 20 13
94.8244780302048 101.19516402483 1965.0000333786 18 21 14
100.134432315826 101.141169667244 1963.99998664856 19 22 15
105.653382837772 101.293042302132 1967.00000762939 20 23 16
115.851566195488 100.823946297169 1957.99994468689 11 14 7
119.768083095551 99.6366366744041 1934.99994277954 29 32 25
125.044986605644 99.6335372328758 1934.99994277954 24 27 20
131.264314055443 100.35115480423 1949.00000095367 12 15 8
137.629553675652 101.120084524155 1963.99998664856 11 14 7
143.129602074623 101.219534873962 1965.99996089935 10 13 6
149.017632007599 101.576268672943 1973.00004959106 11 14 7
154.082462191582 101.366549730301 1968.99998188019 14 17 10
160.015657544136 101.722992956638 1975.99995136261 19 22 15
165.149331092834 101.564519107342 1973.00004959106 18 21 14
171.562507748604 102.178066968918 1985.00001430511 16 19 12
177.238017320633 102.328181266785 1988.00003528595 15 18 11
182.653561234474 102.323748171329 1988.00003528595 16 19 12
187.595412135124 102.061860263348 1983.00004005432 17 20 13
191.925376653671 101.491078734398 1972.00000286102 19 22 15
198.695927858353 102.206826210022 1985.99994182587 18 21 14
205.028131604195 102.665089070797 1995.00000476837 16 19 12
212.252497673035 103.534854948521 2012.00008392334 12 15 8
216.971531510353 103.169485926628 2005.00011444092 10 13 6
222.095400094986 103.009857237339 2002.00009346008 9 12 5
228.679671883583 103.518977761269 2012.00008392334 10 13 6
235.084801912308 103.925056755543 2019.99998092651 10 13 6
242.366328835487 104.691095650196 2035.00008583069 10 13 6
247.535869479179 104.530982673168 2032.00006484985 10 13 6
252.439111471176 104.26789522171 2026.99995040894 18 21 14
257.568836212158 104.107603430748 2023.9999294281 20 25 18
260.471761226654 103.072874248028 2003.99994850159 16 23 16
255.966871976852 99.2094948887825 1929.00002002716 35 32 25
256.199091672897 97.3007082939148 1891.99995994568 28 17 11
256.505638360977 95.494918525219 1856.99999332428 139 114 107
258.452147245407 94.3577438592911 1835.00003814697 137 103 94
262.5752389431 94.0433070063591 1828.9999961853 130 96 84
267.250001430511 93.934491276741 1827.00002193451 107 74 59
272.35996723175 93.9798355102539 1827.99994945526 92 60 45
277.626276016235 94.0765216946602 1830.00004291534 79 50 34
282.593697309494 94.0702930092812 1830.00004291534 104 75 57
288.18878531456 94.2695960402489 1833.99999141693 134 103 82
293.4849858284 94.3660214543343 1835.99996566772 116 88 66
299.116313457489 94.565138220787 1840.0000333786 103 76 55
304.933667182922 94.8155522346497 1845.00002861023 139 120 103
310.105234384537 94.860315322876 1845.99995613098 112 94 80
-229.413285851479 106.969691812992 2194.9999332428 140 133 125
-221.096143126488 105.853982269764 2171.99993133545 74 60 51
-214.389488101006 105.469115078449 2164.00003433228 64 47 40
-208.207339048386 105.327785015106 2161.00001335144 70 49 44
-206.347480416298 107.428483664989 2203.9999961853 85 64 59
-79.0401697158813 98.6212864518166 2022.0000743866 26 29 22
-72.7584511041641 97.5988730788231 2000.99992752075 27 30 23
-66.7592138051987 96.820168197155 1985.00001430511 26 29 22
-61.5268982946873 97.1143916249275 1991.00005626678 25 28 21
-55.7544603943825 96.5305045247078 1978.99997234344 25 28 21
-49.8946458101273 95.6537947058678 1960.99996566772 26 29 22
-44.0874584019184 94.6793779730797 1940.99998474121 28 31 22
-38.7889668345451 94.6804061532021 1940.99998474121 24 27 18
-33.5765816271305 94.9251875281334 1945.99997997284 25 28 19
-28.3948611468077 95.3649654984474 1955.00004291534 28 31 22
-23.1402926146984 95.7070663571358 1962.00001239777 27 30 21
-17.7658312022686 95.610000193119 1960.00003814697 24 27 18
-12.4212186783552 95.6591591238976 1960.99996566772 23 26 17
-7.06028332933784 95.5618396401405 1958.99999141693 26 29 20
-1.70149945188314 94.9765741825104 1947.00002670288 26 29 20
3.59919341281056 94.5862978696823 1939.00001049042 24 27 18
8.81949905306101 93.805655837059 1922.99997806549 21 24 15
14.1279976814985 94.1956117749214 1930.99999427795 18 21 14
19.4399356842041 94.3903252482414 1934.99994277954 11 14 7
24.6841963380575 94.2434370517731 1932.000041008 13 16 9
30.0050154328346 94.3891108036041 1934.99994277954 15 18 11
35.4515053331852 94.8273167014122 1944.00000572205 10 13 6
40.8631227910519 95.0702801346779 1949.00000095367 8 11 4
46.325571835041 95.3618809580803 1955.00004291534 10 13 6
51.4506213366985 94.9704572558403 1947.00002670288 11 14 7
56.5317906439304 94.5789143443108 1939.00001049042 15 18 11
61.6328231990337 94.2848175764084 1932.99996852875 18 21 14
67.2200620174408 94.722218811512 1942.00003147125 20 23 16
73.1175541877747 95.5009087920189 1957.99994468689 16 19 12
79.1421458125114 96.3282138109207 1975.00002384186 16 19 12
84.7456008195877 96.5700894594193 1980.00001907349 16 19 12
89.9206921458244 96.3241010904312 1975.00002384186 17 20 13
95.2129065990448 96.2243154644966 1973.00004959106 20 23 16
100.187912583351 95.8317816257477 1965.0000333786 21 24 17
112.827844917774 97.4847450852394 1998.99995326996 15 18 11
116.386964917183 95.921479165554 1967.00000762939 12 15 8
119.956731796265 94.5044606924057 1937.99996376038 30 33 26
125.306576490402 94.5502892136574 1939.00001049042 24 27 20
131.334900856018 95.083586871624 1950.00004768372 10 13 6
137.703001499176 95.8117693662643 1965.0000333786 11 14 7
143.933936953545 96.3935106992722 1976.99999809265 13 16 9
149.323374032974 96.3900238275528 1976.99999809265 14 17 10
154.634013772011 96.3376685976982 1975.99995136261 13 16 9
159.93857383728 96.2852090597153 1975.00002384186 11 14 7
165.320754051208 96.2813645601273 1975.00002384186 18 21 14
171.220913529396 96.5699031949043 1980.99994659424 17 20 13
176.974818110466 96.7608168721199 1985.00001430511 16 19 12
182.933583855629 97.0490798354149 1991.00005626678 17 20 13
187.88368999958 96.8010500073433 1985.99994182587 18 21 14
193.000555038452 96.6504141688347 1983.00004005432 19 22 15
199.601098895073 97.2307398915291 1995.00000476837 16 19 10
206.574559211731 97.9570969939232 2009.99999046326 14 17 8
213.839933276176 98.7807363271713 2026.99995040894 13 16 7
217.950567603111 98.1422960758209 2013.99993896484 11 14 5
223.32090139389 98.0885475873947 2013.00001144409 11 14 5
230.048909783363 98.6193940043449 2023.9999294281 14 17 8
235.439375042915 98.565399646759 2023.00000190735 12 15 6
240.108996629715 98.2190147042274 2016.00003242493 12 15 6
245.836019515991 98.3109995722771 2017.99988746643 14 17 8
250.452220439911 97.9644656181335 2010.99991798401 18 21 12
256.047606468201 98.0075597763062 2012.00008392334 16 21 14
261.257529258728 97.9044139385223 2009.99999046326 25 32 24
264.332562685013 97.0219075679779 1991.99998378754 20 23 16
259.183973073959 93.217246234417 1914.00003433228 31 18 10
255.130022764206 89.9486541748047 1847.00000286102 129 102 95
257.894456386566 89.1639143228531 1830.9999704361 144 107 98
262.724608182907 89.1096293926239 1830.00004291534 127 91 79
267.987251281738 89.2013162374496 1832.00001716614 104 71 56
273.259907960892 89.2929285764694 1833.99999141693 84 52 37
278.087437152863 89.2383977770805 1832.99994468689 78 49 31
282.90867805481 89.1838073730469 1832.00001716614 119 94 74
288.509249687195 89.372530579567 1835.99996566772 122 94 72
294.130682945251 89.5611718297005 1840.0000333786 109 82 61
299.447774887085 89.6523743867874 1842.00000762939 124 99 79
304.774791002274 89.7435024380684 1843.99998188019 121 104 88
309.271782636642 89.5912274718285 1840.99996089935 110 94 81
-224.562183022499 101.496212184429 2206.00008964539 120 110 101
-216.573938727379 100.58081895113 2186.00010871887 83 70 64
-209.753632545471 100.171364843845 2177.00004577637 71 53 49
-203.730627894402 100.129902362823 2176.00011825562 81 63 59
-199.621215462685 101.054675877094 2196.00009918213 87 69 65
-78.5338580608368 92.5053656101227 2009.0000629425 23 26 19
-72.8692561388016 92.276893556118 2003.99994850159 24 27 20
-66.458098590374 90.9891799092293 1975.99995136261 24 27 20
-60.7866831123829 90.5762240290642 1967.00000762939 25 28 21
-55.474054068327 90.6696766614914 1968.99998188019 25 28 21
-50.1502752304077 90.7629951834679 1970.99995613098 25 28 21
-44.2702285945416 89.7510051727295 1949.00000095367 24 27 18
-38.8698317110538 89.5677655935287 1945.00005245209 26 29 20
-33.5601344704628 89.5686075091362 1945.00005245209 27 30 21
-28.4536387771368 90.2140364050865 1958.99999141693 26 29 20
-23.117259144783 90.2606993913651 1960.00003814697 24 27 18
-17.739063128829 90.1230126619339 1957.00001716614 23 26 17
-12.3138343915343 89.5246937870979 1944.00000572205 24 27 18
-7.00278673321009 89.4788652658463 1942.999958992 26 29 20
-1.69542280491441 89.3408060073853 1940.00005722046 27 30 21
3.58442962169647 88.9263153076172 1930.99999427795 26 29 20
8.86557530611753 89.018277823925 1932.99996852875 24 27 18
14.1502870246768 89.0640616416931 1934.00001525879 23 26 19
19.5107255131006 89.4320756196976 1942.00003147125 13 16 9
24.7997790575027 89.3855169415474 1940.99998474121 13 16 9
29.9747176468372 89.01646733284 1932.99996852875 18 21 14
35.3247001767159 89.199922978878 1937.00003623962 15 18 11
40.9060381352901 89.8437350988388 1950.99997520447 12 15 8
46.7058159410954 90.7637029886246 1970.99995613098 7 10 3
51.6368374228477 89.9797454476357 1953.9999961853 7 10 3
56.5331391990185 89.2877504229546 1939.00001049042 11 14 7
61.9212612509727 89.4245281815529 1942.00003147125 12 15 8
67.3601180315018 89.6072164177895 1945.99997997284 19 22 15
73.0445981025696 90.066060423851 1955.9999704361 17 20 13
78.2223418354988 89.8801386356354 1952.00002193451 16 19 12
84.0199738740921 90.384766459465 1963.00005912781 16 19 12
89.9683460593224 90.9813195466995 1975.99995136261 18 21 14
95.4081863164902 91.025248169899 1976.99999809265 20 23 16
100.445218384266 90.7007157802582 1970.00002861023 20 23 16
105.551071465015 90.4681608080864 1965.0000333786 19 22 15
115.44294655323 89.8185670375824 1950.99997520447 26 29 22
120.764218270779 89.8158848285675 1950.99997520447 26 29 22
126.278892159462 89.951179921627 1953.9999961853 28 31 24
131.809413433075 90.0863707065582 1957.00001716614 22 25 18
138.12667131424 90.727761387825 1970.99995613098 15 18 11
144.155696034431 91.1388620734215 1980.00001907349 16 19 12
149.402365088463 91.0435020923615 1978.00004482269 17 20 13
154.559299349785 90.9020155668259 1975.00002384186 13 16 9
159.61828827858 90.7144024968147 1970.99995613098 18 21 14
165.073394775391 90.7568037509918 1972.00000286102 15 18 11
171.05196416378 91.0752266645432 1978.99997234344 14 17 10
177.513793110847 91.6236042976379 1991.00005626678 16 19 12
183.672800660133 91.9877514243126 1998.99995326996 18 21 14
188.550189137459 91.7075648903847 1993.00003051758 18 21 14
193.978190422058 91.7033702135086 1993.00003051758 17 20 13
200.706154108047 92.2972038388252 2006.00004196167 12 15 6
209.354132413864 93.7190353870392 2036.99994087219 11 14 5
214.161187410355 93.3923795819283 2029.99997138977 11 14 5
216.548517346382 92.0535773038864 2000.99992752075 13 16 7
223.769590258598 92.7848741412163 2016.99995994568 13 16 7
229.371979832649 92.8260236978531 2017.99988746643 17 20 11
233.931571245193 92.4530923366547 2009.99999046326 16 19 10
238.684952259064 92.1720936894417 2003.99994850159 15 18 9
245.7195520401 92.7648693323135 2016.99995994568 16 19 10
251.827657222748 92.9895788431168 2022.0000743866 17 20 11
255.671322345734 92.3864170908928 2009.0000629425 17 20 11
258.273541927338 91.3693606853485 1986.99998855591 31 35 21
256.508886814117 88.8809710741043 1932.99996852875 18 10 0
251.606076955795 85.4272544384003 1858.00004005432 119 95 85
253.892242908478 84.5025256276131 1838.00005912781 137 107 96
258.181571960449 84.2674002051353 1832.99994468689 106 68 55
263.160794973373 84.2620879411697 1832.99994468689 110 73 57
268.870532512665 84.4865441322327 1838.00005912781 73 40 21
274.159580469131 84.5730006694794 1840.0000333786 69 41 20
279.003471136093 84.5214948058128 1838.99998664856 87 62 40
283.686578273773 84.4239592552185 1837.00001239777 89 69 45
289.300858974457 84.6021175384521 1840.99996089935 102 80 59
294.935941696167 84.780178964138 1845.00002861023 134 113 96
300.266623497009 84.8662406206131 1847.00000286102 126 109 93
305.111438035965 84.8144069314003 1845.99995613098 91 79 65
-211.588799953461 95.0571820139885 2196.00009918213 91 80 76
-204.671263694763 94.6286246180534 2186.00010871887 37 26 22
-199.080064892769 94.8059633374214 2190.00005722046 44 33 29
-85.6074020266533 88.6673852801323 2046.99993133545 63 66 59
-79.0438205003738 87.5862687826157 2022.0000743866 30 33 26
-72.2527280449867 86.0718116164207 1986.99998855591 25 28 21
-66.2241652607918 85.2936059236526 1968.99998188019 25 28 21
-60.2317824959755 84.428608417511 1949.00000095367 25 28 21
-55.5034689605236 85.3395760059357 1970.00002861023 25 28 21
-50.3040701150894 85.643969476223 1976.99999809265 25 28 21
-44.4983765482903 84.8652347922325 1958.99999141693 27 30 21
-38.8906933367252 84.3029767274857 1945.99997997284 27 30 21
-33.629909157753 84.4337269663811 1949.00000095367 26 29 20
-28.3526089042425 84.5643877983093 1952.00002193451 24 27 18
-23.0941884219646 84.8248675465584 1957.99994468689 19 22 13
-17.6669470965862 84.4354182481766 1949.00000095367 17 20 11
-12.3267807066441 84.3057781457901 1945.99997997284 20 23 14
-6.99934083968401 84.1327011585236 1942.00003147125 22 25 16
-1.69720908161253 84.1327980160713 1942.00003147125 25 28 19
3.6272055003792 84.6526548266411 1953.9999961853 25 28 19
8.92081297934055 84.2626020312309 1945.00005245209 25 28 19
14.2603581771255 84.4356492161751 1949.00000095367 23 26 19
19.541310146451 84.2619836330414 1945.00005245209 18 21 14
24.8386710882187 84.2181816697121 1944.00000572205 16 19 12
29.9598909914494 83.697721362114 1932.000041008 15 18 11
35.1066440343857 83.3937451243401 1924.99995231628 15 18 11
40.5295491218567 83.7394893169403 1932.99996852875 16 19 12
46.4699007570744 84.9515125155449 1960.99996566772 8 11 4
51.6644231975079 84.6905186772347 1955.00004291534 7 10 3
56.5927252173424 84.0828716754913 1940.99998474121 11 14 7
62.1139630675316 84.3848064541817 1947.99995422363 11 14 7
67.4654841423035 84.4267159700394 1949.00000095367 17 20 13
72.7101340889931 84.3385607004166 1947.00002670288 17 20 13
77.5428414344788 83.8171169161797 1934.99994277954 17 20 13
83.5082083940506 84.5084339380264 1950.99997520447 17 20 13
89.6971747279167 85.3295400738716 1970.00002861023 17 20 13
95.3137949109077 85.5441018939018 1975.00002384186 19 22 15
100.243493914604 85.1521864533424 1965.99996089935 20 23 16
105.553403496742 85.106648504734 1965.0000333786 19 22 15
110.349431633949 84.6712216734886 1955.00004291534 21 24 17
115.445502102375 84.4955593347549 1950.99997520447 27 30 23
121.385879814625 84.9260985851288 1960.99996566772 27 30 23
126.540169119835 84.7935229539871 1957.99994468689 28 31 24
132.149070501328 84.9639922380447 1962.00001239777 27 30 23
137.779295444489 85.1343348622322 1965.99996089935 18 21 14
143.940418958664 85.6076776981354 1976.99999809265 17 20 13
150.160953402519 86.0808715224266 1988.00003528595 18 21 14
155.501767992973 86.0343426465988 1986.99998855591 16 19 12
160.107672214508 85.5980440974236 1976.99999809265 19 22 15
165.076985955238 85.3781476616859 1972.00000286102 15 18 11
171.833574771881 86.067333817482 1988.00003528595 15 18 11
177.695915102959 86.2801522016525 1993.00003051758 16 19 12
183.401077985764 86.4062607288361 1996.00005149841 18 21 14
188.648819923401 86.3158255815506 1993.99995803833 16 19 12
194.37164068222 86.441732943058 1996.99997901917 15 18 11
201.71095430851 87.2600525617599 2016.00003242493 13 16 7
208.9474350214 87.9916399717331 2032.99999237061 13 16 7
214.271202683449 87.9007577896118 2030.99989891052 14 17 8
217.202410101891 86.8576765060425 2006.99996948242 15 18 9
220.11311352253 85.8578905463219 1983.99996757507 15 18 9
229.263082146645 87.2813910245895 2016.99995994568 17 20 11
235.449433326721 87.5363498926163 2023.00000190735 15 18 9
239.285424351692 86.9258120656013 2009.0000629425 14 17 8
245.724603533745 87.2671082615852 2016.99995994568 16 19 10
251.832783222198 87.4784886837006 2022.0000743866 17 20 11
256.05833530426 87.0408490300179 2012.00008392334 17 20 9
251.389622688293 83.6616009473801 1934.00001525879 13 14 0
247.755736112595 80.7584822177887 1866.99998378754 62 50 38
250.527799129486 80.0183042883873 1850.00002384186 112 88 76
254.449844360352 79.6673893928528 1842.00000762939 89 59 48
259.454429149628 79.6624273061752 1842.00000762939 96 60 46
264.027416706085 79.5276612043381 1838.99998664856 84 47 31
269.607275724411 79.6955451369286 1843.00005435944 74 43 23
274.76093173027 79.7336101531982 1843.99998188019 84 57 38
280.070871114731 79.8148512840271 1845.99995613098 91 66 44
285.081952810287 79.8095390200615 1845.99995613098 76 58 36
290.249288082123 79.8474028706551 1847.00000286102 79 61 41
295.421123504639 79.8851996660233 1848.00004959106 119 102 86
300.434917211533 79.8797011375427 1848.00004959106 102 89 73
305.117189884186 79.7877013683319 1845.99995613098 94 84 72
-83.6853981018066 81.2142118811607 2000.99992752075 23 26 19
-78.5372778773308 81.5405771136284 2009.0000629425 31 34 27
-72.90880382061 81.379771232605 2005.00011444092 25 28 21
-65.6537860631943 79.2299807071686 1952.00002193451 25 28 21
-60.3875741362572 79.3124437332153 1953.9999961853 24 27 20
-55.307425558567 79.678937792778 1963.00005912781 23 26 19
-50.2033531665802 80.085925757885 1973.00004959106 23 26 19
-44.3403124809265 79.2344883084297 1952.00002193451 23 26 17
-38.7116484344006 78.6264538764954 1937.00003623962 25 28 19
-33.4408134222031 78.6677822470665 1937.99996376038 25 28 19
-28.2805860042572 79.0337547659874 1947.00002670288 21 24 15
-23.0475012212992 79.3184340000153 1953.9999961853 19 22 13
-17.7489053457975 79.4812217354774 1957.99994468689 17 20 11
-12.3650515452027 79.2379751801491 1952.00002193451 16 19 10
-7.05355359241366 79.441137611866 1957.00001716614 16 19 10
-1.71385030262172 79.6035975217819 1960.99996566772 18 21 12
3.6532711237669 79.8877328634262 1968.00005435944 20 23 14
9.01732128113508 79.8064097762108 1965.99996089935 23 26 17
14.355780556798 79.6438083052635 1962.00001239777 23 26 19
19.6723360568285 79.4810801744461 1957.99994468689 26 29 22
25.0819679349661 79.6835869550705 1963.00005912781 25 28 21
30.239662155509 79.1553184390068 1950.00004768372 21 24 17
35.5633310973644 79.1546404361725 1950.00004768372 21 24 17
40.5723415315151 78.5449743270874 1934.99994277954 24 27 20
46.3287048041821 79.3559178709984 1955.00004291534 11 14 7
52.0883537828922 80.0043642520905 1970.99995613098 9 12 5
57.3228448629379 79.8002853989601 1965.99996089935 9 12 5
62.8486722707748 80.0020024180412 1970.99995613098 8 11 4
67.9515302181244 79.6759724617004 1963.00005912781 9 12 5
72.7863535284996 79.1062861680985 1949.00000095367 16 19 12
77.5444731116295 78.5365253686905 1934.99994277954 20 23 16
83.3387523889542 79.0219232439995 1947.00002670288 19 22 15
89.1981944441795 79.5072093605995 1958.99999141693 16 19 12
94.4953486323357 79.4647559523582 1957.99994468689 17 20 13
100.194595754147 79.7468796372414 1965.0000333786 20 23 16
105.663046240807 79.8259600996971 1967.00000762939 20 23 16
110.408172011375 79.3773829936981 1955.9999704361 22 25 18
115.033686161041 78.8881406188011 1944.00000572205 30 33 26
120.397977530956 78.9263471961021 1945.00005245209 29 32 25
126.155033707619 79.2079269886017 1952.00002193451 27 30 23
131.815046072006 79.4082283973694 1957.00001716614 32 35 28
137.291565537453 79.4866979122162 1958.99999141693 21 24 17
142.632827162743 79.4839039444923 1958.99999141693 12 15 8
149.93742108345 80.535888671875 1985.00001430511 16 19 12
155.896261334419 80.8168649673462 1991.99998378754 17 20 13
160.272896289825 80.286331474781 1978.99997234344 17 20 13
165.080338716507 79.9991488456726 1972.00000286102 17 20 13
170.799806714058 80.1581144332886 1975.99995136261 17 20 13
177.164539694786 80.6009247899055 1986.99998855591 17 20 13
182.302132248878 80.4757252335548 1983.99996757507 15 18 11
189.693331718445 81.3238918781281 2005.00011444092 12 15 8
196.322217583656 81.806868314743 2016.99995994568 10 13 6
200.71442425251 81.3568979501724 2006.00004196167 11 14 5
206.587642431259 81.5151929855347 2009.99999046326 13 16 7
211.532399058342 81.3084095716476 2005.00011444092 15 18 9
216.557338833809 81.1421051621437 2000.99992752075 15 18 9
222.336381673813 81.2595784664154 2003.99994850159 15 18 9
228.585556149483 81.539124250412 2010.99991798401 18 21 12
234.639272093773 81.7374885082245 2016.00003242493 17 20 11
240.719348192215 81.9357335567474 2020.99990844727 16 19 10
244.023755192757 81.2014639377594 2003.00002098083 18 21 12
249.471202492714 81.1968594789505 2003.00002098083 20 23 14
253.517836332321 80.7462781667709 1991.99998378754 19 21 10
247.884750366211 77.296257019043 1906.99994564056 21 18 3
247.362285852432 75.5488350987434 1863.9999628067 74 60 47
251.209616661072 75.1795098185539 1855.00001907349 68 44 32
255.697876214981 75.0127881765366 1850.99995136261 62 34 22
260.867834091187 75.048640370369 1851.99999809265 73 40 25
265.180915594101 74.841283261776 1847.00000286102 68 35 20
270.343691110611 74.8770087957382 1848.00004959106 72 40 25
275.361984968185 74.8721361160278 1848.00004959106 94 68 51
281.441479921341 75.150802731514 1855.00001907349 85 63 42
286.477029323578 75.1458033919334 1855.00001907349 59 42 22
291.040241718292 75.0192180275917 1851.99999809265 70 54 38
295.426428318024 74.8520940542221 1848.00004959106 61 47 34
299.952507019043 74.7254192829132 1845.00002861023 81 71 59
-83.268828690052 75.3746926784515 1991.00005626678 23 26 19
-78.4606263041496 75.9819522500038 2006.99996948242 27 30 23
-73.128417134285 76.1348232626915 2010.99991798401 25 28 21
-66.327765583992 74.6596306562424 1972.00000286102 24 27 20
-60.1106248795986 73.6386179924011 1945.00005245209 24 27 20
-54.9704134464264 73.8668814301491 1950.99997520447 23 26 19
-49.4918711483479 73.6407190561295 1945.00005245209 23 26 19
-43.8187271356583 73.0358213186264 1929.00002002716 21 24 15
-38.8123504817486 73.5288262367249 1942.00003147125 25 28 19
-33.5277579724789 73.5673755407333 1942.999958992 26 29 20
-28.2811429351568 73.7194195389748 1947.00002670288 24 27 18
-23.0597537010908 74.0228146314621 1955.00004291534 21 24 15
-17.7673902362585 74.2125362157822 1960.00003814697 20 23 14
-12.3969707638025 74.0992352366447 1957.00001716614 17 20 11
-7.06811156123877 74.2508694529533 1960.99996566772 15 18 9
-1.72000238671899 74.5159983634949 1968.00005435944 14 17 8
3.64777492359281 74.402391910553 1965.0000333786 14 17 8
8.98539368063211 74.175089597702 1958.99999141693 16 19 10
14.3267977982759 74.13699477911 1957.99994468689 21 24 17
19.6224898099899 73.9473551511765 1952.99994945526 25 28 21
24.9674692749977 73.984794318676 1953.9999961853 27 30 23
30.3333066403866 74.0599855780602 1955.9999704361 27 30 23
35.6369912624359 73.9836320281029 1953.9999961853 25 28 21
40.8876687288284 73.8314464688301 1950.00004768372 24 27 20
46.448115259409 74.2092356085777 1960.00003814697 12 15 8
51.9572421908379 74.4354501366615 1965.99996089935 10 13 6
57.7030293643475 74.9265924096107 1978.99997234344 10 13 6
63.4876638650894 75.3797739744186 1991.00005626678 7 10 3
68.2298019528389 74.6213048696518 1970.99995613098 8 11 4
73.0492100119591 74.0520730614662 1955.9999704361 14 17 10
78.1872123479843 73.8613456487656 1950.99997520447 17 20 13
83.5544094443321 73.8976672291756 1952.00002193451 19 22 15
89.017815887928 74.0096047520638 1955.00004291534 16 19 12
94.4489389657974 74.0835666656494 1957.00001716614 17 20 13
99.9416038393974 74.1952955722809 1960.00003814697 20 23 16
105.342797935009 74.2312148213387 1960.99996566772 19 22 15
110.128097236156 73.850654065609 1950.99997520447 21 24 17
114.621706306934 73.3186155557632 1937.00003623962 31 34 27
119.162261486053 72.8621855378151 1924.99995231628 30 33 26
124.735616147518 73.0491578578949 1929.99994754791 26 29 22
130.739867687225 73.46311211586 1940.99998474121 31 34 27
136.52329146862 73.725551366806 1947.99995422363 21 24 17
142.417132854462 74.0257203578949 1955.9999704361 11 14 7
148.958325386047 74.6285244822502 1972.00000286102 14 17 10
155.507922172546 75.1933678984642 1986.99998855591 16 19 12
160.761907696724 75.1147717237473 1985.00001430511 15 18 11
166.255459189415 75.1495882868767 1985.99994182587 17 20 13
172.272503376007 75.411356985569 1993.00003051758 18 21 14
176.989540457726 75.1054584980011 1985.00001430511 17 20 13
182.397454977036 75.102187693119 1985.00001430511 13 16 9
190.92683494091 76.3473138213158 2017.99988746643 11 14 7
197.396591305733 76.7221301794052 2028.00011634827 10 13 6
202.219024300575 76.4536932110786 2020.99990844727 12 15 6
205.152556300163 75.5043178796768 1996.00005149841 15 18 9
209.848240017891 75.2358138561249 1988.9999628067 16 19 10
215.479090809822 75.307659804821 1991.00005626678 15 18 9
223.782777786255 76.2871578335762 2016.99995994568 15 18 9
229.044437408447 76.2075036764145 2015.00010490417 20 23 14
235.109120607376 76.3924941420555 2019.99998092651 19 22 13
239.889949560165 76.1614292860031 2013.99993896484 18 21 12
243.784487247467 75.6656005978584 2000.99992752075 19 22 13
248.728364706039 75.510062277317 1996.99997901917 21 24 15
251.48606300354 74.7117027640343 1975.99995136261 22 24 13
245.809346437454 71.4936852455139 1891.00003242493 37 27 17
247.499391436577 70.5064907670021 1865.00000953674 90 78 66
251.620352268219 70.2375993132591 1858.00004005432 57 39 27
256.531208753586 70.1954662799835 1856.99999332428 57 37 26
261.858403682709 70.2666863799095 1858.99996757507 72 50 37
266.477674245834 70.1488479971886 1855.99994659424 69 50 36
271.226137876511 70.0687617063522 1853.99997234344 69 50 36
276.409804821014 70.1019912958145 1855.00001907349 63 47 34
282.3566198349 70.3241005539894 1860.99994182587 57 43 30
