ply
format ascii 1.0
comment KinectMotionCapture
element vertex 761
property float x
property float y
property float z
property uchar red
property uchar green
property uchar blue
end_header
41.5608427777827 623.362454723209 2129.54412788452 216 217 221
25.2451453048854 625.387222377225 2125.60851507439 212 213 217
10.314631295103 627.240621080159 2123.15687934218 207 208 212
-14.7660025243392 630.345541323771 2110.76106863212 203 204 208
-42.8422833608972 633.819594664457 2095.61710902845 197 195 200
-67.4070365883992 636.85986281519 2084.13582397529 182 180 183
-78.2462056564071 638.206272387495 2086.1981487551 205 205 207
-84.7316793382706 639.014847164578 2092.51881299517 210 210 212
390.28012237576 571.211508903683 2021.94172613015 223 231 216
386.264244189898 571.750497114897 2030.10095610722 185 192 184
384.190931251023 572.058211167064 2040.61643809249 184 189 185
384.723333824868 572.055692078322 2054.25823348969 195 196 198
383.351032818415 572.278494707414 2065.50705945217 194 195 199
379.407008366387 572.806124829536 2073.59661632996 192 191 196
374.170961122228 573.486657073682 2080.11241559565 192 190 195
368.28484302233 574.243909743974 2085.8454962677 188 186 189
363.709306593242 574.844741274166 2093.1344254203 186 184 187
357.82619672287 575.600435332797 2098.86474923809 183 181 184
349.964624484906 576.590985451684 2102.27393801565 182 180 183
343.41346576158 577.425207635966 2107.2387906376 183 181 184
333.542055353329 578.654084445059 2108.35782589524 181 181 183
322.316325266681 580.043847864109 2107.96344732394 172 172 174
307.723481412834 581.834186655959 2103.7685732028 140 140 142
297.094241397801 583.152379161842 2104.20969648206 165 165 167
289.121547768867 584.153753581078 2107.72763061667 159 159 161
281.80994579632 585.075766843868 2112.01806766773 124 125 127
278.539694345531 585.515668747391 2120.86843350521 145 146 148
273.930953629198 586.114389579061 2128.19030912422 152 153 155
268.651141446639 586.792465259604 2134.75026854172 158 158 160
259.971091231555 587.87536415965 2137.54165962265 163 163 165
252.64059318708 588.796824169139 2141.85060468107 166 166 168
245.98688094354 589.636944525891 2146.9167605593 171 171 173
239.328940764541 590.477021230732 2151.98678344968 174 174 176
231.289964603108 591.481326484339 2155.57010394285 176 176 178
223.929774667672 592.404098868672 2159.90867736149 186 186 188
215.869130842392 593.409956299062 2163.51328475412 195 195 197
207.796702940878 594.416591673585 2167.12947892885 187 187 189
199.71252044532 595.424119213195 2170.75721372762 183 183 185
188.823487597807 596.766158440752 2171.45279059493 208 208 210
174.405904058176 598.529255706184 2168.50481599438 198 199 203
154.324192595474 600.968768482735 2159.74548000976 202 203 207
133.460519905606 603.501628562402 2150.33193707487 211 212 216
116.045383625619 605.622115461918 2144.63977951276 212 213 217
102.108175859723 607.326746676922 2142.64067308407 213 214 218
90.257947208416 608.781557295178 2142.85681687162 214 215 219
75.5291891274665 610.579978075446 2140.21296023253 213 214 218
59.3258388493396 612.554388758888 2136.17288989347 214 215 219
42.352506260368 614.620623574797 2131.4672803291 215 216 220
23.1674476610424 616.950957170969 2124.6675100668 211 212 216
6.07177479424248 619.031140702143 2120.08132459281 206 207 211
-21.1853894058041 622.326834130415 2105.56757873719 202 203 207
-49.2788049258333 625.722483115329 2090.45256009905 193 191 196
-73.1356486410064 628.610997214519 2079.70731109358 183 181 184
-81.0806355605638 629.594991159529 2084.61754804241 204 204 206
-89.0333208782912 630.579378959595 2089.53503356082 207 207 209
-72.857621934955 628.674618663686 2117.68141539842 207 207 207
391.648442553017 562.845422050459 2024.65362442735 222 230 215
387.635853513256 563.391910473203 2032.80814186373 182 189 181
385.56585924835 563.715245674587 2043.31801955766 190 195 191
383.518650549412 564.03494179859 2053.8058087018 193 194 198
381.494277870344 564.351287328826 2064.27141655693 192 193 197
378.193503849583 564.813140517008 2073.14884736731 191 190 195
371.65015520239 565.646365079187 2078.10642975831 191 189 194
365.102432673392 566.4795513504 2083.068361138 186 184 187
359.861163076641 567.162275144559 2089.58902236687 183 181 184
354.62333212517 567.843975754577 2096.10642019632 184 182 185
347.411138631073 568.751923809634 2100.30022199032 182 180 183
338.867985031082 569.812388497329 2102.95865063355 183 181 184
327.656209669409 571.179327792602 2102.55412605157 181 181 183
315.0825288149 572.702789777982 2100.64470329398 168 168 170
303.136625287616 574.153933949031 2099.53948622929 146 146 148
293.162530963619 575.377960149597 2100.76086720904 160 160 162
283.835896419785 576.527233180814 2102.76760670136 145 145 147
277.854155790372 577.290879582988 2108.594696968 136 137 139
273.896834027934 577.820775730638 2116.69712335401 145 146 148
270.62773943373 578.270615463336 2125.54487160899 143 144 146
265.337569024668 578.95260462919 2132.11420064512 149 149 151
258.689684464658 579.790516093173 2137.17489602083 158 158 160
250.672263659647 580.785794287169 2140.7381459219 163 163 165
244.696885620537 581.545041485322 2146.55956824275 171 171 173
237.348112904682 582.462141830118 2150.88730467654 175 175 177
228.614443751222 583.538650201011 2153.73288467333 178 178 180
219.865059265071 584.616550051032 2156.59386456778 194 194 196
212.484731060125 585.535859401829 2160.95260957859 195 195 197
205.790994396363 586.375187558891 2166.05862738454 182 182 184
199.093295987372 587.214543406276 2171.16857516944 198 198 200
186.805448835792 588.699418961018 2170.39792769475 203 203 205
170.981551827137 590.593016918667 2165.99333657732 193 194 198
152.294354441089 592.817598923712 2158.71481280948 198 199 203
133.537224252972 595.05039434347 2151.50485725078 208 209 213
114.709848695218 597.291350720216 2144.36311235467 208 209 213
103.600508924242 598.639226732557 2145.27659457947 210 211 215
90.3341173744545 600.236335140054 2144.04415887341 212 213 217
79.1645572584083 601.59050556957 2145.01651047897 211 212 216
60.1156576792485 603.856780902811 2138.09133792212 213 214 218
44.5756337833374 605.716639161832 2134.82675263776 214 215 219
19.6545663391938 608.663279567989 2122.29588384906 210 211 215
3.26849375758842 610.621098249728 2118.43971174909 204 205 209
-25.439407137736 614.007073845566 2102.51940657733 200 201 205
-54.2677941089766 617.407413062148 2086.71662292321 188 186 191
-77.4125693205399 620.14916579673 2076.70321779266 185 183 186
-86.8248411843431 621.29808581142 2080.21162006108 199 197 200
-95.5227119211277 622.363741629599 2084.44050286317 205 203 206
395.122757524455 554.143690709925 2016.82137743795 165 174 157
389.177263257602 554.912025787925 2022.61178154651 211 217 205
386.44028660723 555.325889210133 2032.3536932598 191 196 190
383.721982823584 555.736821970435 2042.07715784895 204 209 205
381.66840843973 556.073478048624 2052.56876153849 192 191 196
380.285243023719 556.335036545157 2063.82264791999 191 190 195
376.330539549655 556.87993451084 2071.92025704478 189 188 194
369.129536426461 557.78322855638 2076.10363449562 189 187 192
363.880490075955 558.469999112894 2082.63142004623 186 181 185
357.979529322043 559.228415309646 2088.37906772443 183 178 182
352.078137613869 559.986355115592 2094.12721375693 184 182 185
344.198400278368 560.962860868721 2097.556516496 185 183 186
333.661641992246 562.233718443179 2097.91280013351 183 181 184
321.770807318202 563.654804530289 2096.75734145517 177 177 179
307.849274781252 565.301102326635 2093.33438162849 163 163 165
297.215870197193 566.582623551017 2093.78472254376 150 150 152
286.55503327649 567.867118268793 2094.2622025358 162 162 164
279.221575523426 568.781626224183 2098.57545198116 127 127 129
273.225782974547 569.547044094081 2104.4162341894 137 138 140
270.603976159916 569.936612741235 2114.04703346842 144 145 147
268.001528752369 570.323079132517 2123.65940492409 143 144 146
262.703106502614 571.008821140025 2130.23637349165 151 151 151
255.366207663175 571.920827495615 2134.55307188001 160 160 160
248.704078125072 572.757232511147 2139.62813538198 165 165 165
242.037867010598 573.59356238597 2144.70726305539 173 173 173
233.994405037053 574.582747439626 2148.29727278525 177 177 177
226.627571206954 575.496227792204 2152.64347920574 179 179 179
219.252963406098 576.409967513491 2156.99770480153 193 193 193
212.562638245598 577.246873694169 2162.10035505937 191 191 191
205.174191251913 578.161178689078 2166.46823963102 189 189 189
194.992594341262 579.386950793609 2167.89541570293 204 204 204
180.598111488952 581.083272611272 2164.9343711604 198 198 200
161.955882030732 583.254466875971 2157.61942210217 193 194 198
148.158265495348 584.884254705753 2155.4924234957 198 199 203
131.501691955049 586.833897536057 2150.48949975799 207 208 212
115.492693801095 588.711262351639 2146.27111606545 207 208 212
100.845059675523 590.436313593074 2143.55720828325 210 211 215
91.1201844209573 591.610152792054 2145.95543797755 213 214 218
79.2404641221669 593.024972362746 2146.20711590838 210 211 215
64.4742868156722 594.763080853263 2143.60899340151 213 214 218
46.0827710105947 596.907487230943 2137.46595053521 214 215 219
21.1657483850729 599.783739664064 2124.9414684935 209 210 214
2.62460530293085 601.945711623316 2118.94441153994 203 204 208
-26.0849852705123 605.248636246938 2103.03805914096 199 200 204
-55.6387588429943 608.647222184904 2086.53860707915 186 184 189
-79.5128122628239 611.409104885874 2075.82950147216 183 181 184
-88.9311328364659 612.548101041047 2079.34571478297 192 190 193
-96.1767470342672 613.442685743322 2084.99125040322 202 200 203
-103.425763907909 614.336978743125 2090.64054588637 210 210 210
403.700625374009 544.877760196708 2015.34124129726 150 156 142
392.660031969982 546.186453714089 2014.77500135935 162 168 156
389.905582309888 546.616318592204 2024.53189902139 200 203 194
387.169868215237 547.043362841897 2034.27027103565 195 197 192
384.453183481219 547.467405412143 2043.99052810239 196 198 195
382.401004408613 547.819866141154 2054.47841030675 191 190 195
381.666735373523 548.031034431712 2066.5122899577 192 191 196
375.766824085774 548.790792547241 2072.25869716548 187 186 191
368.563386241229 549.688922465141 2076.44491774442 183 182 187
362.005213133374 550.517824159356 2081.41785996201 179 178 183
356.098034784166 551.276965213962 2087.17157467057 179 178 183
348.875681793434 552.175769590621 2091.37647858459 180 180 182
340.986065691437 553.145546889749 2094.81692338938 183 183 185
329.116857038669 554.539965329702 2093.64393121882 170 170 172
315.222721355628 556.151097126558 2090.19862558859 170 170 172
301.946723926385 557.696479392747 2087.5664644462 125 125 127
291.295717043383 558.961336604216 2088.03708548035 153 153 155
284.631026002794 559.799492827582 2093.11409592241 141 141 143
278.633167602383 560.565583912677 2098.95683005084 109 109 111
274.653707297399 561.114900184449 2107.078370051 147 147 149
270.010851694015 561.734537910853 2114.43136859126 153 153 155
265.375501515796 562.35252183324 2121.77715856488 157 157 159
259.390153531233 563.114735997402 2127.60804267267 157 157 159
254.085212623758 563.803363694219 2134.19105786009 169 169 171
248.10135873361 564.564151158684 2140.02066917563 174 174 176
242.801855386602 565.250855019249 2146.59856912729 179 179 181
234.073509230937 566.305699439464 2149.44206523102 183 183 185
227.39487189416 567.139585956852 2154.53389345403 186 186 188
217.950376606566 568.27088460911 2156.65998917058 191 191 193
210.563419685894 569.180120381952 2161.02680546452 183 183 185
203.168742444199 570.089844635408 2165.40155379614 202 202 204
190.892195406919 571.525589850568 2164.62694658363 208 208 210
174.391395756995 573.417029294327 2159.47793950514 191 191 193
157.131856135635 575.390940879281 2153.65293592835 197 198 202
145.426766269691 576.765419242024 2153.73682782877 202 203 207
129.466322205936 578.59968958884 2149.47659855057 206 207 211
112.039298711685 580.592769205908 2143.81507590865 205 206 210
99.5056245791504 582.057214340938 2143.29155786715 211 212 216
89.0668398013714 583.294933841969 2144.97269731506 213 214 218
77.8926389875623 584.611962294138 2145.95480892814 206 207 211
62.408821125747 586.395669355766 2142.64600317676 212 213 217
44.0112412490832 588.495152403412 2136.51528382975 214 215 219
19.8063301828326 591.224579075247 2124.72261242585 209 210 214
2.7003951451845 593.185242228567 2120.16394465687 203 204 208
-26.7306398268059 596.483145061441 2103.55749226933 198 199 203
-57.0095722108674 599.874510834339 2086.36229144676 185 183 188
-80.1620144465396 602.493631458831 2076.3746247568 181 179 182
-88.8551150391388 603.543236092004 2080.60114309334 185 183 186
-97.559815517315 604.593785393539 2084.83870282416 200 198 201
-109.932555708737 606.042406987834 2085.57462303023 208 208 208
409.72674949261 535.89150742457 2010.68537520025 119 128 107
391.071496025958 537.95305724826 2000.565408098 155 161 147
390.197473916362 538.206197759781 2012.73186114193 160 163 156
389.353962711479 538.454961167526 2024.86866334048 194 197 190
389.182848765673 538.633847400867 2037.76534009648 196 198 195
387.115116533288 539.004839093039 2048.26592795015 194 196 195
384.424466520902 539.438290908552 2057.95860362912 191 190 195
381.752845869147 539.868741044619 2067.63316436058 191 190 195
373.254536692724 540.894231835505 2070.25256879695 187 186 191
367.345968996897 541.654373602898 2076.00751524233 183 182 187
360.13003289036 542.548064305011 2080.20680289435 179 178 183
354.871919731764 543.240636414042 2086.7427344525 179 178 183
345.016339632854 544.404302979122 2087.85568802453 181 181 183
336.455226877092 545.435129568636 2090.53633087289 187 187 189
323.9110917018 546.874964091808 2088.60992892146 170 170 172
309.338224119978 548.523854001972 2084.41612414984 171 171 173
296.70963615696 549.973509577366 2082.57213351783 119 119 121
285.375851849434 551.290138766206 2082.29620143448 143 143 145
280.700358170356 551.920967299826 2089.67995606995 121 121 123
276.032153389966 552.550300301596 2097.05635591825 110 110 112
272.04439385561 553.108564645848 2105.18481465465 157 157 159
268.74280481311 553.595169549939 2114.05939650087 157 157 159
262.749506050278 554.358975724299 2119.89794055059 160 160 162
258.792088031391 554.911645973625 2127.99709651839 163 163 165
252.123524099549 555.744026702955 2133.07914425621 169 169 171
246.133399467663 556.505545725227 2138.91487438706 173 173 175
239.45858087888 557.337476608091 2144.00319957879 178 178 180
232.779523725351 558.169365179034 2149.09540213965 183 183 185
224.719614396601 559.143876536431 2152.70391310227 188 188 190
216.647886949721 560.119406004789 2156.32400915454 186 186 188
210.641398880274 560.880039457046 2162.17611930765 180 180 182
202.55208881855 561.856534110116 2165.81387034449 205 205 207
188.880834282045 563.41307430279 2163.57221837393 205 205 207
169.581241747936 565.555600537618 2155.49703053026 192 192 194
155.808778130397 567.123707328664 2153.35450897712 197 198 202
144.8017421012 568.404081195494 2154.17637886164 201 202 206
127.431117537132 570.347711213857 2148.46615987741 205 206 210
110.704283658555 572.224952433302 2143.54370662072 206 207 211
94.6267721369129 574.03495666809 2139.40297573754 211 212 216
85.5936882938355 575.110173654983 2142.54606981326 211 212 216
74.4096291210843 576.409797722862 2143.5408811249 205 206 210
60.3433685102344 578.010519631171 2141.68528382915 212 213 217
38.3613910409948 580.439315283601 2131.98036758895 211 212 216
14.8586454140034 583.028372355257 2120.92809140727 206 207 211
-2.26102688878482 584.950491600637 2116.38876171841 201 202 206
-30.983738022917 588.088483344604 2100.51981523774 196 197 201
-63.4445895623705 591.620057732637 2081.21950382393 167 165 168
-82.9873210226109 593.799351359241 2074.79723164144 161 159 162
-91.6887808061824 594.842062047592 2079.03273185822 185 185 187
-101.860248041518 596.038575992799 2081.87142051567 190 190 192
-117.170097033533 597.774460346086 2079.81350075598 199 199 201
-129.593265575396 599.207371856214 2080.60215684507 209 209 209
386.709669397143 530.113538240862 1996.13606515567 151 157 145
388.372821079568 530.140907257396 2011.48474900103 174 177 170
390.721783121398 530.09943376903 2027.57949723124 189 192 185
390.553936409597 530.301908427987 2040.46944321656 193 195 192
389.776738402765 530.562420373275 2052.53865900044 186 188 187
383.865456866445 531.324437452873 2058.29602315923 190 189 194
379.89624522488 531.89551852893 2066.40416925654 189 188 193
370.092806466167 533.038413400315 2067.46807791223 183 182 187
366.128451473321 533.607820779756 2075.5716486572 180 179 184
357.601615772097 534.624996089411 2078.2206093789 178 177 182
351.024758694819 535.450179405721 2083.21265462895 177 176 181
341.157116622445 536.599104216015 2084.33942690187 180 180 182
332.584195159464 537.62061514755 2087.03351066324 183 183 185
319.367003063651 539.100217966776 2084.35233928699 168 168 170
302.791100213912 540.912348238578 2077.87238549741 146 146 148
290.142914005701 542.337466761654 2076.05148277821 120 120 122
280.123537747042 543.503030348464 2077.32680797924 132 132 134
276.7697988588 544.008710960451 2086.25035601189 102 102 104
273.431297126131 544.511880998606 2095.15914438553 131 131 133
270.108064436899 545.012536442956 2104.05314202919 155 155 157
265.450608776405 545.644570158483 2111.4188065202 149 149 151
260.800531825042 546.275155988953 2118.77701999875 157 157 159
255.479496096434 546.971578600797 2125.37520333845 164 164 166
250.842546457299 547.599330148446 2132.72080010767 172 172 174
243.483041334817 548.497367231756 2137.06234936361 178 178 180
239.538104018468 549.054655816998 2145.14842922126 178 178 180
232.858646464751 549.883882298728 2150.24142284105 184 184 186
224.798385740016 550.850359225945 2153.85147023035 193 193 195
215.345649808415 551.955675981881 2155.98992698314 176 176 178
208.642566421239 552.786098772614 2161.10654243286 186 186 188
199.852502905959 553.824677403363 2164.01339102163 207 207 209
184.780968072697 555.49214665538 2160.31202418374 201 201 203
168.262504474181 557.305143565902 2155.19215143947 192 192 194
155.186035029406 558.77399342028 2153.7900768337 197 198 202
143.474604705357 560.106341792835 2153.8864916969 201 202 206
128.212065280981 561.795354548961 2150.37161112105 205 206 210
111.487099009874 563.631966680671 2145.45330826395 207 208 212
97.5351424804263 565.190694370419 2143.49007421081 210 211 215
84.2503663181047 566.682738217424 2142.29142319293 208 209 213
70.9267207851503 568.179033509114 2141.13074167301 205 206 210
56.1368365171182 569.823349756657 2138.57036082394 211 212 216
29.8490534814682 572.627439666114 2124.5835732451 210 211 215
7.75839303893866 575.010129106268 2114.99373312404 205 206 210
-10.1004007362548 576.967064110321 2109.76630691185 200 201 205
-37.4013020352484 579.878664258312 2095.35276146113 195 196 200
-64.8149470504635 582.803769917239 2081.04917607865 171 169 172
-85.8123840772849 585.081865811102 2073.22302646088 150 148 151
-95.2493483187937 586.191192224066 2076.76213838443 176 176 178
-109.077616467391 587.744970456628 2076.09405862797 186 186 188
-121.48207624442 589.15472047184 2076.86722205386 192 192 194
-130.251179084469 590.195874972937 2081.17012282947 211 211 211
385.182888909694 521.7537112396 1981.88383419095 119 128 109
387.435114814652 521.760403862514 1998.06752390488 144 150 138
388.461620373105 521.879384182594 2012.61761949234 187 190 183
393.368734286641 521.633507929256 2031.87027084977 192 195 188
393.849692525361 521.799107769757 2045.53830332792 189 191 188
392.438059718937 522.14014791286 2056.80871089627 185 187 186
383.306414015286 523.203747798293 2058.63448604136 188 187 192
376.744816429172 524.026299787361 2063.61176730013 186 185 190
368.87980848802 524.970992502439 2067.031145486 181 180 185
364.259577099822 525.610199279007 2074.35844770707 179 178 183
356.379962503034 526.555789893895 2077.79219780872 176 175 180
347.832939960461 527.564070123321 2080.46251905126 176 175 180
338.612693097235 528.636009089062 2082.37504394515 175 175 177
328.053982936277 529.834520799118 2082.76348096405 178 178 180
314.162129405501 531.348819887561 2079.33055879689 174 174 176
297.570708159938 533.119800287576 2072.87209693684 129 129 131
284.906813487635 534.519950358447 2071.07048328103 127 127 129
277.539330444867 535.418180659712 2075.41958833023 111 111 113
273.508397473996 535.99904763014 2083.58757826904 102 102 104
270.159636133068 536.514243381354 2092.50477719021 140 140 142
266.153362713995 537.090881215751 2100.648904894 150 150 152
263.508088737694 537.536997896872 2110.29498747874 152 152 154
261.558658348951 537.91542494715 2120.67700091017 161 161 163
256.23896192589 538.614286384523 2127.27315600032 164 164 166
249.561806463672 539.442266111908 2132.36438572097 171 171 173
241.515365630614 540.400691157757 2135.96189981808 173 173 175
236.879468336524 541.03237888962 2143.30586982681 178 178 180
228.81901824202 541.991390648942 2146.91720861164 188 188 190
222.123578027902 542.819316706777 2152.02660329355 198 198 200
214.043344310947 543.779643129529 2155.65739320126 179 179 181
206.643713568443 544.674306142626 2160.03928647715 197 197 199
195.070544967546 545.97011852831 2160.00380540828 200 200 202
180.681569032167 547.537181031954 2157.05673472798 195 195 197
165.547531061595 549.176912626368 2153.42153404308 190 190 192
153.863149377071 550.484799217073 2153.49470464806 197 198 202
140.041630316889 551.999413773724 2151.40880200352 200 201 205
126.177089820207 553.518757278021 2149.36458350301 204 205 209
110.858126381186 555.179311937457 2145.91027674405 206 207 211
96.9040446067031 556.708705197217 2143.95348870659 207 208 212
84.3268905507486 558.105392384972 2143.48316146682 203 204 208
70.2913135780197 559.643808026111 2141.6063037039 211 212 216
52.6442999856966 561.533061438661 2136.1785799491 212 213 217
25.6313743039596 564.332523773499 2121.49564437319 210 211 215
5.68195079300926 566.448455849713 2114.07001674282 207 208 212
-12.182764207461 568.363149043793 2108.85471371593 201 202 206
-39.4892945083858 571.197560997137 2094.4581663288 196 197 201
-67.6319716338414 574.115816844184 2079.46262369035 143 141 144
-90.0880800092665 576.48255463546 2070.23769857371 141 139 142
-100.991889349229 577.724600620212 2072.3796369918 167 167 169
-113.377289182165 579.111118792964 2073.1376451096 172 172 174
-122.137375924805 580.143883506065 2077.43283277421 195 195 197
-129.442361056108 581.034146054667 2083.13830126351 210 210 210
385.906790180058 513.369943867196 1983.82101600225 115 123 108
390.067705969658 513.241565259228 2002.3803777092 200 203 196
393.014602271238 513.218397230779 2019.29557215912 195 197 192
396.655187464836 513.130687639684 2036.94870965915 193 195 190
395.220260402296 513.493888231334 2048.23897346356 186 188 187
391.237618766124 514.083527455979 2056.35771285779 190 191 193
382.101730194097 515.134171399033 2058.18927827454 185 184 189
374.240842556394 516.070619768124 2061.60578344891 182 181 186
367.017317595148 516.949804295507 2065.81508879412 175 174 179
361.739491364439 517.653706874477 2072.36892108578 175 174 179
355.811776691242 518.415495827858 2078.14263730937 173 173 175
345.951941935562 519.53141632905 2079.26653482387 172 172 174
336.068291252299 520.649867455721 2080.41370788118 173 173 175
322.206012744156 522.128536007508 2076.9566834571 170 170 172
306.974143162146 523.732453228835 2072.00667719757 165 165 167
293.013690531773 525.222554687427 2068.64545134951 118 118 120
281.665932984783 526.476741411 2068.39228602661 120 120 122
275.62232813961 527.249543063562 2074.27945523201 106 106 108
270.916214893171 527.900153263322 2081.6906918289 134 134 136
268.230108898107 528.365923800517 2091.37441638053 149 149 151
265.562984019138 528.828724816075 2101.0393934553 149 149 151
262.240358971833 529.350060684426 2109.9297311439 153 153 155
259.609828961769 529.806996952024 2119.55957362206 158 158 160
252.247933205135 530.695618594295 2123.90455056913 167 167 169
246.919762335261 531.397612279269 2130.50865796541 167 167 169
239.547824366996 532.286366456267 2134.8639252305 165 165 167
235.590208106838 532.861351913465 2142.95997987684 183 183 185
224.779839090145 534.065099179982 2143.59788188873 193 193 195
219.448962809557 534.765134140731 2150.20496529642 196 196 198
212.050857727054 535.654900351934 2154.58572947257 187 187 189
206.029447213496 536.417297077726 2160.45239722222 205 205 207
191.677430173602 537.948034065522 2157.47399470773 197 197 199
177.278420122931 539.484059649833 2154.54113745338 193 193 195
164.228888851159 540.896382606815 2153.12066749435 191 191 193
151.840361615422 542.248179546845 2152.46966579269 197 198 202
135.204830846511 543.994085903163 2147.47595843381 200 201 205
122.734466325057 545.354961388042 2146.90488056168 203 204 208
108.111326119483 546.916293698336 2144.19084754135 204 205 209
97.6886266180341 548.088194162359 2145.86540425501 205 206 210
86.5328655681923 549.328348354704 2146.84090473391 203 204 208
71.0793900209095 550.969017924055 2143.52277165255 212 213 217
51.2933228294936 553.014586651017 2135.94532845432 210 211 215
22.1297812515822 555.936925404165 2119.12875937914 208 209 213
7.91130136842488 557.46690951003 2117.43477308731 205 206 210
-10.6673099812271 559.405172743871 2111.50764888719 200 201 205
-41.577081296531 562.498564251678 2093.56601159739 194 195 199
-71.8957004000029 565.540176706047 2076.46191366161 170 168 171
-94.3634344114463 567.849293329334 2067.25704935686 164 162 165
-103.097242623994 568.872022769949 2071.5276252615 155 155 157
-114.030132022237 570.10097457348 2073.7007137636 171 171 173
-122.792547747041 571.126013131387 2077.99935606428 194 194 196
-132.299619123094 572.220780076413 2081.60989944981 210 210 210
397.786297712332 504.311536555585 2013.03981953005 201 204 197
398.204937350691 504.539597779184 2026.76050353445 196 198 193
398.661848351421 504.762185632358 2040.44399247201 189 191 190
394.024012234843 505.416702844144 2047.78651357297 186 188 187
390.037066904778 506.014904378189 2055.90826109327 192 193 195
381.542655273162 506.99721039125 2058.53017790133 184 183 188
374.326959713752 507.87034961696 2062.73226418574 181 180 185
366.453609214698 508.799641741431 2066.1622028555 174 173 178
359.870834622922 509.618258919985 2071.16109475722 174 173 178
353.283664352255 510.43689952427 2076.16434817074 172 172 174
344.071019351653 511.481180313952 2078.07307432702 171 171 173
332.209891323263 512.754152681224 2076.9103454955 180 180 182
315.039993056953 514.486579179497 2069.61477095864 164 164 166
299.786856863809 516.055365339386 2064.69141295587 149 149 151
288.456987417068 517.286173105902 2064.42427772662 117 117 119
280.420384790281 518.232212781323 2068.01385289181 111 111 113
273.705442715481 519.06343596005 2073.14178805466 115 115 117
268.993031520188 519.72008834189 2080.55838557599 145 145 147
266.300532003627 520.20005080767 2090.24636142814 143 143 145
263.627035400246 520.676982035117 2099.91557728029 148 148 150
260.972855148289 521.150875403369 2109.56639854619 153 153 155
257.661118071239 521.680922339394 2118.44463682738 161 161 163
251.650294374556 522.446053277729 2124.30038759595 161 161 163
246.319734255132 523.151001762764 2130.90643083419 163 163 165
238.945486666025 524.034563003305 2135.26475910066 167 167 169
232.247486695549 524.858520072679 2140.37694443125 204 204 206
222.113493119923 525.984294711034 2141.7716292696 191 191 193
215.397779787311 526.809292416719 2146.90158826704 163 163 165
210.058517290049 527.512389533432 2153.51654672655 201 201 203
204.030834957738 528.275635890459 2159.38931690981 206 206 208
192.449588669373 529.529347346931 2159.36841744495 198 198 200
177.35630610068 531.094534766594 2155.70376363998 189 189 191
162.910348021039 532.603574290754 2152.82151500032 199 199 201
150.517884937857 533.9316181813 2152.17827018569 196 197 201
133.176292435839 535.700106899535 2146.46510774235 201 202 206
119.29193589528 537.162802798067 2144.44893935774 202 203 207
103.24724864675 538.818816185676 2140.29871110808 200 201 205
92.8106200708965 539.976256203569 2141.98923684615 204 205 209
83.7703014952531 541.009338000127 2145.145742681 205 206 210
70.4441002187219 542.425286129279 2143.99947432776 213 214 218
51.3697121742451 544.35629362457 2137.1491646338 210 211 215
24.3533718617979 547.000213881824 2122.4926088878 207 208 212
10.1403778879927 548.499976057491 2120.79730395298 205 206 210
-9.87119395038327 550.520901284491 2113.44743250128 199 200 204
-44.3860899804593 553.846692038986 2091.96616656704 193 194 198
-76.8824481321309 556.995671222647 2072.75766114816 149 147 150
-98.6382796661616 559.182047723943 2064.28125525563 138 136 139
-106.656908865469 560.13282196246 2069.269192093 177 177 179
-116.141437383038 561.215357940663 2072.85949566036 183 183 185
-122.716451114647 562.035102726096 2079.26742357112 193 193 195
-132.223882618721 563.119300682215 2082.87988666104 215 215 215
-145.421780122966 564.537324489372 2083.02315114066 214 214 214
404.467160609779 495.238480910361 2009.16352689129 100 108 95
400.417985989544 495.854434198063 2017.34444531521 197 199 194
400.843758410164 496.108309099518 2031.05423111106 191 193 190
397.469904466279 496.667061818179 2039.98990965713 190 192 191
392.186216344322 497.379251391473 2046.54833807931 181 182 184
384.975406216125 498.247280062229 2050.74666623808 191 192 196
377.110635475143 499.168296375038 2054.1693082426 184 183 188
370.528391310925 499.984913751407 2059.16763114981 178 177 182
361.993769950866 500.960554043175 2061.83046200332 175 174 179
355.397022434437 501.778102227231 2066.8433872227 174 173 178
350.102306777772 502.488733555171 2073.41299645784 168 168 170
340.879876147554 503.52073107978 2075.33359319219 168 168 170
327.69433991481 504.878582427994 2072.63898189021 172 172 174
306.556366836494 506.8921160943 2060.74042303562 148 148 150
290.616921238668 508.480863545696 2055.07872082933 149 149 151
282.574552599961 509.420023139921 2058.67503860259 116 116 118
278.509801134473 510.030333157857 2066.87225913692 99 99 101
273.789355943657 510.693908273046 2074.29547351561 163 163 165
269.076492369705 511.355924878788 2081.71172742569 163 163 165
265.712547524333 511.904995855945 2090.63899704762 158 158 160
261.691184557938 512.507536279923 2098.79428050355 153 153 155
257.006557900321 513.1642241089 2106.18328232916 163 163 165
253.682615516698 513.706601013 2115.07181829631 169 169 171
248.338224725181 514.416418421816 2121.69087597159 167 167 169
244.358612808933 515.011454647119 2129.80580913481 162 162 164
236.295563439647 515.947560368695 2133.4231145403 194 194 196
230.273919877024 516.712227289431 2139.28967817729 190 190 192
221.506634678704 517.707232823213 2142.18068548729 172 172 174
216.165125818347 518.41391538397 2148.7973446915 169 169 171
210.827526155658 519.119502402071 2155.41062176735 203 203 205
203.416869256815 519.999352048001 2159.80531574669 203 203 205
192.527570317246 521.173127789914 2160.52602611703 189 189 191
175.345830342658 522.880009472099 2154.66323324392 190 190 192
159.497876105091 524.475958179482 2150.32652373963 196 196 198
146.39533789753 525.840476307297 2148.9657559843 197 198 202
131.849825104631 527.328689929135 2146.18544470586 200 201 205
116.553694802036 528.882063292786 2142.72396781162 202 203 207
102.61870790638 530.320995843819 2140.76192617245 200 201 205
95.7189518694443 531.16052663921 2146.07249431162 204 205 209
85.9762162805273 532.242680076541 2148.50201069749 208 209 213
71.944008224619 533.691981897157 2146.63497853413 206 207 211
49.3051840561338 535.87968464017 2136.20104488526 204 205 209
22.2832418534842 538.446354316087 2121.56146950123 206 207 211
4.47657650734845 540.225354293618 2116.3085777076 204 205 209
-18.428696063598 542.444760089004 2106.13454556391 202 203 207
-49.3592045452567 545.35796248404 2088.24013245903 195 196 200
-82.5923182246053 548.474129799517 2068.35083859047 145 143 146
-101.46239455495 550.355658197482 2062.72186665078 145 143 146
-110.216437415689 551.364840047388 2067.01453818819 170 170 172
-116.794152672547 552.185691997748 2073.42498511497 170 170 172
-121.178011013177 552.815827293733 2081.93615332614 196 196 198
-132.148055554095 554.016040806664 2084.15004709898 211 211 211
-149.021663196995 555.72908287567 2080.81452024042 215 215 215
406.721092678792 486.505912159084 1999.71387728497 124 132 119
409.626220919292 486.601524649376 2016.6529923282 106 114 103
405.592195010976 487.223499508399 2024.81797787163 199 201 198
403.482246489958 487.697229735888 2035.34530241333 190 192 191
397.557257607856 488.461652985727 2041.1159225382 189 190 192
389.065501525899 489.422867197638 2043.7383197052 182 183 185
381.201014184453 490.33609338275 2047.16183166726 184 185 189
373.324317829268 491.250416441839 2050.59730524294 182 181 186
368.672430523407 491.915655253014 2057.95253257686 177 176 181
360.781010590413 492.83089095181 2061.40249199521 172 171 176
352.877382182187 493.747164487869 2064.86442121805 171 171 173
345.614765915316 494.613746907493 2069.11406955165 165 165 167
335.068055784987 495.736019281955 2069.50219634525 165 165 167
320.550763413894 497.168976501532 2065.28511932519 173 173 175
296.096296442613 499.380809659606 2049.56569492423 148 148 150
281.447664953484 500.829557667159 2045.47670571837 133 133 135
275.366658193569 501.607958957763 2051.40018795395 113 113 115
274.604555522362 501.967640464727 2063.4397566285 134 134 136
271.872749285514 502.480450422082 2073.16190979004 175 175 177
267.822192218539 503.095765463501 2081.34395749454 178 178 180
264.454012659072 503.65603061334 2090.27411559832 184 184 186
259.082779189884 504.373713599001 2096.91866592051 180 180 182
255.739128767063 504.929779091621 2105.82474909452 169 169 171
250.38111104661 505.644544638899 2112.45694502096 156 156 158
247.062221153827 506.196368265575 2121.33906756854 168 168 170
243.078226901038 506.79985877678 2129.45710291696 210 210 212
235.69335058151 507.673922711512 2133.82705152552 204 204 206
227.616137126198 508.603145623697 2137.45943935404 163 163 165
222.272401581017 509.313293210086 2144.07779755992 174 174 176
216.244148860596 510.077672912475 2149.95096663905 194 194 196
210.215750057889 510.841481342591 2155.82436521385 204 204 206
200.034209574386 511.939153004558 2157.27075628422 200 200 202
188.440670672904 513.151320965987 2157.26786583434 191 191 193
171.943428299043 514.760440967999 2152.15705301832 193 193 195
158.179621650295 516.150445031391 2150.03192063057 198 198 200
145.773112835828 517.431787234175 2149.4095259238 201 202 206
131.927406622898 518.830995631259 2147.36436061748 202 203 207
113.815666384122 520.578299134072 2141.00218810948 199 200 204
100.578507747581 521.931070487496 2139.7768365983 199 200 204
93.6724969429257 522.768854136203 2145.0938740418 208 209 213
83.9236080773853 523.838279430559 2147.5313819363 212 213 217
70.5970151504318 525.200556332547 2146.39343508166 205 206 210
46.5272567907107 527.443729905931 2134.53842303784 203 204 208
20.9288287042364 529.815990113426 2121.34782936301 206 207 211
0.965791682552286 531.729370374049 2113.96565721992 202 203 207
-21.2297037149933 533.828852673234 2104.5214398087 200 201 205
-55.053471539241 536.889236082223 2083.81000975679 194 195 199
-84.6846587342216 539.609460963246 2067.48802987646 180 178 181
-102.835375405625 541.386133236556 2062.5771301685 160 158 161
-110.139263828286 542.267602148025 2068.28247146364 166 166 168
-114.529788327838 542.907482112062 2076.79881901149 172 172 174
-116.714804504432 543.363137368346 2087.40335831774 197 197 199
-128.40652596242 544.60681774064 2088.91055423702 221 221 221
-147.47570851762 546.464384578284 2083.48283923009 219 219 219
407.738966836738 477.826773078322 1988.64993593924 136 144 133
408.705782358687 478.101820749843 2003.23623792894 118 123 116
408.447312777651 478.462109973144 2016.19284883938 199 204 197
405.044642579338 479.04663823289 2025.15333273836 184 186 185
401.019286632747 479.674891208787 2033.30878097871 186 188 187
395.72572615919 480.393897902968 2039.87600522447 182 183 185
387.869387621553 481.298371885612 2043.29271887559 188 189 193
380.644350990346 482.157048924918 2047.5065563292 183 184 188
371.4744990382 483.157575749264 2049.37925517273 177 176 181
364.87427576937 483.970903569846 2054.3962556335 173 172 177
356.970887974272 484.879421856527 2057.85909214642 167 166 171
349.055323053301 485.789032997213 2061.333859202 167 167 169
339.821053316947 486.795823188781 2063.26960013458 164 164 166
327.291130370266 488.046374650919 2061.3570611838 162 162 164
311.436345466829 489.544310641397 2055.62471155073 171 171 173
290.25021551295 491.440051227027 2043.79138295135 146 146 148
276.905938309089 492.757736709517 2041.26034027771 138 138 140
272.799762533994 493.389780191298 2049.49548356738 120 120 122
270.699565059475 493.871155952824 2060.01199516918 152 152 154
269.289134644898 494.299200440868 2071.26834954046 176 176 178
265.230466417031 494.923515261076 2079.45745942625 174 174 176
262.524675769599 495.445222602683 2089.15246369342 172 172 174
256.474542130448 496.216783404537 2095.04629948494 155 155 157
253.122593472357 496.784597863571 2103.95888643713 149 149 151
246.403116893262 497.605175573674 2109.09323566738 175 175 177
243.072044298753 498.169178896658 2117.98565566407 198 198 200
239.756298670261 498.730719292601 2126.86321977648 205 205 207
234.408622127789 499.445167193627 2133.4848558663 183 183 185
227.011670266859 500.314725584014 2137.86779942546 168 168 170
221.665550248263 501.027886337183 2144.48808010395 187 187 189
215.634941021613 501.792504145798 2150.36355403661 202 202 204
207.533513090308 502.714990852239 2154.02098280601 202 202 204
196.651631205722 503.85053377377 2154.73997872527 196 196 198
184.354069233446 505.09565792661 2154.01441336365 190 190 192
171.325332350628 506.398183578327 2152.58952226275 193 193 195
157.559599962375 507.758815022978 2150.47098126501 198 198 200
147.2506804746 508.854159596451 2152.04386767031 203 204 208
130.601280512659 510.440357738018 2147.08753742952 202 203 207
110.373875093963 512.305908728617 2138.55737115626 198 199 203
99.2442324021123 513.4687644097 2139.51836040578 199 200 204
93.74950553305 514.194277746466 2146.28472201913 210 211 215
86.8390935937926 515.029327011748 2151.60619615304 214 215 219
70.6735305689516 516.585766406441 2147.59071632879 203 204 208
43.7493910653948 518.98472364034 2132.87880924446 203 204 208
16.7123792171378 521.397320538492 2118.27697013055 205 206 210
-3.97995266197348 523.317224103387 2110.20078726061 201 202 206
-25.4694388931456 525.302787955307 2101.48957656691 199 200 204
-56.4187228989135 528.035494972572 2083.64048497303 193 194 198
-86.7769734213226 530.727111261603 2066.6274709025 202 200 203
-102.757700767002 532.289834641777 2063.84442706389 210 208 211
-111.516391501289 533.283621878018 2068.14398932561 216 216 218
-115.182189459584 533.874520241203 2077.3648214815 223 223 225
-118.832079540114 534.462705537712 2086.57025786967 216 216 218
-128.330632620301 535.513751116739 2090.17914230228 213 213 213
-146.664888198625 537.267329825619 2085.45391266083 210 210 210
413.217262425417 469.542067012824 2009.94044030288 172 177 170
406.00071985379 470.396325055755 2014.1461583135 205 210 204
402.589977768214 470.992531224831 2023.11326956796 184 186 185
399.193975443347 471.586332046922 2032.06576168938 188 190 189
395.173441117518 472.221407253047 2040.21541366638 182 183 187
387.314882852396 473.117816978664 2043.63552343337 187 188 192
380.731035829402 473.927134341976 2048.63685478377 182 183 187
371.560979033846 474.914035706758 2050.51177087681 172 171 177
364.960410126795 475.724517628032 2055.52953518412 170 169 175
356.407528900706 476.669732167354 2058.21499526746 163 162 167
347.838381262112 477.616509149319 2060.91603936854 164 164 166
335.987465670674 478.791839014175 2059.75760095537 166 166 168
319.514964803307 480.290605589844 2053.22128248616 164 164 166
301.665451176577 481.888771571304 2045.2035103768 159 159 161
283.745572439728 483.495441342082 2037.25469284761 144 144 146
274.347581603062 484.50753928488 2039.35222676973 144 144 146
270.233148577241 485.148584515893 2047.59423917683 126 126 128
269.454409599305 485.553309045842 2059.64400845275 143 143 145
267.372569525814 486.047715498075 2070.14002711156 150 150 152
263.307609657841 486.680872724304 2078.33407778523 147 147 149
259.924789416932 487.264389248682 2087.27533775912 151 151 153
255.884290402989 487.893266972559 2095.44539310973 183 183 185
254.553878971963 488.327633576543 2106.62169088347 197 197 199
247.161274132553 489.193472677076 2111.00052965342 207 207 209
241.796115417684 489.913869004194 2117.63864662409 199 199 201
235.754197961806 490.682094241364 2123.52481661917 172 172 174
231.759263532081 491.302384283829 2131.65123276164 161 161 163
225.722760762571 492.068865474869 2137.53228366237 190 190 192
221.744965124486 492.685933461447 2145.64215694983 204 204 206
214.337568374246 493.550292540768 2150.03624089439 203 203 205
203.471002883444 494.665607804783 2150.74267920516 197 197 199
191.193016189414 495.884545676607 2150.00188346574 192 192 194
180.267927494133 497.006193728069 2150.76583804247 192 192 194
171.403444919084 497.978143246438 2153.75643361142 194 194 196
159.731552929738 499.155890232975 2153.8367741831 202 202 204
148.028272246109 500.33704709723 2153.94744237179 202 203 207
129.275099020833 502.037385895267 2146.81225434665 199 200 204
109.044034502398 503.849635050282 2138.29393744354 198 199 203
97.2043409190135 505.046308316509 2138.53777234081 201 202 206
90.2877888996874 505.879995720782 2143.86588278944 212 213 217
81.238348354252 506.87123921207 2147.03763055839 215 216 220
62.9222055939476 508.55037355996 2140.88850814722 201 202 206
38.1176550730045 510.714845879926 2128.35754043289 202 203 207
15.3585072793034 512.731493773735 2118.06837175458 205 206 210
-5.33767820246878 514.598103576727 2110.00389236379 200 201 205
-29.7088330800035 516.742832143609 2098.4623838046 199 200 204
-59.9481244388533 519.331411281955 2081.34647037198 194 195 199
-88.8690829619403 521.826927112388 2065.76934413862 136 134 137
-104.855799993809 523.355496042402 2062.99729615975 155 153 156
-114.347862836842 524.396878099938 2066.60116395517 183 183 185
-118.751261548104 525.054610528115 2075.12731935717 190 190 192
-123.142476160561 525.710204230866 2083.64202971361 183 183 185
-132.653070418378 526.752094434067 2087.26422437415 194 194 194
-147.323935194614 528.185436081996 2086.0337466817 207 207 207
-172.354831748782 530.407261780954 2075.13597643773 233 233 233
419.884346972542 460.489677340887 2006.07477534784 130 138 127
410.147270739426 461.497793443993 2007.09304311968 204 209 202
402.920743931368 462.347855542119 2011.30929578348 192 197 191
400.135291581703 462.915442107061 2021.07628652742 191 193 192
396.731217908081 463.520861801768 2030.03541419516 189 190 192
392.702469656442 464.16484484209 2038.19190614791 184 185 189
385.477320360312 465.012875764917 2042.40709112883 181 182 186
378.243756975711 465.861495666677 2046.63054437315 178 179 184
369.711205461337 466.79412262231 2049.2976771916 170 169 175
361.809791570206 467.68644099947 2052.76094792825 169 168 174
352.59772921976 468.664236400315 2054.67925985774 161 160 165
344.667965810658 469.559096730207 2058.17030638531 162 162 164
331.500683792895 470.7966797072 2055.47534399074 165 165 167
313.049480612275 472.382897487978 2046.64025296611 162 162 164
291.895465092963 474.150843456485 2034.79392224707 154 154 156
278.559284090229 475.408509973285 2032.26371070295 150 150 152
274.433123819044 476.059525120927 2040.51589488873 141 141 143
272.306916300753 476.576789622797 2051.05293050834 138 138 140
272.198200669229 476.958003939143 2063.85774081353 152 152 154
269.456879688406 477.512036767836 2073.58291169212 155 155 157
264.72859182745 478.197079205503 2081.0110789393 159 159 161
260.007738147254 478.88071269595 2088.43207217688 167 167 169
256.639517949258 479.472485360171 2097.35727599647 198 198 200
254.635796113923 479.970917887964 2107.77546487977 207 207 209
246.56636462801 480.876899027259 2111.40356022152 194 194 196
239.163382608181 481.737972547143 2115.79340803578 183 183 185
232.432906567211 482.553332405623 2120.93945109046 166 166 168
229.110083066515 483.136581075569 2129.82083516117 171 171 173
226.487072186968 483.670673647965 2139.43180736342 197 197 199
223.196975598827 484.248705647283 2148.28146414781 203 203 205
213.72827753596 485.248606519555 2150.45101411249 199 199 201
202.169591374284 486.392740337662 2150.42390763543 194 194 196
189.887364964447 487.587901090016 2149.69049840237 191 191 193
180.3463485313 488.595402098968 2151.93107612291 192 192 194
171.481553946892 489.556599655829 2154.92357065698 193 193 195
160.507366438016 490.664446960716 2155.73832082573 204 204 206
146.706235559432 491.969776041895 2153.66310471735 200 201 205
125.84342895506 493.768731898909 2144.35683462837 197 198 202
107.714142306363 495.380967977447 2138.03204887112 199 200 204
99.3992095168954 496.309672305617 2141.90057215909 205 206 210
89.6573119634891 497.33851717586 2144.33747318824 212 213 217
78.4766158633943 498.468919009194 2145.35395589137 212 213 217
58.0178313794866 500.253678592542 2137.06583122699 197 198 202
36.7675217178403 502.098035690747 2128.13764711861 199 200 204
14.7202288822688 504.002681779546 2118.57539692131 204 205 209
-11.7175788227142 506.222492556297 2104.82394225753 200 201 205
-37.544808902755 508.404337755831 2091.88903344164 199 200 204
-69.9692670151735 511.060826357612 2072.68192011383 195 196 200
-94.5775616253477 513.166810441765 2061.38162123235 132 130 133
-108.404236457187 514.506920659574 2060.74353932807 134 132 135
-116.451924874362 515.434750295582 2065.76406144258 140 140 142
-122.319851696275 516.206027140036 2072.89391445758 149 149 151
-128.91458706621 517.028729901956 2079.3209890591 163 163 165
-136.975134260281 517.956424564225 2084.35396223622 170 170 170
-149.452891369221 519.202623173274 2085.22442166463 180 180 180
-162.698488405177 520.505374426157 2085.43175187555 216 216 216
411.786051933738 452.728109796357 1996.84248583131 191 193 190
408.340775844255 453.350723866451 2005.83998678591 174 175 177
401.108177185718 454.19600834812 2010.06297501662 193 194 196
397.04527038957 454.853172424119 2018.25143875771 188 188 190
394.268396211019 455.432444325224 2028.00818416334 185 185 187
390.231455022893 456.085362038119 2036.17149128243 187 187 189
382.998402649191 456.928892130675 2040.39552719895 177 177 179
373.82659202989 457.889242745585 2042.27610905413 170 170 172
365.280183883574 458.812707316948 2044.95835590932 169 168 173
358.659503182133 459.620034157713 2049.99655784529 167 167 169
350.735869012016 460.506396883372 2053.48277389014 162 162 164
342.800004569585 461.393859162989 2056.98097226261 159 159 161
328.320668790296 462.682422654371 2052.74754511575 157 157 159
305.274220454181 464.500214862293 2038.52199511152 153 153 155
282.126030722078 466.330597314478 2024.39561498492 154 154 154
268.760728154926 467.562260709567 2021.89850267679 156 156 156
269.231307456348 467.938036563422 2035.54577767011 141 141 141
269.077584997422 468.349632643787 2048.39079000878 157 157 157
273.612020929963 468.465838740493 2066.54275333762 190 190 190
271.540950008198 468.991012542559 2077.0238685107 184 184 186
267.486719043839 469.638679834335 2085.20512064312 191 191 193
260.76124462164 470.45335019047 2090.34629892458 197 197 199
256.721925343714 471.098105672771 2098.51317389611 196 196 198
254.717648075926 471.612618258039 2108.92953770658 193 193 195
247.324362415496 472.467545500741 2113.31066530969 179 179 181
238.56620442186 473.409389900391 2116.20046636292 163 164 166
231.152892245649 474.265780364739 2120.60126432873 172 173 175
