ply
format ascii 1.0
comment KinectMotionCapture
element vertex 801
property float x
property float y
property float z
property uchar red
property uchar green
property uchar blue
end_header
298.045911250985 189.744334035078 2515.66321693147 135 101 91
278.684146366356 189.428901861078 2508.01305233033 42 22 15
253.39156508008 188.701461430363 2494.97722050428 31 16 11
272.039082365853 191.130457360405 2522.86234154553 17 12 8
248.125687855169 190.518638640089 2511.27402450231 17 16 11
232.23278757141 190.489704785448 2507.22176617737 13 14 6
231.084623603674 191.50054425111 2516.71463992904 16 17 9
237.379211594019 193.022322817391 2532.91134108948 19 20 12
226.628322154006 193.359204287669 2533.61830138856 24 25 17
218.833763335668 193.90296152857 2537.02698064204 23 24 16
217.010003094824 194.853393497795 2545.78275036393 21 22 14
221.203571402505 196.204586717951 2559.83960393055 21 22 14
216.428937942328 196.946953689248 2565.88841118411 26 29 20
221.455336586039 198.337834983556 2580.52963319525 26 29 20
215.203855729131 198.976169549387 2585.22619121225 25 28 19
224.098667602913 200.603872593488 2603.07590397966 25 28 19
205.728488934814 200.450404421745 2597.2512978758 26 29 20
190.338152470786 200.500892238701 2594.10549491994 25 28 21
187.874760494337 201.385763637406 2602.08920891675 26 29 22
180.07041655017 201.929103321756 2605.5076666595 29 32 25
173.789398280552 202.570127889028 2610.23282034094 30 33 26
163.659589766131 202.971431097723 2611.73076375455 28 31 22
165.073746722109 204.091690739556 2622.91377064981 28 31 22
158.020114461668 204.684717046034 2626.99666409173 30 33 24
149.409119586905 205.183962660706 2629.80540805758 30 31 23
146.222263376844 206.014046593904 2637.0983831369 29 30 22
146.942591032627 207.076331686232 2647.56236992131 29 30 22
139.105169556487 207.622588231505 2651.01324303152 30 32 21
129.691165126746 208.077488818434 2653.20903221414 33 34 28
121.043439576515 208.580629512342 2656.0540124347 27 28 22
101.367143726144 208.444147629987 2650.10698011692 16 17 11
87.9307800670683 208.680690305208 2649.24442024908 15 16 8
68.1315740175239 208.559229751512 2643.41688158821 15 16 8
33.9975449496888 207.634868113993 2626.43664559278 14 15 7
57.7216835253345 210.000819373121 2654.95789973463 18 21 12
68.8479562034541 211.635066763584 2673.42526600417 21 24 15
60.8957081448502 212.194457483293 2676.98822238297 24 27 18
48.1307777189359 212.490369798383 2676.86705389986 18 21 12
-16.0125495478241 209.982818705022 2637.49112832754 16 19 10
7.21920589730196 212.265693063945 2665.09669560861 17 20 11
3.18298850366361 213.055815850226 2671.82209582143 23 26 19
17.7412651425177 214.837030093316 2692.52734705786 25 28 21
29.1578271912907 216.434298598728 2710.71191715413 27 30 23
11.4257778360072 216.485435096996 2707.05721736393 24 27 20
-5.54949535835814 216.58602441312 2704.06096571355 44 47 40
302.389755235579 175.691438758658 2456.74630061296 136 127 118
308.316958106255 177.304893826552 2473.29427088128 140 122 110
314.306827159232 178.910316146583 2489.78119994083 148 119 105
315.302786647156 180.111674971892 2501.36749668006 157 124 109
311.988449746371 180.970449200608 2508.78282155663 156 118 105
307.233678362734 181.715413045052 2514.81152165787 155 119 107
294.472708490863 181.845479628851 2513.29402289498 137 105 94
269.99042533178 181.09080598921 2500.87448742432 26 5 0
236.621609362985 179.684529941091 2480.37145377161 18 4 1
240.542093262181 181.106756393404 2494.68932335408 15 12 7
246.721759974795 182.686969130702 2510.9915064972 10 9 4
246.322523642065 183.767605658614 2521.14727737853 16 17 9
234.112348130307 183.974771246434 2520.48834579241 15 16 8
233.737558864325 185.052076919919 2530.62067051588 15 16 8
220.001563488998 185.155929243408 2528.65801378797 16 17 9
218.155631150503 186.123058258685 2537.43333291447 17 18 10
217.825013741349 187.194292428433 2547.52235385475 16 17 9
227.267957158438 188.952710205947 2566.22569147598 16 17 9
218.750596779548 189.431602929081 2568.94480099373 20 23 14
213.985964148819 190.17546422526 2574.98311857326 21 24 15
227.358409503411 192.176449147069 2596.83377363643 22 25 16
212.802416430804 192.23488426704 2594.27519006883 22 25 16
199.719176165222 192.402777135374 2593.0721198626 24 27 18
193.449917906121 193.040433868311 2597.78643128618 24 27 20
187.177241486463 193.67831341951 2602.50376621929 25 28 21
180.901502053884 194.316492363213 2607.22443636143 29 32 25
166.183112562988 194.394471373065 2604.82422625946 30 33 26
165.26362447638 195.390738324202 2614.09217529201 29 32 23
165.910489634771 196.4847811389 2624.62441764481 28 31 22
160.404742353525 197.172941699363 2629.98999625468 27 30 21
153.349650842994 197.760946264267 2634.07474312273 27 28 20
143.956659912211 198.200460499242 2636.25193968635 26 27 19
146.228704029492 199.384509448603 2647.99120891845 27 28 20
140.731869073249 200.071001007244 2653.34818413559 29 31 20
138.366934155009 200.953276934655 2661.23417458566 30 31 23
125.03214976892 201.150772800704 2660.27651609947 23 24 18
94.352199429367 200.285593281533 2645.52555688781 10 11 5
84.0529525091824 200.690741447779 2647.19084901806 12 13 5
61.872745906312 200.378151515335 2639.50519998986 17 18 10
66.5572341592622 201.700244847813 2653.07920158638 19 20 12
78.4431620610135 203.44366793012 2672.19265434524 17 20 11
64.1343923973774 203.615277111558 2670.78909436075 20 23 14
68.1457394860994 204.874353657882 2683.62393961996 22 25 16
42.5937634745308 204.395140816831 2673.64282129677 15 18 9
-17.644535710593 202.96273029216 2647.23450298655 14 17 8
-12.8740045445506 204.273222991442 2660.72443942495 15 18 11
29.9271952195532 207.732099366134 2702.73197298457 18 21 14
34.8921538038196 209.018186299768 2716.03278512601 27 30 23
22.0456877173345 209.299757995365 2715.99470229646 24 27 20
-15.2513374180274 208.231781231031 2697.92552861163 41 44 37
306.041731910071 168.262164790627 2461.3030995096 131 121 111
308.385993271244 169.618995100964 2474.36169041698 136 116 105
311.493888102057 171.029787290747 2488.07125361792 148 119 105
313.92642049254 172.375187420035 2501.04387946408 154 121 106
309.883582870996 173.183686312815 2507.77279983856 150 114 100
305.122817360781 173.932228944725 2513.80692325287 146 112 100
288.715116396543 173.743355280366 2508.87259933011 125 95 85
263.487651584921 172.862052881956 2495.79484661376 20 2 0
230.834258646992 171.41324013146 2476.00492138124 22 11 9
228.866298932305 172.410345716698 2484.89664713026 17 13 10
260.037822263407 175.995209344122 2524.26355589998 10 11 5
247.866532219267 176.173525790526 2523.57061220218 14 17 8
224.561891555089 175.499893977238 2512.80350101422 17 18 10
224.903243788186 176.656378151914 2523.62989341241 18 19 11
215.606778694535 177.07310938262 2525.71460571093 19 20 12
212.257332276961 177.942818408016 2533.16317869851 19 20 12
217.892498507494 179.483984412405 2548.59492064188 19 20 12
228.834209661354 181.408551639558 2568.61955940598 20 21 13
212.053072738946 181.264698973556 2564.04940882618 19 22 13
217.820545022444 182.78882451365 2579.35228747629 20 23 14
224.402339119192 184.360511082376 2595.25607450443 21 24 15
218.928136531023 185.046191267025 2600.59069536623 22 25 16
201.304389495213 184.85759190957 2595.44731115083 23 26 17
186.664052721438 184.894101729918 2592.97572267503 19 24 17
185.716933035642 185.910812991898 2602.26808863383 20 25 18
184.028533309248 186.870449525387 2610.8877450913 21 26 19
174.688565410604 187.290904986498 2613.01544372063 22 25 18
169.175414557508 187.980610686406 2618.38814581586 22 25 16
164.434001732889 188.723276966355 2624.40358240755 23 26 17
165.108433930703 189.835661279212 2634.90540157528 27 28 20
147.990417162071 189.732303919237 2630.66413031623 24 25 17
140.914603679642 190.317702076815 2634.76983963456 20 21 13
136.94743851226 191.112608851839 2641.42596289448 24 25 17
135.331114314939 192.062178762915 2649.97553512851 21 21 11
132.952575298193 192.957375484432 2657.87346280377 17 18 10
118.034809999569 193.026979947151 2655.67247358061 14 15 7
99.1379777649883 192.846085422713 2650.37489585658 16 17 9
77.8100380571423 192.520283741976 2643.26179521115 17 18 10
93.5608560235011 194.588521023374 2665.57456987808 16 17 9
104.662593902446 196.340472996186 2684.04856503804 17 18 10
83.2750277900045 196.02176064718 2676.99362649367 21 24 15
65.7925913219994 195.962582487011 2673.10769971677 20 23 14
57.0340768433968 196.457840231195 2676.0635222355 20 23 14
39.4582334859575 196.410076309551 2672.26866286115 16 19 12
12.1984326620828 195.778009094244 2661.17221299719 15 18 11
-13.5571572352551 195.256872001432 2651.39948265864 16 19 12
-3.13442033623401 196.943391078751 2669.14049746479 21 24 17
13.8313555703449 199.008450372418 2691.66451780162 25 28 21
30.9067005669559 201.059717150319 2714.08143509813 28 31 24
16.4269064858624 201.222532473612 2712.84900461678 28 31 24
-15.9996736488539 200.338250043998 2698.41838869575 32 35 28
311.842712297745 161.047665050807 2467.94489036696 122 112 102
307.73674841384 161.870123794385 2474.73477063529 129 109 98
307.960754550486 163.064824971093 2485.67170314375 143 114 100
309.660895568053 164.379400424981 2497.95925100579 144 111 96
307.054754167333 165.31842121425 2506.07637619286 142 106 92
302.286049370735 166.070787851926 2512.11781824953 136 102 92
286.598889121215 165.903647922379 2507.88168382671 107 78 70
261.366106154179 164.950071523604 2494.81989418299 19 1 0
236.760282555138 164.070301983827 2482.54152531488 21 10 8
255.360179324783 166.773734705828 2510.4333725946 14 13 9
287.336730307515 170.545734282978 2550.39046555382 11 12 6
270.810023242365 170.330607163342 2545.57819669772 13 16 7
233.508982364989 168.448658736062 2521.96534024751 16 17 11
224.971559918958 168.90963316095 2524.70702001116 17 18 12
206.006072828031 168.542222043223 2518.08793748572 20 21 15
214.562649920272 170.368273846486 2536.24454437324 19 20 14
229.92294295094 172.714069852714 2560.32134017573 20 21 15
231.899691434747 173.991865424613 2572.33964878527 21 22 16
221.139286327328 174.273181629375 2573.06427080473 21 24 17
221.654885883924 175.428778811417 2583.71742628997 21 24 17
216.913956535471 176.175475103851 2589.73178714859 23 26 19
217.47964059892 177.324553651399 2600.33650927147 24 27 20
211.242549446766 177.953465483389 2605.01983293289 25 28 21
200.434414733867 178.240083766292 2605.79106751133 21 26 19
187.309829246087 178.359350318256 2604.63624067025 22 27 20
187.155604950064 179.445586147245 2614.54788340293 23 28 21
180.892059625068 180.077318675127 2619.25739739342 21 26 19
174.62532679246 180.709312988028 2623.97003793437 23 26 17
165.271050358436 181.11805195961 2626.11333900089 23 26 17
168.266364992429 182.419145316521 2638.53400012339 28 29 21
161.230647298091 182.994601721419 2642.60136311813 25 26 18
144.088129457611 182.85393776042 2638.38959784296 21 22 14
141.686399290261 183.763483305094 2646.30843392381 26 26 18
134.616012558907 184.342904882294 2650.40963773407 21 21 11
129.886887314004 185.086336644018 2656.41275943958 23 25 14
114.176890636485 185.070654493865 2653.59416369341 17 19 8
96.0573921430905 184.899316023791 2648.94051685233 15 16 8
88.1278615505705 185.433434691872 2652.48464964967 17 18 10
94.4169003983464 186.930718829264 2667.2732342969 17 18 10
95.2180732657215 188.04812007342 2677.64879444792 17 18 10
75.3962964294135 187.784537437233 2671.8646744937 21 24 15
51.5237225906238 187.265928327323 2663.05586421557 20 23 16
43.5286150093832 187.807687473026 2666.66398667287 20 23 16
54.7288955447951 189.604130571167 2685.03388959132 13 16 9
61.1983383801142 191.078266508745 2699.64675170587 12 15 8
11.4378364298746 188.922888497405 2671.4424738782 15 18 11
7.41098139377883 189.729514286597 2678.15613799496 25 28 21
13.8970480048446 191.201320362093 2692.75317464905 28 31 24
22.0622321372108 192.767645698695 2708.50267151249 24 27 20
21.3635293446695 193.767030418181 2717.55091667941 24 27 20
-0.470792197492909 193.449473352571 2710.93944213064 33 36 29
307.613505664768 152.959929870501 2464.83778720995 101 88 79
304.93231621237 153.919755787142 2473.02636123301 116 94 81
305.148382662771 155.13724857314 2483.96814721937 129 100 84
306.840361922954 156.480037575238 2496.25962987704 119 87 72
302.777684877001 157.30207945546 2503.00624944562 133 99 87
297.997139710493 158.058776634673 2509.05880911249 125 93 82
280.842331596994 157.727396348062 2503.47052673203 78 49 41
265.815659013611 157.594832837468 2499.99065507302 25 10 7
236.829798305589 156.262461479573 2483.62649056374 15 5 4
245.152977670255 158.170293721746 2502.00277773184 17 16 12
259.438152983163 160.572497049813 2525.72159718398 8 9 4
272.353423467732 162.835811667119 2547.98746143693 16 19 12
255.772760736728 162.586901221659 2543.23376451544 15 16 10
225.781763443385 161.224661102621 2526.45522076616 16 17 11
209.049984358624 160.99449339265 2521.84915229173 19 20 14
204.936810934673 161.821367954184 2528.64520124195 20 21 15
217.280431640258 164.000401785891 2550.07426952155 21 22 16
245.459496649416 167.454149415962 2585.34689025619 22 23 17
203.9208705767 165.210327317057 2558.91061888801 20 23 16
208.15891393336 166.697403782943 2572.90356243115 20 23 16
206.404513842823 167.693636263332 2581.58334936091 21 24 17
209.972157694926 169.109278955175 2594.83565808529 22 25 18
205.23427543951 169.858303679133 2600.84664899432 22 25 18
196.694527799585 170.307644786502 2603.59235710913 22 27 20
194.24571913225 171.23519748707 2611.55494354464 22 29 21
191.04802375518 172.101269941744 2618.85336298927 22 27 20
184.026888661929 172.670317894015 2622.90719241206 20 25 18
174.691584741167 173.063664156898 2625.03426637007 21 24 15
159.940064410302 173.04914044454 2622.6806275439 21 24 15
166.786247575478 174.673769667659 2638.31438525949 21 22 14
155.872030582173 174.954191028297 2639.19187701297 20 20 12
151.146232824378 175.700638241542 2645.19124879217 25 25 17
131.627583607146 175.351830359855 2639.11905272722 18 18 10
123.751137940432 175.872025777207 2642.61252925887 23 23 13
116.646487052371 176.450599752374 2646.74788315847 36 38 27
110.31968671529 177.086827418848 2651.51954593151 26 28 17
100.843239332919 177.49677123471 2653.78398648031 13 14 6
91.3483803122723 177.90894201008 2656.06671875643 15 16 8
88.1588401636728 178.772541632376 2663.35740542218 18 19 11
77.8498241733971 179.131281904437 2665.03925744995 20 21 13
57.9855243866994 178.82480871954 2659.30370261843 19 22 13
49.2010689416427 179.302706720863 2662.28818850473 18 21 14
34.0158034521596 179.340956066216 2660.35780304012 18 21 14
34.7890817506973 180.483469492402 2670.75701349882 14 17 10
55.6485912327704 182.989190682668 2696.43425362994 15 18 11
31.6072618953758 182.429540577389 2687.79908589779 22 25 18
30.8530049684421 183.45282334702 2696.89896502003 24 27 20
16.3871570951226 183.555619328665 2695.66155658069 26 29 22
15.6482743878503 184.576777951741 2704.74614498148 26 29 22
-1.3037189909455 184.525263459526 2701.74925700655 26 29 22
-17.4952695366342 184.533543876032 2699.40530971325 29 32 25
299.086244368784 144.430346408685 2457.56188926297 105 92 83
303.565086596188 146.08310776978 2472.70847497235 111 87 75
302.336281401943 147.187568975056 2482.26758940182 134 102 87
304.020109735972 148.558548046607 2494.56299956969 118 85 70
299.949484643526 149.387120231861 2501.3165464897 137 103 91
295.16099467405 150.147664225604 2507.37642690586 133 101 90
280.183019892137 149.974074151391 2503.85426131829 80 53 46
259.314011246322 149.275228985264 2494.92332384853 27 11 11
236.167477615816 148.387983861886 2484.03111983482 16 6 5
235.680486272803 149.556460715292 2494.26104997687 16 15 11
248.467818710898 151.903843415416 2516.64153337531 8 9 4
259.877326819098 154.107872091937 2537.57724788599 16 19 12
261.759321425409 155.452800346154 2549.67972631548 16 17 11
234.751683942737 154.259229560263 2535.58170803113 18 19 13
215.068534143301 153.726833051647 2528.28275063524 21 22 16
211.716648237184 154.621881880177 2535.73000085917 21 22 16
203.143581462486 155.065708279741 2538.50961043876 23 24 18
236.531614210757 159.094159864162 2578.44408696231 24 25 19
210.752406373977 158.061897809987 2565.9361971554 21 24 17
199.184690281716 158.248985532842 2566.05950852781 21 24 17
201.183902399759 159.578222640386 2578.04790737998 21 24 17
203.980012365176 160.96536411777 2590.65332596654 21 24 17
199.985871579152 161.782128840837 2597.33300581938 19 24 17
195.238736714396 162.535209475718 2603.3525852444 20 25 18
192.022681012026 163.412132278763 2610.66763308672 20 27 19
194.175171980989 164.721552287725 2622.50675273257 21 26 19
194.065898605745 165.840569013775 2632.36891353414 19 24 17
177.834290979562 165.663719574183 2628.6751963081 19 22 13
157.693695697497 165.187037994784 2621.82225439654 20 23 14
163.76065331983 166.795061338321 2636.81533961928 20 21 13
159.812782062719 167.605084702072 2643.44973167388 20 20 12
149.658830892979 167.92950660289 2644.98301212484 26 26 18
133.251615410955 167.774063880297 2641.46017435019 19 19 11
118.352431736962 167.745422113111 2639.25559189095 29 29 19
104.97263799741 167.84205019609 2638.35753657239 25 27 16
81.3544162904991 167.168735541595 2629.31901627922 20 22 11
111.135356683494 170.541692780785 2663.01289186212 17 19 8
98.5117069270127 170.70120981688 2662.77192659042 19 20 12
90.5966884908902 171.218019680107 2666.30420683572 19 20 12
83.4631978162697 171.794686298927 2670.46848097614 19 20 12
78.7059177761433 172.547247345155 2676.49821150525 21 24 15
54.0457804782815 171.845973199346 2667.08155187913 20 23 16
46.8547671904376 172.429552386807 2671.30192515019 18 21 14
34.8558049332901 172.668093955157 2671.84586548343 14 17 10
43.6825087381583 174.402614279474 2688.330851547 18 21 14
38.1064187773656 175.099428890397 2693.76500241264 29 32 25
30.1132186991362 175.625283970503 2697.37358130519 28 31 24
23.7251219939001 176.265728668669 2702.20515116051 26 29 22
14.9045633544707 176.737209849574 2705.22643645578 23 26 19
10.1286468793913 177.491316864288 2711.27444474683 20 23 16
-20.683750805877 176.454634983202 2698.0976028413 13 16 9
296.290710339821 136.402176761973 2455.85648073417 151 141 132
305.071119519646 138.517651780063 2475.16495174284 117 95 84
303.845975691396 139.637993148017 2484.71808330063 140 108 95
304.089021532785 140.895485809386 2495.62716638881 105 72 57
299.294124806921 141.659732615874 2501.69252369267 136 100 88
295.229649439488 142.492993222425 2508.4396087402 157 123 114
281.707973397262 142.423061150576 2506.28981500403 120 90 82
256.463195575914 141.252141465398 2493.27205967077 24 5 1
223.793461980609 139.405366308874 2473.5571796224 26 12 11
223.273037049904 140.597171268129 2483.81686192741 13 9 6
236.762329851703 143.085063999426 2506.8964303043 14 15 10
240.761515891909 144.673973060545 2521.11151188053 8 11 4
232.235185711597 145.101755856217 2523.84674472666 17 18 12
234.820147221727 146.546402578567 2536.65367544257 18 19 13
226.292933975036 146.974106754399 2539.39013464864 21 22 16
200.600495426913 145.858477591557 2526.80840327766 20 21 15
209.192999021268 147.834859797821 2544.90711584958 21 22 16
216.360969184215 149.668395499487 2561.60736735092 22 23 17
230.359326133495 152.09142709369 2584.19101395175 21 24 17
212.814732927554 151.721137582372 2578.99554469658 21 24 17
197.47449759065 151.55638280396 2575.83180334246 19 22 15
200.260710825415 152.974847727297 2588.44275777922 18 21 14
186.385597158294 152.947489257169 2586.6376404696 17 20 13
197.589617491161 155.077642456256 2606.37141682442 18 23 16
199.721608720838 156.417126256223 2618.22644959924 19 26 18
198.067617289879 157.427872220742 2626.80472200111 19 26 18
195.666555672062 158.371489472566 2634.71752057696 18 23 16
162.520091794681 156.743201862027 2616.8606576999 19 22 13
145.424803554939 156.476294824491 2612.6206514046 19 22 13
149.141356934427 157.937927618015 2625.71829345005 22 23 15
152.130365793559 159.330007033847 2638.13143075844 21 21 13
149.72535173557 160.273659878344 2646.04848674722 24 24 16
130.982053446052 159.891622106447 2640.62783858824 22 22 14
111.392816718382 159.45493031558 2634.63872616802 27 24 15
90.9515676457433 158.964250985269 2628.08640677645 18 20 9
60.2371564992668 157.67282542741 2613.43266663385 15 17 6
70.30060011102 159.62340781196 2631.4917743861 17 19 8
83.5966428232897 161.811211526821 2651.97343950679 19 21 10
97.7772701544413 164.048725288774 2672.98626121884 18 19 11
90.6614238268508 164.618260106785 2677.13440618086 19 20 12
74.8008110286102 164.516711567256 2674.47806548393 21 24 17
61.2794513907176 164.603802632313 2673.72199676223 20 23 16
54.9042509528581 165.240854190565 2678.54159977999 18 21 14
46.925658920205 165.757511333311 2682.13703211847 15 18 11
43.7491053189016 166.636036664109 2689.41261693758 20 22 17
21.287553082538 166.076246045135 2682.04254659401 28 31 24
24.5375855888188 167.434232535115 2694.20152248169 28 31 24
8.44079427934874 167.361707901408 2691.77575865916 27 30 23
16.5909731464322 169.069238742683 2707.51928586092 17 20 13
21.5608958655591 170.532756239799 2720.78894438326 13 16 9
-5.15488475255177 169.70256471493 2710.59846641703 15 18 11
291.346372109451 128.131240065167 2452.06968161137 159 152 146
304.422372696341 130.742697693688 2475.54139242939 117 98 91
302.474844293599 131.806584002756 2484.40329726379 139 111 100
300.546898972219 132.867852426894 2493.24580488917 112 80 69
295.742128362141 133.636174497048 2499.32036478383 127 89 80
294.572174337934 134.765575720766 2508.81735300763 153 115 106
286.873312102295 135.243024937603 2512.14080443683 160 123 114
273.323025105381 135.146981146953 2510.02361894424 30 1 0
248.0186520129 133.910482532209 2497.07473513335 22 2 0
245.360606421017 134.899263448204 2505.23604742452 29 22 14
250.813236665997 136.668210263903 2520.81538439549 20 20 12
235.665754172948 136.445256222682 2517.46883844364 15 20 13
231.564423634953 137.287893553115 2524.25079750267 15 18 11
232.663582815239 138.622044545196 2535.71532663955 17 18 12
229.336224507814 139.530822137938 2543.13619149004 19 20 14
234.968454509689 141.276609869028 2558.54026830804 19 20 14
179.358655727969 137.304082920399 2519.40907718328 19 20 14
223.924394798746 142.663692450645 2569.30217266241 20 21 15
220.657605812417 143.564436278477 2576.66407866862 20 23 16
210.62219763968 143.843366394538 2578.0860299951 22 25 18
198.298013063783 143.919054319523 2577.56008127818 23 26 19
198.056368307693 145.093700100209 2587.54546686777 22 25 18
194.805622485402 145.992030763823 2594.89179843954 18 21 14
193.850848124566 147.092521364908 2604.17938305407 20 23 14
199.788560048793 148.799053764344 2619.2859137282 19 22 13
192.013296852373 149.284129596149 2622.68410523051 19 22 13
168.885586858296 148.426551491464 2613.18573361287 19 22 13
157.204344412417 148.584328825663 2613.42611039529 20 23 14
147.805396590401 148.945936978007 2615.62073672496 21 24 15
142.252372442542 149.642143560942 2621.03207276365 17 20 11
140.574502445046 150.669270979593 2629.63163576331 17 20 11
136.586241781141 151.495818651066 2636.30369281046 22 23 15
120.925322482925 151.335225353149 2633.4577803055 22 23 15
105.995432214455 151.246281814688 2631.29260252396 19 20 12
79.2797700181875 150.184344763931 2619.71934953289 16 19 10
88.5511246589257 152.12537937406 2637.14883949776 14 17 8
63.2896790966591 151.207684447574 2626.94436544631 12 15 6
85.2408485209475 154.172758544483 2654.30349759356 14 17 8
96.2632487701178 156.220830736532 2672.81284759561 20 23 14
101.029056394645 157.746257559623 2686.27604525292 21 24 15
73.2790554642486 156.650067451264 2674.31772134242 15 18 9
58.9577751949699 156.6474898349 2672.95232930692 21 24 15
59.7604429188019 157.852704526769 2683.31308841217 18 21 12
62.9958026435697 159.242999857175 2695.48219719828 20 23 14
42.2117880873238 158.74346208861 2689.27155827225 26 29 20
21.3549643180797 158.252948285064 2683.13188623294 28 31 24
21.3807491760734 159.39191222903 2692.85698402229 25 27 22
12.5476445881509 159.844394905648 2695.89353560052 21 23 18
5.31958707421065 160.422295077369 2700.15153369175 11 13 8
-0.291542877920214 161.124168321951 2705.61973212293 10 12 7
-4.27413828708323 161.948573508302 2712.28681798873 24 26 21
303.055345038861 122.885936255405 2475.22594053359 159 144 137
301.823897261992 124.039748437222 2484.78038503389 119 94 87
297.727415162685 124.888314417853 2491.55699111171 129 100 92
290.742320653747 125.43456065891 2495.57840178446 90 53 44
287.380200217904 126.35692707832 2503.0317775197 72 34 25
281.845956529543 127.053257518845 2508.42444597838 106 68 59
273.392091874699 127.451215900908 2511.09246536379 160 130 120
260.531272486558 127.405088775903 2509.70015999982 165 141 131
258.640086269663 128.474777354804 2518.50492079585 23 14 5
258.240706770304 129.689550860168 2528.64134629905 18 15 6
234.997107818662 128.619715026939 2517.8721785693 13 18 11
228.67462462569 129.248233736383 2522.64069373491 16 19 10
230.50730791017 130.681079775331 2534.77914482575 19 20 12
241.30336157817 132.982982174178 2554.89265365293 19 20 12
245.47526799988 134.620562721129 2568.9290277127 16 17 11
239.232531815504 135.238643051343 2573.6195578658 18 19 13
226.990686141566 135.280186412353 2573.01689195368 20 21 15
207.950929274687 134.679193985987 2566.50608362907 20 23 16
202.402878887184 135.376019263859 2571.91238920736 21 24 17
195.344836357247 135.929930276868 2576.00544333537 22 25 18
201.153505336364 137.693839233103 2591.23163533156 21 24 17
183.484583957933 137.252804448215 2586.17008191013 18 21 14
187.067593091041 138.797384041513 2599.3880758656 20 23 14
188.408575657411 140.124717966092 2610.6134783649 20 23 14
175.248424614463 140.114608885287 2609.51309030788 19 22 13
156.680465401493 139.619861234881 2603.93498632472 19 22 13
151.120059815437 140.317514342619 2609.35343844493 20 23 14
144.789511825858 140.945575527158 2614.13002969477 20 23 14
136.909922609853 141.435606644523 2617.63108608771 16 19 10
132.118748404923 142.202627453556 2623.69233687689 16 19 10
111.796686194551 141.595306399519 2617.039240607 18 21 12
94.5161882154051 141.270820649256 2612.99166042942 21 24 15
101.379253726477 143.067581837779 2628.58321269666 18 21 12
95.0007936833619 143.701159749622 2633.40656595405 16 19 10
80.7734230928232 143.657935350057 2631.95358995414 14 17 8
72.0098569087271 144.092164995992 2634.92378665936 12 15 6
79.000879814791 145.872573988617 2650.39069218922 14 17 8
90.7975137647412 148.046863123697 2669.52947118979 20 23 14
78.117487147447 148.141506830768 2669.35373938197 21 24 15
61.4319867720265 147.907905784897 2666.11913222831 16 19 10
39.1191423144153 147.217187366265 2658.62074393375 21 24 15
25.5057097774127 147.262563121888 2657.96227046647 19 22 13
34.2580865504853 149.153882986875 2674.49788946773 22 25 16
43.0811935317288 151.036247625451 2690.96425806326 27 30 21
22.2266625303327 150.494576798145 2684.82987025736 26 28 23
15.0007290539262 151.067471286054 2689.0868368278 23 25 20
-1.11906605725887 150.928512345037 2686.69339724005 18 20 15
-15.6685388273812 150.924760597588 2685.55477726725 12 14 9
-24.5775014674621 151.376264004984 2688.66646390623 12 14 9
-30.2459482457054 152.085768356907 2694.19045091871 24 26 21
-20.4156444953223 154.007562051628 2711.0680777958 12 14 9
293.069588227049 114.073050469068 2466.60640351876 191 178 172
293.251062084232 115.403686943744 2477.56581787379 117 97 88
290.5752404338 116.417249648292 2485.74111931636 106 81 74
285.018884930772 117.11668459184 2491.15528628969 103 69 60
283.09301977735 118.204809066832 2499.99175896495 100 63 55
276.81902411287 118.825247068291 2504.7133196231 63 26 17
274.921266739085 119.909697135482 2513.52276177552 103 73 65
262.796394185254 119.9131555587 2512.80923092114 132 109 101
253.572167713482 120.228029370342 2514.8372636823 38 29 20
236.970800987784 119.779880403641 2510.13391134202 24 21 12
232.115490169285 120.559586220368 2516.256975898 16 19 12
223.565968166461 120.958443880665 2519.01985153109 18 19 11
232.801438590281 123.178324802669 2537.86100885042 24 25 17
232.448266017001 124.406023573327 2547.94930200242 23 24 16
242.560924983288 126.684485613638 2567.32764918587 20 21 13
230.330384964577 126.700588662583 2566.71751665799 19 20 12
221.062962211579 127.020200425917 2568.78774369778 22 23 15
205.013831140385 126.670971508558 2564.93830216667 19 22 13
197.951097046937 127.22037883101 2569.0363428881 19 22 13
196.923888413696 128.363281454509 2578.38958732752 20 23 14
197.435266804263 129.6508024024 2589.02777406004 20 23 14
178.997557992192 129.094339189526 2583.32945103651 19 22 13
179.523850822807 130.379810399893 2593.9531304599 21 24 15
177.792462706583 131.441862651434 2602.60033802556 20 23 14
165.370401076563 131.481284479067 2602.17694278362 18 21 12
147.544573063903 131.016643954483 2597.2746888875 17 20 11
141.960758822663 131.717572423701 2602.71590205135 18 21 12
144.086815847388 133.139616200131 2614.56462525095 18 21 12
125.385217026444 132.615773563121 2609.12386544237 17 20 11
114.366111480928 132.816444362029 2610.11696233492 17 20 11
107.981314240283 133.448727784975 2614.94679984803 19 22 13
68.1089491683213 131.021921553271 2592.55092676202 20 23 14
49.1437267715211 130.530870590606 2587.36710246619 18 21 12
96.6342273905507 136.054084273961 2635.74859518734 15 18 9
103.593876371229 137.882269657571 2651.23959415918 13 16 7
72.8648828893044 136.334170470611 2636.63827074154 13 16 7
66.4539415030023 136.969322254539 2641.49364583526 16 19 10
67.9438362383999 138.301618386753 2652.57044293727 19 22 13
67.8849516739106 139.490448413065 2662.3722485296 19 22 13
62.2942367419821 140.191332807181 2667.82032069559 18 21 12
28.040601232183 138.409708869806 2651.08555865867 22 25 16
23.9781744185299 139.256414104656 2657.82862235183 21 24 15
36.7266098230292 141.539753687112 2677.42304014703 25 28 19
27.9098725273523 141.969701748287 2680.44633152643 27 30 21
30.3346638956032 143.353119699489 2692.0041159869 22 24 19
-5.07964718028564 141.547915577227 2675.00849776835 16 18 13
-5.89803791398102 142.662724321715 2684.15853520967 11 13 8
-18.0294724042915 142.832933072168 2684.84412198939 13 15 10
-42.3675353116844 142.001775379668 2676.54374378159 15 17 12
-17.1581499214057 145.254130953013 2704.87602502772 23 25 20
-22.7945220168015 145.960085645439 2710.3686860441 8 10 5
288.830320233731 105.835641915069 2463.53141310056 188 181 173
286.119137812024 106.864706023751 2471.73987505297 83 69 60
282.70137800267 107.810703118381 2479.24467106314 72 54 44
280.743990884722 108.916576048696 2488.11016014319 75 52 44
275.176139435902 109.617500779943 2493.53552257067 97 68 60
271.792557268458 110.558999295361 2501.00738240722 101 68 59
264.041315642253 111.018999856552 2504.38542624925 49 22 13
254.814861497544 111.320860716945 2506.41759443108 21 0 0
239.698728033333 110.989142933304 2503.05633150578 26 17 8
202.458019280242 108.28623732628 2479.50456363493 19 16 7
215.954673034292 111.055441638328 2502.53524474863 17 20 13
217.718000994763 112.551650893405 2514.7332016458 17 18 10
226.937307477772 114.827924052791 2533.58207524925 21 23 12
226.568480588579 116.076814469333 2543.68311909434 26 28 17
228.4639323559 117.556175770509 2555.75236521839 24 26 15
222.176268987279 118.174955448082 2560.48740536635 20 22 11
227.127293305533 119.957056848523 2575.14599087806 20 22 11
210.342503184219 119.490891483446 2570.62710565494 19 22 11
204.800219687487 120.187516786991 2576.02771418156 19 22 11
194.726623193715 120.423242095192 2577.49397272709 20 23 12
195.989113210713 121.810001381507 2588.78853644574 20 23 12
185.140056502947 121.971332116808 2589.61892461484 20 23 12
173.503063213724 122.059857847031 2589.82525884541 21 24 15
167.940459781983 122.758687302744 2595.24571959516 20 23 14
158.553368978051 123.079521784316 2597.43493590331 17 20 11
145.31239321291 123.026017708483 2596.42122175156 16 19 10
141.260451209722 123.87819193378 2603.15272771654 17 20 11
134.133640772961 124.429903542291 2607.31439446362 18 21 12
119.27118988069 124.23651052836 2605.09734812945 20 23 14
109.786483291968 124.569256676629 2607.38173781579 20 23 14
93.292139862994 124.237365401186 2603.9714983995 19 22 13
53.3837622197901 121.696435419666 2581.62825376948 18 21 12
54.6783813849294 123.07832980943 2592.89163179865 17 20 11
101.398295070366 128.711048023516 2640.60523469669 14 17 8
98.1703814683472 129.630887618276 2647.92571452558 13 16 7
71.3609197271152 128.36268665694 2636.47609158517 14 17 8
55.4850127645432 128.124404679922 2633.85514736186 16 19 10
53.7858087191578 129.195358017569 2642.46908009277 18 21 12
71.1224664995593 131.995258234077 2665.93310939649 19 22 13
59.9797664860802 132.192287946371 2667.0498134158 19 22 13
56.7727531617743 133.109153658282 2674.34997849855 22 25 16
47.1930307571156 133.453061848676 2676.72673270776 21 24 15
50.396397923433 134.938003322406 2688.91362191871 25 28 19
45.6230110307159 135.708107380247 2694.95675394109 25 28 19
-8.18751809733032 132.165750819983 2663.89432336461 23 26 17
-13.0697473229526 132.949402962392 2670.04353503157 13 15 10
-12.2919200239244 134.223788603358 2680.41907545178 9 11 6
-86.9436047318133 130.207438650145 2644.61588170055 16 18 13
-85.4384542711926 131.561959290236 2655.67424486934 19 21 16
278.26751689268 98.1872945154625 2465.23181446261 36 26 16
275.55037608678 99.2279399051634 2473.44414362833 68 54 45
271.401091159098 100.099659050521 2480.26976166767 77 58 51
269.437951639521 101.21985684807 2489.13884575846 67 42 35
263.854708476026 101.922777232791 2494.57919742943 91 64 57
259.731517944018 102.790961814245 2501.37908791312 80 57 51
251.957209829282 103.245824713564 2504.78079646342 103 84 77
233.898121069868 102.551199750366 2498.72725621892 23 14 7
214.30142747809 101.700886553522 2491.38943447845 9 5 0
204.959272629183 102.003764829191 2493.53668263838 28 27 22
212.610363890577 104.182699562096 2511.12304723887 17 19 8
227.748582192793 107.164909854784 2535.32630477598 18 20 7
224.407026778148 108.108835146503 2542.75607274925 20 22 9
218.841067042898 108.808972249999 2548.17967308822 21 23 10
221.497793137162 110.394317851226 2560.89420743637 19 21 8
227.195876597864 112.295090092285 2576.21032199536 17 19 6
215.67103324639 112.348492009742 2576.31048096406 18 22 8
195.829032362334 111.528440295564 2569.2117803572 20 24 10
187.242761897448 111.91014538758 2572.01368289847 23 27 13
194.543251981867 113.958099477328 2588.55064921467 22 26 12
182.93129058353 114.02224615228 2588.73606746327 20 23 12
177.377718580415 114.720316664732 2594.14767204236 19 22 13
168.772540933509 115.1041510044 2596.96803499299 18 21 12
160.152283955086 115.489770377008 2599.80277027366 15 18 9
154.585129437695 116.189365218067 2605.22763719511 15 18 9
145.943059314033 116.57765510639 2608.08397639239 18 21 12
138.056943200154 117.045286381961 2611.59482477823 19 22 13
119.340489058279 116.43204380746 2606.18202979466 19 22 13
111.405224325778 116.905738367488 2609.74078733455 19 22 13
103.459097099856 117.380732291929 2613.31013944549 18 21 12
82.2648596426223 116.555426529973 2606.13809697378 15 18 9
72.7027662201198 116.884575764619 2608.49986455232 14 17 8
71.7301103540278 118.052834979787 2617.79518959434 13 16 9
98.239029962961 121.872148483551 2649.00428381133 13 16 9
76.1488539967603 120.984794791771 2641.31418286264 15 18 11
68.1688011781993 121.463726505468 2644.91664158505 17 20 13
55.435921244805 121.493360289803 2644.80300233964 19 22 15
60.8913735532335 123.248908616888 2658.96427009094 18 21 14
53.6947598692974 123.803677944355 2663.19480056483 21 24 17
58.4337365909224 125.474771636277 2676.66311220575 21 24 17
57.6372138527619 126.620470954772 2685.7865309489 21 24 15
52.8649637090277 127.393706181509 2691.82840921933 25 28 19
53.7113191521237 128.681726530954 2702.1335471335 22 25 16
12.784772254371 126.149302507743 2680.80010244763 16 18 13
-36.3708536049301 122.906666002876 2653.57277936819 12 14 9
-59.8844728253343 122.023152934541 2645.87870165309 10 12 7
-8.17395154668654 127.907624686972 2694.26732348618 15 17 12
-93.3662511360183 121.518826829683 2640.94154948894 16 18 13
-89.4358812750342 123.116708256698 2653.80673111895 18 20 15
-52.834100647718 127.58579836372 2690.48478230947 9 11 6
262.623365856308 89.89962498729 2462.15351982562 51 41 31
259.886801615491 90.9536024436253 2470.38316627572 71 57 48
256.440201166582 91.9196193405337 2477.91398039126 69 49 42
252.277728962853 92.7984187125067 2484.75164713625 59 36 30
248.853206555969 93.7615417548626 2492.26096514014 49 30 23
245.440754244743 94.7230842010484 2499.75853097203 90 75 68
236.169896693511 95.0037230569811 2501.83792899593 20 11 4
198.185902515306 91.9846466706785 2477.65441296737 19 14 8
191.751459527967 92.6172496008206 2482.53316437582 13 13 5
217.85826896093 96.9540574894962 2516.89923097518 20 22 11
224.110130501947 99.0034761297832 2533.0603751589 15 17 4
222.245871954095 100.124373200205 2541.83116563082 17 19 6
221.14707704919 101.326132754634 2551.24679726755 20 22 9
223.809353893155 102.940793728342 2563.95148683993 21 23 10
226.51511552681 104.549932212295 2576.61381159491 19 21 8
208.977705974866 103.920531023848 2571.44950545785 18 22 8
195.898354578203 103.793612854396 2570.28614648993 21 25 11
187.31213792173 104.16476311417 2573.08955559824 24 28 14
193.097871085234 106.095159465559 2588.31425427608 23 27 13
186.796044385976 106.710465373793 2593.06387224233 20 24 10
179.730080758738 107.244673223332 2597.16770425601 19 22 13
171.130802692381 107.617252633811 2599.98387230957 18 21 12
166.341512091556 108.396596344657 2606.04143133252 14 17 8
157.722177567404 108.771593623776 2608.87715838523 15 18 9
151.394481569439 109.389899093991 2613.65202161356 18 21 12
141.980443777743 109.687550473004 2615.87142313135 20 23 14
114.000480468713 108.067284301792 2602.80200415779 17 20 11
107.601184242782 108.694481457308 2607.64699112573 17 20 11
113.625690008668 110.594303273317 2622.63876614068 16 19 10
98.6864004395485 110.346248967919 2620.5064385055 14 17 8
76.6757376004903 109.392620789395 2612.74683734434 14 17 8
86.6679561918375 111.6793321934 2630.82665503047 13 16 9
97.5235201847218 114.034653002451 2649.4562646899 13 16 9
113.966394548521 116.927611073427 2672.37683306889 15 18 11
91.889255135146 115.982191806734 2664.68236869714 18 21 14
71.3117711358948 115.202495107658 2658.30804924251 18 21 14
34.8161140858623 112.880659976363 2639.6284249216 17 20 13
47.4102592804182 115.371512935654 2659.34538478964 21 24 17
43.3758171359093 116.232395648451 2666.05856386759 20 23 16
42.5423405482657 117.39947295345 2675.21585651447 20 23 16
32.9326698932597 117.72099286546 2677.62565875677 23 26 19
17.690688458774 117.510392034604 2675.78803516933 17 20 13
18.4816523789899 118.827480895457 2686.14421921325 13 15 10
-27.4355432708382 115.740933716204 2661.34633008371 12 14 9
-101.01146631985 110.107823213042 2616.21171401546 14 16 11
-54.260082708911 115.745213688366 2661.05955761864 17 19 14
-38.09953573812 118.496052146903 2682.86457717139 15 17 12
-68.2100360268412 116.965446316449 2670.48065183687 16 18 13
222.960587636143 75.7388710492422 2414.36049215545 151 151 141
251.863327742673 80.7407976503711 2452.93673843986 31 27 18
246.925469540507 81.5428859380579 2459.13880349064 25 16 9
251.429155122662 83.4962916048597 2474.21594644243 42 29 23
246.524889303199 84.2940069692377 2480.38496223477 60 47 39
245.274255425719 85.5317401531908 2489.94605532913 27 14 8
233.070021523228 85.448350723464 2489.32416754188 25 14 8
237.707953679512 87.3846978153922 2504.27086075293 11 8 1
210.764645483373 85.5567204513892 2490.20272755128 16 16 8
202.88811360223 86.008382847759 2493.70641884571 19 20 12
212.011712357237 88.4598513743479 2512.62443783913 18 20 9
224.921766442032 91.3346153353124 2534.80511010821 17 19 6
214.136719603399 91.4322562452117 2535.58101101741 17 19 6
218.98021382599 93.3424420404743 2550.32744468608 17 19 6
232.84786356567 96.2765044752332 2572.96535534318 21 23 10
222.83726708728 96.4565413087759 2574.37728467436 22 24 11
206.793210054292 95.956099515411 2570.54515374533 20 24 10
189.188496280013 95.2920695103487 2565.45279981997 22 26 12
193.423700210111 97.0985805656043 2579.40135066285 21 25 11
188.623942400228 97.882446578858 2585.46863538481 19 23 9
186.106158463987 98.9189933107834 2593.48360601176 18 21 10
171.427270046556 98.6064359673907 2591.10189186236 17 20 11
165.095711865759 99.2230297570776 2595.88118112297 17 20 11
156.466013538507 99.5888850193091 2598.72855077146 15 18 9
164.693630229103 101.792533949287 2615.73876435061 15 18 9
158.383639951793 102.406290824387 2620.49705565895 15 18 9
142.049779977409 101.941878375987 2616.94737821335 15 18 9
114.070466179772 100.243422427318 2603.88887068035 16 19 10
103.797502098068 100.455904636775 2605.55653950773 17 20 11
110.588631618418 102.480225058709 2621.18589212185 16 19 10
93.3059693052623 101.955088641857 2617.17045508282 14 17 8
86.8933268391761 102.581467794689 2622.02847812297 15 18 9
85.1728600265851 103.697181289536 2630.65724740634 10 13 6
106.221672497853 107.166516592773 2657.42099444343 9 12 5
96.7343096741873 107.459904210337 2659.71383898399 17 20 13
85.6514078746327 107.59404408856 2660.78011974091 19 22 15
42.1405481255586 104.430363972042 2636.43826018161 17 20 13
65.7836229008102 108.11301844635 2664.84540371542 17 20 13
46.685884359317 107.456020994846 2659.8176967288 18 21 14
26.726781717183 106.727370715682 2654.23868012434 19 22 15
15.477488232865 106.882293279683 2655.46745645406 20 23 16
-5.39812876664358 106.088983003134 2649.39153739869 17 20 13
-16.8201075541812 107.524294291955 2660.52159280093 13 16 9
-71.0508011825257 104.808162083183 2639.67297925213 11 13 8
-62.2861051014509 106.943526694838 2656.16029529145 25 27 22
-16.1140642310356 112.650075772273 2700.15596602934 9 11 6
-27.4584872226686 112.816703449188 2701.47747735552 10 12 7
249.046609831892 72.5104113809546 2451.28225334738 25 22 15
250.616633553304 74.14040083605 2463.65239155636 22 17 11
255.8557586272 76.2220097191636 2479.39753100138 24 15 10
253.874672356086 77.3854018650663 2488.27771453393 42 33 26
244.615178838664 77.6379927542145 2490.35031122351 21 12 7
239.727123897116 78.436441543023 2496.50312097463 21 14 8
281.069529898489 84.9255409036873 2545.17936778448 10 10 2
239.528110328541 81.2028107602258 2517.54720520376 16 17 9
214.761783499102 79.5705182163186 2505.53944098747 16 19 10
210.603152946942 80.4596818468455 2512.37142324079 19 21 10
223.508664682143 83.402926575171 2534.54648470265 17 19 8
229.820637158692 85.5318107931234 2550.63619286112 17 19 8
222.031838644337 85.9643508603382 2554.05558989729 18 20 9
240.391096259463 89.4998549140195 2580.64650631759 21 23 12
226.653232608863 89.2195673673106 2578.7424805197 23 25 14
203.857444096876 87.887080066896 2568.98469733537 20 23 12
202.816991230056 89.1143082034478 2578.33863022051 20 23 12
194.248462983189 89.4621379887877 2581.12792123254 19 22 11
191.722084315981 90.5109299163034 2589.14961671982 19 22 11
181.620904034051 90.6862011775066 2590.6522014565 17 20 9
168.452757530647 90.5167195857148 2589.58330819744 16 19 10
154.483376981863 90.2653768805618 2587.90524190894 16 19 10
156.535753532765 91.8338633707419 2599.8054867391 16 19 10
161.695318004216 93.741980531929 2614.2380258795 16 19 10
159.990687057037 94.8698593965544 2622.84927187808 15 18 9
140.577684989148 94.0246844810655 2616.7451916209 15 18 9
107.958858593092 91.7359674305575 2599.87923526749 16 19 10
106.966615770362 92.9567181811501 2609.185914379 16 19 10
77.0258180850174 92.3401187511275 2605.00051369414 13 16 7
71.3529164549973 93.0538057624023 2610.52830624506 13 16 7
76.4828331187539 96.2438772817736 2634.7201925525 13 16 9
33.1073412096381 92.9337931295954 2610.26521133756 16 19 12
50.2466652809797 96.0741070578031 2633.87488293358 15 18 11
47.7430488176163 97.1194932000819 2641.87447858953 12 15 8
41.2949242566008 97.7479036183161 2646.76777349632 14 17 10
28.4904844857841 97.7147733248367 2646.7344707306 15 18 11
41.1272142108938 100.325570269234 2666.39141586166 15 18 11
5.17358154046921 97.9080185547503 2648.60460950613 14 17 10
17.0725234940496 100.42895044652 2667.59056149864 13 16 9
-19.0578124658489 98.0336121965174 2649.97627882335 12 15 8
-57.7466816480738 95.4121416192611 2630.68467608196 12 15 8
-55.4971478699731 96.9552057332987 2642.39289828709 11 13 8
-55.6310651843122 98.2501686926374 2652.25352610805 6 8 3
-67.8821353508146 98.3298720516423 2653.07128954009 16 18 13
-8.73898977631127 105.500422615701 2706.64232107176 25 27 22
274.388549798661 67.9446307836568 2476.38769509807 18 17 12
262.99523546931 67.8962414237005 2476.37228850979 19 18 13
270.444921505265 70.2965713551086 2494.12626720479 16 13 8
257.584828558364 70.0619748916739 2492.76109615985 15 12 7
250.042659399027 71.9396573424972 2507.05794541319 15 14 9
259.860757756942 74.5979487817059 2526.67299485788 14 17 8
244.012383330279 73.9977469528287 2522.66095485574 17 23 13
214.095029217281 71.6457961750457 2505.95556114287 14 20 10
224.726067379811 74.3870639734809 2526.16799479218 20 23 14
219.871225216614 75.1840641287288 2532.28803787083 20 21 13
201.638185399879 74.3277653334752 2526.43112891949 19 20 12
217.629120341611 77.6920876336542 2551.14805955798 20 21 13
238.965357611824 81.6813522101578 2580.3837006787 22 23 15
223.725302042205 81.1898412416262 2577.16877375693 23 24 16
211.440134996133 81.0679593693803 2576.63294294386 17 20 11
206.652925335972 81.8563337246107 2582.68743867866 15 18 9
199.604493334368 82.3730512754896 2586.77610874544 16 19 10
167.563486731144 79.9173785931085 2569.36070692348 18 21 12
152.845673669651 79.5454503174685 2567.02675836091 18 21 12
144.930896517655 79.9857582517076 2570.57010595921 18 21 12
151.501764190596 82.125331961736 2586.40114745822 17 20 11
155.075803712159 83.9004569894405 2599.59363601404 17 20 11
155.630017985942 85.3141206605135 2610.1706422419 16 19 10
143.914705794987 85.3056884896875 2610.46907863509 14 17 8
118.295110599213 83.7102069177839 2599.30318187462 13 16 7
114.983940409954 84.6833205263188 2606.69846284943 16 19 10
96.1918362618026 83.8970233942679 2601.38636682843 16 19 10
61.277345655653 84.0277386138354 2603.44637327749 12 15 6
78.271284350885 87.265306767473 2627.18604056914 12 15 8
67.1403964772788 87.3685666867346 2628.3048740934 14 17 10
17.4520149863242 83.2404904131815 2598.90363420745 17 20 13
14.8442561411564 84.3102739316263 2607.0030388665 13 16 9
43.0723805694488 88.7292806882599 2639.2504593599 10 13 6
44.5344505964655 90.2137670919492 2650.332393153 14 17 10
38.0911299646733 90.8392997559783 2655.22134301787 15 18 11
24.4801396956014 90.6984057450644 2654.58797493258 13 16 9
57.1161495084196 95.4894926022165 2689.48819123286 12 15 8
24.3430072987816 93.310936160393 2674.1761003914 12 15 8
-6.15583214486426 91.4022495963381 2660.81643458603 12 15 8
-35.1661187971892 89.6770359348775 2648.78599095856 13 16 9
-34.4741635947914 91.0728930455657 2659.22851236798 13 15 10
-51.5200695000169 90.6226454223691 2656.3838135027 11 13 8
-54.0452795064836 91.6818270138109 2664.4028129048 17 19 14
-15.9731680733746 96.9009730712195 2702.34376456323 12 14 9
265.238028869422 60.3863337678183 2479.50618837586 11 10 5
248.193615510383 61.0286029684752 2485.00066547101 15 14 9
215.565265882892 58.1763225016542 2465.39330377658 12 13 7
192.305332979032 56.5902301084083 2454.71665839695 15 16 10
186.560938562861 57.314114826208 2460.3139371248 9 15 5
152.126591937003 54.3129163742643 2439.68781068302 13 21 10
217.854270561461 64.2871823977761 2510.39540109151 17 23 13
212.963814741018 65.0916068409028 2516.54971175176 21 24 15
217.717434831436 67.1275728982744 2531.36680149446 20 21 13
187.583465827593 64.7136548900904 2514.88533045795 19 20 12
173.720404539343 64.3901511241552 2513.11235294532 19 20 12
216.614008231201 71.2188539047814 2561.61495359817 21 22 14
217.051101321082 72.6693563907931 2572.30248029026 22 23 15
209.256186719849 73.0868371221933 2575.73017645436 16 19 10
208.229037685499 74.3454207773691 2585.06626410524 14 17 8
