ply
format ascii 1.0
comment KinectMotionCapture
element vertex 760
property float x
property float y
property float z
property uchar red
property uchar green
property uchar blue
end_header
247.415438294411 773.948132991791 2421.99993133545 181 181 179
254.186362028122 774.57183599472 2424.00002479553 184 186 183
261.398047208786 776.473343372345 2430.0000667572 230 232 229
268.200755119324 777.096450328827 2431.99992179871 239 241 238
277.49964594841 784.748673439026 2456.00008964539 229 231 228
-106.161698698997 809.842944145203 2555.0000667572 218 220 217
-98.1843620538712 801.292061805725 2528.00011634827 239 241 238
-90.8229425549507 796.861052513123 2513.99993896484 236 238 235
-83.9382708072662 796.233296394348 2512.00008392334 208 210 207
-77.1256983280182 796.238958835602 2512.00008392334 216 216 214
-70.3129917383194 796.244144439697 2512.00008392334 211 211 209
-63.4748786687851 795.931816101074 2510.99991798401 210 210 208
-56.6872134804726 796.253144741058 2512.00008392334 212 212 210
-49.874160438776 796.256840229034 2512.00008392334 210 210 208
-43.1295894086361 797.528088092804 2516.00003242493 211 210 208
-36.2478084862232 796.262979507446 2512.00008392334 210 209 207
-29.4462349265814 796.582221984863 2513.00001144409 205 204 202
-22.5581433624029 794.048249721527 2505.00011444092 207 206 204
-15.7134104520082 791.513741016388 2496.99997901917 211 207 206
-8.90488084405661 788.34468126297 2486.99998855591 208 204 201
-2.1566606592387 787.394165992737 2483.99996757507 216 207 202
4.5808213762939 787.393987178802 2483.99996757507 180 167 159
11.3137383013964 787.076532840729 2483.00004005432 172 153 138
18.0412121117115 786.758542060852 2482.00011253357 160 137 121
24.7432645410299 785.806119441986 2479.00009155273 161 133 112
31.4543806016445 785.486996173859 2477.9999256134 165 134 113
38.0675904452801 783.265650272369 2470.99995613098 161 129 108
44.6608662605286 781.360805034637 2464.99991416931 151 119 98
51.3048395514488 780.723452568054 2463.00005912781 144 112 91
58.032039552927 781.35347366333 2464.99991416931 137 106 86
64.7174790501595 781.349301338196 2464.99991416931 137 106 86
71.2869316339493 780.076563358307 2460.99996566772 138 107 89
77.7712017297745 778.169453144073 2454.99992370605 143 112 94
84.257185459137 776.578903198242 2450.00004768372 135 106 90
90.8642932772636 776.25572681427 2448.99988174438 136 107 91
97.505658864975 776.249170303345 2448.99988174438 141 112 96
104.104295372963 775.925159454346 2447.99995422363 133 105 91
110.652111470699 775.283873081207 2446.00009918213 125 97 85
117.236815392971 774.958968162537 2444.9999332428 130 108 97
123.613260686398 773.365914821625 2440.00005722046 124 107 97
130.175858736038 773.040175437927 2438.99989128113 174 167 157
136.732831597328 772.714138031006 2437.99996376038 165 162 153
143.401712179184 773.021459579468 2438.99989128113 153 154 148
149.891272187233 772.377669811249 2437.00003623962 152 155 148
156.433925032616 772.050261497498 2436.00010871887 154 153 149
163.104772567749 772.356450557709 2437.00003623962 155 151 148
169.711127877235 772.345244884491 2437.00003623962 156 151 148
176.389545202255 772.650539875031 2437.99996376038 157 149 147
182.772845029831 771.687805652618 2434.99994277954 157 152 148
189.217373728752 771.041691303253 2433.00008773804 155 152 147
195.811718702316 771.028995513916 2433.00008773804 155 152 147
202.572092413902 771.649718284607 2434.99994277954 155 154 149
208.827629685402 770.368695259094 2430.99999427795 156 155 150
215.061143040657 769.087433815002 2427.00004577637 156 155 150
221.455276012421 768.439590930939 2424.99995231628 157 156 151
228.026270866394 768.425166606903 2424.99995231628 158 159 154
234.500259160995 768.093705177307 2424.00002479553 160 161 156
240.670055150986 766.81113243103 2420.00007629395 160 161 156
247.328653931618 767.112672328949 2421.0000038147 161 162 157
253.677666187286 766.463398933411 2418.99991035461 170 170 168
260.661005973816 767.714977264404 2423.00009727478 194 194 192
267.555296421051 768.649160861969 2426.00011825562 189 189 187
275.482416152954 772.434651851654 2437.99996376038 199 199 197
-105.254963040352 796.055614948273 2532.99999237061 231 233 230
-97.8416949510574 791.662991046906 2519.00005340576 221 223 220
-90.6125605106354 788.212597370148 2507.99989700317 212 214 211
-83.7770998477936 787.904441356659 2506.99996948242 181 181 179
-77.0390331745148 788.538694381714 2509.0000629425 201 201 199
-70.2619850635529 788.858234882355 2509.99999046326 194 194 192
-63.4540989995003 788.863003253937 2509.99999046326 192 192 190
-56.6461011767387 788.867294788361 2509.99999046326 199 198 196
-49.8578548431396 789.185345172882 2510.99991798401 201 200 198
-43.0640913546085 789.503037929535 2512.00008392334 200 199 197
-36.1782349646091 787.934422492981 2506.99996948242 198 197 195
-29.3428730219603 786.993801593781 2503.99994850159 199 198 196
-22.505721077323 785.42423248291 2499.00007247925 201 200 198
-15.6830660998821 783.22559595108 2492.00010299683 196 196 194
-8.89835599809885 781.026363372803 2484.99989509583 193 193 191
-2.15247366577387 779.141008853912 2479.00009155273 195 190 186
4.5774606987834 780.083835124969 2482.00011253357 205 196 189
11.3008776679635 779.454708099365 2480.00001907349 138 122 109
18.0425010621548 780.082225799561 2482.00011253357 153 131 118
24.7150845825672 778.194963932037 2476.0000705719 151 124 107
31.4439348876476 778.507173061371 2476.99999809265 154 125 107
38.0548946559429 776.304602622986 2470.00002861023 157 126 106
44.6821711957455 775.044500827789 2466.00008010864 150 119 99
51.2459985911846 773.155272006989 2460.00003814697 145 114 94
57.9655282199383 773.77986907959 2461.99989318848 142 111 91
64.6695643663406 774.089932441711 2463.00005912781 141 112 94
71.291983127594 773.456454277039 2460.99996566772 145 116 100
77.7450203895569 771.251142024994 2453.9999961853 139 110 94
84.2631310224533 769.988298416138 2450.00004768372 142 113 97
90.8335894346237 769.35350894928 2447.99995422363 141 113 99
97.472682595253 769.346833229065 2447.99995422363 137 109 95
104.026541113853 768.711268901825 2446.00009918213 142 116 103
110.614590346813 768.389403820038 2444.9999332428 139 119 108
117.053166031837 767.12429523468 2440.99998474121 137 123 114
123.469851911068 765.858829021454 2437.00003623962 172 162 153
130.078122019768 765.850067138672 2437.00003623962 162 158 149
136.686161160469 765.840828418732 2437.00003623962 154 154 146
143.470361828804 766.773879528046 2440.00005722046 153 154 148
149.840012192726 765.506863594055 2436.00010871887 153 154 148
156.380370259285 765.182018280029 2434.99994277954 155 154 149
162.915021181107 764.85687494278 2434.00001525879 156 153 148
169.652953743935 765.474021434784 2436.00010871887 157 152 148
176.329046487808 765.776574611664 2437.00003623962 156 151 145
182.785049080849 765.135884284973 2434.99994277954 157 154 147
189.2299503088 764.495015144348 2433.00008773804 157 154 147
195.824667811394 764.482140541077 2433.00008773804 157 154 147
202.252641320229 763.84049654007 2430.99999427795 158 155 150
208.497658371925 762.570083141327 2427.00004577637 156 155 150
214.809283614159 761.613607406616 2424.00002479553 155 154 149
221.378281712532 761.599361896515 2424.00002479553 158 157 152
227.852880954742 761.270642280579 2423.00009727478 160 159 154
234.32169854641 760.941505432129 2421.99993133545 155 156 151
240.585848689079 759.983777999878 2418.99991035461 155 156 151
247.139886021614 759.968280792236 2418.99991035461 159 160 155
253.37889790535 759.010016918182 2415.99988937378 164 163 161
260.354399681091 760.250627994537 2420.00007629395 168 167 165
267.020285129547 760.548233985901 2421.0000038147 170 169 167
274.708241224289 763.672947883606 2430.99999427795 187 187 185
283.259958028793 768.996238708496 2447.99995422363 208 208 206
-120.599091053009 799.818813800812 2566.99991226196 202 207 203
-112.3978048563 791.102945804596 2539.00003433228 235 237 234
-104.763746261597 785.502195358276 2520.99990844727 227 229 226
-97.576729953289 782.705187797546 2512.00008392334 197 199 196
-90.5106216669083 780.53081035614 2505.00011444092 199 201 198
-83.6828202009201 780.225396156311 2503.99994850159 171 171 169
-77.013835310936 781.477510929108 2507.99989700317 195 195 193
-70.1550394296646 780.859589576721 2506.00004196167 187 187 185
-63.3322447538376 780.552804470062 2505.00011444092 181 181 179
-56.5147548913956 780.245542526245 2503.99994850159 189 188 186
-49.8018674552441 781.495809555054 2507.99989700317 193 192 190
-43.0157594382763 781.810760498047 2509.0000629425 189 188 186
-36.1375473439693 780.255615711212 2503.99994850159 193 192 190
-29.2981136590242 779.011607170105 2500 195 194 192
-22.4893316626549 778.078675270081 2496.99997901917 196 196 194
-15.6841985881329 776.521980762482 2492.00010299683 193 193 193
-8.89541767537594 774.030089378357 2483.99996757507 190 190 188
-2.14828737080097 770.914375782013 2473.99997711182 194 191 186
4.56303637474775 770.914256572723 2473.99997711182 194 187 179
11.2743508070707 770.91372013092 2473.99997711182 129 112 102
18.0147234350443 772.159039974213 2477.9999256134 144 125 111
24.716867133975 771.534323692322 2476.0000705719 144 118 103
31.4588956534863 772.155463695526 2477.9999256134 155 128 111
38.0576401948929 769.660174846649 2470.00002861023 151 120 100
44.667262583971 768.099129199982 2464.99991416931 148 117 97
51.1871799826622 765.602827072144 2457.00001716614 145 114 94
57.8990653157234 766.222178936005 2459.00011062622 141 113 92
64.5954236388206 766.529262065887 2460.00003814697 142 113 95
71.2101683020592 765.901148319244 2457.99994468689 150 121 105
77.6872038841248 764.02622461319 2451.99990272522 142 113 97
84.1315612196922 762.150943279266 2446.00009918213 139 112 95
90.6916260719299 761.521577835083 2444.00000572205 141 113 99
97.3203182220459 761.514782905579 2444.00000572205 142 114 100
103.863768279552 760.884463787079 2441.99991226196 143 120 106
110.486671328545 760.876834392548 2441.99991226196 124 107 97
116.965502500534 759.934067726135 2438.99989128113 163 153 144
123.427852988243 758.990824222565 2436.00010871887 176 167 158
130.033850669861 758.981883525848 2436.00010871887 158 154 145
136.639609932899 758.972644805908 2436.00010871887 156 153 146
143.480345606804 760.209023952484 2440.00005722046 155 154 149
149.850368499756 758.952558040619 2436.00010871887 154 155 149
156.391143798828 758.630394935608 2434.99994277954 155 154 149
162.859290838242 757.996201515198 2433.00008773804 155 154 149
169.455572962761 757.984757423401 2433.00008773804 157 154 147
176.196306943893 758.595883846283 2434.99994277954 156 153 146
182.572230696678 757.649123668671 2431.99992179871 157 154 147
189.164906740189 757.636487483978 2431.99992179871 157 154 147
195.837795734406 757.935047149658 2433.00008773804 158 155 148
202.266111969948 757.298648357391 2430.99999427795 159 156 151
208.425581455231 755.727350711823 2426.00011825562 157 156 151
214.646175503731 754.467129707336 2421.99993133545 155 154 149
221.11876308918 754.141330718994 2421.0000038147 158 157 152
227.585569024086 753.815114498138 2420.00007629395 160 159 154
234.046578407288 753.488421440125 2418.99991035461 155 156 151
240.402400493622 752.850234508514 2417.00005531311 154 155 150
246.746972203255 752.211570739746 2414.99996185303 160 161 156
252.975404262543 751.261115074158 2411.99994087219 169 168 166
260.048002004623 752.802193164825 2417.00005531311 166 165 163
266.816377639771 753.408491611481 2418.99991035461 169 168 166
274.273216724396 755.883157253265 2427.00004577637 183 183 181
281.657308340073 758.04603099823 2434.00001525879 206 206 204
-119.010247290134 782.410264015198 2532.99999237061 208 213 209
-111.697480082512 779.329597949982 2523.00000190735 219 221 218
-104.397229850292 775.939702987671 2512.00008392334 203 205 202
-97.3506569862366 774.093449115753 2506.00004196167 183 183 181
-90.4448702931404 773.173570632935 2503.00002098084 200 200 198
-83.555169403553 772.253215312958 2500 162 162 160
-76.8658518791199 773.185670375824 2503.00002098084 188 188 186
-69.9921399354935 772.264361381531 2500 179 179 177
-63.2104203104973 772.269248962402 2500 172 171 169
-56.3834272325039 771.655678749084 2497.99990653992 182 181 179
-49.6466234326363 772.277414798737 2500 189 188 186
-42.8645759820938 772.280812263489 2500 183 182 180
-36.0391475260258 771.35694026947 2496.99997901917 189 189 187
-29.2064920067787 769.814848899841 2492.00010299683 192 192 192
-22.4369298666716 769.507646560669 2490.9999370575 191 193 192
-15.6538728624582 768.27347278595 2486.99998855591 187 191 190
-8.89248680323362 767.038762569427 2483.00004005432 184 189 185
-2.14757584035397 763.949930667877 2473.00004959106 177 178 173
4.5578358694911 763.332009315491 2470.99995613098 191 188 181
11.2478295341134 762.40473985672 2467.99993515015 187 174 165
17.9506074637175 762.712597846985 2469.00010108948 138 120 108
24.6587693691254 763.019859790802 2470.00002861023 153 130 116
31.3977114856243 763.944625854492 2473.00004959106 151 125 108
38.0604118108749 763.015389442444 2470.00002861023 150 122 101
44.7248816490173 762.394428253174 2467.99993515015 148 119 101
51.2742400169373 760.22857427597 2460.99996566772 147 118 100
57.9268112778664 759.915709495544 2460.00003814697 146 117 99
64.4688010215759 758.366584777832 2454.99992370605 145 118 101
71.1284056305885 758.36169719696 2454.99992370605 146 118 104
77.7245089411736 757.738530635834 2453.00006866455 148 120 106
84.3096151947975 757.114887237549 2450.99997520447 147 119 105
90.9579172730446 757.108509540558 2450.99997520447 145 119 106
97.5264087319374 756.483852863312 2448.99988174438 140 114 101
103.913746774197 754.623353481293 2443.00007820129 129 110 96
110.313571989536 753.071129322052 2437.99996376038 151 143 132
116.829946637154 752.445220947266 2436.00010871887 171 169 157
123.385928571224 752.127707004547 2434.99994277954 158 154 145
129.98965382576 752.118706703186 2434.99994277954 160 155 149
136.480942368507 751.491606235504 2433.00008773804 151 146 140
143.255189061165 752.40832567215 2436.00010871887 158 153 149
149.799332022667 752.089142799377 2434.99994277954 158 155 150
156.337797641754 751.769483089447 2434.00001525879 157 157 149
162.870571017265 751.449525356293 2433.00008773804 157 157 149
169.46730017662 751.437902450562 2433.00008773804 156 158 147
176.280811429024 752.35253572464 2436.00010871887 156 158 147
182.584717869759 751.104652881622 2431.99992179871 156 156 148
188.944429159164 750.165343284607 2428.99990081787 159 156 149
195.448592305183 749.84347820282 2427.99997329712 160 157 150
201.780498027802 748.903393745422 2424.99995231628 160 157 150
208.267718553543 748.580813407898 2424.00002479553 160 157 152
214.660495519638 747.949004173279 2421.99993133545 155 154 149
221.224769949913 747.934341430664 2421.99993133545 157 156 151
227.694600820541 747.610628604889 2421.0000038147 159 158 153
234.061926603317 746.977746486664 2418.99991035461 161 160 155
240.318551659584 746.035814285278 2415.99988937378 161 160 155
246.865063905716 746.019899845123 2415.99988937378 162 161 157
253.306299448013 745.694994926453 2414.99996185303 163 159 158
260.172158479691 746.604800224304 2417.99998283386 164 163 161
266.722947359085 746.587991714478 2417.99998283386 166 165 163
273.612320423126 747.497200965881 2421.0000038147 176 175 173
280.980467796326 749.640941619873 2427.99997329712 199 199 197
289.333641529083 754.254341125488 2443.00007820129 215 215 213
-126.684278249741 780.485033988953 2549.00002479553 208 213 209
-118.830874562263 774.370074272156 2529.00004386902 211 216 212
-111.52845621109 771.316468715668 2519.00005340576 202 204 201
-104.280091822147 768.262326717377 2509.0000629425 195 195 193
-97.2800105810165 766.738533973694 2503.99994850159 170 170 168
-90.4153063893318 766.133010387421 2502.00009346008 192 192 190
-83.5612565279007 765.526950359344 2500 165 165 163
-76.7486244440079 765.226662158966 2499.00007247925 183 183 181
-69.8572620749474 764.007031917572 2494.99988555908 177 177 175
-63.0886107683182 764.011919498444 2494.99988555908 171 170 168
-56.2972724437714 763.710200786591 2493.99995803833 181 180 178
-49.5509654283524 764.020264148712 2494.99988555908 191 190 188
-42.7819900214672 764.02360200882 2494.99988555908 184 183 181
-35.9985008835793 763.720393180847 2493.99995803833 189 189 187
-29.1734766215086 762.191653251648 2489.00008201599 192 192 192
-22.4025491625071 761.581063270569 2486.99998855591 186 190 189
-15.6361423432827 760.663866996765 2483.99996757507 185 191 189
-8.88239685446024 759.439885616302 2480.00001907349 183 189 187
-2.14686570689082 756.990432739258 2471.99988365173 179 180 175
4.54710423946381 754.846811294556 2464.99991416931 182 181 176
11.2213110551238 753.92746925354 2461.99989318848 197 187 178
17.9083049297333 754.232704639435 2463.00005912781 164 147 137
24.6306359767914 755.45597076416 2467.00000762939 153 130 116
31.3873216509819 756.985008716583 2471.99988365173 149 123 108
38.0478017032146 756.063878536224 2469.00010108948 149 122 103
44.7462946176529 756.060898303986 2469.00010108948 148 121 102
51.3405129313469 754.526138305664 2463.99998664856 147 120 101
57.9546056687832 753.603458404541 2460.99996566772 145 118 101
64.4209980964661 751.14917755127 2453.00006866455 145 118 101
70.988729596138 750.22554397583 2450.00004768372 144 118 103
77.6034146547318 749.913930892944 2448.99988174438 144 118 103
84.2469409108162 749.907910823822 2448.99988174438 147 121 108
90.9274071455002 750.207722187042 2450.00004768372 142 116 103
97.3741784691811 748.669922351837 2444.9999332428 141 115 102
103.793635964394 747.131586074829 2440.00005722046 144 125 111
110.185757279396 745.592772960663 2434.99994277954 173 167 155
116.790369153023 745.584547519684 2434.99994277954 160 160 150
123.394764959812 745.575845241547 2434.99994277954 157 154 145
130.052328109741 745.873034000397 2436.00010871887 159 154 148
136.546760797501 745.25111913681 2434.00001525879 156 149 143
143.206521868706 745.547294616699 2434.99994277954 161 154 148
149.625346064568 744.618356227875 2431.99992179871 159 154 148
156.027629971504 743.688941001892 2428.99990081787 157 157 149
162.480309605598 743.065357208252 2427.00004577637 158 158 148
168.991521000862 742.74754524231 2426.00011825562 157 159 148
175.641715526581 743.041634559631 2427.00004577637 155 158 147
182.1468770504 742.723047733307 2426.00011825562 156 156 148
188.568502664566 742.097854614258 2424.00002479553 160 157 150
195.059448480606 741.778492927551 2423.00009727478 161 158 151
201.627835631371 741.764843463898 2423.00009727478 161 158 151
208.367750048637 742.363095283508 2424.99995231628 161 158 151
214.674964547157 741.430282592773 2421.99993133545 157 156 151
220.874205231667 740.191102027893 2417.99998283386 157 156 151
227.333560585976 739.869952201843 2417.00005531311 159 158 153
233.883887529373 739.854574203491 2417.00005531311 163 162 157
240.53330719471 740.144908428192 2417.99998283386 163 162 157
247.085571289063 740.128755569458 2417.99998283386 159 158 154
253.427624702454 739.500224590302 2415.99988937378 162 158 157
260.188907384872 740.095674991608 2417.99998283386 165 161 160
266.519337892532 739.466547966003 2415.99988937378 164 160 159
273.516684770584 740.67348241806 2420.00007629395 170 169 167
280.766755342484 742.492318153381 2426.00011825562 189 189 187
288.759499788284 746.146857738495 2437.99996376038 202 202 200
-125.798791646957 768.163084983826 2530.99989891052 215 217 214
-118.369586765766 764.529943466187 2519.00005340576 214 214 212
-111.315190792084 763.020873069763 2513.99993896484 191 192 187
-104.329265654087 761.814594268799 2509.99999046326 180 181 176
-97.3259955644608 760.304629802704 2505.00011444092 162 163 158
-90.4580727219582 759.704351425171 2503.00002098084 185 186 181
-83.5339799523354 758.496761322021 2499.00007247925 162 163 158
-76.6314193606377 757.288575172424 2494.99988555908 182 181 177
-69.7504132986069 756.079852581024 2490.9999370575 165 164 160
-62.992125749588 756.084740161896 2490.9999370575 174 173 169
-56.2337227165699 756.089270114899 2490.9999370575 182 181 177
-49.4751967489719 756.093204021454 2490.9999370575 189 188 184
-42.7165739238262 756.096661090851 2490.9999370575 189 188 184
-35.9434336423874 755.796074867249 2490.00000953674 191 191 189
-29.1170366108418 753.977239131927 2483.99996757507 194 194 192
-22.3321504890919 752.461493015289 2479.00009155273 192 194 193
-15.5932381749153 751.855850219727 2476.99999809265 191 193 192
-8.86873062700033 751.553237438202 2476.0000705719 187 189 186
-2.14615697041154 750.0359416008 2470.99995613098 189 190 185
4.54559782519937 747.911155223846 2463.99998664856 166 165 161
11.2130297347903 746.696352958679 2460.00003814697 189 182 176
17.8878214210272 746.695339679718 2460.00003814697 192 183 176
24.5925299823284 747.604310512543 2463.00005912781 130 117 108
31.3007719814777 748.209297657013 2464.99991416931 138 121 111
37.9427410662174 747.296035289764 2461.99989318848 154 126 112
44.6771122515202 748.203635215759 2464.99991416931 152 123 109
51.3234809041023 747.59304523468 2463.00005912781 145 116 100
57.9353421926498 746.678352355957 2460.00003814697 150 121 103
64.3732324242592 743.942081928253 2450.99997520447 146 115 97
70.9070339798927 742.722988128662 2447.00002670288 145 117 103
77.450692653656 741.806924343109 2444.00000572205 146 120 107
84.1843336820602 742.711544036865 2447.00002670288 139 117 106
90.822733938694 742.705047130585 2447.00002670288 130 112 102
97.3016619682312 741.48416519165 2443.00007820129 161 146 139
103.673584759235 739.655554294586 2437.00003623962 168 151 141
110.103286802769 738.43377828598 2433.00008773804 162 162 152
116.702921688557 738.425433635712 2433.00008773804 159 159 149
123.251661658287 738.113224506378 2431.99992179871 160 157 148
129.848137497902 738.103985786438 2431.99992179871 156 151 145
136.388257145882 737.790882587433 2430.99999427795 162 157 151
142.922714352608 737.477421760559 2430.0000667572 161 154 148
149.266883730888 736.253023147583 2426.00011825562 159 154 148
155.71753680706 735.635042190552 2424.00002479553 160 157 150
162.15705871582 735.016703605652 2421.99993133545 158 158 148
168.655127286911 734.70151424408 2421.0000038147 156 159 148
175.292193889618 734.992742538452 2421.99993133545 157 159 148
182.009428739548 735.587179660797 2424.00002479553 157 157 149
188.348233699799 734.663844108582 2421.0000038147 160 157 150
194.911941885948 734.650373458862 2421.0000038147 161 158 151
201.475292444229 734.636664390564 2421.0000038147 162 159 152
208.210155367851 735.22937297821 2423.00009727478 161 158 151
214.512318372726 734.304547309875 2420.00007629395 158 157 152
220.615118741989 732.772529125214 2414.99996185303 158 157 152
227.254793047905 733.060777187347 2415.99988937378 159 158 153
233.996316790581 733.652055263519 2417.99998283386 164 163 158
240.648806095123 733.939588069916 2418.99991035461 163 162 157
247.204080224037 733.923256397247 2418.99991035461 155 154 149
253.549218177795 733.299970626831 2417.00005531311 163 159 156
260.313481092453 733.889758586884 2418.99991035461 165 161 160
266.426295042038 732.659041881561 2414.99996185303 163 159 158
273.421198129654 733.855009078979 2418.99991035461 178 177 175
280.205935239792 734.443962574005 2421.0000038147 184 184 182
288.303971290588 738.369524478912 2434.00001525879 192 192 190
296.835482120514 743.204593658447 2450.00004768372 206 208 205
-133.302599191666 764.95224237442 2542.99998283386 206 208 205
-125.012680888176 756.539106369019 2515.00010490417 215 215 213
-118.096299469471 755.946397781372 2513.00001144409 210 210 208
-111.190527677536 755.353212356567 2510.99991798401 184 185 180
-104.295395314693 754.759609699249 2509.0000629425 185 186 181
-97.2943231463432 753.262877464294 2503.99994850159 157 158 153
-90.4286280274391 752.66820192337 2502.00009346008 182 183 178
-83.4733098745346 751.170516014099 2496.99997901917 162 163 158
-76.5142515301704 749.371528625488 2490.9999370575 183 182 178
-69.6436017751694 748.173713684082 2486.99998855591 165 164 160
-62.8956705331802 748.178660869598 2486.99998855591 175 174 170
-56.1701841652393 748.483836650848 2487.99991607666 183 182 178
-49.3994429707527 748.187065124512 2486.99998855591 189 188 184
-42.6854752004147 748.792231082916 2489.00008201599 187 186 182
-35.9028168022633 748.193442821503 2486.99998855591 192 191 189
-29.1074980050325 746.992588043213 2483.00004005432 193 193 191
-22.288778796792 744.286894798279 2473.99997711182 193 193 193
-15.5629310756922 743.686616420746 2471.99988365173 191 191 191
-8.84073879569769 742.484092712402 2467.99993515015 188 188 186
-2.14023794978857 741.28121137619 2463.99998664856 184 183 179
4.53486945480108 739.476025104523 2457.99994468689 166 165 161
11.195638217032 738.873779773712 2456.00008964539 175 170 164
17.867349088192 739.173531532288 2457.00001716614 188 181 175
24.544445797801 739.47274684906 2457.99994468689 148 139 130
31.226921826601 739.771485328674 2459.00011062622 126 113 104
37.8685258328915 739.167213439941 2457.00001716614 149 121 109
44.5898212492466 740.066587924957 2460.00003814697 145 117 105
51.2647964060307 740.063011646271 2460.00003814697 151 122 108
57.9161196947098 739.758193492889 2459.00011062622 147 118 100
64.4042864441872 737.647652626038 2451.99990272522 146 114 99
70.9123089909554 736.13840341568 2447.00002670288 139 111 97
77.3613676428795 734.327912330627 2440.99998474121 149 123 110
84.0185433626175 734.622776508331 2441.99991226196 130 112 102
90.5324965715408 733.713746070862 2438.99989128113 137 120 113
97.030021250248 732.804358005524 2436.00010871887 181 170 166
103.468492627144 731.593549251556 2431.99992179871 184 175 170
110.066100955009 731.585741043091 2431.99992179871 163 160 153
116.711474955082 731.878221035004 2433.00008773804 159 156 149
123.260669410229 731.568515300751 2431.99992179871 158 155 148
129.750818014145 730.957686901093 2430.0000667572 159 156 149
136.342063546181 730.947971343994 2430.0000667572 159 156 149
142.815411090851 730.336248874664 2427.99997329712 161 158 151
149.154558777809 729.122459888458 2424.00002479553 161 158 151
155.600219964981 728.509783744812 2421.99993133545 160 157 150
162.034764885902 727.896869182587 2420.00007629395 160 157 150
168.527781963348 727.58412361145 2418.99991035461 161 158 151
175.015106797218 727.271199226379 2417.99998283386 161 158 151
181.646823883057 727.559268474579 2418.99991035461 159 158 153
188.128054141998 727.245390415192 2417.99998283386 160 159 154
194.684043526649 727.231979370117 2417.99998283386 161 160 155
201.239630579948 727.21803188324 2417.99998283386 161 160 155
207.880824804306 727.504551410675 2418.99991035461 160 159 154
214.261159300804 726.888477802277 2417.00005531311 160 159 154
220.538854598999 725.971221923828 2414.00003433228 158 157 152
227.082148194313 725.955903530121 2414.00003433228 161 160 155
233.818590641022 726.541519165039 2415.99988937378 164 163 158
240.565478801727 727.126896381378 2417.99998283386 156 155 150
247.118428349495 727.11056470871 2417.99998283386 156 155 150
253.461092710495 726.492345333099 2415.99988937378 162 161 156
260.115414857864 726.77606344223 2417.00005531311 159 158 153
266.554027795792 726.457834243774 2415.99988937378 160 159 154
273.552030324936 727.642953395844 2420.00007629395 166 165 161
280.108273029327 727.625012397766 2420.00007629395 174 175 170
287.730127573013 730.312526226044 2428.99990081787 183 184 179
295.400381088257 732.999861240387 2437.99996376038 202 204 199
-131.94939494133 750.357270240784 2516.99995994568 211 213 210
-124.823063611984 748.578071594238 2510.99991798401 205 205 203
-117.91704595089 747.990846633911 2509.0000629425 194 194 192
-111.065916717052 747.701287269592 2507.99989700317 157 158 153
-104.178428649902 747.112989425659 2506.00004196167 184 185 180
-97.2238555550575 745.92798948288 2502.00009346008 156 157 152
-90.3269499540329 745.040655136108 2499.00007247925 173 174 169
-83.3792686462402 743.556439876556 2493.99995803833 162 163 158
-76.4278322458267 741.77360534668 2487.99991607666 182 181 177
-69.5648118853569 740.586578845978 2483.99996757507 164 163 159
-62.8245249390602 740.591585636139 2483.99996757507 176 175 171
-56.1066828668118 740.894198417664 2484.99989509583 186 185 181
-49.3833012878895 741.19633436203 2486.00006103516 188 187 183
-42.6372438669205 741.199791431427 2486.00006103516 184 183 179
-35.8333475887775 740.010261535645 2482.00011253357 194 193 191
-29.0510784834623 738.820016384125 2477.9999256134 195 194 192
-22.2544260323048 736.436784267426 2470.00002861023 190 190 188
-15.520035289228 734.947443008423 2464.99991416931 190 190 188
-8.81991349160671 734.05385017395 2461.99989318848 182 182 180
-2.13866261765361 734.054327011108 2461.99989318848 183 182 178
4.53521264716983 732.861638069153 2457.99994468689 165 164 160
11.2010445445776 732.562839984894 2457.00001716614 168 163 157
17.8468804806471 731.667280197144 2453.9999961853 181 174 168
24.4963709264994 731.367588043213 2453.00006866455 171 162 153
31.1530828475952 731.365442276001 2453.00006866455 140 127 118
37.8097295761108 731.362760066986 2453.00006866455 149 123 110
44.5025525987148 731.955945491791 2454.99992370605 153 127 114
51.1853024363518 732.250571250916 2456.00008964539 150 122 108
57.7791482210159 731.351971626282 2453.00006866455 152 125 108
64.3566027283669 730.453014373779 2450.00004768372 155 126 112
70.8886608481407 729.255318641663 2446.00009918213 145 119 104
77.398844063282 728.057086467743 2441.99991226196 145 122 108
83.9560106396675 727.454841136932 2440.00005722046 132 115 105
90.4650166630745 726.553857326508 2437.00003623962 152 137 130
97.0372334122658 726.248621940613 2436.00010871887 185 176 171
103.518724441528 725.346803665161 2433.00008773804 170 162 159
110.029011964798 724.742591381073 2430.99999427795 160 157 150
116.576187312603 724.436104297638 2430.0000667572 158 155 148
123.117685317993 724.129021167755 2428.99990081787 158 155 148
129.65352833271 723.821580410004 2427.99997329712 160 157 150
136.127591133118 723.215639591217 2426.00011825562 160 157 150
142.590537667274 722.609221935272 2424.00002479553 162 159 152
148.919254541397 721.406102180481 2420.00007629395 162 159 152
155.418738722801 721.096873283386 2418.99991035461 161 158 151
161.912515759468 720.787286758423 2417.99998283386 161 158 151
168.609589338303 721.371531486511 2420.00007629395 160 157 150
175.172403454781 721.359074115753 2420.00007629395 160 157 150
181.659743189812 721.04811668396 2418.99991035461 160 159 154
188.141405582428 720.736980438232 2417.99998283386 160 159 154
194.536730647087 720.127284526825 2415.99988937378 160 159 154
201.170518994331 720.411241054535 2417.00005531311 161 160 155
207.723468542099 720.396935939789 2417.00005531311 161 160 155
214.364692568779 720.680177211761 2417.99998283386 159 158 153
220.73683142662 720.068871974945 2415.99988937378 160 159 154
227.379962801933 720.351457595825 2417.00005531311 164 163 158
233.931347727776 720.335602760315 2417.00005531311 162 161 156
240.581825375557 720.617413520813 2417.99998283386 155 154 149
247.032880783081 720.302760601044 2417.00005531311 157 156 151
253.373175859451 719.689786434174 2414.99996185303 164 161 156
260.132730007172 720.268607139587 2417.00005531311 158 157 152
266.902685165405 720.847010612488 2418.99991035461 158 157 152
273.796051740646 721.723079681396 2421.99993133545 163 162 158
280.126512050629 721.108913421631 2420.00007629395 171 172 167
287.156462669373 722.282409667969 2424.00002479553 180 181 176
294.692307710648 724.647223949432 2431.99992179871 198 199 194
306.359082460403 736.84424161911 2473.00004959106 206 208 205
-141.379028558731 757.457435131073 2563.99989128113 207 209 206
-132.378593087196 745.946168899536 2525.00009536743 212 214 211
-125.130638480186 743.592381477356 2516.99995994568 200 200 198
-118.019834160805 741.828858852386 2510.99991798401 188 188 186
-111.02993786335 740.655720233917 2506.99996948242 150 151 146
-104.061514139175 739.482045173645 2503.00002098084 172 173 168
-97.1534252166748 738.603234291077 2500 162 163 158
-90.2253016829491 737.428665161133 2496.00005149841 170 171 166
-83.3186805248261 736.253440380096 2492.00010299683 162 163 158
-76.3721689581871 734.486818313599 2486.00006103516 179 178 174
-69.5140659809113 733.310580253601 2482.00011253357 163 162 158
-62.7786964178085 733.315527439117 2482.00011253357 178 177 173
-56.0883581638336 733.910918235779 2483.99996757507 188 187 183
-49.3075959384441 733.324110507965 2482.00011253357 188 187 183
-42.5375699996948 732.736647129059 2480.00001907349 184 183 179
-35.778321325779 732.148706912994 2477.9999256134 195 194 190
-29.0298443287611 731.560289859772 2476.0000705719 195 194 190
-22.2651343792677 730.084896087646 2470.99995613098 187 187 185
-15.5212180688977 728.313565254211 2464.99991416931 185 185 183
-8.80983844399452 726.541757583618 2459.00011062622 176 176 174
-2.13361345231533 725.655853748322 2456.00008964539 184 183 179
4.52817790210247 725.064814090729 2453.9999961853 160 159 155
11.1882211640477 725.064158439636 2453.9999961853 172 167 161
17.8409703075886 724.767625331879 2453.00006866455 164 157 151
24.4682766497135 723.879635334015 2450.00004768372 182 173 166
31.1173535883427 723.877429962158 2450.00004768372 191 181 172
37.7817824482918 724.170327186584 2450.99997520447 138 120 110
44.4878078997135 725.053548812866 2453.9999961853 135 117 107
51.1266626417637 724.754452705383 2453.00006866455 149 129 118
57.7364154160023 724.159359931946 2450.99997520447 139 120 106
64.3089339137077 723.268330097198 2447.99995422363 141 122 108
70.8940178155899 722.672343254089 2446.00009918213 138 120 106
77.3413106799126 720.89409828186 2440.00005722046 136 120 107
83.8591009378433 720.001578330994 2437.00003623962 173 163 153
90.3233289718628 718.813300132751 2433.00008773804 185 176 169
96.9648435711861 719.10160779953 2434.00001525879 163 158 154
103.441372513771 718.207716941834 2430.99999427795 159 156 151
110.037222504616 718.199670314789 2430.99999427795 161 158 151
116.536870598793 717.600345611572 2428.99990081787 162 159 152
123.126834630966 717.591404914856 2428.99990081787 163 160 153
129.556342959404 716.695725917816 2426.00011825562 164 161 154
136.081516742706 716.390430927277 2424.99995231628 165 162 155
142.483353614807 715.49391746521 2421.99993133545 163 160 153
148.868635296822 714.596927165985 2418.99991035461 164 161 154
155.301600694656 713.994979858398 2417.00005531311 164 161 154
161.924302577972 714.278757572174 2417.99998283386 163 160 153
168.552130460739 714.562058448792 2418.99991035461 161 158 151
175.112664699554 714.549541473389 2418.99991035461 161 158 151
181.297317147255 713.059782981873 2414.00003433228 161 160 155
187.765792012215 712.751150131226 2413.00010681152 160 159 154
194.14795935154 712.146639823914 2411.00001335144 160 159 154
201.018318533897 713.314056396484 2414.99996185303 161 160 155
207.738116383553 713.890254497528 2417.00005531311 162 161 156
214.468374848366 714.466094970703 2418.99991035461 155 154 149
220.843598246574 713.860094547272 2417.00005531311 161 160 155
227.207571268082 713.253736495972 2414.99996185303 163 162 157
233.947485685349 713.828384876251 2417.00005531311 157 156 151
240.697830915451 714.402735233307 2418.99991035461 156 155 150
247.254148125648 714.38592672348 2418.99991035461 161 160 155
253.495246171951 713.482856750488 2415.99988937378 165 162 157
260.257869958878 714.056193828583 2417.99998283386 159 156 151
267.030864953995 714.628994464874 2420.00007629395 159 156 151
273.81420135498 715.201437473297 2421.99993133545 161 160 156
280.260682106018 714.887857437134 2421.0000038147 166 167 162
287.056744098663 715.459644794464 2423.00009727478 172 173 168
294.347822666168 717.212319374084 2428.99990081787 191 192 187
302.662134170532 721.32670879364 2443.00007820129 200 202 199
-139.790371060371 742.06668138504 2535.00008583069 212 214 211
-132.598206400871 740.320444107056 2529.00004386902 208 210 207
-125.33888220787 737.988233566284 2520.99990844727 194 194 192
-118.075713515282 735.362827777863 2512.00008392334 184 184 182
-111.038282513618 733.907639980316 2506.99996948242 154 155 150
-104.069367051125 732.744932174683 2503.00002098084 160 161 156
-97.121924161911 731.581509113312 2499.00007247925 166 167 162
-90.1236906647682 729.832172393799 2493.00003051758 171 172 167
-83.258144557476 728.960514068604 2490.00000953674 161 162 157
-76.4086991548538 728.088319301605 2486.99998855591 177 176 172
-69.6033909916878 727.508306503296 2484.99989509583 163 162 158
-62.8340840339661 727.22065448761 2483.99996757507 180 179 175
-56.0474917292595 726.639807224274 2482.00011253357 188 187 183
-49.2716319859028 726.0582447052 2480.00001907349 187 186 182
-42.5065234303474 725.476205348969 2477.9999256134 183 182 178
-35.7377417385578 724.600911140442 2474.99990463257 194 193 189
-28.9968978613615 724.017918109894 2473.00004959106 192 191 187
-22.2488231956959 722.848773002625 2469.00010108948 183 183 181
-15.5224110931158 721.679151058197 2464.99991416931 181 181 179
-8.81051644682884 719.923496246338 2459.00011062622 173 173 171
-2.13377759791911 719.045639038086 2456.00008964539 174 173 169
4.52483538538218 717.87440776825 2451.99990272522 162 161 157
11.1754033714533 717.581033706665 2450.99997520447 166 163 158
17.8132466971874 716.994345188141 2448.99988174438 161 156 150
24.4501773267984 716.69989824295 2447.99995422363 178 169 162
31.081635504961 716.405034065247 2447.00002670288 181 170 164
37.7230122685432 716.402411460876 2447.00002670288 156 142 133
44.4187000393867 717.277586460114 2450.00004768372 135 121 112
51.1097274720669 717.859447002411 2451.99990272522 142 125 115
57.6701536774635 716.68416261673 2447.99995422363 141 125 112
64.1824826598167 715.215742588043 2443.00007820129 140 124 111
70.7544833421707 714.625000953674 2440.99998474121 133 119 108
77.2203952074051 713.155686855316 2436.00010871887 155 143 131
83.7966501712799 712.856709957123 2434.99994277954 182 173 164
90.2930349111557 711.971759796143 2431.99992179871 173 166 160
96.9721749424934 712.550163269043 2434.00001525879 160 156 153
103.491730988026 711.957037448883 2431.99992179871 162 159 154
110.045500099659 711.656272411346 2430.99999427795 161 158 151
116.49764329195 710.769474506378 2427.99997329712 162 159 152
123.034678399563 710.46781539917 2427.00004577637 163 160 153
129.512578248978 709.872782230377 2424.99995231628 164 161 154
135.923281311989 708.984673023224 2421.99993133545 166 163 156
142.376273870468 708.388984203339 2420.00007629395 163 160 153
148.756548762321 707.499980926514 2417.00005531311 164 161 154
155.313014984131 707.488596439362 2417.00005531311 165 162 155
161.8692278862 707.477033138275 2417.00005531311 164 161 154
168.4250831604 707.464814186096 2417.00005531311 162 159 152
174.908190965652 707.159459590912 2415.99988937378 162 159 152
181.160241365433 705.975770950317 2411.99994087219 161 160 155
187.623679637909 705.669701099396 2411.00001335144 161 160 155
194.242417812347 705.9485912323 2411.99994087219 161 160 155
201.115921139717 707.105040550232 2415.99988937378 162 161 156
207.752883434296 707.383155822754 2417.00005531311 162 161 156
214.4835293293 707.953453063965 2418.99991035461 154 153 148
220.767751336098 707.060039043427 2415.99988937378 161 160 155
227.411657571793 707.336962223053 2417.00005531311 160 159 154
234.060555696487 707.613408565521 2417.99998283386 155 154 149
240.813970565796 708.182096481323 2420.00007629395 156 155 150
247.475579380989 708.457827568054 2421.0000038147 161 160 155
253.72239947319 707.562744617462 2417.99998283386 163 160 155
260.49080491066 708.130478858948 2420.00007629395 157 154 149
267.048865556717 708.11253786087 2420.00007629395 158 155 150
273.94562959671 708.972156047821 2423.00009727478 158 157 153
280.626624822617 709.246098995209 2424.00002479553 161 162 157
287.312597036362 709.519743919373 2424.99995231628 165 166 161
294.367104768753 710.67088842392 2428.99990081787 190 191 186
301.938384771347 712.991952896118 2437.00003623962 197 199 196
-147.315114736557 738.421976566315 2546.0000038147 208 210 207
-139.635428786278 734.37237739563 2532.00006484985 211 213 210
-132.346004247665 732.06228017807 2523.9999294281 204 206 203
-125.09973347187 729.751646518707 2516.00003242493 183 183 181
-117.990635335445 728.020548820496 2509.99999046326 177 177 175
-111.002430319786 726.869106292725 2506.00004196167 176 177 172
-104.11886125803 726.29714012146 2503.99994850159 153 154 149
-97.0515906810761 724.274396896362 2496.99997901917 164 165 160
-90.1305824518204 723.121404647827 2493.00003051758 176 177 172
-83.231084048748 721.967875957489 2489.00008201599 157 158 153
-76.4452815055847 721.68380022049 2487.99991607666 176 175 171
-69.6087330579758 720.819234848022 2484.99989509583 166 165 161
-62.7630203962326 719.664096832275 2480.99994659424 184 183 179
-55.9388883411884 718.508422374725 2476.99999809265 187 186 182
-49.1760782897472 717.932224273682 2474.99990463257 182 181 177
-42.424026876688 717.355728149414 2473.00004959106 180 179 175
-35.6971807777882 717.068612575531 2471.99988365173 188 185 180
-28.9522334933281 716.200947761536 2469.00010108948 184 183 179
-22.2144927829504 715.042591094971 2464.99991416931 177 176 172
-15.5047187581658 714.173793792725 2461.99989318848 176 175 171
-8.80403164774179 712.724387645721 2457.00001716614 169 170 165
-2.13220482692122 711.854517459869 2453.9999961853 169 168 164
4.52334014698863 710.984230041504 2450.99997520447 164 163 159
11.1671481281519 710.403442382813 2448.99988174438 168 165 160
17.8000759333372 709.822118282318 2447.00002670288 170 165 159
24.4320947676897 709.530472755432 2446.00009918213 163 156 148
31.0713350772858 709.52832698822 2446.00009918213 177 170 162
37.741344422102 710.105776786804 2447.99995422363 189 182 174
44.3858616054058 710.102677345276 2447.99995422363 178 171 163
51.0302819311619 710.098922252655 2447.99995422363 131 122 113
57.5803555548191 708.934426307678 2444.00000572205 125 116 107
64.0823170542717 707.479357719421 2438.99989128113 137 128 119
70.6439688801765 706.894040107727 2437.00003623962 184 175 166
77.1311968564987 705.72817325592 2433.00008773804 185 178 170
83.7342217564583 705.721914768219 2433.00008773804 159 156 149
90.2256816625595 704.845130443573 2430.0000667572 152 151 146
96.9397202134132 705.708146095276 2433.00008773804 162 163 158
103.414483368397 704.830288887024 2430.0000667572 160 161 155
110.008575022221 704.822182655334 2430.0000667572 164 161 154
116.410493850708 703.653395175934 2426.00011825562 165 162 155
122.841149568558 702.774226665497 2423.00009727478 164 161 154
129.201859235764 701.60448551178 2418.99991035461 164 161 154
135.708972811699 701.304495334625 2417.99998283386 167 164 157
142.151534557343 700.713992118835 2415.99988937378 163 160 153
148.644506931305 700.413107872009 2414.99996185303 163 160 153
155.196025967598 700.401782989502 2414.99996185303 166 163 156
161.881178617477 700.970053672791 2417.00005531311 166 163 156
168.437466025352 700.957715511322 2417.00005531311 164 161 154
174.776241183281 700.075089931488 2414.00003433228 163 160 153
181.023225188255 698.902010917664 2410.00008583069 159 158 153
187.559515237808 698.888599872589 2410.00008583069 162 161 156
194.175943732262 699.164688587189 2411.00001335144 163 162 157
200.880661606789 699.730336666107 2413.00010681152 162 161 156
207.595840096474 700.295507907867 2414.99996185303 161 160 155
214.232817292213 700.570344924927 2415.99988937378 156 155 150
220.783412456512 700.554847717285 2415.99988937378 163 162 157
227.333575487137 700.53893327713 2415.99988937378 155 154 149
234.076976776123 701.102614402771 2417.99998283386 152 151 146
240.830764174461 701.665759086609 2420.00007629395 157 156 151
247.594952583313 702.228605747223 2421.99993133545 157 156 151
253.949791193008 701.631367206573 2420.00007629395 160 157 152
260.508626699448 701.61372423172 2420.00007629395 156 153 148
267.066985368729 701.595544815063 2420.00007629395 158 155 150
274.077177047729 702.736854553223 2424.00002479553 156 155 151
280.992776155472 703.587710857391 2427.00004577637 158 157 153
287.568747997284 703.568756580353 2427.00004577637 160 159 155
294.265359640121 703.839123249054 2427.99997329712 187 188 183
301.710367202759 705.848634243011 2434.99994277954 192 194 191
310.458987951279 710.756361484528 2451.99990272522 205 207 204
-147.731274366379 733.578741550446 2552.99997329712 218 220 217
-139.590799808502 727.268040180206 2530.99989891052 208 210 207
-132.198721170425 724.404871463776 2520.99990844727 201 203 200
-124.910339713097 721.828639507294 2512.00008392334 184 184 182
-117.95262247324 720.975816249847 2509.0000629425 175 175 173
-111.010901629925 720.122456550598 2506.00004196167 174 175 170
-104.085259139538 719.268620014191 2503.00002098084 152 153 148
-97.0201715826988 717.264831066132 2496.00005149841 167 168 163
-90.1013538241386 716.122627258301 2492.00010299683 179 180 175
-83.2040384411812 714.979767799377 2487.99991607666 158 159 154
-76.3897225260735 714.41113948822 2486.00006103516 175 174 170
-69.5580840110779 713.554739952087 2483.00004005432 176 175 171
-62.7425834536552 712.697684764862 2480.00001907349 189 188 184
-55.898055434227 711.265444755554 2474.99990463257 191 190 186
-49.0805432200432 709.832608699799 2470.00002861023 183 182 178
-42.3072278499603 708.686649799347 2466.00008010864 177 176 172
-35.6133095920086 708.68968963623 2466.00008010864 181 178 171
-28.8841240108013 707.830131053925 2463.00005912781 179 176 171
-22.1711583435535 706.969857215881 2460.00003814697 173 172 167
-15.493331477046 706.971347332001 2460.00003814697 172 171 166
-8.80471616983414 706.110119819641 2457.00001716614 171 170 166
-2.13410868309438 705.823183059692 2456.00008964539 165 164 160
4.52738348394632 704.960942268372 2453.00006866455 165 164 160
11.168017052114 703.810751438141 2448.99988174438 167 164 159
17.7941862493753 702.947497367859 2446.00009918213 168 163 157
24.4140140712261 702.371001243591 2444.00000572205 169 162 154
31.0483407229185 702.368855476379 2444.00000572205 169 162 154
37.6980155706406 702.653527259827 2444.9999332428 175 170 164
44.280506670475 701.788246631622 2441.99991226196 182 177 171
50.8883073925972 701.497137546539 2440.99998474121 169 165 156
57.4434511363506 700.630784034729 2437.99996376038 166 162 153
64.0084519982338 700.051367282867 2436.00010871887 177 170 162
70.5624520778656 699.471354484558 2434.00001525879 180 176 167
77.1054401993752 698.890924453735 2431.99992179871 167 164 157
83.7062448263168 698.884665966034 2431.99992179871 154 154 146
90.2326032519341 698.30322265625 2430.0000667572 158 157 152
96.8674570322037 698.583424091339 2430.99999427795 158 159 153
103.37983071804 698.000967502594 2428.99990081787 159 160 154
109.835878014565 697.130739688873 2426.00011825562 164 161 154
116.227388381958 695.972621440887 2421.99993133545 164 161 154
122.647672891617 695.101499557495 2418.99991035461 165 162 155
129.051402211189 694.2298412323 2415.99988937378 166 163 156
135.550826787949 693.93253326416 2414.99996185303 166 163 156
142.103388905525 693.92204284668 2414.99996185303 164 161 154
148.655652999878 693.911075592041 2414.99996185303 165 162 155
155.207619071007 693.899631500244 2414.99996185303 165 162 155
161.759257316589 693.887829780579 2414.99996185303 164 161 154
168.380260467529 694.162726402283 2415.99988937378 163 160 153
174.716725945473 693.288147449493 2413.00010681152 163 160 153
181.186780333519 692.987620830536 2411.99994087219 161 160 155
187.651082873344 692.686796188354 2411.00001335144 162 161 156
194.190099835396 692.672789096832 2411.00001335144 166 165 160
200.728699564934 692.658364772797 2411.00001335144 159 158 153
207.266971468925 692.643582820892 2411.00001335144 159 158 153
