ply
format ascii 1.0
comment KinectMotionCapture
element vertex 802
property float x
property float y
property float z
property uchar red
property uchar green
property uchar blue
end_header
110.953955801631 169.286760355382 2198.84796848878 20 23 16
110.814255190415 168.495986274946 2185.15611027846 17 20 13
88.7811787237984 168.331457682428 2197.59093337965 17 20 13
77.0932054809479 167.875843972415 2197.7619042044 14 17 10
62.2456223054546 167.517294416137 2201.81808115463 14 17 10
56.3518090182784 166.896075099165 2195.07231026584 15 18 11
59.9527327528531 165.985360315806 2176.68069422012 18 21 14
48.9557398504497 165.515624585976 2176.11716880287 18 21 14
32.9515155198155 165.205033296825 2181.8054825493 14 17 10
34.5633360103954 164.345265791925 2165.67788001208 12 15 8
37.3620730797204 163.440575169047 2147.94010335299 17 20 13
56.2746316892535 162.006117961021 2109.76788274385 17 20 13
35.301647234494 161.858168584049 2121.73594203869 15 18 11
26.1692020436497 161.328413723808 2118.81835867562 18 21 14
18.8972620217736 160.737737207902 2113.54378226988 21 24 17
2.42020745540028 160.460307169702 2120.12483036221 19 22 15
32.4778778706549 158.587985100988 2066.56196398373 17 20 13
8.04496612637484 158.583958593485 2083.43368035185 18 21 14
-29.6177134713886 159.061308366216 2117.88986663603 15 18 11
-27.1438876151084 158.131297020474 2099.9164266502 13 16 9
-18.1132424189727 156.956076620955 2073.10863654883 17 20 11
-47.6239666620519 157.176536312318 2097.41639395438 14 13 8
315.640042691229 169.051949609143 2213.83441803455 26 29 22
260.260490755079 169.691541252251 2260.15058669702 19 22 15
241.359446774589 169.401270194405 2267.44444134867 16 19 12
297.359536288972 167.114811763805 2193.1618681039 16 19 12
253.276012906896 167.497166535788 2227.90370200367 14 17 10
232.408385562486 167.267856598093 2237.47765155056 22 25 18
235.87815908311 166.370979511371 2220.22636311274 19 22 15
227.190979148379 165.809019155552 2216.39606780286 16 19 12
215.834791542165 165.324216977454 2215.5720781647 11 14 7
239.067613386331 163.017954089901 2162.00027088259 11 14 7
194.508053134695 163.509718684515 2198.86764293721 14 17 10
164.722898956656 163.58550815138 2219.27032307846 16 19 12
158.121481517148 162.973297389312 2213.24667709793 17 20 13
158.073814225794 162.158862864831 2199.62171043747 17 20 13
149.478732011659 161.605319352527 2195.85822136368 19 22 15
135.679787047226 161.21695716138 2198.20435426689 20 23 16
130.364676404449 160.562759433248 2190.64259912678 21 24 17
129.564869843526 159.761141323565 2177.70749220523 20 23 16
108.085328743543 159.630946013599 2189.30872218236 17 20 13
97.6271317553605 159.147111662009 2187.90037890329 17 20 13
91.6730246198769 158.514973745573 2181.11084441227 14 17 10
74.860423762733 158.249953038821 2187.4484162162 14 17 10
52.3897431639311 158.186761798431 2200.80185514292 15 18 11
59.8112663180257 157.098535237565 2177.76845976767 15 18 11
53.8680436180021 156.46777654584 2170.98652814522 16 19 12
57.9843678751906 155.47867121892 2151.7333977218 14 17 10
38.1905706653649 155.339542323957 2162.08624643467 14 17 10
46.6047531412137 154.185465396935 2137.30174970565 17 20 13
25.019548827018 154.1215112567 2150.06175431762 17 20 13
32.6969163049036 152.981330776285 2125.97852616663 16 19 12
26.6664556007421 152.344236695056 2119.13332176324 17 20 13
44.0351400529888 150.8159132937 2082.3115116372 19 22 15
32.9914175511559 150.359680311694 2081.71417933015 17 20 13
32.3707551308603 149.501171736292 2067.67361302864 17 20 13
3.67056255136378 149.741762230433 2090.09867636579 18 21 14
33.4107808812925 147.675942855889 2036.30499657091 14 17 10
32.6341263059051 146.805152748741 2022.15099154174 11 14 7
3.48118424715604 147.08285379987 2045.48336619773 13 16 7
32.1344758929465 145.002647178143 1992.13671380831 6 9 0
257.750019756416 161.557603601488 2276.81651451932 21 24 17
216.682754066716 158.734729310107 2255.67752414563 11 14 7
222.90319327794 157.712011777352 2235.47917356855 21 24 17
142.037531492852 158.681368264286 2299.14030016493 16 19 12
200.34593760202 155.10365443192 2206.76247596616 8 11 4
169.162597270182 155.311288211219 2228.6226166786 12 15 8
125.588616670861 155.960767110021 2264.96992420432 19 22 15
141.501477594284 154.582859953017 2233.2692905214 18 21 14
148.073891189406 153.513351957363 2212.09052557757 17 20 13
140.821650340701 152.921627630354 2206.83022421549 17 20 13
129.658778819115 152.469699897785 2206.14654004819 17 20 13
126.314668517146 151.738349837079 2196.30780996197 21 24 17
110.646422221739 151.454265246059 2201.0047789887 21 24 17
110.514557371161 150.603003449103 2187.3185891833 17 20 13
111.618831437045 149.699813230472 2172.05787209585 18 21 14
114.586441976193 148.719433962429 2154.44213204105 19 22 15
42.0641517766147 149.761711865278 2214.27103412985 14 17 10
52.0625361183105 148.51437952266 2188.16441352646 11 14 7
73.3110534877839 146.808898392898 2147.97850764299 11 14 7
66.6627476619612 146.191485168967 2141.92084491908 15 18 11
44.3282454017724 146.205698380988 2155.37310002144 17 20 13
35.2253338724315 145.694086039978 2152.47701813531 17 20 13
38.591575559022 144.670937892876 2133.91500104451 17 20 13
33.193599271085 144.003186456501 2126.29310617758 16 19 12
48.8068594505946 142.45056685724 2091.9040328332 16 19 12
51.2984152762019 140.518098142202 2059.11675057783 16 19 12
32.8750339533701 140.393685031584 2067.99304429326 17 20 13
51.7116092496415 138.64607860875 2028.52853001302 20 23 16
-0.696429448904023 140.030176309251 2081.94331857747 16 19 12
19.2276613808202 138.218768499116 2040.79677109116 12 15 8
42.5688866647076 136.227760051067 1994.71595333107 16 21 14
37.4536691200817 135.508091753914 1986.0637367132 14 17 10
33.5174293031884 134.731871809296 1975.79553203013 15 16 10
322.727127929035 151.252289441077 2221.35220631687 24 27 20
283.669832733829 151.706489421513 2249.85684773982 21 24 17
273.583465158586 151.19813240031 2247.48289069606 20 23 16
278.53435782977 150.174344652307 2228.83428657619 19 22 15
276.598910528438 149.380834254083 2217.54633824872 21 24 17
252.242098323114 149.371759476219 2230.76749638456 18 21 14
234.909246959138 146.525775592863 2195.95599534931 19 22 15
175.473371797183 147.853256786998 2249.21630950002 15 18 11
170.981973030394 146.296718388855 2227.42549268583 9 12 5
140.607950230859 146.589958152183 2248.63772193112 13 16 9
137.38337883836 145.850981305828 2238.88560952029 15 18 11
126.913149752903 145.392235459551 2237.46867099535 16 19 12
126.274053101804 144.547649222039 2224.64984847511 18 21 14
123.63446690495 143.777609791297 2214.08661034949 17 20 13
108.621312436775 143.503092166787 2218.02348125151 18 21 14
99.486743612867 142.995479583559 2215.10447057652 18 21 14
111.654133266637 141.612198922749 2186.86411524307 16 19 12
114.687052943623 140.59267596067 2169.29552090553 15 18 11
115.726235072287 139.648254260429 2153.98740843807 14 17 10
62.4357190297857 141.003803275446 2204.29195800274 14 17 10
37.9691290374709 140.276579418995 2206.31397969452 12 15 8
72.5440726832392 137.871043023734 2149.84760262551 14 17 10
81.6410549940372 136.555154725928 2124.32222583282 16 19 12
50.4684650889722 137.022951191326 2148.66155079276 16 19 12
47.597123051907 136.235794843783 2137.93022121209 16 19 12
52.1699605542132 135.105713057117 2117.77198180274 16 19 12
33.9479251009309 133.149817755409 2097.14172370062 15 18 11
58.4664017954366 130.086265117673 2035.85223387644 18 21 14
-13.0116363439128 132.573079668118 2113.73714414891 19 22 15
-41.3936668894681 132.084670804511 2121.56783442746 14 17 10
18.4708601662784 126.208148256699 1996.95808678824 10 11 3
-12.2692703660459 126.792314302472 2022.84653684068 14 15 7
362.537083814994 140.566613840345 2179.75477942085 23 26 19
339.842923632572 140.514974551508 2190.4759040056 20 23 16
261.750273241871 142.58153697761 2261.09324429897 18 21 14
259.914551696445 141.773589527436 2249.8775161737 18 21 14
282.547671496412 140.011875568846 2211.93008993981 20 23 16
298.146685234498 137.592184587844 2167.64541517089 14 17 10
221.874415527835 139.726361261983 2238.34769412127 12 15 8
244.142796514394 137.935323431131 2200.13571240643 13 16 9
241.438689821703 137.139243869055 2189.52557009804 16 19 12
164.091424309323 138.529236203185 2249.56391021928 9 12 5
169.510205138323 136.510187340416 2216.42812403502 11 14 7
155.654304918684 136.198231219794 2218.73335587005 14 17 10
152.999881388443 135.407102577094 2208.1592550238 15 18 11
155.546840991368 134.384806328091 2191.47340043963 16 19 12
128.037773863323 134.68044879397 2209.82177389168 16 19 12
114.309132040558 134.379496544571 2212.21931379122 16 19 12
91.5589239674866 134.490053317879 2225.37099735437 16 19 12
88.2730095753082 133.730088193985 2215.57430978418 15 18 11
107.253325123224 131.017113637265 2165.09318748317 15 18 11
101.242226786092 130.363130175206 2158.26222820183 15 18 11
83.7662155980925 130.249094763655 2165.35468109853 14 17 10
80.3127673984632 129.476292285103 2155.43677414926 15 18 11
87.5760795562028 128.184725842463 2132.28765828977 15 18 11
60.7291941786703 128.535969024942 2151.11634305302 17 20 13
62.2590884795415 127.514581660421 2134.92853183605 15 18 11
74.9825530198405 125.931415514481 2104.61990686025 15 18 11
64.5080494279924 125.488128515035 2103.20024243354 15 18 11
56.6168292348697 123.946307705804 2083.88533805293 15 18 11
39.3798666459237 123.853253870132 2091.15148313347 15 18 11
14.8424175531177 124.148155536686 2107.94893227685 17 20 13
-19.3635837847437 124.965545744854 2137.50185204341 18 21 14
19.1932296905826 121.967486621629 2072.80280305287 18 21 14
-6.9883310668879 122.374543210731 2092.11437301487 16 19 12
-17.292618754454 121.946416815182 2090.81788404418 13 16 9
-13.5522827545169 117.757677185982 2025.57609592592 12 13 5
370.637877103062 130.877033232689 2171.99185136657 70 73 66
341.729063199752 131.140532188013 2189.32535569594 20 23 16
301.991582056041 131.875969498827 2218.57367143767 19 22 15
222.160350227468 134.33767246725 2291.63808277293 14 17 10
319.81725762223 129.258645155287 2172.19645145368 15 18 11
304.816978191705 128.963643140739 2174.90722088156 13 16 9
241.285138931831 128.939425916667 2204.19434154503 8 11 4
244.62146738672 127.854157268714 2186.8453616908 10 13 6
230.528945820304 127.549356798695 2188.97909790659 10 13 6
198.514865201612 128.069566742857 2211.47363714531 10 13 6
169.979300475512 128.450234997485 2230.3136423606 10 13 6
199.086130350436 126.164625361043 2183.47020672871 10 13 6
206.869333326328 124.849980434331 2160.69785392125 11 14 7
190.25883990161 124.679389056671 2165.94767386712 12 15 8
162.586624191011 125.046471654006 2184.17813928827 15 18 11
137.007121372085 125.330347733994 2200.21983112327 15 18 11
123.781310548973 124.080510903011 2188.15575467646 13 16 9
86.8251741278234 124.961475587351 2218.18573258303 13 16 9
107.318726584941 122.990815265297 2179.92156107338 13 16 9
101.339932864035 122.333493969435 2173.11370871395 15 18 11
81.9369252963744 122.359974683487 2182.51565139441 15 18 11
70.2564085497959 122.000178847894 2182.69221845184 17 20 13
81.44313477854 120.456778770395 2154.97518486598 18 21 14
85.5470659986182 119.267483589405 2135.7120564644 18 21 14
30.3579166668539 121.203237317117 2189.58362608391 18 21 14
75.3104386983532 117.84108205924 2119.63823651059 14 17 10
54.8436540292681 117.951210382883 2130.73952141814 15 18 11
51.9210252861311 117.121118036146 2119.97079553043 15 18 11
55.7985898313795 115.914236005248 2100.54318553747 16 19 12
34.3315637168438 115.098099028004 2098.5637271126 17 20 13
9.81012533460923 115.471170204469 2115.37288422872 18 21 14
-18.8728771058968 116.097801800145 2137.81265891579 17 20 13
1.39647208831484 113.942279286943 2096.91465357726 15 18 11
56.7152583904962 109.733882998704 2009.77720437702 14 17 10
43.450563093943 106.292578782952 1965.56023687887 16 17 11
55.5693909294854 104.489942064346 1933.5771495613 14 15 7
-40.0518821843017 109.227264122276 2047.0819160797 9 9 1
344.249578138203 122.685812658515 2200.99088240871 81 84 77
344.302922697399 121.724321494242 2187.43810204652 21 24 17
284.674852865658 123.501526031283 2238.09100038144 20 23 16
287.678518847013 120.500713283618 2194.55362771696 11 14 7
249.77804980871 121.340640104914 2222.66379426223 10 13 6
247.817026409291 120.478067114326 2211.35666098277 10 13 6
298.247384227802 117.068858942046 2141.67662877735 11 14 7
248.475116668246 118.51490435259 2183.41587703868 12 15 8
229.028250072057 118.499960073495 2191.55077891841 11 14 7
203.005090672586 118.823187165756 2207.2710539507 10 13 6
178.431432424255 119.089981890645 2221.57174420188 10 13 6
171.160232405882 118.494794921413 2216.29768139412 9 12 5
205.397171897037 115.776608028505 2163.29009862829 10 13 6
215.714530850292 114.25539640186 2137.41332227551 12 15 8
131.630956800411 116.662937296816 2207.39484564348 16 19 12
125.040859521973 116.036722576196 2201.37933495648 14 17 10
126.219283221228 114.99501154788 2186.17166888548 13 16 9
136.377526441985 113.461686441991 2160.17948478535 13 16 9
104.596382405822 114.191597872674 2184.07898353243 14 17 10
107.605259399019 113.037354023787 2166.49227775247 14 17 10
70.9282620151108 114.067872754522 2196.72536702499 15 18 11
51.0091515262157 114.191900527398 2206.98900088497 16 19 12
78.7663272696881 111.64647412002 2159.16585614699 17 20 13
56.3281228542851 111.915159087798 2172.54422429353 17 20 13
79.9911029827034 109.560847146626 2129.16488654141 17 20 13
65.1369503384007 109.39917678186 2133.21759285245 15 18 11
40.950959260786 109.788166877977 2149.03496688175 15 18 11
39.9508299592193 108.833103784695 2135.95386450131 16 19 12
42.6331479618933 107.653928482974 2118.13030285729 17 20 13
51.433968786843 106.099589909314 2092.38902448545 17 20 13
49.6338413408375 105.167322115777 2079.96343294622 17 20 13
14.6077069325226 106.247007085826 2110.15818595137 17 20 13
86.700425409385 99.7147199806467 1986.99878492984 15 18 11
108.292286581593 97.2811291123279 1943.35268391231 15 18 11
72.206631583311 94.0032810855529 1912.23637855775 11 12 4
5.63814698847898 97.2332911214061 1986.27328467212 18 20 9
338.548998563365 113.691599239304 2207.92877177121 105 108 101
291.167051430998 115.052600286442 2245.22490593269 16 19 12
342.076799777627 111.535461755106 2177.12688409246 17 20 13
341.357709472576 110.570680255267 2164.24946365262 10 13 6
348.766913134629 109.186863627689 2142.44097149894 10 13 6
271.889631044322 112.110995012264 2212.70866533715 11 14 7
240.126373013678 112.763091255933 2234.15036814666 12 15 8
265.06149494893 108.473703489618 2165.74589552331 14 17 10
248.230646818267 108.360408284446 2170.83597137963 16 19 12
188.85808503678 110.549528307026 2224.14654712155 16 19 12
174.944605320618 110.313897814511 2226.4104249551 14 17 10
173.638045452743 109.393136212908 2214.34239489062 11 14 7
182.834981739719 107.886201464172 2190.12384028667 8 11 4
227.388219961933 104.3928861643 2124.8287780012 10 13 6
168.164511301967 106.685512138761 2179.48282145485 14 17 10
134.080418442255 107.601564212599 2205.41921065605 14 17 10
134.635792287738 106.562974102157 2190.99522936379 14 17 10
115.050955063945 106.677817116932 2200.26551294154 15 18 11
110.401325739278 105.936615729265 2191.95070209111 15 18 11
138.55280640449 103.271079830718 2144.41308350455 14 17 10
106.177304282739 104.14712285888 2169.11749620571 15 18 11
80.3647071111095 104.656741450315 2186.2266875065 15 18 11
83.9761884400931 103.417569462924 2167.8413556628 14 17 10
67.8373669299477 103.36369672132 2173.4333973714 13 16 9
105.517454653852 100.033179659647 2113.03784267925 13 16 9
74.1877933845627 100.905353038603 2137.26535150397 14 17 10
65.634258173672 100.388425620462 2133.53246068425 14 17 10
42.6959817846693 100.772883345835 2147.7839390261 14 17 10
35.4573622739527 100.183203464201 2142.53352241814 14 17 10
43.1307926914708 98.6453852630255 2118.44542609462 14 17 10
46.3634175358907 97.3769256549145 2099.78530475249 15 18 11
39.6494525466839 96.7404821009109 2093.67994790743 15 18 11
26.783782959261 96.5044021080349 2095.46807228165 15 18 11
86.2310658270213 91.5240178465428 2003.90873934777 15 18 11
-10.3492090577917 94.6564980463686 2084.59686800049 15 18 11
285.474476383292 106.268029547119 2252.16995430627 13 16 9
336.417019084545 102.519456520362 2184.09453353222 15 18 11
306.362021604127 102.103074347679 2189.47778257699 10 13 6
274.466629196839 101.816183039071 2197.23265584766 12 15 8
254.889463375477 101.888155104086 2205.27354128675 11 14 7
240.0518245501 99.6446178668835 2180.91947546365 16 19 12
202.002605445872 100.812998492498 2210.15851022412 18 21 14
168.137534695258 101.765315461037 2235.01911476304 16 19 12
168.179667865889 100.74354563291 2221.4579017027 9 12 5
195.050369269502 97.0747785588041 2163.10556086788 9 12 5
162.115509103922 98.0108759237468 2187.40508164985 12 15 8
150.886087432745 97.6505136309536 2186.67361765587 12 15 8
160.492665264438 96.0156157080127 2161.51604168494 14 17 10
127.208495027396 97.0168487323857 2186.79770669562 15 18 11
121.228094720491 96.3416384360745 2179.9885990764 15 18 11
145.49066088273 93.7650211923317 2137.04278801582 14 17 10
108.596977759632 95.0301496696195 2167.11998551631 17 20 13
115.684278959899 92.4464801196355 2130.25044444826 14 17 10
109.591746729499 91.7631670823642 2123.36030343972 12 15 8
66.7994637520293 93.477507290468 2161.51500509246 12 15 8
37.2359927956287 93.2969374573323 2169.72583989857 14 17 10
45.0671654377257 91.705358461368 2145.75182197101 13 16 9
34.7035104748144 91.3253183348101 2144.4125399619 13 16 9
54.8153572580521 88.8769321945215 2104.6342054586 13 16 9
44.3865030068489 88.4920134692414 2103.24763438292 13 16 9
33.9792754510753 88.1090960811166 2101.87704557448 13 16 9
38.9653099433223 86.6583396463801 2080.78168057169 15 18 11
92.8735078255873 81.762620192996 1996.32329418267 15 18 11
45.0078336156836 83.9946512522452 2043.15405818876 16 19 12
22.3708823425062 84.4739679889631 2057.62474849429 15 18 11
-21.9707919053143 86.5290130363765 2100.8334667097 14 17 10
-41.8915763791614 86.8584481378482 2112.33196412008 16 19 12
48.6008858766245 77.9807080453122 1961.73989631831 5 8 1
356.843805897631 93.1035108517826 2176.62222741341 18 21 14
304.099203222244 94.0528609334414 2206.3233686691 17 20 13
264.814784331072 93.2260697957183 2208.71933872991 17 20 13
257.415024188016 92.6180633340826 2203.35201501091 17 20 13
249.341640974937 92.0509657878225 2198.73161139354 18 21 14
243.953213004361 91.3203159005984 2191.11631971258 19 22 15
229.195877003737 91.1653144794768 2194.0042076251 17 20 13
204.497015161321 91.6349426597196 2208.21486803337 14 17 10
199.160842249792 90.9091786194338 2200.63777638469 14 17 10
224.903002213475 88.2210922198301 2157.5286587274 13 16 9
203.610617397763 88.4907771422002 2168.03255113212 11 14 7
191.427588746469 87.1087274327431 2154.25337231603 8 11 4
182.710870686426 86.5866503765818 2150.40186620551 11 14 7
194.81707117887 84.7010155779141 2122.11460902043 12 15 8
138.074746836529 87.3435346167973 2174.86382883402 12 15 8
135.935488821369 86.4016960175443 2163.42738245898 13 16 9
126.678050290668 85.9320964334075 2160.4194934547 14 17 10
91.972498558023 85.0117290653043 2159.9585359545 13 16 9
92.3144118381556 83.8905359201053 2145.37909966526 13 16 9
88.1733426116229 83.0737595829656 2136.19724097494 13 16 9
43.655679326867 85.0885105645298 2176.8081036259 13 16 9
28.9296302116844 85.0356758217121 2180.95422619294 15 18 11
7.99532698580974 85.433657911023 2192.95338606362 14 17 10
74.50093133696 79.5663464367214 2095.39007545004 15 18 11
59.6669903707583 79.5053836248327 2099.45794374148 16 19 12
18.8693339075656 81.3461674798894 2136.58886544843 17 20 13
20.2819834025099 80.1226828543088 2120.31503730704 17 20 13
12.5444467648346 77.2951606290996 2086.28370610294 16 19 12
0.974123947088845 77.0232431824364 2086.5406002124 18 21 14
2.76965256528694 75.7364955932036 2069.3086777729 17 20 13
23.2198392903795 73.0051207235203 2027.30381198486 18 21 14
69.502317566065 67.025373644135 1934.84181464008 15 18 11
271.578804175814 87.9494876980541 2255.59018430111 19 22 15
264.665800508653 83.0285269177833 2196.20843488943 20 23 16
241.769721400273 83.4202678818166 2208.02046657318 20 23 16
222.997672400843 83.5580262523202 2215.41000049293 21 24 17
228.359678864539 82.1208295203579 2195.82229090765 20 23 16
214.319216637799 81.9559246417383 2197.99447464852 19 22 15
206.961093437292 81.3518886749494 2192.65735454909 16 19 12
230.701425026363 78.6580001006654 2151.80273823439 15 18 11
233.129610855317 77.3759793050166 2135.02946645068 12 15 8
237.462166192396 75.9541617157509 2115.93089477875 10 13 6
216.167426482537 76.2814327123008 2126.43307727825 8 11 4
183.866488763276 77.3847935227004 2149.95795256326 10 13 6
191.420870365834 75.7341776867862 2127.01802050009 12 15 8
122.217121386698 78.3543944982231 2180.61445667696 13 16 9
140.69906171606 75.9221649613482 2144.59509103152 13 16 9
94.379503905671 75.880765208399 2157.95177100236 13 16 9
69.9474261830431 76.5450436046093 2173.59214596046 13 16 9
70.3173303848512 75.3931095783356 2159.03284517907 14 17 10
89.5536431890167 72.826850764846 2121.08958809662 14 17 10
63.1468819437164 71.3620077890633 2110.58518896168 15 18 11
61.4115737633689 70.3348500862887 2098.20581117831 16 19 12
23.6994149311012 72.0834438165903 2131.39753138153 16 19 12
-12.5610550459967 73.7537415177137 2163.17084749619 17 20 13
64.4869683293092 65.3722093707158 2034.94844059784 15 18 11
0.829299820475971 69.2386141929246 2102.45283751946 17 20 13
26.9158667606395 64.774553269723 2038.58729708685 17 20 13
22.5197443573921 63.926192021032 2029.22067939884 18 21 12
342.034770856558 75.3958381484955 2194.20505282918 18 21 14
313.929674717268 76.1321699513547 2210.88884215729 18 21 14
210.64234850094 76.4762604493414 2243.47124115146 21 24 17
212.092632516209 75.2743395662027 2228.45984093082 21 24 17
216.158217994862 73.881208013292 2210.40291904073 20 23 16
188.166993372407 74.7303892478487 2228.40457001833 20 23 16
222.732847810579 71.1708153069215 2175.6311629257 19 22 15
186.86400489828 72.5922048621019 2202.74667609472 17 20 13
235.616747259286 67.963870359074 2133.07936615605 13 16 9
219.565871334876 67.9664911741401 2137.50041101841 11 14 7
216.675631425249 67.0190122953587 2126.7545699014 9 12 5
205.2647026501 66.6922786494101 2125.89169786992 7 10 3
174.356475493767 67.81124737796 2147.95589008568 10 13 6
136.930632341332 68.2953106231404 2164.05707082241 13 16 9
143.775837530897 66.6251752553343 2141.8379794018 12 15 8
128.056022499872 66.6565723048084 2146.49916312827 12 15 8
168.046542231839 62.4281550825513 2084.06824302284 12 15 8
70.6506543651146 68.7512860084824 2187.6487405108 13 16 9
28.5115041382946 70.8788578588875 2225.04396850356 13 16 9
16.3687989455319 70.6970650820936 2226.12142354255 14 17 10
65.518898676082 62.1560837432243 2108.5526803275 14 17 10
56.3148951880752 61.7092290245036 2105.58364273325 14 17 10
53.9410638698548 60.7065115347932 2093.97654632418 15 18 11
-10.8391552630158 64.8348289121941 2161.90384008697 16 19 12
-30.9048177850959 65.3242953222893 2173.29782842144 16 19 12
4.30063789648827 61.2144960734649 2113.57448619103 17 20 13
26.9822764855854 58.1074015980592 2069.47994002225 17 20 13
50.6635192940705 54.8797816359343 2023.63934454097 17 20 13
37.1255083528537 54.7895900817371 2026.17614437928 19 22 15
39.9457418776645 53.3016098349156 2007.21566537636 16 22 12
9.5799140134063 54.6727849410201 2032.14469962476 16 22 12
380.411375124536 63.4615432572423 2154.03289646562 24 27 20
361.789029662979 63.5982913006387 2160.29591192809 20 23 16
343.236402812563 63.7409607538067 2166.60920341574 16 19 12
191.390981165243 70.0378284248395 2278.88790109 22 25 18
212.480130801537 67.3875386240129 2242.28708485812 21 24 17
246.799059250856 63.7378413233597 2190.56955046014 20 23 16
203.282127259878 65.7956134537922 2225.73031039318 19 22 15
177.329821146581 66.5841850451146 2241.50460002336 20 23 16
182.053949533176 65.0941274786119 2222.68924788564 19 22 15
209.205078631237 61.8996355960077 2178.12888372075 18 21 14
204.455814953179 61.0923664059636 2169.7415111548 14 17 10
224.675403427578 58.3721552117842 2132.50997731366 12 15 8
200.144415979933 59.0699932327421 2146.84378385817 10 13 6
144.377263271019 62.2095209646063 2197.83237058864 7 10 3
171.603813144436 58.918146324656 2152.09115319389 9 12 5
167.457118330447 58.0572116513803 2142.90499272449 11 14 7
141.306721405785 58.9359097172359 2159.7711752356 12 15 8
121.726855093879 59.3113501048535 2169.04667678755 12 15 8
158.089675780394 55.2067942103961 2111.39739633644 12 15 8
116.729390734117 57.3403636290817 2146.88690296382 12 15 8
115.773826875886 56.2212696882864 2133.83727617576 12 15 8
35.3468028941504 61.6136779388466 2217.60084275824 13 16 9
103.172968285219 53.6306193678017 2106.16250089004 13 16 9
80.6929660704179 54.2910891357027 2119.51284786406 14 17 10
53.9331385923196 55.3303748564099 2138.40812782762 13 16 9
81.0026579171645 51.8209553877817 2090.08160346155 12 15 8
7.32989302924114 55.6873251761127 2154.03124747239 13 16 9
13.1197888058208 53.9772872099521 2132.28226872859 15 18 11
-6.41766837276858 54.4635171901039 2142.82411136667 16 19 12
22.5795211990572 50.6969202542338 2090.95325265276 17 20 13
10.9869668080469 50.480391569296 2091.19431117532 16 19 12
42.6505547409661 46.412155336757 2035.07937605161 16 19 12
50.9796146677228 44.3909071231998 2008.99374314743 18 21 14
54.9625087663643 42.7430660873632 1988.40521862207 16 22 12
-20.0215904152743 48.271291957815 2072.40976112832 18 21 12
363.710075765977 55.2664568451021 2172.76223547805 28 31 24
343.081373679827 55.6030669993389 2181.2772169112 24 27 20
203.119683584084 61.4407713796622 2279.93593325829 24 27 20
226.322010813607 58.5268590761656 2241.16055937363 21 24 17
258.749212987705 54.8719390557566 2191.7767556608 21 24 17
278.165551977283 52.1827227961681 2156.43345385679 21 24 17
241.226751716889 53.8582069393829 2184.00965577854 19 22 15
179.888622503405 56.3126926118395 2226.01551740639 19 22 15
188.516626964206 54.4512946820307 2202.61777318335 17 20 13
202.316990138042 52.1584465844646 2173.08622033017 14 17 10
240.967768865616 47.8385652870752 2114.62436556644 12 15 8
194.093085981458 50.4124642744313 2154.76444323259 10 13 6
161.855431255065 51.8334118664643 2178.33680234931 7 10 3
196.845465867447 47.7489254141408 2123.39786599665 9 12 5
169.905600301397 48.7490321821024 2140.92739742973 10 13 6
148.270897483274 49.3286369800285 2152.41974264355 12 15 8
193.386519971201 41.7979334519169 2055.3986063715 12 15 8
95.2267040559969 48.9403335605071 2159.6645025032 12 15 8
117.81684541881 45.7664852910506 2117.97365765674 12 15 8
107.264171109895 45.4377916512641 2116.49761156991 12 15 8
106.199933625124 44.2828299864739 2103.36902327366 11 14 7
82.4499518718209 45.118856922949 2118.26969746759 13 16 9
102.056816341018 42.1294852582552 2079.35758693885 12 15 8
56.6914911468079 43.6569816807866 2107.00024361818 11 14 7
15.8797800177233 46.0900622674753 2144.1239768976 12 15 8
0.0201405803679222 46.290712364342 2149.91998733419 15 18 11
18.1712840675017 42.1179354795108 2097.59534969513 17 20 13
51.2117643074692 37.772181750345 2040.00648529586 15 18 11
27.2221568459634 37.4193721638368 2041.14114165642 19 22 15
43.3873747244418 34.5789272576586 2004.67530340291 16 22 12
36.4916353300417 33.9122544295858 1998.43802129504 16 22 10
-7.61419556260967 36.8258060224285 2041.82205589666 16 22 12
334.664095846017 46.960591807084 2191.18823082286 29 32 25
255.115798260525 48.4308038831261 2223.69357159842 17 20 13
235.596587813426 48.8017690134336 2231.77798458397 21 24 17
235.683354346592 47.5988423009993 2218.24820960532 22 25 18
221.626387385069 47.5404827490809 2220.4089683848 18 21 14
214.302002769213 46.9372084380108 2215.09630996334 17 20 13
204.301744466029 45.3446002460356 2199.19299707038 15 18 11
187.024637224939 45.5717977252765 2205.1966259427 14 17 10
200.836667864551 43.1915934637024 2175.67308860826 14 17 10
201.348748319892 41.9155094536335 2161.21652006014 13 16 9
210.986054077394 39.8517952975391 2136.07904737964 10 13 6
221.814347203039 37.6665452368163 2109.33396352049 10 11 5
183.387765991313 38.4645878604823 2125.94631487788 9 12 5
150.710293079984 40.064140939699 2150.43578170737 11 14 7
117.560318792007 41.7349507669518 2175.81811976392 13 16 9
140.472118598441 38.457142940852 2134.35992541212 13 16 9
177.89847877903 33.8461625932754 2075.0086945622 10 13 6
109.755532239941 38.6831482334604 2142.97193826692 10 15 8
116.411345140152 36.8162981135051 2120.61485041195 11 17 7
84.9594037337957 38.4081569087874 2144.75736110425 10 16 6
71.9823094723977 38.3333454423068 2146.46582268828 8 14 4
90.4978082366426 35.3551380343523 2109.23298215371 12 15 8
91.2793571420822 33.9952372704734 2093.7360013812 12 15 8
86.4439482327275 31.8488332688558 2070.45777985835 12 15 8
56.0634812772269 33.4204531193351 2094.14188610302 14 17 10
41.9837837904402 30.851039613625 2067.86554424559 12 15 8
30.3230542242035 30.6672389568599 2068.05734690261 13 16 9
10.774599212561 31.263178727759 2078.59177267852 15 18 11
8.91455855418988 30.1282052934602 2066.12142755197 16 19 10
7.48371944277215 27.608098233922 2037.89884420089 21 23 12
40.908721791963 22.8948807252473 1978.11679354982 21 24 13
51.9049663692339 20.4020708230556 1947.7867935434 21 24 15
67.530121678911 17.4116353864883 1910.92869267665 18 23 17
53.896342021563 17.3976853024025 1913.3964539069 18 22 21
274.943860645573 41.3761398205723 2242.97235937972 21 24 17
255.997257304568 41.7298457109846 2250.23644894884 22 25 18
254.808223980889 40.6159540490204 2238.25263814256 15 18 11
269.875992047583 36.8952846870948 2194.81129896632 21 24 17
240.893519317871 38.1140141065727 2213.3312815003 22 25 18
214.065308876016 39.1723559367914 2229.70701245862 18 21 14
230.144757415483 35.3115024887766 2184.52798425198 16 19 12
217.42613060548 35.165794244591 2185.18841867214 15 18 11
188.84369383767 36.4187681606283 2203.99856926722 14 17 10
196.714220426085 34.4753290593394 2181.28633424359 14 17 10
209.088144179672 32.1140902488471 2153.19074633593 14 17 10
203.621869404277 31.3269490974983 2145.51873570543 11 14 7
223.631270020398 28.2426286483533 2108.13298791503 11 12 6
144.740059172511 31.5566116334933 2158.41598914664 11 14 7
142.553208016123 30.4774049680246 2146.9443456915 12 15 8
183.378473050332 25.3897963396783 2083.87916166697 14 17 10
150.236850339128 27.1715399487277 2109.26811586123 11 14 7
106.424451871613 29.9905524805962 2147.92394603719 10 15 8
131.537190304732 26.3147537176476 2103.11880216985 11 17 7
133.612095127927 24.7991471266571 2086.08824628757 10 16 6
74.3710101587962 29.1655602370143 2144.44560178918 8 14 4
77.7851241329648 27.5354023007682 2125.91521371703 12 15 8
79.387598017874 24.7472474554478 2094.94945050537 12 15 8
71.3857864169039 24.2063654567999 2090.38106346396 12 15 8
75.1744878588623 22.4956744180913 2070.88677729607 13 16 9
54.157713643713 23.2499639226868 2082.82795695391 13 16 9
95.8787174290827 16.332049291344 1999.40574712386 12 15 8
-8.22221193488337 24.2241918712303 2104.30904191416 14 17 10
12.4509885114694 20.7510468225115 2062.46208631982 15 18 11
19.6136634274713 18.6445826886204 2038.00085212943 17 18 10
17.6306077591213 17.4753578057349 2025.44115730654 18 20 9
19.8101943925786 15.860653589738 2007.25094892434 21 23 12
24.311339420243 13.9868513038372 1985.80193438998 21 24 15
63.8852015108689 8.35481721367456 1916.88638304927 19 24 20
324.685775244601 29.3025451002968 2203.62735023551 28 31 24
263.314539891888 32.0939738359824 2243.14084594117 24 27 20
299.52053282683 27.6847627255867 2190.31677556115 18 21 14
273.737966792263 28.6767371953605 2204.97981256629 18 21 14
337.287222928258 21.786311505248 2121.32485385242 19 22 15
231.343450961113 28.6448917664129 2211.30100563932 16 19 12
221.983163279113 28.2195543249147 2208.21848880981 16 19 12
209.966870793838 28.0375781700204 2208.15284003721 17 20 13
239.863180568707 24.0340267701402 2160.63797689022 17 20 13
223.79232700306 24.2113377496802 2165.0451298972 16 19 12
194.570375406746 25.6149608109453 2184.62807119604 18 21 14
191.820305688106 24.5808171936553 2173.98310899084 18 21 14
206.748802193999 21.8856489007851 2142.79725297612 16 19 12
214.334903614869 19.8560936560353 2119.87839588337 14 15 9
177.514935784847 22.020533882911 2148.77854973508 9 12 5
173.358877564201 21.1026217391759 2139.58531293025 7 10 3
162.681023723886 18.1518704376634 2109.59763095695 13 16 9
152.662785405201 17.7914394975294 2107.27381153999 13 16 7
124.152904068525 19.2563971413624 2127.3729639611 11 17 7
121.865130544564 18.1478354561161 2115.82801103896 11 17 7
145.527117592538 14.4433822005313 2072.4411146497 10 16 6
92.5498258247699 18.3965310302492 2122.98588453083 8 14 4
88.9817473177836 17.4142975471118 2112.98352433908 12 15 8
85.3865463742589 16.4301655632127 2102.96149289798 11 14 7
93.6827075927247 12.8523018886147 2063.25784010161 10 13 6
48.9979134822383 16.1040652928908 2104.98884839124 10 13 6
36.2378558557261 13.3400760593638 2077.19778833119 13 16 9
0.194883003247881 14.4255736191561 2094.30448764364 13 16 9
33.5975590718971 9.45029314008455 2035.74025590096 13 16 9
16.4896978821565 9.89588266927188 2043.10242319876 15 16 8
4.87719725154978 9.75557973009969 2043.32970284201 16 18 7
35.9344746757064 4.93492596970904 1986.77113467106 18 20 9
60.2380824138011 -0.662763114839787 1922.84267811872 19 24 20
362.977338472226 16.6588081191857 2163.38965786586 26 29 22
354.00597698659 16.1532581811602 2159.3539334919 24 27 20
297.257476087463 19.9870438057033 2207.16426879396 25 28 21
317.714997587046 16.8231772319198 2171.33800710775 19 22 15
310.861201807952 16.138230235494 2165.13103825947 19 22 15
281.640009068588 16.210076918122 2169.88587202449 18 21 14
266.090063615392 16.3463502721354 2173.43569242308 17 20 13
237.874200404375 17.6856187194853 2191.27698048215 15 18 11
261.833088079317 14.1023602154434 2150.57629530429 16 19 12
248.345847330706 14.0547772221167 2151.91507873027 16 19 12
250.140489850209 12.5473435777048 2135.91672722675 16 19 12
239.322383918334 12.2473467569966 2134.2484094469 18 21 14
173.885641072725 17.2601651352346 2195.52848323132 18 21 14
171.82309433915 16.1451050339433 2184.14647462332 16 19 12
150.107608284838 16.957917419187 2195.58143958763 15 16 8
210.599046825441 9.64791108398919 2110.94300948934 13 14 6
185.550661955995 10.7778209812615 2126.13896875941 7 10 1
153.501516788555 12.6316239237558 2149.84988049908 8 11 2
117.630872749287 10.8690384288362 2136.18880699759 12 18 8
143.360093380772 6.84497979107207 2090.59376359811 11 17 7
153.009824349534 4.45192902325328 2064.22829895733 10 16 6
92.6291744968069 7.99717561002672 2109.40415046191 12 15 8
126.034809254102 3.07030689243237 2053.31238200928 12 15 8
55.3877386509218 9.19411443251778 2126.87765947514 10 13 6
25.47648254951 8.28311271868998 2121.2463912738 12 15 8
61.8073622749162 0.0669192334036561 2030.20478507878 12 15 8
40.3132537602642 1.02191221175371 2043.03598814796 13 16 9
55.7228196944735 -3.60255018564221 1992.42703892107 14 15 7
10.8074430573626 0.0331012712962153 2036.46320522036 15 17 6
-6.80175691924778 0.600061888850423 2044.69788720717 16 18 7
19.3532417185165 -3.85456286765837 1994.46858299788 16 19 10
19.0242985446427 -5.2904813498007 1979.40123440247 18 23 17
327.801768471464 9.27037471346864 2188.49304261512 26 29 22
344.187615071673 6.38352151895072 2157.12734875712 27 30 23
261.052910555025 12.9587471860678 2233.99361014467 22 25 18
316.116836668606 6.36393764400359 2160.24560605339 20 23 16
309.918728795039 5.60910639858603 2153.27827427718 19 22 15
285.514097182157 6.62072969648786 2166.47023161796 16 19 12
273.981965464254 6.3947779983583 2165.52000746711 14 17 10
235.69451326572 8.80357236577942 2194.59262491352 14 17 10
261.004130122405 4.96019357421912 2152.39942684953 15 18 11
244.85989601115 5.20191861196848 2156.75400547991 16 19 12
237.389752184591 4.58594002205043 2151.33561874628 15 18 11
206.795264890208 6.29908159673079 2172.39492617989 17 20 13
169.770064895099 8.69239800200164 2201.14746215822 17 20 13
142.787036246521 10.0987759713647 2218.64776159536 15 18 11
175.452822970374 5.41158463748309 2166.96161099819 16 17 9
160.720118008554 4.20008834339705 2156.2754222923 9 12 3
174.716534068574 1.36282100139529 2125.64819814029 8 11 2
190.50155940824 -1.68960347002886 2092.61108084801 8 11 2
137.653396914334 1.09825021219045 2127.18690275819 14 17 8
141.116148395509 -0.670063630426931 2108.69077878892 12 18 8
144.502780183963 -2.44420506770499 2090.13973898904 12 18 8
91.3786715021479 1.89194163709769 2140.58001811569 12 18 8
95.4425008835833 0.0532235907754197 2121.28452958061 12 17 10
102.574417843223 -2.13722850065287 2098.03560950489 11 14 7
92.0353224316624 -2.39623619847601 2096.56976002358 11 14 7
52.569901324981 -3.69120094132816 2087.71593323012 12 15 8
109.931022172288 -11.6591786353644 1999.5696051708 12 15 8
16.3590697656839 -2.42870410238258 2104.70184471996 12 15 8
4.79490174254238 -2.52810556214839 2104.96407439886 12 15 8
54.8429833728772 -9.76664554144019 2025.10634924126 12 15 8
68.9480610344431 -14.3942068601769 1976.02210066515 14 15 9
46.2905419537654 -13.2290796862436 1990.48106021613 13 14 6
15.9325322191854 -11.1259919905297 2015.41946927514 13 14 6
-63.9434351522865 -3.06490231403289 2107.00683468131 16 19 10
-31.7534358920957 -8.38534540548847 2048.79650147587 17 22 16
258.647427516935 5.49359301810565 2250.7387390233 29 32 25
277.88411651576 2.2506100039795 2216.49773127551 24 27 20
287.448310833997 -0.0571416256348878 2192.5410590837 20 23 16
357.768458694892 -8.49335846630636 2101.43538481921 20 23 16
318.375548961551 -5.92671006907658 2130.94246869799 16 19 12
255.673440043281 -0.94995795632688 2186.79394556433 13 16 9
234.183005322898 -0.124210510663053 2197.15708393287 14 17 10
225.466468591483 -0.596401727450985 2193.30596195295 18 21 14
226.071084562483 -2.03228694726004 2178.9156649503 18 21 14
217.339445270873 -2.50510420170044 2175.05359163119 17 20 13
185.486871622311 -0.552416830427338 2197.67246649987 19 22 15
174.214028572153 -0.739081647350953 2196.91040523356 18 21 14
176.094796097582 -2.31608496900537 2180.97413520072 16 19 12
194.921533002621 -5.71333928242979 2145.19983191056 15 16 8
173.80037507277 -4.85472933796585 2155.83053888333 12 15 6
163.817221205267 -5.18135581405751 2153.53232416005 10 13 4
192.301102344091 -11.1206036851633 2091.39747031557 8 11 2
164.83886100918 -9.54601075230047 2109.78626692063 8 11 2
126.617885611633 -6.75434068020778 2141.37938189511 14 17 8
107.130671379624 -6.00665844908035 2150.72393439539 12 18 8
101.729294933566 -6.81987774305468 2143.0988378579 12 18 8
109.633231487088 -9.13452621178387 2119.17390555315 12 17 10
125.646803017573 -12.3889102091985 2085.06611220098 13 18 11
91.1103467857459 -9.91080588057525 2113.15285337787 11 14 7
67.1607612823717 -11.4990003865722 2099.48864758334 12 15 8
66.0160004761332 -12.8250646133257 2086.3008195447 12 15 8
80.2948215032218 -15.9725443328807 2053.40667223489 13 16 9
72.8400039849424 -16.5807095012331 2047.99943544573 13 16 9
-7.56374217757072 -9.9562761590134 2121.90494060146 11 14 7
57.7920064088948 -19.2845517239255 2022.25550791029 11 14 7
43.185132023611 -22.0723341902792 1995.5958981868 13 14 8
341.821011215217 -9.24829693789925 2188.68091367808 23 26 19
302.083968719344 -6.58285988572649 2217.93932323417 22 25 18
340.340979076145 -13.3021694831192 2149.298687333 38 41 34
345.635923337967 -15.2720531063637 2129.65966476228 25 28 21
344.081242964693 -16.5413717959997 2117.41000133791 22 25 18
297.311227380574 -13.0626607544192 2155.1604643566 19 22 15
249.452733509123 -9.42034959629012 2194.59276816076 22 25 18
227.31182048915 -8.46444292100823 2205.7200568394 21 24 17
218.619362706741 -8.92947540409175 2201.8867209409 15 18 11
221.912094395251 -10.6831050517932 2184.5027514801 15 18 11
201.921779064458 -9.92848454235612 2193.48233592389 16 19 12
197.877773326567 -10.8948421209968 2184.37037744647 15 18 11
195.128325276909 -12.0071894156919 2173.72576426237 15 18 11
202.195288198909 -14.2074347586841 2151.66474464302 17 20 13
197.385994484643 -15.1094516210929 2143.23337510708 18 19 11
194.514525179978 -16.2308774567582 2132.50026012656 15 18 9
224.756490184771 -21.0735178360849 2082.76135194586 14 17 8
176.6729972526 -18.5828785205474 2110.90879706743 7 10 1
73.7676880567393 -11.1206921710796 2191.9741451742 9 14 8
74.8505981038656 -12.6728253314501 2176.69465382968 14 19 13
149.543026204585 -24.343436138474 2056.62884780168 16 21 15
109.878583271815 -21.1580941922443 2090.88296074502 15 18 11
56.6292119737084 -16.309775572178 2142.47006520881 15 18 11
92.5289528474211 -22.0730934166959 2083.24164973329 15 18 11
80.7501250165976 -22.1535604752011 2083.34836384301 15 18 11
85.7716374175443 -24.2636880591318 2062.27537768851 14 17 10
68.4241617702468 -23.6641230631962 2069.46491774552 13 16 9
57.3139216030305 -23.8149125834292 2068.82091249463 13 16 9
9.36275639580186 -19.413758267614 2115.60068928922 13 16 9
62.1107180301892 -27.4531236687053 2032.75566743238 12 15 8
37.4479863822308 -27.4475799705389 2034.63921346424 12 15 8
87.7439030060505 -36.9430805714285 1937.6580265151 13 14 9
41.5966064056379 -32.6445949456412 1983.27457838665 13 14 6
20.783975878564 -34.7106589898877 1964.47118896773 14 19 13
29.2367029881304 -37.4176147902108 1937.23669517024 22 26 29
358.829461660914 -20.301016181698 2171.31177774258 15 18 11
343.023312214199 -20.0574522765158 2174.67641384639 34 37 30
244.145482175497 -12.320054615626 2254.95735717978 20 23 16
312.887165431174 -21.1312367865444 2166.41092532817 30 33 26
297.23360457272 -20.8738477805245 2169.88624618288 20 23 16
239.819879722164 -16.045878277159 2219.68945544171 18 21 14
229.785086929795 -16.3585558341474 2217.35387721378 22 25 18
227.806548327411 -17.5576703244582 2206.03263661788 21 24 17
232.469389148218 -19.5014734710636 2187.17055750497 20 23 16
231.061594408825 -20.7822123876957 2175.02761124261 17 20 13
238.236529491732 -23.0352469111634 2153.04459555934 15 18 11
203.662649449568 -20.5873269386695 2178.63368679232 16 19 12
195.625461915614 -21.1211618866673 2174.03998515384 17 20 13
196.129100125408 -22.6308066268214 2159.57581913359 17 20 13
195.269693947761 -23.9939159681927 2146.59466311417 19 20 12
193.060634441076 -25.2095245733397 2135.10622944924 12 15 8
205.377944902931 -29.6203988537408 2092.137602092 12 15 8
113.545509386715 -26.1944092509699 2130.56943298231 19 24 20
90.326756366363 -24.8743077852371 2144.62232704843 20 25 21
124.128046422139 -30.4847698790461 2088.81420950718 16 21 17
104.711062535733 -29.6260204750706 2098.20994158388 17 19 14
104.842530864154 -31.1617123164548 2083.47614421744 17 20 13
73.6361707267021 -28.8187242735371 2107.80048663025 17 20 13
124.272243916175 -36.6580402390619 2029.60129715964 16 19 12
114.855306942026 -37.0411472674142 2026.47822243168 14 17 10
105.451259180837 -37.4228516628811 2023.36449847388 14 17 10
39.9295052027036 -30.6706917385549 2092.00227023415 12 15 8
44.8889122990779 -32.8399186975236 2070.88396326899 12 15 8
38.1239413566186 -33.5199999003716 2064.7414100866 13 16 9
31.9645058859281 -34.2789869953227 2057.80209171035 13 16 9
60.4492693597112 -39.5471453874653 2005.55215867746 13 16 9
58.9910624251666 -40.9514157788928 1992.1367107215 14 15 10
76.9865352478929 -46.5571418737739 1937.22189266698 16 17 9
19.6022473123079 -40.5540214538196 1998.16860683861 16 19 8
-22.4924906705519 -36.5206451225207 2039.31108785486 14 20 10
-16.7579352722793 -38.8806282221391 2016.28336848335 14 19 12
359.984040668011 -31.2124160839601 2157.27187085465 32 35 28
304.538959203454 -26.5488131090483 2203.56121265124 26 29 22
270.518814793563 -24.2100529765968 2227.08079800983 36 39 30
262.470410037066 -24.7452447233325 2222.47895789489 34 37 30
257.132485904035 -25.5846294314725 2214.89972676027 27 30 23
255.827623288668 -26.8832078475584 2202.8310133537 23 26 19
256.498926017358 -28.4145187427977 2188.48828117798 20 23 16
229.641271613872 -26.8034525429744 2204.84546723805 20 23 16
250.332203945939 -30.6434089598447 2167.95024336502 21 24 17
266.17671890696 -33.9586869926362 2136.18995659292 22 25 18
222.815537978587 -30.4074273419603 2171.47118860386 20 23 16
204.820573887862 -29.7801996747654 2178.19149058703 21 24 17
177.668834016726 -28.0596898179409 2195.5710787984 21 24 17
197.941567985613 -31.9325391931591 2158.37252739779 17 20 13
204.935190094316 -34.2600059047902 2136.2576970564 17 18 10
215.745110042179 -37.0644357030965 2109.49615782114 19 20 12
248.654228788741 -44.1173632582211 2041.91776679216 12 15 8
166.136749470202 -40.2216447950849 2082.16385201962 9 14 10
131.877024112137 -37.4997806240341 2109.21739937508 25 29 28
126.998947380333 -38.4268461617063 2100.73604068535 14 18 17
93.0082993964958 -35.6821680776485 2127.98476352876 20 24 23
108.36419879878 -39.1639943070061 2094.63438868191 21 23 18
87.7611198512906 -38.0866919818489 2105.64176988537 20 23 16
81.0189014221749 -38.7700082016642 2099.51569409947 19 22 15
122.914249947113 -45.737891366727 2032.27627147904 17 20 13
127.174760645627 -47.8888983198804 2011.886448517 14 17 10
121.443609663455 -48.7515655507111 2004.02204091699 13 16 9
68.8089462718149 -43.4502974698814 2056.05705453901 13 16 9
57.0712105770177 -43.4876956116154 2056.19406984467 14 17 10
37.4013288025927 -42.4630134153603 2066.64264243377 15 18 11
65.4249597169474 -47.7999446544772 2015.29311284866 15 18 11
28.1238829057968 -44.4009777860748 2048.79119464722 15 17 12
21.3341853738287 -45.0847349452571 2042.63069801296 16 16 14
36.2721585595311 -48.7276320797542 2007.74121257062 17 18 13
33.0021481568639 -49.9121421257466 1996.71886710891 19 20 12
35.693313882045 -51.9243946279327 1977.66246303829 19 22 11
16.8162478957545 -50.9637946340597 1987.45040349354 15 21 11
-55.5088597404307 -42.5335196231417 2069.69180080318 15 20 13
381.859238898351 -41.5487182243853 2148.37481403746 12 15 8
365.293704415829 -41.1681051263855 2152.42468653312 30 33 26
332.379738508722 -38.9014473942292 2174.27572582412 27 30 23
252.950415047409 -35.6301086865393 2206.87673101982 25 28 21
253.634872308143 -37.1936610949495 2192.54337153549 12 15 8
267.000248134333 -40.2714385814896 2163.92784235504 13 16 9
224.77905350653 -36.7484192640697 2197.5649639855 14 17 10
225.400806003347 -38.3161748139635 2183.1864216669 15 18 11
247.868491761809 -42.5289672022178 2143.87161694113 18 21 14
214.576924194362 -40.0202594689251 2167.92051849652 22 25 18
212.439896070748 -41.275538002373 2156.48380650537 20 23 16
225.735914123286 -45.9744403087046 2112.98816961934 14 15 9
198.632636768242 -44.1667709546665 2130.40362529993 13 15 10
203.528859278267 -46.3228854263227 2110.47461752622 12 14 9
148.451666374947 -50.3124299530544 2075.46821814936 0 1 2
131.46301430522 -49.6887642621097 2081.682962521 21 25 26
123.996634518658 -50.300674062453 2076.26732502951 25 27 22
68.1581470393913 -44.5256681412347 2130.92265876679 24 27 20
61.4873063302817 -45.2060696728318 2124.84834097687 22 25 18
81.0099844285435 -49.3852785289872 2085.86917519127 20 23 16
72.9933055469374 -49.9064097999922 2081.29011058217 16 19 12
78.6061412720169 -52.2674320580271 2059.40918538759 15 18 11
80.4225843408632 -54.1326322385204 2042.18978878031 19 22 15
66.7996373859161 -53.9021590902681 2044.66664091957 20 23 16
88.7567433574565 -58.5518862617557 2001.2740884845 21 24 17
89.7445707651858 -60.3493027372514 1984.68939066797 20 23 16
29.8445212847467 -53.6942680680415 2047.52108204554 19 21 16
12.1422247480427 -52.8556664617008 2055.68965226432 22 22 20
34.971137526941 -57.7010045592808 2010.45802712288 22 22 20
64.3792627390267 -65.2269395290516 1940.33929529005 21 24 13
372.049525194044 -49.7991619665326 2159.74877492256 24 27 20
270.250631184891 -43.7768631119833 2215.6713576209 17 20 13
240.62384183908 -43.2027993891242 2221.36974620756 15 18 11
280.734686578584 -52.6913703996623 2135.53224021212 11 14 7
138.652623494139 -36.6357683475634 2282.11090196407 16 19 12
