ply
format ascii 1.0
comment KinectMotionCapture
element vertex 762
property float x
property float y
property float z
property uchar red
property uchar green
property uchar blue
end_header
263.541121654641 739.611214218815 1968.45176007368 215 214 219
258.051014225305 740.274771691348 1975.22235372278 216 215 220
250.57917531969 741.318293809504 1979.65394946135 219 218 223
239.780285487992 742.99872622537 1980.20966077396 220 219 224
229.619838007797 744.554462220408 1981.56740447185 222 221 226
220.103166044034 745.984809609342 1983.72097342213 222 221 226
213.245174191788 746.904875008177 1988.9781661293 223 222 227
205.71140707805 747.953209788725 1993.47020834262 226 225 230
196.822764431842 749.258889208945 1996.43580792762 227 226 231
189.269042585237 750.308383317629 2000.94749413747 229 228 233
176.288607557523 752.390372974985 1999.3594341408 230 229 234
163.948482772404 754.347443772072 1998.57124672041 229 228 233
146.123018013922 757.344486001182 1991.7397497486 229 228 233
127.548308225709 760.479092536685 1984.21536074705 228 227 232
107.533133009915 763.881846716015 1975.247586627 226 225 230
87.4400340116717 767.293893706843 1966.35581850137 225 224 229
68.6469657118667 770.454094868942 1959.04414201314 224 223 228
53.9297011391486 772.837924471007 1956.30234898227 220 219 224
39.1655160935041 775.227092493865 1953.60602181638 210 209 214
31.9979844359697 776.177629823702 1959.16608838795 228 227 232
23.4328534044144 777.390969819027 1963.24099320161 223 222 227
30.926892844434 775.575136299079 1984.40789406299 119 118 123
329.851503406688 721.918978152716 1929.30862312154 170 174 160
307.037042332202 725.877960792039 1914.53623932645 163 166 155
304.73823385601 725.94237378724 1925.31160150368 199 201 196
303.754680284689 725.758505801451 1937.65141057334 217 219 216
299.560937295334 726.183109019865 1946.00416898158 206 206 206
293.428087559776 726.974296636907 1951.97724224489 209 209 211
284.68664510911 728.25729131571 1954.80002265458 218 218 220
278.545165070621 729.04832857421 1960.78168815921 213 213 215
273.059220668754 729.71525317353 1967.54765020063 212 212 214
268.892589109031 730.13337218648 1975.8744449212 214 213 218
263.417708024968 730.797650695536 1982.63014985747 215 214 219
255.960854724922 731.833930514699 1987.04759723482 219 218 223
245.177419143171 733.493590583243 1987.59137023462 220 219 224
235.697663171056 734.906428920686 1989.71086888964 221 220 225
224.863047167285 736.571420686947 1990.3046767825 221 220 225
218.018228516332 737.487112828427 1995.54943467158 224 223 228
211.840691404358 738.277152584274 2001.56705281366 226 225 230
203.642562881633 739.444108144278 2005.28437431005 227 226 231
193.406384341711 740.990180443189 2006.71841051784 229 228 233
179.760134157629 743.17033505869 2004.36009675834 229 228 233
166.07072149263 745.355295371552 2002.04359585848 229 228 233
149.613692036159 748.052333095186 1996.73205725689 229 228 233
131.048519093072 751.137454928849 1989.20517400249 228 227 232
111.728295726839 754.358160364972 1980.991456307 226 225 230
92.3338675809822 757.587525904623 1972.84980725312 225 224 229
72.1764784961114 760.953426362036 1964.02870057137 224 223 228
58.1594556718237 763.175854167267 1962.03198372365 224 223 228
42.0210701345312 765.787947531411 1957.83349105685 227 226 231
32.0815828219092 767.249294259009 1960.40267805218 217 216 221
18.6386759532491 769.356209484503 1959.27017544207 220 219 224
11.4450911191191 770.306034388927 1964.85588065731 233 232 237
18.260813822963 768.669549765648 1985.25294305875 204 204 206
310.732149957773 717.043240573676 1906.50473550764 166 169 160
306.486923350466 717.48429985185 1914.90618571113 195 198 191
305.474022329542 717.326244888325 1927.27132207866 203 205 202
305.138028096311 717.043905714084 1940.39989631126 210 212 211
302.243870750113 717.236355829277 1950.33027772715 199 199 201
294.168271663189 718.38696703668 1953.92867921264 200 199 204
288.03650140936 719.177369910806 1959.9007965193 216 215 220
281.904321998354 719.967234677431 1965.87339965714 221 220 225
277.083479426984 720.514678560654 1973.41347426424 219 218 223
270.954403909101 721.302972655702 1979.3832273349 219 218 223
264.165225814163 722.212063202789 1984.5737090421 219 218 223
257.371790759593 723.121100719014 1989.76842581109 221 220 225
246.591803772136 724.761469050888 1990.31128777405 221 220 225
238.447093614511 725.916075300763 1993.97772710886 222 221 226
228.9550390919 727.316547422863 1996.11126612755 222 221 226
222.790910757001 728.105486477568 2002.11573183892 222 221 226
213.940702922733 729.385445614464 2005.04696653414 224 223 228
205.074662295093 730.6668700071 2007.99370686308 225 224 229
193.491283881406 732.443268123547 2007.89733392811 228 227 232
180.522084567929 734.470238677324 2006.30624850059 228 227 232
166.155235330443 736.749403880453 2003.23161937221 229 228 233
152.422817705086 738.909698512475 2000.96180645257 229 228 233
135.914959074491 741.572396602052 1995.7058173552 228 227 232
120.03344860785 744.117210274597 1991.26185001297 226 225 230
99.2884108296961 747.542467871666 1981.59860489367 225 224 229
79.839392547866 750.727294548668 1973.51774747624 224 223 228
60.3163456145506 753.920687118712 1965.50913556884 227 226 231
44.1836363522028 756.494501755739 1961.31066385626 217 216 221
31.4702814351846 758.445211422453 1960.89370180451 227 226 231
18.72201809255 760.399660155887 1960.51118954499 216 215 220
6.63716885857513 762.231374814526 1960.9046087869 208 207 212
-3.3767621316021 763.686479611524 1963.54864200913 233 233 235
32.2570227370553 756.897134390609 2014.18786934804 133 135 130
310.824816760517 708.518346909437 1907.67269156324 172 175 168
304.00995479166 709.43338788295 1912.88779826649 208 210 205
304.921346320103 708.947530571074 1927.64159852531 194 196 195
304.582749799566 708.68975564418 1940.76912628264 213 214 216
302.982381954027 708.661325734042 1952.28155804737 214 213 218
298.808577140234 709.098806292334 1960.61261428733 205 204 210
294.646012331009 709.534339150015 1968.93279690589 201 200 206
289.186715389721 710.20374232734 1975.67193129228 216 215 221
281.763267300966 711.226788658381 1980.05816270477 221 220 226
274.989563577861 712.131805537268 1985.23388021837 222 221 226
266.232288458597 713.39297276962 1988.07560878908 222 221 226
257.45909605016 714.655556940924 1990.93293404028 222 221 226
248.006237431158 716.038822280668 1993.03009410218 222 221 226
241.196161102867 716.94600678249 1998.2416097767 222 221 226
232.37921451642 718.21221986071 2001.14184722261 223 222 227
224.88528996146 719.239964083461 2005.59736846153 223 222 227
216.0405468493 720.508619916538 2008.52484723029 223 222 227
205.159830486929 722.13997322059 2009.16940521075 224 223 228
194.251470404927 723.774175835559 2009.84065484456 225 224 229
183.993203004144 725.290292049753 2011.30139095594 226 225 230
170.994391110568 727.293575235463 2009.74321224087 228 227 232
159.99981708042 728.936877423685 2010.49872868671 228 227 232
141.463924144011 731.921822009234 2002.95791394835 227 226 231
119.432546137472 735.524739883915 1991.71160910255 225 224 229
100.746594360797 738.527422394087 1984.31718335334 224 223 228
84.0571487171453 741.170980676587 1979.24400385742 223 222 227
67.3092378192619 743.821201807441 1974.22789645715 226 225 230
48.4245552571836 746.846932550715 1967.02740679683 223 222 227
32.9435307726413 749.264864042419 1963.62175124475 215 214 219
17.4118761481914 751.68847064182 1960.2655333916 230 229 234
1.13099587495613 754.241396506542 1956.21728503462 227 226 231
-12.4019944330533 756.30476820348 1955.18067232598 224 224 226
310.917474690362 699.992098080758 1908.84085672246 212 214 209
309.240206791644 699.994001733483 1920.42516808944 206 208 205
306.945508228657 700.106015171228 1931.18941373748 206 207 209
305.965810726542 699.98593708751 1943.51596555374 210 211 213
302.424445761916 700.319494443766 1952.6512687959 205 204 210
297.598214448836 700.88010601681 1960.19508616636 212 211 217
295.387170822516 700.978978792201 1970.8782034098 195 194 200
290.583388707723 701.535580910567 1978.40032099015 193 192 198
285.131025011885 702.206114982239 1985.13240341563 206 205 211
277.050973188309 703.338843323069 1988.73753177231 224 223 228
266.979652657183 704.820731594195 1990.01734791159 223 222 227
260.193134204235 705.723413062023 1995.2061358141 221 220 225
252.738655361688 706.742646396369 1999.62374478307 221 220 225
245.276219193157 707.762162214265 2004.04955158542 222 221 226
235.135479598739 709.250384139457 2005.39736576945 222 221 226
226.310110639338 710.506454914582 2008.30746578418 222 221 226
216.126014317783 711.99896326761 2009.69770030702 223 222 227
203.898236805338 713.847180008434 2008.81370112405 224 223 228
193.661101551789 715.345077447412 2010.25580758587 225 224 229
184.077768077846 716.727087529928 2012.48305447597 225 224 229
171.757882676753 718.585146868855 2011.68906505633 228 227 232
160.765104260762 720.209398597825 2012.44595192232 228 227 232
144.280214301154 722.788721711231 2007.17913953819 227 226 231
123.626829239479 726.090502194426 1997.44313178005 225 224 229
98.7697786723616 730.119245842328 1983.27184958185 224 223 228
85.5190067848595 732.124395393726 1981.96359501736 223 222 227
69.4656692351479 734.613975250582 1977.69841804254 226 225 230
54.7435906911029 736.869093093752 1974.98042889811 222 221 226
37.1956348747475 739.611462103586 1969.32824919473 229 228 233
21.6754608416423 741.998888753232 1965.96597832544 217 216 221
5.40607584032626 744.512861282634 1961.91207227947 225 224 229
-8.11551720416803 746.548024326189 1960.86831114632 221 221 223
-20.9735531098723 748.465906326681 1960.59987136983 222 224 221
310.799624638034 691.771458733575 1896.0027837688 119 122 115
314.851853145701 690.799257209785 1914.79479021184 214 216 211
314.47001482945 690.596303543998 1927.95681731111 210 212 211
312.190243200547 690.722356787673 1938.70416521576 202 203 205
308.64104788817 691.06816432954 1947.8454335369 197 198 200
303.162890215829 691.74712636062 1954.60222195562 210 209 215
300.938078611698 691.864364017446 1965.29629668311 213 212 218
298.736010353302 691.978216832637 1975.96794936819 197 196 202
293.941438960159 692.538847049917 1983.48032521452 193 192 198
287.186794653397 693.436684711588 1988.63817753111 213 212 218
279.112195563893 694.560587950593 1992.23919558846 200 199 204
271.025589686386 695.685533085394 1995.85198257203 211 210 215
264.250331162792 696.584082494196 2001.03019991476 225 224 229
256.143562204275 697.71033116038 2004.66281647448 226 225 230
246.693633110584 699.065747713771 2006.7611835129 223 222 227
234.553995796752 700.880503796834 2005.79460528037 222 221 226
224.387534460729 702.355267140453 2007.17028854852 221 220 225
216.882798096922 703.372934411165 2011.63803544256 221 220 225
204.65673902531 705.196875234013 2010.75591779252 221 220 225
195.096620390072 706.563103513069 2012.96244454826 223 222 227
184.162330131801 708.162468138955 2013.66493011198 224 223 228
172.521312666716 709.88055923863 2013.63441135873 223 222 227
162.892455172219 711.253625109491 2015.90818622478 224 223 228
145.730305738728 713.908319731423 2009.88585331619 225 224 229
127.820800429609 716.686967616156 2003.17042628423 225 224 229
100.227727554066 721.109255334194 1985.98957608757 223 222 227
84.2251027108296 723.555455556494 1981.68078997858 221 220 225
73.0036739183713 725.186536926245 1982.66372063055 222 221 226
61.0620160653159 726.938046892991 1982.92680293287 222 221 226
44.9209651667681 729.399751947788 1978.75318433565 222 221 226
26.6353698001374 732.221802079895 1972.40480545722 223 222 227
9.6807079123753 734.814941412823 1967.60244151104 224 223 228
-4.52999389671049 736.940532586366 1965.81270101219 224 224 226
-22.2960868585727 739.664759377752 1960.37981613092 219 221 218
-26.0355225260462 740.014854151129 1969.70936228599 212 214 211
319.829281650235 681.704604222202 1908.36215938925 119 122 115
317.505282669729 681.853569861275 1919.15003926581 208 210 205
319.699463103958 681.2400927555 1935.48302980531 204 206 205
317.434660387787 681.380239481855 1946.21343034775 204 205 207
313.900481915326 681.734886238862 1955.33848029272 198 199 201
306.49318934302 682.742038236132 1959.71101821414 213 212 218
304.27751009519 682.874223103968 1970.39381518556 213 212 218
300.128927919847 683.331875603198 1978.69684356862 205 204 210
294.030019797532 684.117369088745 1984.63705389838 198 197 203
287.274944279733 685.012430607747 1989.79574472658 206 205 210
279.857717912424 686.018004414047 1994.17838030923 196 195 200
273.092130169113 686.913211789578 1999.34748837523 198 197 202
264.998949517607 688.030317361618 2002.96796289053 226 225 230
256.893753602841 689.148230022589 2006.60024945248 230 229 234
246.779982162822 690.601444892419 2007.92645788802 226 225 230
235.307716560344 692.280381546124 2007.7344908926 220 219 224
226.481630575952 693.51496012315 2010.64847946124 220 219 224
218.310990413303 694.638764318374 2014.34488236259 220 219 224
206.761851143623 696.325636092416 2014.22774140579 220 219 224
195.181480643659 698.015842333105 2014.14145853162 222 221 226
183.569597901539 699.709326604619 2014.08564544623 222 221 226
173.284853474256 701.179836542727 2015.57941422403 222 221 226
162.976398702615 702.652640958475 2017.09605075949 223 222 227
147.863266442165 704.92359297179 2013.34679629314 224 223 228
132.014302719487 707.314168977892 2008.89330581278 224 223 228
107.180991358362 711.195151452669 1994.72028926895 223 222 227
88.4422703161327 714.059010272306 1987.39878226134 221 220 225
71.0149090741612 716.701792029176 1981.64156931538 222 221 226
60.4526725241903 718.202756696787 1983.40605283537 222 221 226
45.6988082775327 720.396852055127 1980.72830861814 222 221 226
31.5949391011303 722.480788178762 1978.83863833394 223 222 227
14.6539193347395 725.031977927958 1974.02926553172 223 222 227
1.85754935264626 726.894616053631 1973.70775560208 224 224 226
-18.701030456528 730.038303185201 1965.31788027277 220 222 221
-35.8154011737342 732.609295705163 1960.67738284445 219 221 220
323.113660049482 672.658706724292 1913.52292505901 140 143 136
320.798679492563 672.822588006487 1924.2993071401 198 200 195
323.001790226788 672.242717733298 1940.61846268451 195 197 196
321.39034044043 672.291741626135 1952.13078918403 203 204 206
317.221124370481 672.761856187572 1960.45212760011 205 206 208
309.175385051995 673.868899138836 1964.02731726336 210 209 214
307.616781974432 673.909445868619 1975.48808127883 208 207 212
302.173593458735 674.587904462324 1982.2098813739 220 219 224
295.426296169349 675.479921503117 1987.36129827885 214 213 218
286.707214220894 676.694419050533 1990.17166038341 196 196 198
280.60315265002 677.479205927146 1996.11709260026 212 211 216
274.498702642039 678.263511052991 2002.06298174346 196 195 200
265.747501520063 679.480334598704 2004.9052327226 227 226 231
254.989734255923 681.02401037173 2005.44065913179 222 221 226
244.20438883456 682.570632090235 2006.00303564933 226 225 230
234.72625608001 683.902124690075 2008.1329452898 218 217 222
226.56737299728 685.017062577343 2011.81932151543 221 220 225
218.396370809357 686.132833682377 2015.51727120045 221 220 225
206.173740144153 687.907987862408 2014.63895973666 221 220 225
195.266334716885 689.466930805133 2015.32072257289 222 221 226
184.331462739923 691.028805623435 2016.02932676906 222 221 226
174.048186346487 692.482986072005 2017.52371341697 222 221 226
163.060349304045 694.050299633034 2018.28410886234 223 222 227
148.630019527277 696.175362262809 2015.29529314092 223 222 227
135.522770571193 698.083164365427 2013.85890609429 222 221 226
113.446901839431 701.444552651171 2002.6924791641 221 220 225
91.970193872259 704.70491577809 1992.36291752953 218 217 222
69.0263025864355 708.199395489638 1980.62186965492 220 219 224
57.765204014085 709.797207097085 1981.64911024109 221 220 225
43.0033503810279 711.960171634095 1978.98390072445 221 220 225
32.374454325673 713.452143987725 1980.81590717878 222 221 226
14.7367267785667 716.075849819161 1975.27074833905 223 222 227
3.34097424478186 717.687878201075 1976.42926322442 223 222 227
-17.9161419104719 720.890926010994 1967.30736201298 220 222 221
-41.3681695944788 724.444628945716 1956.06214792688 221 223 222
-55.7312667725287 726.528235373003 1954.4296057674 218 220 219
343.99765250242 661.000583832427 1927.09915650468 148 154 144
330.865342548182 662.92030258743 1924.26864696396 196 198 193
323.451715609038 663.919748583365 1928.64895179091 198 200 195
323.73540542101 663.682988095672 1942.57234341377 199 201 198
322.125126669017 663.750570516925 1954.08042627447 204 205 207
321.833720989142 663.607083871927 1967.14420107126 207 208 210
315.096937580937 664.496727069971 1972.28519054771 211 210 215
310.305727238053 665.074152470795 1979.79174650066 207 206 211
302.914296588447 666.067334148896 1984.15059810543 214 213 218
295.514780522885 667.060873427151 1988.51776363661 216 215 220
287.4512280815 668.159796530044 1992.11150426228 205 205 207
280.690874039588 669.049521708492 1997.27588760977 203 202 207
274.585999398572 669.833821397251 2003.22219922345 200 199 204
265.834461022677 671.039896163934 2006.06637376556 233 232 237
256.403535665844 672.353217936206 2008.15242924461 219 218 223
244.956235155004 673.986562826274 2007.9420721449 218 217 222
234.812384618593 675.410782976619 2009.30243497469 219 218 223
225.983646540184 676.624172270571 2012.22218887867 220 219 224
217.81030474081 677.732218560401 2015.92360355677 221 220 225
208.27860984304 679.055177555494 2018.10830030229 221 220 225
197.376770025164 680.594666777901 2018.78741165749 222 221 226
187.124528747925 682.029484924408 2020.25384171602 222 221 226
176.169686662059 683.57441757951 2020.98478056987 222 221 226
163.825269316614 685.338329964954 2020.22906661223 222 221 226
151.445632432492 687.106033675771 2019.50776582091 223 222 227
137.661085089104 689.094637324607 2017.31509433422 221 220 225
116.277964889704 692.284764119308 2006.902979562 220 219 224
90.6763942945803 696.139369921458 1992.07984493746 216 215 220
68.4194222318051 699.460610453008 1981.09919011271 219 218 223
57.1560544061698 701.040073986721 1982.13139593822 220 219 224
43.7814005966022 702.951453649677 1980.96001710221 220 219 224
33.1540931511136 704.427127244162 1982.79285499295 220 219 224
16.9150012782167 706.787159249079 1978.73128192294 221 220 225
2.72302198057917 708.821818975192 1976.93638932167 221 220 225
-17.131288078033 711.747327217885 1969.29631978124 219 220 222
-41.2856257099867 715.347421660993 1957.32474389311 216 217 219
-57.0615125100509 717.624026594982 1954.23277898271 217 218 220
337.727263229717 653.549613962323 1920.25688913551 165 168 161
337.339942907561 653.444826860658 1933.40985097237 196 196 194
330.585516737468 654.336209420649 1938.56844073724 190 192 189
327.037196828485 654.725720442084 1947.70238041467 206 206 204
323.503868524423 655.1128697829 1956.82178226217 210 210 212
322.569728359166 655.09382797984 1969.08849969331 204 204 206
317.13044533225 655.778280795541 1975.80553563688 206 205 210
311.044762058059 656.563050580072 1981.73272045966 211 210 215
301.699558334619 657.855482109065 1983.73674065838 200 200 202
294.295629423021 658.84422457138 1988.10865933623 206 206 208
286.227845895329 659.935602340704 1991.70771669015 210 210 212
279.463358121994 660.823123037752 1996.87686855743 199 198 203
272.694602759739 661.710592043927 2002.05026584348 201 200 205
264.598391949622 662.803725490271 2005.67729242079 213 212 217
254.499671434103 664.207337171296 2006.99588639545 223 222 227
243.046316379894 665.820039648746 2006.79459248638 215 214 219
233.563824251966 667.125178994084 2008.93306389056 214 213 218
226.738846697095 668.016669321996 2014.1616962954 217 216 221
218.567076864455 669.116497680041 2017.86276459401 218 217 222
209.036835858466 670.425841534445 2020.04769207336 220 219 224
196.786256010298 672.155575027104 2019.20384771919 221 220 225
188.563100708976 673.259935368684 2022.95527272263 221 220 225
176.25383956327 674.995874156866 2022.1691204664 219 218 223
165.271251505416 676.52490388869 2022.92996192571 221 220 225
149.480459855801 678.796046641528 2018.43635789953 222 221 226
137.74455160756 680.438282611634 2018.51161629371 221 220 225
114.987932788669 683.781663050237 2006.6069364976 220 219 224
90.0712663305794 687.455218014681 1992.54701265072 217 216 221
69.8846336982921 690.395276153823 1983.81788455253 218 217 222
60.7028651238126 691.634831246192 1987.08433566428 219 218 223
47.3376873338553 693.518244459087 1985.90768042983 219 218 223
33.9335240412435 695.40598272578 1984.76909913477 219 218 223
16.2992969283771 697.943460667241 1979.23287091457 220 219 224
2.80553700714448 699.841078760768 1978.18180016212 220 219 224
-15.6439494076595 702.499335474388 1972.020376113 219 220 222
-34.1595899527385 705.165342279009 1965.92349863311 217 218 220
-53.4477752387117 707.947522639317 1959.15935194074 217 218 220
-55.8080927154601 708.126187521999 1969.97890708572 212 214 213
330.630376365181 646.310103620363 1898.61673860412 67 70 63
337.183570202176 645.171077549562 1920.61788121214 168 168 166
339.346558170061 644.701878556821 1936.96052208973 204 202 203
333.237698457033 645.492400603396 1942.90987127706 198 198 198
328.412589763434 646.087072571775 1950.44753975822 194 192 193
322.950536223812 646.778169977307 1957.18620509005 206 204 207
323.305625782661 646.584477890807 1971.03233021789 205 203 206
319.811604537753 646.975989026837 1980.11205490315 214 212 215
313.733287899036 647.759771161089 1986.03207052228 207 205 208
303.743834491385 649.136739744902 1987.24643632369 209 207 210
295.037830371224 650.317745457964 1990.04876202991 198 196 199
288.938716663738 651.102498266044 1995.9892859806 213 211 214
280.208698132143 652.285397931627 1998.81551626901 201 201 203
273.44145564164 653.169963650262 2003.98784035568 195 195 197
263.362276282272 654.555485119041 2005.28970339888 210 210 212
253.922777703427 655.842892997552 2007.38776443432 217 217 219
243.132781261203 657.333726853023 2007.96300490612 211 211 213
233.649986202982 658.625518463925 2010.10374991388 213 213 215
225.485896946948 659.716712615807 2013.79846741828 214 214 216
217.309854049355 660.808941963532 2017.50490206397 216 216 218
208.448691919069 662.003656857398 2020.45961359897 217 217 219
198.896469080712 663.301855228 2022.66801666045 219 219 221
188.647493791851 664.703946727866 2024.13604052832 221 221 223
178.375089709009 666.108330104481 2025.62732863857 220 219 224
166.716956573144 667.72060698513 2025.62944529479 221 220 225
152.296005614272 669.747765352548 2022.64612431776 221 220 225
135.773406858657 672.089893163809 2017.45181468758 220 219 224
110.950638747325 675.679832649925 2003.31134456747 218 217 222
85.3337866256472 679.386125399347 1988.52496748713 213 212 217
69.2777901734844 681.650707529213 1984.29602324953 217 216 221
58.7083132029189 683.08819100837 1986.07707910614 217 216 221
48.1153886307477 684.527981773184 1987.88107776195 217 216 221
34.016425419328 686.493243831367 1986.00407575705 218 217 222
19.1759969102323 688.568107790394 1983.42991348082 218 217 222
4.28899524731063 690.64829927813 1980.90154947039 218 217 222
-13.4543679141217 693.155132026274 1975.47822430594 216 215 220
-27.7382978705951 695.140940546826 1973.78186025502 219 218 223
-51.2466995125407 698.507991788787 1962.6198755392 219 219 221
-56.434668252709 699.126589565847 1970.51433318659 213 213 213
334.529717775543 637.212786562538 1904.59134601924 110 112 107
335.367549046432 636.974259842453 1919.38163734777 196 194 195
338.800332232653 636.351658612264 1937.32018206366 197 195 198
334.609505668096 636.858096713106 1945.65794925908 197 195 198
332.35597629242 637.077609548044 1956.36542493157 203 201 204
323.685089635156 638.24622735534 1959.13470940507 203 201 204
321.457730247268 638.461202702137 1969.81686853159 202 200 203
317.30951624374 638.959969028343 1978.11345470892 199 197 200
313.172500804641 639.456674940474 1986.39922507453 212 210 213
303.180700054755 640.817736054701 1987.61793509655 201 199 202
294.472591229314 641.988261734977 1990.42423759249 206 204 207
287.715493529017 642.869897414471 1995.58692081102 208 206 209
280.953938286543 643.751636325281 2000.7536773353 204 204 206
274.188241094165 644.633235699689 2005.92490534246 188 188 190
262.787828299878 646.19732409052 2005.67856196943 199 199 201
252.68269580551 647.56942918645 2007.00817979339 208 208 210
242.553877089052 648.943812681115 2008.36098163969 212 212 214
235.738104523023 649.829484036631 2013.58133339612 207 207 209
228.248730207533 650.813489448413 2018.03880075714 211 211 213
217.395221993732 652.29157294493 2018.67899385448 213 213 215
208.533721532512 653.475657133193 2021.63561257074 215 215 217
196.955796710238 655.058067924585 2021.56249538081 217 217 219
188.054872897152 656.245883707407 2024.55771054021 218 218 220
177.101088256884 657.734249887748 2025.29595983521 219 218 223
166.800755903816 659.125537895428 2026.81657877847 220 219 224
153.062484110361 661.020326286798 2024.5918208407 220 219 224
135.172155907788 663.522823300017 2017.89816563666 219 218 223
108.974018984742 667.242029047706 2002.27019510383 216 215 220
81.9741986333535 671.07587945099 1986.00445431865 212 211 216
68.6710022206212 672.899173577353 1984.7751362351 216 215 220
58.0992280648016 674.320789194756 1986.56081849366 216 215 220
48.1985253189725 675.642987531461 1989.11172007023 217 216 221
34.7958020610446 677.476882626804 1987.97966679665 217 216 221
17.8618793136374 679.826035016865 1983.19310758312 217 216 221
2.2702501188081 681.976923531558 1979.93675297876 217 216 221
-14.7767657550579 684.338930893258 1975.26025911044 215 214 219
-26.2476709884463 685.88393786123 1976.50364531518 218 217 222
-51.1645001446492 689.392429661993 1963.88552645315 219 218 223
-59.8940753937041 690.533801468619 1968.13436367259 211 211 213
342.234209877109 627.598374077763 1915.36594061611 123 125 120
340.549883050495 627.752599566913 1926.93474850193 202 200 201
338.892220403154 627.902814955498 1938.47767115469 194 192 195
333.420691155041 628.601475557907 1945.22462816793 197 195 198
331.162700352623 628.837531378551 1955.93408905707 200 198 201
325.063630893725 629.625580862676 1961.87408182097 200 198 201
322.1937254732 629.948996741972 1971.76136187541 200 198 201
317.399003072401 630.548578459554 1979.26779281785 200 198 201
312.611734198494 631.146676784292 1986.76737938471 207 205 208
304.572989473395 632.211160033508 1990.34157577672 201 199 202
295.868466140018 633.370383441466 1993.14598829695 202 200 203
288.459110326629 634.343003935434 1997.52567878838 199 197 200
279.726503476748 635.504706277999 2000.3576122702 205 205 207
272.956516103081 636.384074963082 2005.53343018571 179 179 181
261.551848104651 637.927248175079 2005.2940657056 194 194 196
252.769437396052 639.093518989418 2008.17477993723 189 189 191
243.305646734534 640.356509797795 2010.30057220216 208 208 210
238.493308778966 640.952520253051 2017.8253613239 196 196 198
228.334344282115 642.313367267346 2019.21009906166 205 205 207
216.138141767266 643.964893353079 2018.32381623224 208 208 210
205.926208138458 645.331343491315 2019.76066280379 210 210 212
197.715763507421 646.410454951523 2023.50319769738 212 212 214
186.78530063264 647.877718654201 2024.22140707148 213 213 215
176.506273897623 649.250694011177 2025.72357582283 214 213 218
164.841767253209 650.820845068171 2025.73824764559 215 214 219
155.877514072932 652.003848288643 2028.7970610974 217 216 221
136.625247251252 654.655442095926 2020.5996381568 216 215 220
113.865142792102 657.805962141665 2008.72692433484 214 213 218
86.8792218776142 661.557567851928 1992.45953693306 210 209 214
73.5894035104052 663.352285678209 1991.22115781721 213 212 217
60.2605544660664 665.15133425325 1990.02089665795 214 213 218
47.5871759150057 666.855526919399 1989.60067258886 215 214 219
34.1822561375507 668.662809136055 1988.47473386349 216 215 220
17.2460901655414 670.971981649644 1983.69597337144 216 215 220
0.951997716759134 673.188151023854 1979.71061736233 215 214 219
-13.9918820421499 675.210234408431 1977.24732249429 213 212 217
-27.57401956418 677.03708620282 1976.294471234 215 214 219
-51.0822841182348 680.27533224564 1965.15138774006 218 217 222
-65.4775686658784 682.214735734619 1963.5724590877 206 206 208
-75.6550635168525 683.55278118327 1966.3958771202 207 207 207
342.327216617445 619.110705857325 1916.52805720431 189 191 186
337.461431590047 619.728032503274 1924.1024316928 193 191 192
337.707791693941 619.630957662243 1938.04224679004 196 194 197
334.792276319015 619.975219420582 1947.97173719162 198 196 199
334.463589844309 619.957908394691 1961.0538836674 194 192 195
330.305538842625 620.475028828407 1969.35718755825 196 194 197
324.867131096869 621.170326464826 1976.07208931692 199 197 200
318.136223606067 622.045489173548 1981.20938413052 206 204 207
310.751389687042 623.01123125029 1985.5660784874 200 198 201
302.706469254338 624.068355347523 1989.1474951278 203 201 204
293.995805075493 625.21756161138 1991.95948612788 196 194 197
284.613425402787 626.459674882284 1994.00752176837 188 186 189
275.211351515503 627.703786133342 1996.07515659647 202 202 204
267.108298708424 628.765997924645 1999.71354758502 171 171 173
257.008824260432 630.105605536453 2001.04234999925 189 189 191
248.875807091284 631.170474404006 2004.71010332757 182 182 184
241.396044395095 632.143656199736 2009.15962593427 201 201 203
236.577355344228 632.745715537026 2016.6898277654 195 195 197
228.419960651593 633.811829545136 2020.38160430368 197 197 199
214.881287483117 635.625965692617 2017.97056234713 200 200 202
204.665018296607 636.976817976245 2019.41368170567 202 202 204
194.42510964279 638.330060702079 2020.87992209838 205 205 207
185.515662130779 639.497309473267 2023.88664121216 206 206 208
175.232435029349 640.854715863541 2025.39528207593 211 210 215
162.202086266159 642.593076924015 2023.907575313 212 211 216
152.54688903245 643.861255540933 2026.22300821978 214 213 218
136.024017186273 646.08259065414 2021.04682288058 214 213 218
116.695681128996 648.692058536436 2012.93116400876 212 211 216
93.8499293726807 651.788392138081 2001.15150795175 209 208 213
79.1980262292156 653.745611107469 1998.40752507862 212 211 216
63.1142572980887 655.900297346273 1994.22240188788 214 213 218
47.6703520903752 657.9647487547 1990.83213054712 216 215 220
34.2651804146903 659.745231911081 1989.71040284981 216 215 220
17.3288874430244 662.014203695334 1984.93771012054 216 215 220
1.03463806962489 664.192652803439 1980.95808497875 215 214 219
-11.1002735034798 665.793375019716 1981.43569528756 213 212 217
-26.7876565467637 667.88515945491 1978.28316122736 213 212 217
-51.0000471604526 671.156522094587 1966.41748138326 216 215 220
-69.6444706162151 673.654899230411 1960.47326282929 202 202 204
-73.443182581058 674.096261425362 1969.84818193886 202 202 202
348.557979143902 609.825924339834 1911.71310456138 121 124 117
341.151718093959 610.793319245925 1916.09049424656 201 203 198
336.281757447449 611.416525420311 1923.66848403681 192 190 191
335.885366603142 611.433178208108 1936.81250427364 198 196 199
336.803672664468 611.271472343146 1951.51186669878 196 194 197
334.554233558944 611.538411190468 1962.20827112863 195 193 196
332.327443212574 611.801859182643 1972.8823631107 198 196 199
326.248501997505 612.586604587065 1978.80285657247 199 197 200
318.873512978664 613.546211145112 1983.15068162491 203 201 204
311.490102770033 614.506302677584 1987.5064595223 201 199 202
302.79516797499 615.643265426875 1990.30464059785 205 203 206
293.43046582016 616.870235992767 1992.33736028696 202 200 203
282.734818830228 618.276584975228 1992.83139718523 183 181 184
270.696535864801 619.863668290615 1991.79816036406 181 181 183
260.601093902456 621.187199773343 1993.12533450529 173 173 175
251.804801186053 622.334286701941 1996.02266914582 173 173 175
246.97256624461 622.944612291622 2003.56476265605 164 164 166
240.151985379645 623.82316489335 2008.7909412731 183 183 185
231.325404716812 624.972301034057 2011.71804941952 182 182 184
220.475161367996 626.394201470526 2012.36296644741 185 185 187
207.58409475957 628.091003489912 2010.74309285396 187 187 189
198.692341363786 629.246527655539 2013.73397434033 188 188 190
191.13486277498 630.221061194292 2018.26080803221 192 192 194
183.56918621144 631.196051567665 2022.79537707224 195 195 197
174.637717767297 632.354695443737 2025.82523509688 200 199 204
160.924232091784 634.158331731079 2023.58899857677 201 200 205
151.947573368228 635.321493183384 2026.66306352112 206 205 210
134.053239397377 637.687569572255 2019.99354901289 207 206 211
119.526010877062 639.598112690495 2017.13266106636 207 206 211
96.6881824572869 642.628935533502 2005.35481948055 206 205 210
83.4251435585158 644.366556781355 2004.09828680603 209 208 213
65.2752583952165 646.76243173669 1997.67813419453 213 212 217
49.8370280684841 648.791376128575 1994.2874755346 215 214 219
32.9551687033729 651.013799671587 1989.46760923906 215 214 219
18.8085342900544 652.866367194528 1987.65460164545 215 214 219
5.31931821757548 654.629140445825 1986.6189487928 214 213 218
-5.39976233355066 656.017610714135 1988.55580734761 211 210 215
-24.5928048584005 658.547014061217 1981.73488066113 207 206 211
-50.9177905999634 662.035999376334 1967.68380867737 214 213 218
-72.3947547865049 664.87031510341 1958.83471825176 198 198 200
347.38672887297 601.501397660132 1911.27237832502 125 128 121
341.244673212421 602.29734292871 1917.25389002912 192 194 189
337.010347116362 602.842346348333 1925.62915296509 194 192 193
337.253412661581 602.799171564389 1939.5642732029 199 197 200
336.254735362475 602.918481899283 1951.87429073442 195 193 196
334.002790619303 603.201717174019 1962.57077469464 197 195 198
329.842019481754 603.735089069323 1970.87471560368 200 198 201
325.046570404769 604.351201660663 1978.37976273239 200 198 201
318.314905707763 605.220916757569 1983.51861461759 196 194 197
312.228726626563 606.005336264665 1989.44634355491 206 204 207
300.928821064462 607.473313232415 1989.1144002409 204 202 205
289.597340194134 608.944799018867 1988.81329307285 210 208 211
278.234127565712 610.419767416095 1988.54284343933 186 184 187
266.181909088542 611.984502312042 1987.52641003197 171 171 173
256.732159222279 613.207085435824 1989.64456965978 178 178 180
247.923858293127 614.344894895196 1992.55519983898 166 166 168
244.406167783869 614.788039199933 2001.65079709386 157 157 159
236.246784014483 615.839425880847 2005.34672550729 179 179 181
224.739348478094 617.329319543865 2005.21762324761 174 174 176
212.53115408928 618.910415427548 2004.35365807942 176 176 178
202.97202108808 620.143262941836 2006.57858186278 177 177 179
197.431672425615 620.84858134691 2013.39323139347 178 178 180
191.894755845617 621.552713526621 2020.20431029714 182 182 184
184.330617463693 622.522025886898 2024.73819110795 186 186 188
173.364042021384 623.936760328485 2025.50002459729 196 195 200
161.008229572773 625.532809746918 2024.78043621876 198 197 202
150.665722877287 626.864240909412 2026.35211956506 203 202 207
134.821522686309 628.915912239136 2021.94398879046 205 204 209
118.236182849928 631.06390932311 2016.84101225967 205 204 209
96.7717448905323 633.850326351652 2006.56931535235 205 204 209
80.74620891602 635.92313480432 2002.33846747589 208 207 212
63.9734231964777 638.092829486895 1997.41808274044 212 211 216
50.6145529358846 639.814344701546 1996.25909248953 214 213 218
36.5203150657094 641.631412082701 1994.39930125946 215 214 219
20.986400767578 643.636094162425 1991.10724415674 214 213 218
5.40183453245469 645.646513066541 1987.86463727608 213 212 217
-7.4243789761903 647.294787753778 1987.60444523205 210 209 214
-25.2150221638914 649.592226746175 1982.25901813826 204 203 208
-52.2477076614365 653.098667651819 1967.49155106953 208 207 212
-78.6853803072329 656.525966062055 1953.5614961451 191 191 193
-106.651983310586 660.152118008963 1938.28648256614 189 189 189
349.376590479458 592.763097080379 1914.83899913887 124 127 120
345.142378165482 593.316577666975 1923.21289616597 197 199 196
340.283081494074 593.948889998053 1930.77861274333 193 191 192
339.259222052541 594.093357276495 1943.11025617127 197 195 198
336.98593064882 594.395912846046 1953.82508214983 196 194 197
332.809668420745 594.939847088119 1962.14284483053 197 195 198
328.000541734526 595.563534911163 1969.66001656947 195 193 196
323.198804799466 596.185747381306 1977.17040607477 198 196 199
316.461104805403 597.053379781722 1982.3158967628 197 195 198
310.368665073246 597.838588543349 1988.24972596759 192 190 193
299.062602741366 599.285772117176 1987.92663182953 197 195 198
286.417881055702 600.902574318809 1986.07395802425 207 205 208
273.733813513373 602.523923909069 1984.25968313422 191 189 192
260.352962995853 604.233307862394 1981.70740328077 151 151 153
252.863489512854 605.193266494612 1986.16852322011 157 157 159
245.365816142677 606.153610195808 1990.63772885561 142 142 144
242.50322058972 606.52416414373 2000.51078311754 169 169 171
231.011474264786 607.991087030126 2000.36949630971 159 159 161
219.488081216068 609.461481807372 2000.25878418048 159 159 161
206.595023717366 611.105344928626 1998.64871191652 164 164 166
199.031504581959 612.071087024369 2003.18284333191 165 165 167
194.151814804657 612.695002028752 2010.7700516861 165 165 167
189.954700186818 613.231422407732 2019.10963164378 177 177 179
181.030565256312 614.36826681331 2022.13542933319 184 184 186
169.374997427047 615.851786192226 2022.15402890455 194 193 198
157.688204759157 617.338521294366 2022.20349776176 188 187 192
148.018204467761 618.568303401339 2024.53896746907 196 195 200
134.220419477329 620.322169840562 2022.39413521865 202 201 206
118.319650724339 622.342806667722 2018.04710259029 203 202 207
96.1667451671322 625.157653729187 2007.03795292084 205 204 209
78.7579742950419 627.368621911287 2001.32610132054 208 207 212
61.9792420403602 629.498849509444 1996.41745480024 212 211 216
50.6976439111249 630.929415191497 1997.48977062416 212 211 216
35.210341261231 632.8940781818 1994.15734226963 211 210 215
16.1807655793802 635.308228969439 1987.19112486952 211 210 215
-1.51846948059564 637.552571492252 1981.76277578866 212 211 216
-15.7687873371017 639.3577079447 1980.05973767836 208 207 212
-30.7662272765694 641.257119904857 1977.66742180235 205 204 209
-58.5205262993012 644.7773713965 1962.19723927325 205 204 209
-87.0997788354115 648.401651315521 1946.11362526214 194 194 196
-100.889185632008 650.145127584567 1945.37891832172 196 196 196
348.837583909783 584.350049752003 1915.20077603381 121 124 117
343.332736472899 585.067534910479 1921.97803623987 192 194 191
342.283467023512 585.237095996693 1934.33086548541 194 192 193
341.902762979112 585.323877050985 1947.44928141286 195 193 196
338.996795918622 585.720124974058 1957.36160666461 195 193 196
334.825903726252 586.271284060554 1965.67296899162 198 196 199
329.37837454154 586.978653870095 1972.39480637011 192 190 193
323.934209058581 587.685068912146 1979.11344465725 193 191 194
317.198075082712 588.549791325067 1984.25781036094 194 192 195
309.807799248781 589.494355044937 1988.62270092966 195 193 196
297.848195330916 591.000403211485 1987.52331161078 211 209 212
283.892297256702 592.751529248082 1984.11864586051 203 201 204
269.889282238875 594.508300279947 1980.75993360392 194 192 195
255.181717748703 596.351372199227 1976.67118483733 150 150 152
248.335792119949 597.226633340229 1981.92301765594 146 146 148
240.824115296001 598.183435204896 1986.40665240994 153 153 155
236.620722674614 598.732440791272 1994.75060642978 163 163 165
225.776424729327 600.098206949182 1995.39825404793 151 151 153
216.238899565815 601.30260700594 1997.60626329283 156 156 158
205.343283556266 602.673663244732 1998.30408863577 162 162 164
197.775309596175 603.634554847783 2002.84302281664 164 164 166
192.218270530112 604.34717963807 2009.6728284423 165 165 167
186.664981222388 605.058728985563 2016.49940729447 178 178 180
178.407616911816 606.102654144842 2020.29373464335 186 186 188
165.386408295226 607.732893493371 2018.81293192154 190 189 194
156.410654000879 608.864110799614 2021.89048224315 183 182 187
147.419275970963 609.996871906282 2024.98365683412 196 195 200
134.303999439002 611.637083007773 2023.59479112211 203 202 207
115.656627193447 613.958588484139 2016.2627329963 200 199 204
95.5617888060809 616.457899381032 2007.50759410585 205 204 209
75.3887787604297 618.966606344846 1998.82835425109 204 203 208
58.6003703737124 621.057706057971 1993.93543719925 209 208 213
45.2254568353045 622.727523181783 1992.80001911561 210 209 214
32.5078430651708 624.315816617616 1992.44085112861 211 210 215
13.4704377576291 626.682776922747 1985.48938339525 212 211 216
-5.63726631764006 629.05778697889 1978.60619578578 212 211 216
-20.6016468585313 630.921351978835 1976.18668744534 205 204 209
-35.6129203428925 632.790310897875 1973.81260943009 201 200 205
-62.6745707845711 636.144620693308 1959.09605204872 201 200 205
-94.8054094506809 640.123738130623 1939.40188630596 197 197 199
-117.136489331142 642.893864512111 1929.9931853881 198 198 198
358.220141794047 574.686117192317 1914.39696679752 126 129 122
347.034228136974 576.079988247957 1913.96278065815 153 155 150
342.791325016428 576.650427063136 1922.34280136588 193 195 192
344.919707908554 576.4645131393 1938.67793618578 195 193 194
344.545993800105 576.574426351387 1951.78565423869 196 194 197
342.927003136638 576.83121760398 1963.27442317363 194 192 195
337.483652158332 577.54117299411 1969.9920672257 195 193 196
332.043497264113 578.250207785527 1976.70633574112 194 192 195
324.669492203371 579.188356622745 1981.0560173084 199 197 200
317.287284265991 580.126936836727 1985.41411853814 208 206 209
307.94776869619 581.297719258372 1987.43013215916 197 195 198
297.936931871884 582.547888018672 1988.68447296796 187 185 188
285.941523290021 584.033696062817 1987.62329184897 211 209 212
269.32243207036 586.069101759902 1981.15322473882 198 196 199
253.297967862693 588.033774138261 1975.52004788688 148 148 150
244.467721256056 589.142507032684 1978.45676795184 142 142 144
236.282751298377 590.174003479199 1982.18104359644 155 155 157
230.075456743295 590.969622667197 1988.22738668178 145 145 147
221.207055978192 592.08145540357 1991.20153623484 148 148 150
212.989779047766 593.115196623716 1994.95756140439 149 149 151
205.42968004151 594.070305950855 1999.48986809953 162 162 164
196.519195270636 595.185688017958 2002.50494526091 164 164 166
190.957942119592 595.901425651071 2009.33881330044 167 167 169
183.375339334093 596.857497972616 2013.89298640888 182 182 184
175.107860626002 597.894619483186 2017.69836308033 188 188 190
164.113202973233 599.256401997841 2018.49590889147 188 187 192
154.452478828562 600.458596664864 2020.82624465953 184 183 188
144.089575527703 601.744185737014 2022.42495757741 200 199 204
130.279577965199 603.440459069946 2020.30042698556 202 201 206
112.993627496861 605.551087647312 2014.48144305848 197 196 201
95.6453859400743 607.66908421762 2008.72356395891 208 207 212
77.543916407921 609.876772915094 2002.2828099147 204 203 208
58.6838990220828 612.174844250023 1995.16537511253 207 206 211
46.0030946381975 613.734909747249 1994.77382693784 209 208 213
31.8945882476598 615.465027818261 1992.94105562948 209 208 213
14.9499041281125 617.533619928777 1988.20631146236 210 209 214
-4.1537852690241 619.859815364154 1981.32668983978 210 209 214
-22.6254590134278 622.110269204428 1975.24757122353 204 203 208
-40.4592555079279 624.284301470965 1969.9632354615 198 197 202
-68.9465456160647 627.731108755827 1953.81453177778 199 198 203
-101.802513546262 631.70034870595 1933.42498068422 199 199 201
-122.733038988048 634.24409643682 1925.49312364788 198 198 198
353.902221272599 566.707308786078 1909.94494919584 121 123 118
347.759335989035 567.503417610646 1915.92726055435 183 185 180
344.786081074219 567.936571211281 1925.90094899712 190 192 189
348.827362261935 567.56653721321 1944.61448835139 197 195 196
350.378629931569 567.47998966503 1960.09111149392 197 195 198
346.856926802675 567.973114669648 1969.18330621379 194 192 195
340.782924437229 568.757650235385 1975.09892633894 195 193 196
332.777047246451 569.763090032203 1978.64921137997 195 193 196
324.758941129627 570.769481791194 1982.21149922575 181 179 182
316.081041870818 571.851107058974 1985.00094261759 203 201 204
308.03664751024 572.85986936757 1988.58898471183 207 205 208
298.025565491878 574.093852611194 1989.84596121424 179 177 180
284.722975965989 575.705461040634 1987.23008037692 192 190 193
267.444638769225 577.773573712615 1979.99291087315 201 199 202
252.729168078222 579.547587368275 1975.92221986207 140 140 142
242.57795911201 580.797302906837 1977.31568142683 139 139 141
233.725569336422 581.897446316036 1980.27565950807 147 147 149
225.520387766039 582.922763371162 1984.02091889421 143 143 145
217.968417497943 583.872484248536 1988.54595004271 152 152 154
209.741062833999 584.899476166719 1992.3129800945 153 153 155
202.839699350185 585.773365594772 1997.6197284193 161 161 163
194.592202325302 586.801717401071 2001.4065591424 166 166 168
188.351560345076 587.598415214074 2007.48585729357 171 171 173
180.085930433296 588.627814613529 2011.2905394076 185 185 187
171.808504945348 589.65809830661 2015.10714184692 187 187 189
162.161328301444 590.845729891729 2017.42617716359 184 183 188
154.536667881863 591.79985108066 2022.02240250096 192 191 196
142.125386109141 593.305463749513 2021.37160033535 199 198 203
127.624790401501 595.051900357551 2018.50852048266 193 192 197
113.077282937777 596.803602280749 2015.69124648597 191 190 195
95.7289768937062 598.878618706199 2009.93978386987 205 204 209
76.2466161203883 601.200040390035 2002.01964692031 204 203 208
55.9977760358885 603.610145069461 1993.43061863166 204 203 208
44.697728488944 604.986544457998 1994.52926075463 206 205 210
31.2813868832769 606.607214989938 1993.44224519902 207 206 211
15.0328556249693 608.555006536918 1989.45097453792 206 205 210
-4.77120192033764 610.913857862611 1981.84475515377 205 204 209
-24.6491085817766 613.281298378979 1974.310937397 204 203 208
-45.305229953315 615.738855393522 1966.1193320127 198 197 202
-75.2178948466913 619.26749934865 1948.54013250207 196 195 200
-108.091163030542 623.1395118671 1928.18179314608 197 197 199
-129.039233388798 625.631632874891 1920.27498887828 195 195 195
357.776322161788 557.788488018129 1915.91823914791 133 135 130
351.012696562618 558.652489400311 1921.09001100797 201 203 198
349.950569632773 558.888419147709 1933.44579866253 198 198 198
352.098811969648 558.769407934076 1949.75132456888 195 195 197
353.021095426056 558.784179141444 1964.4203163057 190 188 193
347.587259110706 559.498596064468 1971.12785274419 189 187 190
339.58944568943 560.495294378743 1974.6714223302 193 191 194
330.935522285229 561.564121321803 1977.4386110888 187 185 190
323.557086859046 562.491847437346 1981.79457039016 206 204 209
314.875034431728 563.563204982762 1984.58965550461 179 177 180
304.228166384392 564.851540740609 1985.05269649485 178 176 179
292.90195219085 566.214993383656 1984.76198884833 191 189 192
278.276844089917 567.94353141733 1980.60828772657 174 172 175
261.634463752948 569.895778591039 1974.17363784761 196 194 197
248.216206443579 571.491409892446 1971.67531608372 134 134 136
238.710357735888 572.653558898153 1973.85777698463 134 134 136
229.184793555043 573.817708563996 1976.05985778713 144 144 146
221.628798339507 574.763173412913 1980.58917696509 149 149 151
214.064760763678 575.708931465305 1985.12677683236 153 153 155
207.159451941513 576.581195388193 1990.43768318541 159 159 161
200.250053238872 577.453431148153 1995.7529928547 162 162 164
194.007344330097 578.250920249779 2001.83422654437 168 168 170
187.091441182235 579.122737653054 2007.15605705684 174 174 176
178.14672878263 580.219600682856 2010.20819770715 187 187 189
