ply
format ascii 1.0
comment KinectMotionCapture
element vertex 778
property float x
property float y
property float z
property uchar red
property uchar green
property uchar blue
end_header
-42.5528772175312 302.091777324677 2469.00010108948 173 174 169
-35.7331484556198 301.359862089157 2463.00005912781 145 147 142
-28.9931297302246 301.116973161697 2460.99996566772 97 99 94
-22.2367495298386 300.506681203842 2456.00008964539 102 102 100
-15.5138783156872 300.018310546875 2451.99990272522 144 144 142
-8.80556832998991 299.284875392914 2446.00009918213 163 165 162
-2.1290744189173 298.428684473038 2438.99989128113 171 173 170
4.51295636594296 297.816842794418 2434.00001525879 170 170 168
11.1368605867028 297.449290752411 2430.99999427795 134 134 134
17.7662875503302 297.448486089706 2430.99999427795 120 122 121
24.3856087327003 297.324925661087 2430.0000667572 121 121 121
31.0249105095863 297.445714473724 2430.99999427795 129 131 130
37.6695469021797 297.566115856171 2431.99992179871 134 136 135
44.3012751638889 297.563791275024 2431.99992179871 141 143 142
50.8700087666512 297.194004058838 2428.99990081787 141 143 142
57.3275089263916 296.334475278854 2421.99993133545 151 153 152
63.7994259595871 295.719295740128 2417.00005531311 157 159 158
70.3020691871643 295.348465442657 2414.00003433228 176 178 177
76.8199190497398 295.099556446075 2411.99994087219 176 178 177
83.3957493305206 295.095026493073 2411.99994087219 171 171 169
89.9339616298676 294.967830181122 2411.00001335144 153 153 151
96.5864658355713 295.207232236862 2413.00010681152 152 152 150
103.078499436378 294.95695233345 2411.00001335144 156 158 155
109.604731202126 294.828653335571 2410.00008583069 156 158 155
116.07687920332 294.5776283741 2407.99999237061 158 160 157
122.792355716228 294.937908649445 2411.00001335144 162 164 161
129.416406154633 295.053154230118 2411.99994087219 169 171 168
136.045455932617 295.168101787567 2413.00010681152 171 173 170
142.679437994957 295.282661914825 2414.00003433228 179 181 178
149.442002177238 295.641481876373 2417.00005531311 180 182 179
156.414061784744 296.366930007935 2423.00009727478 184 186 183
163.485482335091 297.214269638062 2430.0000667572 129 131 128
170.174449682236 297.327369451523 2430.99999427795 124 126 123
176.868259906769 297.440081834793 2431.99992179871 172 172 170
183.491393923759 297.43018746376 2431.99992179871 163 164 159
190.270259976387 297.664552927017 2434.00001525879 159 159 157
196.897551417351 297.654002904892 2434.00001525879 181 181 179
203.691363334656 297.887682914734 2436.00010871887 181 181 179
210.66802740097 298.365563154221 2440.00005722046 149 149 147
218.022003769875 299.332201480865 2447.99995422363 97 99 96
225.143402814865 299.931645393372 2453.00006866455 22 24 21
232.385724782944 300.652951002121 2459.00011062622 19 21 18
239.465475082397 301.129370927811 2463.00005912781 11 13 10
248.665004968643 304.172784090042 2487.99991607666 22 24 21
259.437054395676 308.927178382874 2526.99995040894 29 34 30
292.864382266998 307.876825332642 2519.00005340576 203 209 205
296.736806631088 304.806083440781 2493.99995803833 126 132 128
301.932722330093 303.201854228973 2480.99994659424 151 157 153
308.176815509796 302.697390317917 2476.99999809265 163 169 165
314.525306224823 302.314847707748 2473.99997711182 162 168 164
320.466935634613 301.565557718277 2467.99993515015 169 175 171
326.772689819336 301.182627677917 2464.99991416931 175 181 177
333.061128854752 300.799489021301 2461.99989318848 174 179 175
340.298265218735 301.271349191666 2466.00008010864 174 179 175
347.41535782814 301.620721817017 2469.00010108948 174 179 175
355.69503903389 302.947044372559 2480.00001907349 175 180 176
364.033460617065 304.273009300232 2490.9999370575 175 180 176
-198.423609137535 287.083148956299 2401.00002288818 210 211 206
-188.849374651909 282.549828290939 2362.99991607666 198 198 196
-181.411281228065 281.005263328552 2349.99990463257 194 196 195
-174.564704298973 280.2973985672 2344.00010108948 211 210 206
-167.750135064125 279.589116573334 2338.00005912781 218 208 199
-161.312788724899 279.478430747986 2336.99989318848 207 193 182
-154.880285263062 279.367446899414 2335.99996566772 172 156 143
-148.707017302513 279.734492301941 2338.99998664856 150 132 118
-142.821103334427 280.699223279953 2346.99988365173 155 139 124
-137.588605284691 283.09890627861 2367.00010299683 175 166 157
-132.523596286774 286.09636425972 2391.99995994568 174 169 163
-91.0609811544418 299.895405769348 2506.99996948242 48 55 48
-83.5204645991325 297.388166189194 2486.00006103516 15 22 15
-76.8041461706162 297.631859779358 2487.99991607666 18 25 18
-69.7107762098312 296.320021152496 2476.99999809265 26 31 25
-62.9058629274368 296.084403991699 2474.99990463257 71 76 70
-56.0662560164928 295.60923576355 2470.99995613098 163 165 160
-49.2682009935379 295.253276824951 2467.99993515015 169 170 165
-42.4690917134285 294.777303934097 2463.99998664856 135 137 132
-35.706140100956 294.420570135117 2460.99996566772 106 108 103
-28.971204534173 294.183135032654 2459.00011062622 126 128 123
-22.2108382731676 293.466776609421 2453.00006866455 146 148 145
-15.4957724735141 292.989253997803 2448.99988174438 177 179 176
-8.79886467009783 292.391717433929 2444.00000572205 165 167 164
-2.13094055652618 292.033135890961 2440.99998474121 153 155 152
4.52433666214347 291.913449764252 2440.00005722046 141 143 140
11.1741414293647 291.793376207352 2438.99989128113 130 132 129
17.8111419081688 291.553288698196 2437.00003623962 124 126 125
24.4371630251408 291.31281375885 2434.99994277954 124 126 125
31.052190810442 291.07204079628 2433.00008773804 133 135 134
37.6561805605888 290.830820798874 2430.99999427795 135 137 136
44.230904430151 290.469616651535 2427.99997329712 137 139 138
50.7890991866589 290.108054876328 2424.99995231628 140 142 141
57.3070682585239 289.62653875351 2421.0000038147 160 162 161
63.7502074241638 288.905382156372 2414.99996185303 169 171 170
70.3351348638535 288.901656866074 2414.99996185303 172 174 173
76.8560841679573 288.658320903778 2413.00010681152 166 168 167
83.4695845842361 288.773477077484 2414.00003433228 158 160 159
89.9763032793999 288.529425859451 2411.99994087219 153 155 154
96.6319069266319 288.763523101807 2414.00003433228 159 161 160
103.16976159811 288.638383150101 2413.00010681152 161 163 162
109.610840678215 288.273632526398 2410.00008583069 160 162 161
116.083323955536 288.028180599213 2407.99999237061 164 166 165
122.697316110134 288.141220808029 2408.99991989136 166 168 167
129.369929432869 288.373529911041 2411.00001335144 171 173 170
136.05298101902 288.605481386185 2413.00010681152 167 169 166
142.805531620979 288.956612348557 2415.99988937378 159 161 158
149.573892354965 289.307415485382 2418.99991035461 118 120 117
156.422629952431 289.777487516403 2423.00009727478 99 101 98
163.158014416695 290.00797867775 2424.99995231628 92 94 89
169.833734631538 290.11857509613 2426.00011825562 104 106 101
176.732450723648 290.587544441223 2430.0000667572 106 107 101
183.576837182045 290.936589241028 2433.00008773804 126 127 121
190.515115857124 291.404813528061 2437.00003623962 137 140 133
197.070002555847 291.274875402451 2436.00010871887 58 61 54
203.785970807076 291.38371348381 2437.00003623962 19 22 15
210.765674710274 291.85089468956 2440.99998474121 16 18 13
217.677414417267 292.198210954666 2444.00000572205 23 25 20
224.51288998127 292.425602674484 2446.00009918213 17 22 16
231.547504663467 292.891770601273 2450.00004768372 19 24 18
238.797530531883 293.596684932709 2456.00008964539 29 34 28
247.478738427162 295.974761247635 2476.0000705719 35 40 36
258.013308048248 300.384342670441 2513.00001144409 22 27 23
292.29810833931 300.432920455933 2513.99993896484 199 208 203
296.514064073563 297.788947820663 2492.00010299683 148 157 152
302.069842815399 296.578824520111 2482.00011253357 143 149 145
308.316886425018 296.085447072983 2477.9999256134 153 159 155
314.668327569962 295.711368322372 2474.99990463257 164 170 168
320.742726325989 295.098125934601 2470.00002861023 167 171 170
326.921582221985 294.604152441025 2466.00008010864 173 177 176
333.348274230957 294.348895549774 2463.99998664856 176 182 180
340.591073036194 294.810146093369 2467.99993515015 175 181 179
348.13603758812 295.510023832321 2473.99997711182 172 178 174
356.286197900772 296.687304973602 2483.99996757507 172 177 171
364.928036928177 298.222541809082 2496.99997901917 184 189 183
-197.111785411835 278.684109449387 2384.99999046326 209 208 204
-189.418852329254 276.941478252411 2369.99988555908 219 216 211
-182.115748524666 275.665879249573 2358.99996757507 75 68 58
-175.0208735466 274.623572826386 2349.99990463257 77 67 55
-168.117880821228 273.814618587494 2342.99993515015 156 139 123
-161.390468478203 273.23904633522 2338.00005912781 162 141 122
-154.822319746017 272.896856069565 2335.00003814697 173 146 127
-148.524299263954 273.021847009659 2335.99996566772 173 145 124
-142.585396766663 273.847758769989 2342.99993515015 164 136 115
-136.956602334976 275.374710559845 2355.99994659424 154 132 118
-131.755128502846 277.953386306763 2378.00002098084 142 126 113
-84.2642188072205 293.196797370911 2507.99989700317 36 43 36
-76.437920331955 289.460241794586 2476.0000705719 24 31 24
-69.4894641637802 288.64586353302 2469.00010108948 16 21 15
-62.7822577953339 288.766384124756 2470.00002861023 9 14 8
-56.0012832283974 288.535803556442 2467.99993515015 124 126 121
-49.2110401391983 288.187950849533 2464.99991416931 91 92 87
-42.4369648098946 287.839710712433 2461.99989318848 128 130 125
-35.6936119496822 287.608027458191 2460.00003814697 164 166 161
-28.9610233157873 287.375956773758 2457.99994468689 169 171 166
-22.2120713442564 286.792814731598 2453.00006866455 176 178 173
-15.5029585584998 286.443084478378 2450.00004768372 166 168 165
-8.81735421717167 286.326825618744 2448.99988174438 158 160 157
-2.13629705831409 286.093324422836 2447.00002670288 133 135 132
4.53385896980762 285.859405994415 2444.9999332428 121 123 120
11.1839240416884 285.391330718994 2440.99998474121 119 121 118
17.8267471492291 285.156697034836 2438.99989128113 134 136 135
24.4385190308094 284.687906503677 2434.99994277954 136 138 137
31.0411415994167 284.335613250732 2431.99992179871 130 132 131
37.6117900013924 283.866077661514 2427.99997329712 132 134 133
44.1969186067581 283.630043268204 2426.00011825562 139 141 140
50.750020891428 283.276706933975 2423.00009727478 148 150 149
57.2865642607212 282.922983169556 2420.00007629395 171 173 172
63.7273266911507 282.218188047409 2414.00003433228 179 181 180
70.3390166163445 282.331466674805 2414.99996185303 171 173 172
76.860323548317 282.093644142151 2413.00010681152 167 169 168
83.5087522864342 282.323092222214 2414.99996185303 161 163 162
90.0185480713844 282.084554433823 2413.00010681152 160 162 161
96.6371968388557 282.196372747421 2414.00003433228 159 161 160
103.132650256157 281.957149505615 2411.99994087219 165 167 166
109.616830945015 281.717598438263 2410.00008583069 156 158 157
116.137877106667 281.594574451447 2408.99991989136 161 163 162
122.907735407352 282.055705785751 2413.00010681152 154 156 153
129.537954926491 282.165795564651 2414.00003433228 151 153 150
136.229515075684 282.392412424088 2415.99988937378 143 145 142
142.813250422478 282.384902238846 2415.99988937378 134 136 133
149.643823504448 282.844603061676 2420.00007629395 108 110 105
156.366482377052 283.070147037506 2421.99993133545 138 140 135
163.166791200638 283.412247896194 2424.99995231628 135 137 132
169.772833585739 283.403396606445 2424.99995231628 159 161 156
176.669150590897 283.861666917801 2428.99990081787 170 171 165
183.511167764664 284.202694892883 2431.99992179871 119 120 114
190.60343503952 284.893989562988 2437.99996376038 29 32 25
197.646781802177 285.468071699142 2443.00007820129 10 13 6
205.051109194756 286.509096622467 2451.99990272522 21 24 17
211.985662579536 286.848723888397 2454.99992370605 27 30 23
217.421635985374 285.201817750931 2440.99998474121 12 14 9
223.514914512634 284.489303827286 2434.99994277954 26 31 25
230.803444981575 285.295367240906 2441.99991226196 26 31 25
238.518252968788 286.568343639374 2453.00006866455 42 47 41
247.191712260246 288.892298936844 2473.00004959106 35 40 34
256.383806467056 291.682958602905 2496.99997901917 6 11 5
294.289529323578 295.584499835968 2530.99989891052 213 219 215
296.409964561462 290.898442268372 2490.9999370575 112 118 116
302.450120449066 290.182888507843 2484.99989509583 144 148 147
308.581113815308 289.583921432495 2480.00001907349 164 168 167
314.938247203827 289.21827673912 2476.99999809265 158 162 163
320.888429880142 288.502126932144 2470.99995613098 152 153 155
327.335387468338 288.252800703049 2469.00010108948 163 167 168
333.905696868896 288.119971752167 2467.99993515015 156 162 160
341.021656990051 288.453936576843 2470.99995613098 165 169 168
348.434269428253 289.021015167236 2476.0000705719 174 179 175
356.733620166779 290.288150310516 2486.99998855591 177 182 176
365.237832069397 291.671693325043 2499.00007247925 177 182 176
-196.87408208847 271.854847669601 2381.99996948242 206 205 201
-190.068155527115 271.408289670944 2378.00002098084 162 159 152
-182.974517345428 270.504832267761 2369.99988555908 67 58 43
-175.849333405495 269.486874341965 2361.00006103516 143 130 113
-168.341994285583 267.783671617508 2345.99995613098 174 152 131
-161.260917782784 266.650795936584 2335.99996566772 172 146 123
-154.432654380798 265.859991312027 2328.9999961853 189 155 130
-148.214235901833 266.096234321594 2331.00008964539 175 141 116
-142.288684844971 266.902983188629 2338.00005912781 174 139 117
-136.324420571327 267.709404230118 2345.00002861023 170 141 123
-130.653962492943 269.200563430786 2358.00004005432 158 132 117
-125.755101442337 272.518157958984 2387.00008392334 145 123 109
-76.3494372367859 282.380551099777 2473.00004959106 28 33 26
-69.1836029291153 280.6715965271 2457.99994468689 6 11 4
-62.6077204942703 281.24612569809 2463.00005912781 15 18 11
-55.8908581733704 281.249284744263 2463.00005912781 23 26 19
-49.1737760603428 281.252086162567 2463.00005912781 121 122 116
-42.4220338463783 281.026214361191 2460.99996566772 159 161 156
-35.6810390949249 280.799895524979 2459.00011062622 151 153 148
-28.9390310645103 280.459046363831 2456.00008964539 100 102 97
-22.1951678395271 279.889464378357 2450.99997520447 94 96 91
-15.5038023367524 279.776275157928 2450.00004768372 82 84 79
-8.82143527269363 279.776930809021 2450.00004768372 89 91 86
-2.13728635571897 279.548853635788 2447.99995422363 104 106 103
4.53039724379778 278.977811336517 2443.00007820129 117 119 116
11.175368912518 278.520613908768 2438.99989128113 123 125 122
17.8057886660099 278.177231550217 2436.00010871887 126 128 125
24.4398452341557 278.061896562576 2434.99994277954 134 136 133
31.0300644487143 277.603656053543 2430.99999427795 148 150 147
37.5828519463539 277.030825614929 2426.00011825562 154 156 153
44.089999049902 276.343494653702 2420.00007629395 172 174 171
50.6689809262753 276.226758956909 2418.99991035461 178 180 177
57.2423189878464 276.109665632248 2417.99998283386 175 177 174
63.7835785746574 275.878012180328 2415.99988937378 172 174 171
70.4010799527168 275.988638401031 2417.00005531311 164 166 163
76.9600346684456 275.870501995087 2415.99988937378 164 166 163
83.547830581665 275.86618065834 2415.99988937378 162 164 161
90.1353135704994 275.86156129837 2415.99988937378 155 157 154
96.8025252223015 276.084959506989 2417.99998283386 152 154 151
103.394746780396 276.079624891281 2417.99998283386 140 142 139
109.804645180702 275.617241859436 2414.00003433228 141 143 140
116.385169327259 275.611281394959 2414.00003433228 114 116 113
123.01617115736 275.719076395035 2414.99996185303 116 118 115
129.705846309662 275.940746068954 2417.00005531311 102 104 101
136.293157935143 275.933712720871 2417.00005531311 112 114 111
142.939075827599 276.040524244308 2417.99998283386 112 114 109
149.589911103249 276.146978139877 2418.99991035461 144 146 141
156.310200691223 276.367276906967 2421.0000038147 152 154 149
162.838980555534 276.244789361954 2420.00007629395 58 60 55
169.571712613106 276.464402675629 2421.99993133545 8 10 5
176.460221409798 276.911973953247 2426.00011825562 21 22 16
183.596238493919 277.701616287231 2433.00008773804 19 20 14
190.769731998444 278.490900993347 2440.00005722046 21 24 17
198.223412036896 279.622197151184 2450.00004768372 20 23 16
205.061748623848 279.840052127838 2451.99990272522 11 14 7
212.255701422691 280.514121055603 2457.99994468689 16 19 12
217.432841658592 278.56308221817 2440.99998474121 21 23 18
224.077194929123 278.551816940308 2440.99998474121 11 16 10
231.382384896278 279.339045286179 2447.99995422363 12 17 11
239.113867282867 280.582308769226 2459.00011062622 10 15 9
248.003929853439 283.080250024796 2480.99994659424 18 23 17
296.186625957489 283.898383378983 2489.00008201599 126 126 128
302.099853754044 283.085405826569 2482.00011253357 164 165 167
308.222860097885 282.500296831131 2476.99999809265 143 143 145
314.6992623806 282.25713968277 2474.99990463257 146 145 150
321.293592453003 282.127797603607 2473.99997711182 156 155 160
327.881515026093 281.998246908188 2473.00004959106 144 145 149
334.462910890579 281.868427991867 2471.99988365173 144 148 149
341.451972723007 282.080471515656 2473.99997711182 146 150 151
349.295228719711 282.976359128952 2482.00011253357 157 161 160
357.754588127136 284.327864646912 2493.99995803833 175 180 176
367.154985666275 286.363005638123 2512.00008392334 183 188 184
-197.793304920197 266.600668430328 2392.99988746643 177 176 171
-191.116973757744 266.387671232224 2391.00003242493 83 79 70
-183.678761124611 265.060186386108 2378.99994850159 80 68 52
-175.932854413986 263.175189495087 2361.99998855591 154 136 114
-167.991876602173 260.844111442566 2341.00008010864 191 163 139
-160.785987973213 259.515374898911 2328.9999961853 185 153 128
-154.109075665474 258.966267108917 2323.99988174438 197 157 131
-147.840410470963 259.085446596146 2325.00004768372 184 142 117
-141.809180378914 259.650081396103 2329.99992370605 181 139 115
-135.808289051056 260.325908660889 2335.99996566772 170 134 112
-129.995852708817 261.447161436081 2345.99995613098 167 132 113
-124.655283987522 263.682663440704 2365.9999370575 143 114 98
-75.5507349967957 272.752493619919 2447.00002670288 23 28 21
-69.3280249834061 274.539738893509 2463.00005912781 27 32 25
-62.7381429076195 275.100529193878 2467.99993515015 29 34 27
-56.0072883963585 275.103658437729 2467.99993515015 8 11 4
-49.1763949394226 274.549096822739 2463.00005912781 22 23 17
-42.4242876470089 274.328529834747 2460.99996566772 79 81 76
-35.6684252619743 273.99617433548 2457.99994468689 68 70 65
-28.9405751973391 273.774981498718 2456.00008964539 89 91 86
-22.2054030746222 273.330390453339 2451.99990272522 88 90 85
-15.5046302825212 273.10848236084 2450.00004768372 105 107 102
-8.8183032348752 272.997617721558 2448.99988174438 102 104 99
-2.13565398007631 272.663503885269 2446.00009918213 124 126 123
4.52692899852991 272.106051445007 2440.99998474121 134 136 133
11.1668007448316 271.659791469574 2437.00003623962 152 154 151
17.806738615036 271.54752612114 2436.00010871887 161 163 160
24.4311112910509 271.323442459106 2434.00001525879 169 171 168
31.0189519077539 270.876109600067 2430.0000667572 177 179 176
37.5693589448929 270.316958427429 2424.99995231628 179 181 178
44.1105663776398 269.868910312653 2421.0000038147 182 184 181
50.6926253437996 269.754946231842 2420.00007629395 180 182 179
57.2453588247299 269.529163837433 2417.99998283386 168 170 167
63.7869611382484 269.303053617477 2415.99988937378 162 164 161
70.3465417027473 269.188076257706 2414.99996185303 160 162 159
76.9322514533997 269.184201955795 2414.99996185303 157 159 156
83.5176706314087 269.179999828339 2414.99996185303 141 143 140
90.1774019002914 269.398421049118 2417.00005531311 125 127 124
96.8476682901382 269.616395235062 2418.99991035461 114 116 113
103.400208055973 269.499748945236 2417.99998283386 106 108 105
109.946891665459 269.38271522522 2417.00005531311 115 117 114
116.535924375057 269.376844167709 2417.00005531311 108 110 107
123.226396739483 269.593507051468 2418.99991035461 115 117 114
129.819959402084 269.58692073822 2418.99991035461 127 129 126
136.300280690193 269.357204437256 2417.00005531311 139 141 138
142.88741350174 269.349992275238 2417.00005531311 138 140 135
149.474009871483 269.342452287674 2417.00005531311 69 71 66
156.382873654366 269.891738891602 2421.99993133545 4 6 1
162.914678454399 269.77214217186 2421.0000038147 8 10 5
169.370397925377 269.540756940842 2418.99991035461 6 8 3
175.232708454132 268.417745828629 2408.99991989136 9 10 4
183.077439665794 270.302802324295 2426.00011825562 7 8 2
190.232217311859 271.073251962662 2433.00008773804 26 29 22
197.181671857834 271.509081125259 2437.00003623962 23 26 19
214.771449565887 268.581479787827 2411.00001335144 10 12 7
222.160667181015 269.573152065277 2420.00007629395 19 24 18
230.921402573586 272.123873233795 2443.00007820129 26 31 25
238.834112882614 273.560255765915 2456.00008964539 22 27 21
247.516483068466 275.775849819183 2476.0000705719 18 23 17
296.081930398941 277.019619941711 2487.99991607666 106 106 108
301.992654800415 276.225954294205 2480.99994659424 161 161 163
307.988792657852 275.543421506882 2474.99990463257 179 179 181
314.587146043777 275.417357683182 2473.99997711182 173 172 177
321.179002523422 275.291055440903 2473.00004959106 185 184 189
327.764362096787 275.164484977722 2471.99988365173 183 184 188
334.884583950043 275.482952594757 2474.99990463257 177 181 184
342.158079147339 275.912463665009 2479.00009155273 159 163 166
350.015133619308 276.786834001541 2486.99998855591 138 142 143
358.344912528992 277.994751930237 2497.99990653992 134 138 137
-191.606163978577 260.534554719925 2397.0000743866 187 183 174
-183.533579111099 258.369952440262 2377.00009346008 142 125 105
-175.569295883179 256.204932928085 2357.00011253357 161 143 121
-167.498007416725 253.713369369507 2334.00011062622 176 148 124
-160.517975687981 252.743244171143 2325.00004768372 183 149 124
-153.785333037376 252.098858356476 2319.00000572205 178 138 112
-147.593587636948 252.323865890503 2321.00009918213 184 142 118
-141.390338540077 252.548545598984 2322.99995422363 168 126 102
-135.350108146667 253.099143505096 2328.00006866455 164 126 105
-129.392951726913 253.866881132126 2335.00003814697 161 124 106
-123.765975236893 255.395442247391 2348.99997711182 167 134 119
-118.861578404903 258.663386106491 2378.99994850159 133 109 97
-88.9732614159584 266.301304101944 2448.99988174438 29 34 27
-74.5048522949219 262.395054101944 2413.00010681152 22 27 20
-69.584958255291 268.814563751221 2471.99988365173 27 30 23
-63.1990060210228 270.340442657471 2486.00006103516 30 33 26
-56.0555942356586 268.603533506393 2470.00002861023 12 13 7
-49.1589829325676 267.736285924912 2461.99989318848 21 22 16
-42.4437373876572 267.738610506058 2461.99989318848 12 15 8
-35.6993079185486 267.523139715195 2460.00003814697 169 172 165
-28.9420839399099 267.08984375 2456.00008964539 168 170 165
-22.1975035965443 266.547381877899 2450.99997520447 192 194 189
-15.4864527285099 266.113370656967 2447.00002670288 173 175 170
-8.80436040461063 265.896499156952 2444.9999332428 187 189 184
-2.13401927612722 265.788018703461 2444.00000572205 183 185 180
4.52345656231046 265.244215726852 2438.99989128113 180 182 179
11.1628016456962 264.917552471161 2436.00010871887 181 183 180
17.7784245461226 264.481782913208 2431.99992179871 182 184 181
24.3922360241413 264.263242483139 2430.0000667572 183 185 182
30.995037406683 264.044284820557 2427.99997329712 175 177 172
37.5403314828873 263.498783111572 2423.00009727478 176 178 173
44.0764203667641 263.061672449112 2418.99991035461 172 174 169
50.6324209272861 262.841731309891 2417.00005531311 166 168 163
57.2009868919849 262.730211019516 2415.99988937378 155 157 152
63.7638792395592 262.618362903595 2414.99996185303 153 155 150
70.2919363975525 262.397408485413 2413.00010681152 149 151 146
76.8088176846504 262.176126241684 2411.00001335144 154 156 151
83.383671939373 262.172043323517 2411.00001335144 183 185 180
90.1447385549545 262.711256742477 2415.99988937378 185 187 182
96.8526676297188 263.032674789429 2418.99991035461 183 185 180
103.533826768398 263.245046138763 2421.0000038147 178 180 177
110.043533146381 263.022124767303 2418.99991035461 175 177 174
116.686575114727 263.125121593475 2420.00007629395 133 135 132
123.130843043327 262.792825698853 2417.00005531311 23 25 20
129.71930205822 262.786418199539 2417.00005531311 20 22 17
136.194452643394 262.562215328217 2414.99996185303 9 11 6
143.072068691254 263.098776340485 2420.00007629395 15 17 12
149.481624364853 262.765228748322 2417.00005531311 15 18 11
156.261682510376 263.083696365356 2420.00007629395 12 15 8
161.778926849365 261.336326599121 2404.00004386902 12 15 8
167.418420314789 259.914875030518 2391.00003242493 14 17 10
173.71392250061 259.580254554749 2388.00001144409 7 8 0
180.973500013351 260.658413171768 2398.00000190735 25 26 18
188.912466168404 262.605726718903 2415.99988937378 14 17 8
196.544200181961 264.009177684784 2428.99990081787 15 18 11
200.398653745651 260.412663221359 2395.99990844727 14 17 10
205.713525414467 258.881062269211 2381.99996948242 15 18 11
212.020471692085 258.653461933136 2380.00011444092 24 27 20
220.794528722763 261.35978102684 2404.99997138977 21 26 20
231.027275323868 265.586912631989 2444.00000572205 16 21 15
238.943055272102 266.988188028336 2457.00001716614 23 28 22
247.228652238846 268.714994192123 2473.00004959106 15 20 14
293.518453836441 274.17841553688 2523.9999294281 207 207 205
295.738965272903 269.928127527237 2484.99989509583 135 135 135
301.276564598084 268.827944993973 2474.99990463257 138 138 138
307.505488395691 268.379271030426 2470.99995613098 153 153 155
314.093232154846 268.25624704361 2470.00002861023 162 162 164
321.064025163651 268.458753824234 2471.99988365173 173 174 176
327.647000551224 268.335282802582 2470.99995613098 170 171 175
334.764748811722 268.645912408829 2473.99997711182 168 169 173
342.311799526215 269.282013177872 2480.00001907349 169 170 174
350.875586271286 270.677834749222 2493.00003051758 162 163 165
359.939247369766 272.399008274078 2509.0000629425 166 168 167
-182.770431041718 250.841915607452 2367.00010299683 156 139 119
-174.535036087036 248.307168483734 2342.99993515015 159 141 119
-167.003884911537 246.619820594788 2326.99990272522 173 145 123
-160.180702805519 245.885938405991 2319.9999332428 186 154 129
-153.59403192997 245.469719171524 2315.99998474121 177 137 112
-147.346541285515 245.583087205887 2316.99991226196 169 127 105
-141.214787960052 245.908185839653 2319.9999332428 162 120 98
-135.124295949936 246.338993310928 2323.99988174438 154 116 95
-129.066929221153 246.875539422035 2328.9999961853 163 126 108
-123.297944664955 248.047798871994 2339.99991416931 159 126 111
-117.51850694418 249.32587146759 2351.99999809265 142 118 106
-95.538854598999 259.312182664871 2446.00009918213 20 23 16
-89.9224057793617 262.391269207001 2474.99990463257 25 30 23
-81.6942751407623 257.730811834335 2430.99999427795 19 24 17
-75.311467051506 258.582890033722 2438.99989128113 22 27 20
-56.1492331326008 262.303620576859 2473.99997711182 19 20 14
-49.1814576089382 261.139988899231 2463.00005912781 19 18 13
-42.4459092319012 261.036276817322 2461.99989318848 0 2 0
-35.7301570475101 261.038243770599 2461.99989318848 11 14 7
-28.9553459733725 260.509759187698 2457.00001716614 143 146 139
-22.207697853446 259.980916976929 2451.99990272522 167 170 163
-15.4682556167245 259.133636951447 2444.00000572205 183 185 180
-8.7904054671526 258.81615281105 2440.99998474121 188 190 185
-2.12976196780801 258.604377508163 2438.99989128113 187 189 184
4.52183280140162 258.498281240463 2437.99996376038 190 192 187
11.1542055383325 258.073776960373 2434.00001525879 190 192 189
17.7793353796005 257.860988378525 2431.99992179871 188 190 187
24.3633668869734 257.329791784287 2427.00004577637 185 187 184
30.9583209455013 257.116317749023 2424.99995231628 170 172 167
37.4957695603371 256.584495306015 2420.00007629395 159 161 156
44.0604463219643 256.370335817337 2417.99998283386 144 146 141
50.6140477955341 256.155908107758 2415.99988937378 146 148 143
57.203896343708 256.15319609642 2415.99988937378 142 144 139
63.7671202421188 256.044119596481 2414.99996185303 137 139 134
70.2372491359711 255.616664886475 2411.00001335144 151 153 148
76.7489969730377 255.40092587471 2408.99991989136 179 181 176
83.3879038691521 255.608975887299 2411.00001335144 197 199 194
90.1120007038116 256.028652191162 2414.99996185303 195 197 192
96.8575701117516 256.448000669479 2418.99991035461 196 198 193
103.410758078098 256.337016820908 2417.99998283386 122 123 118
109.958104789257 256.22570514679 2417.00005531311 48 49 44
116.547793149948 256.220042705536 2417.00005531311 7 8 3
122.882291674614 255.684018135071 2411.99994087219 12 13 8
129.296407103539 255.35973906517 2408.99991989136 27 28 22
135.693684220314 255.035191774368 2405.99989891052 27 28 22
142.842710018158 256.088256835938 2415.99988937378 14 15 9
149.48907494545 256.187081336975 2417.00005531311 13 14 8
155.623733997345 255.437612533569 2410.00008583069 12 13 7
161.248549818993 253.94594669342 2395.99990844727 12 13 5
166.936546564102 252.666085958481 2384.0000629425 11 12 4
173.504248261452 252.763748168945 2384.99999046326 11 12 4
180.90695142746 254.026859998703 2397.0000743866 16 17 9
188.608974218369 255.607485771179 2411.99994087219 19 22 13
194.854527711868 255.174309015274 2407.99999237061 19 22 13
200.910270214081 254.528909921646 2401.99995040894 22 25 18
206.759929656982 253.671407699585 2394.00005340576 22 25 18
213.723435997963 254.191100597382 2398.9999294281 21 24 17
222.825050354004 257.147371768951 2427.00004577637 20 25 18
232.361868023872 260.420948266983 2457.99994468689 20 25 18
239.829808473587 261.257320642471 2466.00008010864 19 24 17
246.640622615814 261.351704597473 2467.00000762939 28 33 27
291.904002428055 265.830934047699 2509.99999046326 213 213 211
295.990765094757 263.381570577621 2486.99998855591 144 143 141
301.412254571915 262.202978134155 2476.0000705719 146 145 143
307.768553495407 261.871367692947 2473.00004959106 170 169 167
314.234763383865 261.645436286926 2470.99995613098 173 173 171
320.9488093853 261.631101369858 2470.99995613098 172 172 170
327.661871910095 261.61652803421 2470.99995613098 181 181 179
334.644496440887 261.813431978226 2473.00004959106 177 175 178
342.327177524567 262.53941655159 2480.00001907349 181 179 182
350.891262292862 263.900220394135 2493.00003051758 177 177 179
-181.312039494514 242.438122630119 2348.00004959106 152 135 117
-173.947483301163 241.104260087013 2335.00003814697 160 141 124
-166.653126478195 239.770025014877 2322.00002670288 171 144 125
-159.981325268745 239.26155269146 2316.99991226196 174 143 123
-153.468832373619 238.959267735481 2313.99989128113 152 114 93
-147.162929177284 238.96649479866 2313.99989128113 156 118 99
-141.039073467255 239.283248782158 2316.99991226196 140 102 83
-134.956479072571 239.70302939415 2321.00009918213 127 88 73
-128.90699505806 240.225806832314 2325.99997520447 144 106 93
-122.777067124844 240.645036101341 2329.99992370605 145 111 99
-116.874702274799 241.580411791801 2338.99998664856 128 104 94
-114.654891192913 250.675112009048 2427.00004577637 116 107 98
-103.55082899332 255.953460931778 2477.9999256134 83 84 76
-94.6451723575592 250.277310609818 2423.00009727478 29 32 23
-89.5271971821785 254.516810178757 2463.99998664856 29 32 23
-82.4376866221428 253.384828567505 2453.00006866455 20 23 14
-75.3460973501205 252.045810222626 2440.00005722046 19 22 13
-64.6037235856056 262.485921382904 2540.99988937378 19 22 13
-49.3636317551136 255.363702774048 2471.99988365173 19 19 11
-42.5342358648777 254.849463701248 2467.00000762939 27 28 22
-35.8045138418674 254.851400852203 2467.00000762939 9 12 5
-28.9685800671577 253.923267126083 2457.99994468689 17 20 13
-22.2088098526001 253.304690122604 2451.99990272522 14 17 10
-15.4627012088895 252.375870943069 2443.00007820129 23 26 19
-8.78724455833435 252.066552639008 2440.00005722046 19 22 15
-2.1298686042428 251.963526010513 2438.99989128113 27 29 24
4.52391337603331 251.963436603546 2438.99989128113 29 31 26
11.1639313399792 251.65319442749 2436.00010871887 26 28 23
17.7656039595604 251.032620668411 2430.0000667572 23 25 20
24.3244301527739 250.308454036713 2423.00009727478 21 23 18
30.9215690940619 250.203758478165 2421.99993133545 18 20 15
37.4821424484253 249.892145395279 2418.99991035461 17 20 13
44.0990999341011 249.993473291397 2420.00007629395 9 12 5
50.6375320255756 249.68121945858 2417.00005531311 5 8 1
57.206753641367 249.575242400169 2415.99988937378 7 10 3
63.7438967823982 249.365657567978 2414.00003433228 10 13 6
70.2116116881371 248.949185013771 2410.00008583069 7 10 3
76.7528042197227 248.842254281044 2408.99991989136 6 9 2
83.3920389413834 249.044939875603 2411.00001335144 8 11 4
90.1537761092186 249.557122588158 2415.99988937378 13 16 9
97.0225483179092 250.275611877441 2423.00009727478 18 21 14
103.629715740681 250.270694494247 2423.00009727478 13 14 8
109.963536262512 249.645739793777 2417.00005531311 16 17 11
116.312399506569 249.123767018318 2411.99994087219 12 13 7
122.735477983952 248.808115720749 2408.99991989136 3 4 0
129.463776946068 249.111816287041 2411.99994087219 25 26 20
135.53112745285 248.175904154778 2403.00011634827 14 15 9
142.731457948685 249.305203557014 2414.00003433228 16 17 9
149.063393473625 248.885080218315 2410.00008583069 15 16 8
155.308410525322 248.361393809319 2404.99997138977 14 15 9
160.91987490654 246.90805375576 2391.00003242493 16 17 9
167.294755578041 246.693640947342 2388.99993896484 15 16 8
174.458399415016 247.614830732346 2398.00000190735 24 25 17
181.745901703835 248.638913035393 2407.99999237061 23 24 16
187.914222478867 248.113855719566 2403.00011634827 18 21 12
193.892762064934 247.382014989853 2395.99990844727 20 23 14
199.999764561653 246.856480836868 2391.00003242493 25 28 21
208.151698112488 248.808473348618 2410.00008583069 24 27 20
215.871810913086 250.140607357025 2423.00009727478 24 27 20
224.855497479439 252.814322710037 2448.99988174438 23 28 21
233.790889382362 255.281150341034 2473.00004959106 22 27 20
241.786271333694 256.612002849579 2486.00006103516 20 25 18
249.551624059677 257.632821798325 2496.00005149841 26 31 25
290.637999773026 257.868319749832 2499.00007247925 199 200 195
295.885175466537 256.513684988022 2486.00006103516 146 145 140
301.425904035568 255.468487739563 2476.0000705719 154 151 146
307.906866073608 255.248516798019 2473.99997711182 170 167 162
314.63035941124 255.234688520432 2473.99997711182 176 175 170
321.482717990875 255.323767662048 2474.99990463257 176 175 170
327.941656112671 255.103200674057 2473.00004959106 170 169 164
334.388643503189 254.882395267487 2470.99995613098 176 172 173
342.20415353775 255.692809820175 2479.00009155273 180 176 177
350.906610488892 257.12177157402 2493.00003051758 174 172 173
-180.471107363701 234.941124916077 2336.99989318848 151 134 116
-173.136189579964 233.642429113388 2323.99988174438 163 142 125
-166.230335831642 232.846066355705 2315.99998474121 168 141 122
-159.574627876282 232.351005077362 2311.00010871887 168 137 119
-153.210833668709 232.257783412933 2309.99994277954 155 118 99
-147.10633456707 232.566490769386 2312.99996376038 153 115 96
-141.045808792114 232.975453138351 2316.99991226196 135 96 79
-134.962946176529 233.38420689106 2321.00009918213 109 72 56
-128.746911883354 233.59152674675 2322.99995422363 131 93 80
-122.572176158428 233.899161219597 2325.99997520447 158 124 114
-116.680450737476 234.809905290604 2335.00003814697 135 111 101
-96.7982113361359 249.211147427559 2477.9999256134 9 10 2
-89.6042063832283 248.008787631989 2466.00008010864 16 19 10
-82.7777683734894 247.711196541786 2463.00005912781 24 27 18
-75.3188654780388 245.301216840744 2438.99989128113 22 25 16
-70.2147260308266 250.836372375488 2493.99995803833 19 22 13
-62.2168406844139 246.112436056137 2447.00002670288 16 17 9
-48.4673902392387 244.106218218803 2427.00004577637 19 20 12
-42.4501001834869 247.628703713417 2461.99989318848 14 15 9
-35.5885475873947 246.624782681465 2451.99990272522 9 12 5
-28.8403481245041 246.123433113098 2447.00002670288 21 24 17
-22.1646055579185 246.124655008316 2447.00002670288 25 28 21
-15.4571263119578 245.622649788857 2441.99991226196 29 32 25
-8.78767482936382 245.422080159187 2440.00005722046 16 19 12
-2.12735310196877 245.020017027855 2436.00010871887 14 16 11
4.51857084408402 245.019972324371 2436.00010871887 14 16 11
11.1598921939731 244.918987154961 2434.99994277954 10 12 7
17.7591573446989 244.314774870872 2428.99990081787 7 9 4
24.3155751377344 243.609696626663 2421.99993133545 6 8 3
30.8847762644291 243.30660700798 2418.99991035461 10 13 6
37.4839715659618 243.304952979088 2418.99991035461 13 16 9
44.1194660961628 243.504166603088 2421.0000038147 19 22 15
50.7866553962231 243.803605437279 2424.00002479553 18 21 14
57.2568997740746 243.197560310364 2417.99998283386 16 19 12
63.8262182474136 243.09404194355 2417.00005531311 17 20 13
70.4189762473106 243.090838193893 2417.00005531311 15 18 11
76.9158527255058 242.785558104515 2414.00003433228 15 18 11
83.7073922157288 243.385136127472 2420.00007629395 17 20 13
90.5686393380165 244.084969162941 2427.00004577637 17 20 13
97.6679548621178 245.287299156189 2438.99989128113 16 19 12
103.976890444756 244.477942585945 2430.99999427795 21 22 16
110.150814056396 243.467167019844 2421.0000038147 11 12 6
116.607367992401 243.160083889961 2417.99998283386 12 13 7
123.149000108242 243.053823709488 2417.00005531311 10 11 5
129.523679614067 242.645591497421 2413.00010681152 16 17 11
135.706841945648 241.935402154922 2405.99989891052 9 10 4
142.265230417252 241.928830742836 2405.99989891052 22 23 15
149.070516228676 242.32417345047 2410.00008583069 18 19 11
155.122041702271 241.512596607208 2401.99995040894 16 17 9
160.590976476669 239.896476268768 2385.99991798401 17 18 10
167.862936854362 240.9947514534 2397.0000743866 18 19 11
175.63071846962 242.695882916451 2414.00003433228 48 49 41
182.509243488312 243.089661002159 2417.99998283386 45 46 38
188.157647848129 241.874665021896 2405.99989891052 30 33 24
194.063693284988 241.061568260193 2398.00000190735 26 29 20
200.511023402214 240.951970219612 2397.0000743866 26 29 20
208.679631352425 242.852389812469 2415.99988937378 24 27 18
216.060012578964 243.747279047966 2424.99995231628 22 25 18
224.774077534676 246.048972010612 2447.99995422363 23 28 21
233.139887452126 247.847691178322 2466.00008010864 22 27 20
241.408333182335 249.444961547852 2482.00011253357 20 25 18
249.66299533844 250.941306352615 2496.99997901917 21 26 19
296.374440193176 250.152707099915 2490.00000953674 87 78 69
302.047938108444 249.235451221466 2480.99994659424 84 74 64
308.418303728104 248.920768499374 2477.9999256134 110 98 86
315.025746822357 248.806774616241 2476.99999809265 110 101 86
321.886420249939 248.893439769745 2477.9999256134 131 122 107
328.751564025879 248.979896306992 2479.00009155273 162 154 141
335.75639128685 249.166533350945 2480.99994659424 186 181 177
343.73739361763 250.055938959122 2490.00000953674 180 177 172
353.032976388931 251.848727464676 2507.99989700317 187 186 182
-180.556640028954 228.676915168762 2338.00005912781 155 132 114
-173.218697309494 227.413401007652 2325.00004768372 164 138 121
-166.309788823128 226.638600230217 2316.99991226196 161 130 112
-159.651055932045 226.156994700432 2312.00003623962 156 123 104
-153.350606560707 226.164162158966 2312.00003623962 151 114 96
-147.303998470306 226.562350988388 2315.99998474121 140 101 84
-141.356781125069 227.155968546867 2322.00002670288 131 92 75
-135.085538029671 227.260142564774 2322.99995422363 62 23 8
-128.642082214355 227.070569992065 2321.00009918213 142 104 91
-122.419826686382 227.272048592567 2322.99995422363 147 113 101
-116.536021232605 228.15814614296 2332.00001716614 141 114 103
-103.142812848091 241.47991836071 2467.99993515015 19 19 11
-96.5684056282043 241.875946521759 2471.99988365173 10 11 3
-90.0081694126129 242.369547486305 2476.99999809265 13 16 7
-82.2439268231392 239.438101649284 2447.00002670288 12 15 6
-76.2489289045334 241.594552993774 2469.00010108948 14 17 8
-69.4860368967056 241.500109434128 2467.99993515015 18 19 11
-63.186027109623 243.166729807854 2484.99989509583 20 21 13
-56.2028475105762 242.288842797279 2476.0000705719 19 19 11
-48.9889457821846 240.040645003319 2453.00006866455 17 17 9
-35.3434905409813 238.283157348633 2434.99994277954 15 18 11
-28.6295674741268 237.697556614876 2428.99990081787 14 17 10
-22.0297873020172 237.99230158329 2431.99992179871 18 21 14
-15.4768545180559 239.265367388725 2444.9999332428 17 20 13
-8.82050860673189 239.657357335091 2448.99988174438 5 8 1
-2.13793478906155 239.559769630432 2447.99995422363 11 13 8
4.53548133373261 239.266127347946 2444.9999332428 12 14 9
11.151259765029 238.091468811035 2433.00008773804 9 11 6
17.6503323018551 236.231461167336 2414.00003433228 8 10 5
24.2464579641819 236.328333616257 2414.99996185303 8 10 5
30.9117883443832 236.914187669754 2421.0000038147 12 15 8
37.6097373664379 237.499713897705 2427.00004577637 11 14 7
44.267363846302 237.693458795547 2428.99990081787 12 15 8
50.7471673190594 237.00624704361 2421.99993133545 17 20 13
57.2122596204281 236.416578292847 2415.99988937378 14 17 10
63.5915771126747 235.630914568901 2407.99999237061 11 14 7
70.1018124818802 235.432058572769 2405.99989891052 14 17 10
76.8876448273659 236.113607883453 2413.00010681152 14 17 10
83.4346264600754 236.011996865273 2411.99994087219 10 13 6
90.274378657341 236.692860722542 2418.99991035461 10 13 6
97.5123792886734 238.253995776176 2434.99994277954 10 13 6
104.11012917757 238.151475787163 2434.00001525879 8 9 3
110.065005719662 236.678823828697 2418.99991035461 3 4 0
116.323478519917 235.988676548004 2411.99994087219 14 15 9
123.511455953121 237.157166004181 2424.00002479553 11 12 6
129.959180951118 236.857786774635 2421.0000038147 10 11 3
136.220842599869 236.264646053314 2414.99996185303 16 17 9
142.567545175552 235.866889357567 2411.00001335144 31 32 24
149.263024330139 236.055806279182 2413.00010681152 23 24 16
155.258432030678 235.168397426605 2404.00004386902 14 16 5
160.934969782829 233.889430761337 2391.00003242493 16 18 7
167.660593986511 234.175369143486 2394.00005340576 17 19 8
175.347790122032 235.732614994049 2410.00008583069 25 27 16
181.913793087006 235.724493861198 2410.00008583069 29 31 20
187.931686639786 235.031425952911 2403.00011634827 27 30 19
194.315388798714 234.827160835266 2401.00002288818 24 27 18
201.022103428841 235.013857483864 2403.00011634827 25 28 19
208.170861005783 235.689237713814 2410.00008583069 25 28 19
215.891614556313 236.951053142548 2423.00009727478 24 27 18
224.141493439674 238.701447844505 2440.99998474121 25 30 23
230.881258845329 238.789081573486 2441.99991226196 25 30 23
239.181980490685 240.44094979763 2459.00011062622 26 31 24
248.374298214912 242.87460744381 2483.99996757507 25 30 23
256.366580724716 244.036763906479 2496.00005149841 13 20 12
290.08212685585 243.781745433807 2493.99995803833 234 225 216
295.792132616043 242.889419198036 2484.99989509583 112 98 87
302.182793617249 242.583423852921 2482.00011253357 126 110 97
308.804959058762 242.472648620605 2480.99994659424 135 117 103
315.802335739136 242.654845118523 2483.00004005432 136 119 103
322.549641132355 242.641389369965 2483.00004005432 123 108 89
329.693853855133 242.920860648155 2486.00006103516 104 91 74
336.988598108292 243.297770619392 2490.00000953674 81 77 68
346.236765384674 245.042279362679 2507.99989700317 103 100 93
-181.105345487595 222.976922988892 2345.00002861023 158 132 115
-173.748031258583 221.748635172844 2332.00001716614 154 127 110
-166.676208376884 220.805287361145 2322.00002670288 152 119 102
-159.727334976196 219.956696033478 2312.99996376038 153 118 99
-153.423875570297 219.963699579239 2312.99996376038 153 115 96
-147.628724575043 220.731243491173 2321.00009918213 143 102 84
-142.154648900032 222.069203853607 2335.00003814697 84 43 25
-135.498777031898 221.599891781807 2329.99992370605 71 32 15
-128.592535853386 220.654755830765 2319.9999332428 111 74 58
-122.320048511028 220.755562186241 2321.00009918213 146 113 98
-116.541363298893 221.807211637497 2332.00001716614 120 94 81
-103.105776011944 234.663099050522 2467.00000762939 11 11 3
-96.2994024157524 234.477356076241 2464.99991416931 17 18 10
-89.2855376005173 233.720615506172 2457.00001716614 14 17 8
-82.953579723835 234.770938754082 2467.99993515015 12 15 6
-76.1289149522781 234.489187598228 2464.99991416931 14 17 8
-69.4047957658768 234.492510557175 2464.99991416931 17 18 10
-62.8075376152992 234.971210360527 2470.00002861023 19 19 11
-55.8876506984234 234.21286046505 2461.99989318848 18 18 10
-48.9113293588161 232.97855257988 2448.99988174438 15 16 8
-41.9540330767632 231.45854473114 2433.00008773804 13 14 6
-28.7605598568916 232.127740979195 2440.00005722046 10 13 6
-22.0308136194944 231.367811560631 2431.99992179871 17 20 13
-15.4459243640304 232.129752635956 2440.00005722046 19 22 15
-8.78129899501801 231.940031051636 2437.99996376038 9 12 5
-2.13192054070532 232.225686311722 2440.99998474121 11 14 7
4.50044590979815 230.798617005348 2426.00011825562 13 15 10
11.0417734831572 229.180932044983 2408.99991989136 14 16 11
17.5853464752436 228.799730539322 2404.99997138977 14 16 11
24.2576263844967 229.845255613327 2415.99988937378 15 17 12
30.9770721942186 230.795353651047 2426.00011825562 14 17 10
37.5649891793728 230.603501200676 2424.00002479553 13 16 7
44.0142713487148 229.745432734489 2414.99996185303 14 17 8
50.4980906844139 229.267612099648 2410.00008583069 16 19 10
56.978102773428 228.884592652321 2405.99989891052 20 23 14
63.5152980685234 228.7867218256 2404.99997138977 21 24 15
70.0759291648865 228.783667087555 2404.99997138977 12 15 6
76.7637342214584 229.16080057621 2408.99991989136 14 17 8
83.438478410244 229.44250702858 2411.99994087219 13 16 7
89.8306965827942 228.962928056717 2407.00006484985 10 13 4
96.6358259320259 229.529455304146 2413.00010681152 6 9 0
103.644393384457 230.476096272469 2423.00009727478 6 7 1
110.206581652164 230.376094579697 2421.99993133545 10 11 5
116.714671254158 230.180740356445 2420.00007629395 8 9 3
123.466163873672 230.460628867149 2423.00009727478 15 16 8
129.911452531815 230.16956448555 2420.00007629395 16 17 9
136.114254593849 229.497790336609 2413.00010681152 13 14 6
142.396628856659 229.015976190567 2407.99999237061 31 32 24
149.022355675697 229.104533791542 2408.99991989136 26 28 17
154.748782515526 227.861389517784 2395.99990844727 19 21 10
160.740315914154 227.093532681465 2388.00001144409 21 23 12
167.528077960014 227.466583251953 2391.99995994568 20 22 11
175.210177898407 228.980466723442 2407.99999237061 22 24 13
181.24258518219 228.30693423748 2401.00002288818 27 29 18
187.549024820328 228.01348567009 2398.00000190735 26 29 18
194.16218996048 228.100135922432 2398.9999294281 22 25 16
201.031044125557 228.471785783768 2403.00011634827 19 22 13
207.920968532562 228.843107819557 2407.00006484985 18 21 12
215.366542339325 229.784563183784 2417.00005531311 16 19 10
222.590282559395 230.440482497215 2424.00002479553 18 24 14
228.622198104858 229.86027598381 2417.99998283386 18 24 14
236.955210566521 231.561303138733 2436.00010871887 21 26 19
248.885095119476 236.588761210442 2489.00008201599 21 26 19
285.583883523941 238.90782892704 2513.99993896484 232 219 211
288.931310176849 236.044883728027 2483.99996757507 146 123 115
294.971436262131 235.462471842766 2477.9999256134 142 115 104
301.830291748047 235.545054078102 2479.00009155273 141 113 101
308.195620775223 235.247328877449 2476.0000705719 155 126 108
315.434008836746 235.614433884621 2480.00001907349 150 122 101
322.303235530853 235.696285963058 2480.99994659424 135 107 83
