ply
format ascii 1.0
comment KinectMotionCapture
element vertex 763
property float x
property float y
property float z
property uchar red
property uchar green
property uchar blue
end_header
135.789807711357 604.07997453026 2503.60335530798 194 193 198
124.038733647829 605.505642890248 2503.72568217914 199 200 204
116.098723756265 606.473943311263 2507.21604920187 202 203 207
104.296089067282 607.90500433756 2507.38844166059 203 204 208
94.0076588789451 609.153961292714 2508.91861588772 201 202 206
82.9220209568433 610.498272660043 2509.80875083719 199 200 204
75.6906173978833 611.379865661688 2514.02552377496 201 202 206
67.6738664787373 612.35524588023 2517.59104938154 206 207 211
54.9660258641285 613.892891377928 2517.22966224976 211 212 216
38.314247713279 615.903122423949 2513.62993102534 211 212 216
22.3925780248142 617.825481592885 2510.73508804756 211 212 216
7.99280927733648 619.564956376469 2509.19016164726 207 208 212
-6.44923548247922 621.309243041619 2507.68616691618 195 196 200
-22.5125545580092 623.247513395237 2504.92963220757 176 178 177
3.33190313972853 620.158053157884 2536.40275134896 166 168 167
346.88080557289 570.370909783523 2372.65374897457 208 210 207
352.649321694865 569.759883621812 2389.68807488443 202 204 201
354.940110327515 569.550240439759 2403.03128909977 200 201 203
355.854007579679 569.498937150331 2414.88455560771 195 196 198
358.938720890043 569.195427914271 2428.87051140321 195 196 198
359.928552637102 569.133503474245 2440.64960579463 196 197 199
358.806336932584 569.315301787408 2450.23924445762 187 188 190
354.118854446224 569.909459830166 2456.22307687878 192 193 195
347.996148498289 570.669370420056 2460.77379062427 223 224 226
341.147957002917 571.512868096988 2464.61532094833 186 186 188
332.845118098157 572.524449080656 2467.0426763788 228 228 230
323.075770871921 573.705739603051 2468.06705677832 208 208 210
311.828455038705 575.058112408523 2467.69997733081 219 219 221
298.361953633584 576.667727467515 2465.24749587391 199 199 201
280.464667704141 578.791165463745 2458.61677455266 195 195 197
263.967957595582 580.752216328431 2453.45308011953 125 125 127
252.560108976113 582.122350151659 2453.24278703121 150 150 152
242.59569346897 583.324694000781 2454.45776144481 145 145 147
236.303914820949 584.100152983887 2459.17373099312 148 148 150
231.49100243138 584.703329005988 2465.28112215095 143 143 145
229.654279960881 584.960195128341 2474.15193444578 163 161 164
225.60257866579 585.473760138961 2480.9335855201 179 177 180
218.571195458467 586.332921969845 2484.95471276709 196 194 197
210.783578497112 587.279593118697 2488.29694815433 163 161 164
203.735673449769 588.139822282077 2492.33466192342 168 166 169
195.174622829261 589.175476482226 2495.01452955181 202 200 203
187.353472460499 590.124710884855 2498.39002310253 181 179 182
176.494171991148 591.426808052167 2499.06164085586 171 169 172
169.401377585951 592.290573354613 2503.14340778107 197 195 198
157.737816069695 593.685526817365 2503.18303520552 198 196 199
146.043825834438 595.083713577465 2503.2527387598 189 189 191
133.554691547729 596.574210017039 2502.68114162155 195 194 199
123.330254894831 597.800842152137 2504.15073107865 199 200 204
111.546494137392 599.208694785812 2504.30814947662 202 203 207
102.813238679596 600.261091722589 2507.15688232693 202 203 207
94.0650013100179 601.314787679135 2510.02030044255 200 201 205
84.5275292349141 602.460107317031 2512.236651188 199 200 204
75.7474551329582 603.516873298334 2515.13122990119 203 204 208
66.174300138544 604.665570927485 2517.38251504737 207 208 212
55.8023841451085 605.90708014074 2518.99635484412 211 212 216
39.1525216198709 607.879565518072 2515.40030016849 211 212 216
23.2327209885783 609.766956423856 2512.50876948333 211 212 216
4.90562248315785 611.934773408398 2507.71520852645 206 207 211
-10.3317739729167 613.742357191502 2505.57508302511 196 197 201
-17.7183020991869 614.634555885969 2509.94399159261 178 180 179
349.062383569924 562.496982583902 2375.90223857042 208 210 207
352.011866689275 562.244428337364 2390.01494881947 201 203 200
357.839821497775 561.66837957775 2406.9847437482 199 200 202
360.890665447281 561.40192678031 2420.99885539428 196 197 199
363.276335288049 561.208745288737 2434.24541813669 191 192 194
362.135936716635 561.409582987906 2443.85029864236 202 203 205
361.019018314065 561.606870950444 2453.4323876428 194 195 197
354.183806750061 562.444486545278 2457.2618980723 182 183 185
348.780330338804 563.121081036158 2462.52762965647 232 232 234
340.49063097056 564.12092190314 2464.94367251705 190 190 192
333.632706614896 564.959736641203 2468.79589769358 200 200 202
324.59050509242 566.043327182334 2470.52956099237 221 221 223
312.619301460873 567.455439153767 2469.45523624727 214 214 216
296.23706143536 569.36300884459 2464.18611366562 184 184 186
276.139888431691 571.688184268234 2455.45903023058 194 194 196
259.631439902747 573.610380270012 2450.31273495418 122 122 124
249.682041712461 574.795322146365 2451.51536895413 142 142 144
240.446901707495 575.899566543729 2453.43790822924 144 144 146
234.888153856692 576.590074459383 2458.85577025011 149 149 151
229.329740898911 577.279950468185 2464.27339311281 149 149 151
227.486687067123 577.55117758932 2473.14836999365 180 178 181
222.6838143678 578.15479804491 2479.24572590357 190 188 191
217.138202983855 578.841468053607 2484.65111045962 188 186 189
208.597402823472 579.865075380427 2487.31264960437 163 161 164
202.294078482952 580.636138929794 2492.04107168119 194 192 195
192.223440568799 581.83135264951 2493.36258034523 183 181 184
184.394043155103 582.773620000701 2496.74695521864 157 155 158
175.040276686165 583.887394016709 2498.78588385262 193 191 194
167.943101322797 584.746358483243 2502.87237285352 202 200 203
154.754500410656 586.292028153327 2501.57029251724 186 184 187
142.289932150089 587.755958062029 2500.97822747353 194 194 196
128.262188917301 589.396109831504 2499.07855413571 195 194 199
118.790399418075 590.521932022117 2501.23290066853 197 198 202
108.531271277972 591.736367330161 2502.73874197097 202 203 207
100.560182780295 592.692133400707 2506.26182308053 201 202 206
91.0335429612412 593.823173287612 2508.46952777655 199 200 204
83.0364000641586 594.781280427967 2512.01813528078 200 201 205
72.7001627416475 596.003300658005 2513.59976393507 205 206 210
63.8969365237578 597.051794292272 2516.51821784892 209 210 214
53.5192121518793 598.277983185208 2518.14042762997 209 210 214
39.9910094058797 599.860214366893 2517.1701731595 208 209 213
21.7215463586311 601.978484837556 2512.32670229377 208 209 213
-0.538481915409506 604.54840123968 2504.29394634563 206 207 211
-16.5773831276428 606.41465877549 2501.52380780082 203 204 208
-20.0312659316348 606.856793286602 2509.13928299045 186 188 187
348.42764363618 554.94208868955 2376.2322454083 206 208 205
352.786385846495 554.569394734765 2391.7971157792 201 203 200
360.739527283857 553.806614726422 2410.93557140359 199 200 202
363.087453705039 553.648324462938 2424.21445701133 200 201 203
366.902060550001 553.329973852038 2438.89472060361 195 196 198
365.77085757211 553.545809758987 2448.48825302042 211 212 214
363.947283648856 553.835632999182 2457.34113756585 203 204 206
354.966600139961 554.900310071105 2459.01684581222 201 202 204
348.125343872421 555.732790814218 2462.85311765054 207 207 209
339.11186595338 556.800481734919 2464.56094578545 235 235 237
332.249523437033 557.634500327038 2468.41792928713 184 184 186
324.654173873052 558.54767500969 2471.57419106962 225 225 227
312.682781263551 559.935692554767 2470.50361512812 203 203 205
294.112355208641 562.040812004363 2463.12713005778 176 176 178
271.08415912406 564.630900394844 2451.60346673688 186 186 188
254.562037105707 566.514544448739 2446.47644739866 113 113 115
244.598755805646 567.685079053217 2447.69499692034 139 139 141
237.561180579432 568.537224563464 2451.72364778474 142 142 144
233.472378724514 569.067863180625 2458.53927894983 146 146 148
227.909681624939 569.758338242399 2463.9610674889 157 157 159
224.57635273997 570.205442355152 2471.45609634987 189 187 190
219.020223066062 570.894087018519 2476.87163387025 192 190 193
213.464513319485 571.582089055108 2482.28684937654 182 180 183
205.662649698513 572.514634638626 2485.64531965977 168 166 169
199.351185758724 573.284129685448 2490.38205630297 206 204 207
190.025223047021 574.382146118075 2492.39536651696 174 172 175
181.435054722604 575.399521626103 2495.10718788048 151 149 152
172.829807207285 576.418385323956 2497.83376314967 198 196 199
162.692260573192 577.604284334186 2499.2230898717 199 197 200
151.771446839053 578.875616544328 2499.96067609553 183 181 184
140.0614880083 580.233122969249 2500.05224923697 194 194 196
127.5564458366 581.677447319258 2499.50327307835 193 194 198
118.082293776057 582.790194462563 2501.66156031377 196 197 201
107.821016183725 583.988861222412 2503.17186663859 202 203 207
99.0775171658544 585.02126177634 2506.03372695213 200 201 205
88.7746238956764 586.224231352403 2507.58472230588 199 200 204
80.7713892482824 587.175086694277 2511.14045082087 200 201 205
72.7573151221827 588.126764767327 2514.70715934113 205 206 210
61.6198178800715 589.420473033094 2515.65627047831 209 210 214
51.2360531978455 590.63144285115 2517.28672774945 208 209 213
38.4837669396489 592.101864927731 2516.97941139106 207 208 212
24.9133808643141 593.662170390511 2516.05428620189 207 208 212
-0.481808785727011 596.519550318561 2505.42432974985 206 207 209
-19.6715866905621 598.696776167327 2500.0691222456 206 207 209
-28.6611483283763 599.754948598717 2503.17151730599 187 189 188
352.720996781623 546.866694744642 2381.66421571414 206 208 205
355.678823361902 546.677600568452 2395.75926141247 201 203 200
363.638897513432 545.964895647411 2414.88343167317 199 200 202
367.41376357897 545.68711319558 2429.5971624907 200 201 203
369.815634677617 545.551152948637 2442.81917986958 194 195 197
365.83664827869 546.080583358045 2449.52627907807 207 208 210
362.58122593949 546.533669758316 2456.94306140794 204 205 207
354.313818682158 547.510339658872 2459.34005468958 201 202 204
348.909560479685 548.187091675783 2464.6065393217 189 189 191
340.619259662353 549.165573196554 2467.02633633216 203 203 205
333.037014772752 550.06966575464 2470.17092731331 220 220 222
324.717881343328 551.050691161007 2472.61897954862 186 186 188
312.018961292127 552.490962361851 2470.84621672634 219 219 221
291.987852512883 554.700957826707 2462.07055408743 216 216 218
268.222551570507 557.304097165791 2449.85967070253 141 141 143
251.692747453521 559.148538861539 2444.74641173522 124 124 126
242.45656231451 560.226804862434 2446.67349059755 142 142 144
236.886977833595 560.919268595766 2452.10182448331 143 143 145
232.795955071643 561.4556582565 2458.91914888218 154 154 156
227.230929080859 562.146544849669 2464.34318922048 171 171 173
223.152109718459 562.680406645846 2471.14843123849 193 193 195
216.846852347035 563.448057817231 2475.87927719154 181 181 183
212.778722123309 563.979556569675 2482.67459183565 156 156 158
204.225848791284 564.983267189693 2485.35139838489 198 198 200
196.408566289729 565.909147119438 2488.72616502518 197 197 199
186.321884107269 567.074304432501 2490.0680482086 150 150 152
179.985676683344 567.843262721415 2494.82943482992 156 156 158
172.889347007267 568.692154843954 2498.91657273888 202 202 204
162.751574822173 569.862042767668 2500.30848986797 179 179 181
151.830538511303 571.114709919149 2501.04905580131 176 176 178
140.120403133751 572.450832916587 2501.14396471758 187 187 189
128.379525598955 573.790195832237 2501.26858434996 193 194 198
118.90723491651 574.889486264216 2503.42734994746 199 200 204
108.647676394474 576.071955755962 2504.93834315921 200 201 205
99.9058899598517 577.093526022794 2507.80010356398 197 198 202
88.8324521677517 578.362057617345 2508.68932382133 197 198 202
79.2808645819023 579.469280775047 2510.92565996274 197 198 202
70.4864564500798 580.49589268462 2513.83892933811 208 209 213
59.3431320067102 581.771688374619 2514.79681228515 209 210 214
48.1730939064584 583.050216126348 2515.78048064885 206 207 211
36.9766970277068 584.33158203241 2516.79024203327 205 206 210
22.6185787647166 585.948870927715 2515.2220151071 208 209 211
0.360894621237673 588.405848318447 2507.20396158121 208 210 207
-17.2516644107512 590.369877460208 2503.14788143627 200 202 197
363.350343336582 538.186056578806 2393.6474409601 205 207 204
364.924720633216 538.167464075729 2406.25691569797 201 203 200
367.953962344751 538.00109211615 2420.27768678156 199 200 202
370.320041826921 537.899777041501 2433.53012522336 202 203 205
369.881893882871 538.079086070948 2443.85775172059 193 194 196
366.616159573992 538.542081907513 2451.28330937844 202 203 205
361.21513307288 539.219546924822 2456.54647950219 206 207 209
353.661289878544 540.113631395849 2459.66434637098 200 201 203
347.535157252842 540.863359584153 2464.21996781265 190 190 192
341.405120884982 541.613003250828 2468.77914037827 181 181 183
333.824679355512 542.508835668405 2471.9234992833 224 224 226
323.33071326814 543.699067421591 2472.24886825405 176 176 178
304.808795361312 545.701893492369 2464.8393327923 200 200 202
282.57027676834 548.082259828573 2453.97941419441 204 204 206
262.436288539635 550.250944077945 2445.31201814926 154 154 156
249.556879959119 551.685221422846 2443.71936899399 138 138 140
239.579445865604 552.825520139038 2444.95644129987 143 143 145
234.738746865517 553.444300752245 2451.08878077896 142 142 144
229.163267437517 554.137035886712 2456.52292832135 157 157 159
224.329271592896 554.753955952703 2462.64922429802 172 172 174
218.7564267538 555.445356485326 2468.08095290826 191 191 193
214.673693634227 555.98460608538 2474.88928502993 167 167 169
210.599296272496 556.522261073359 2481.6899131458 157 157 159
202.040312367345 557.516127639446 2484.37424253135 202 202 204
192.715332264757 558.58789700845 2486.3904563045 194 194 196
182.618699270778 559.738210289788 2487.74441473227 144 144 146
176.272417717069 560.505843954468 2492.51600089226 171 171 173
169.922717302 561.27349583916 2497.29097933922 193 193 195
161.293862417639 562.273471224272 2500.04345091723 174 174 176
152.650161351296 563.274715480345 2502.81081527684 176 176 178
140.941783418953 564.589270208704 2502.90716680479 187 187 189
129.202652700079 565.907066195265 2503.03323940583 196 197 201
118.965851942149 567.071203838792 2504.52468110256 198 199 203
109.474238123411 568.159144591646 2506.70397449567 201 202 206
99.9640047252557 569.248829912163 2508.90183740205 195 196 200
89.6626156036606 570.419589793619 2510.45609969283 196 197 201
79.3385495038805 571.592559811405 2512.03255390098 201 202 206
70.5438758306207 572.608708745582 2514.94763338612 209 210 214
57.8444206171249 574.02553144365 2514.5957769841 208 209 213
46.6704893076235 575.285961778015 2515.58632399451 204 205 209
33.1244607328109 576.790183615823 2514.64530058252 204 205 209
20.3240210977111 578.218085877669 2514.39208564929 206 207 209
-1.15374389711009 580.538808220745 2507.03660863372 205 207 204
-14.831707766267 582.057834565151 2506.22441081977 198 200 195
366.938989578962 530.26470906517 2398.33951832517 205 207 204
367.110709158553 530.408353367944 2409.48405574667 200 202 199
369.43711521511 530.342113860483 2422.77070633307 200 201 203
371.8066057717 530.269869625447 2436.01579871213 205 206 208
368.524566486844 530.743602418712 2443.45562269265 193 194 196
365.254477725697 531.21519644799 2450.88423357684 194 195 197
361.280573551445 531.754305706859 2457.58485553138 219 220 222
356.596843972056 532.361582950566 2463.56302224827 208 209 211
349.038941141516 533.247658207815 2466.68610415412 209 209 211
342.912609065527 533.994227223367 2471.24239057724 197 197 199
333.88876289774 535.022418798642 2472.96635252242 182 182 184
322.669220650879 536.26456976423 2472.5876463909 197 197 199
299.053904160408 538.715842922787 2460.25060982522 180 180 182
273.15335261813 541.392127406579 2445.89818523522 131 131 133
255.919075132995 543.22460188418 2440.06900032642 122 122 124
245.22158375069 544.419367356887 2440.59614068392 126 126 128
237.437672770694 545.329305479618 2443.94012510211 141 141 143
232.590730326941 545.951644712948 2450.07813845055 143 143 145
228.487171673456 546.500523954896 2456.90606522038 180 180 182
222.909718698085 547.193124588995 2462.34219240358 191 191 193
217.332621335807 547.885149672975 2467.77805152378 171 171 173
212.500716655295 548.503558732794 2473.90171302895 155 155 157
209.913805219504 548.900791241221 2482.08015648987 181 181 183
199.854967768062 550.031450165189 2483.39948829061 185 185 187
192.776078381124 550.869091947302 2487.47097053004 168 168 170
181.926579792658 552.077536242779 2488.14703456631 156 156 158
177.087141382324 552.694300420583 2494.27842028941 194 194 196
169.22587511295 553.608240946083 2497.69862810008 169 169 171
161.35343167859 554.523059811389 2501.12980518258 166 166 168
149.667715232484 555.813823765931 2501.20716978568 179 179 181
138.713712991752 557.032729841252 2501.985461247 196 196 198
126.968570246664 558.329878055232 2502.12055561072 197 198 202
118.258153775784 559.327385269856 2504.95472168636 196 197 201
107.996208544213 560.47819454031 2506.47276430285 200 201 205
97.7117103579523 561.631303211706 2508.01320032827 194 195 199
88.1763714905315 562.710367808047 2510.23722523316 197 198 202
77.8481990724136 563.867933909357 2511.82003376825 205 206 210
68.273432248144 564.950953518184 2514.08296451001 207 208 212
57.1239440940712 566.190140005865 2515.05237893701 205 206 210
43.6082355032861 567.664357368965 2514.08568198093 201 202 206
28.4905951425114 569.298112950434 2511.85199079692 201 202 206
13.3270193046777 570.93718767806 2509.66312805321 204 205 207
-8.95378710967387 573.284567477508 2501.68423376023 202 204 201
-12.4117374771791 573.76059112542 2509.29873930094 196 198 193
378.100107318668 521.484714666789 2399.89033082342 209 211 206
371.935556581414 522.238254114029 2404.48353871538 204 206 203
370.002427001313 522.598439690132 2413.43481412507 200 202 199
370.920364964934 522.692456912707 2425.26258983859 201 202 204
371.163507325118 522.847572459825 2436.33417009624 202 203 205
367.879234606684 523.329593535372 2443.7753247468 196 197 199
365.320386702936 523.743114753281 2451.9231553994 190 191 193
362.061644060946 524.220914886986 2459.33958216002 220 221 223
358.097174127874 524.763699738035 2466.03029252269 214 215 217
349.823360447922 525.708554471002 2468.43868758655 209 209 211
342.255573938813 526.587266274314 2471.57267244661 204 204 206
333.952890444258 527.534669582844 2474.0093589848 171 171 173
322.007831671397 528.823366079875 2472.92731276175 212 212 214
295.481281341501 531.480578359082 2457.78242376762 173 173 175
268.112793391322 534.219799409856 2442.0445610982 132 132 134
250.133686684127 536.079642016198 2435.53404830231 128 128 130
241.619937758962 537.050705034625 2438.17682903842 136 136 138
235.296112759017 537.815550216206 2442.92618980315 147 147 149
229.705904765773 538.510908715093 2448.37457529645 149 149 151
224.855176639627 539.135952971336 2454.51628592425 183 183 185
218.526513639913 539.899845385759 2459.27059171284 185 185 187
212.937361856655 540.59347857428 2464.71818337412 162 162 164
209.583182710177 541.075319719811 2472.22878273473 158 158 160
205.494346275754 541.625763184056 2479.04185893202 190 190 192
197.669868678387 542.529169030254 2482.42709206856 176 176 178
191.335624748485 543.291216312155 2487.1875503551 152 152 154
182.739804856614 544.267331523516 2489.91074422048 177 177 179
176.392857990743 545.029918773461 2494.68373690318 198 198 200
166.259750030456 546.151719307796 2496.07812968325 163 163 165
159.896251349144 546.915449675852 2500.867389611 169 169 171
148.966820084558 548.113066306243 2501.62442830045 186 186 188
137.248185551146 549.386056743196 2501.73677012701 194 194 196
124.734920832828 550.735196997544 2501.21036508849 194 195 199
115.251985497372 551.795891015141 2503.38506767498 195 196 200
104.982065424938 552.931725089024 2504.91324275385 197 198 202
93.9193147760768 554.143406695731 2505.80059076535 195 196 200
84.3741886635168 555.21036513714 2508.03646167575 201 202 206
75.5840437456534 556.20519916073 2510.94985653232 211 212 216
66.7791897495435 557.201402708828 2513.8779931479 208 209 213
57.1815471556527 558.2735074665 2516.1652530773 205 206 210
42.8857288600848 559.795740604551 2514.54887271993 203 204 208
30.1116982539629 561.172830645446 2514.27728109658 203 204 208
11.0330975154613 563.155314430609 2508.84011797262 202 203 205
-4.9679762256547 564.843611769257 2506.05871862923 198 200 197
377.467096436538 513.997888699072 2400.20856027766 209 211 206
372.7079998745 514.623807316579 2406.25881233554 204 206 203
371.48230796808 514.934435739955 2415.93216336265 200 202 199
373.111318470222 514.989123972838 2428.47655565906 201 202 204
373.359727460153 515.165128683671 2439.53981866624 199 200 202
370.080845749138 515.654548866301 2446.97452638195 208 209 211
366.813741342664 516.142042066362 2454.39782386733 187 188 190
362.842871604301 516.691560081618 2461.09389417253 216 217 219
360.314961201556 517.110969961144 2469.21013308768 230 231 233
352.766178891227 517.979826426686 2472.32670311203 203 203 205
343.762871167562 518.979230199276 2474.03418706126 211 211 213
333.293540273294 520.110588231588 2474.34413227331 202 202 204
319.895742443189 521.505976784183 2471.85508973489 194 194 196
292.636376610224 524.151509013908 2456.02271435679 190 190 192
261.614032434862 527.139916565749 2436.79113300429 131 131 133
244.348546204685 528.890319368127 2431.00506899842 135 135 137
236.552020898193 529.786427379022 2434.36362371378 141 141 143
233.154743764236 530.284345583853 2441.91464383071 149 149 151
228.295492410851 530.913796067015 2448.06416691075 162 162 164
223.440288023146 531.542159715495 2454.20949408574 196 196 198
217.107575249303 532.303955002019 2458.96846915649 181 181 183
210.771138892701 533.065702023787 2463.73081109148 157 157 159
205.921121711007 533.691953968369 2469.87163724512 188 188 190
201.821970292086 534.249135970255 2476.6936225796 196 196 198
194.736313840136 535.077622594438 2480.77351558496 164 164 166
188.393773861098 535.83807516587 2485.54210982645 143 143 145
181.295360249721 536.667226531479 2489.63457263121 195 195 197
174.189503612353 537.496710074011 2493.73403953321 194 194 196
164.050334083142 538.603294213447 2495.13670051735 162 162 164
156.922268667125 539.434591501864 2499.258290836 177 177 179
145.224339023096 540.684126278361 2499.3535391377 185 185 187
136.545346739416 541.657445667396 2502.16007548097 193 193 195
125.558453512351 542.842522249908 2502.97602816221 191 192 196
116.07725499299 543.88972932828 2505.15099942837 195 196 200
101.968215742457 545.36239770952 2503.35680820958 194 195 199
90.8974934962559 546.556420629154 2504.25468208132 196 197 201
79.8001608965984 547.753208518396 2505.17857176611 204 205 209
74.0943400664622 548.453618386909 2510.74101592529 212 213 217
64.5092530473037 549.51135711745 2513.01759343392 207 208 212
56.4612351369411 550.427346517406 2516.62294556204 205 206 210
40.6038092763019 552.064541699833 2513.7064546262 205 206 210
25.4784399880661 553.63512999871 2511.49011232019 204 205 209
7.17205997328474 555.500979840675 2506.72060820763 202 203 205
-4.12468694002888 556.719221521062 2507.83934839281 198 200 197
362.092876175038 507.757304211531 2385.22337404817 209 211 206
374.184268563783 506.953372436586 2408.76036126469 203 205 202
376.491310672658 506.978957765446 2422.05300670868 200 202 199
376.717658338644 507.17973902898 2433.13451497299 203 204 206
375.555831569514 507.497441741017 2442.7434013979 200 201 203
370.858869751804 508.116146459398 2448.73301894728 215 216 218
366.87966860421 508.672611663816 2455.43633567348 221 222 224
362.192654864435 509.289000830029 2461.41641687202 187 188 190
357.509839162679 509.90434649391 2467.39282142792 218 219 221
351.391843780278 510.64250647137 2471.94173440122 212 212 214
343.827339385389 511.504764991231 2475.07489186145 205 205 207
334.081316368195 512.554992313032 2476.0958199024 204 204 206
318.509130969245 514.108464098162 2471.49120809332 171 171 173
288.337078942941 516.925078019986 2452.85791225038 192 192 194
258.032820165314 519.757739530816 2434.35352783923 134 134 136
240.757575536694 521.466384259868 2428.58332589227 135 135 137
233.684081582666 522.292171269315 2432.65120251729 136 136 138
230.278571886427 522.799294501899 2440.20903719118 151 151 153
223.937008287132 523.560672386118 2444.97686295432 170 170 172
220.547749298431 524.064744488754 2452.51901139107 193 193 195
215.688623229281 524.695872827312 2458.66782423373 175 175 177
209.348115570718 525.455554919521 2463.43485206943 174 174 176
204.493643655296 526.085094058 2469.5792781517 197 197 199
198.896793176946 526.778872225794 2475.03449330315 196 196 198
193.3003299303 527.472100341853 2480.48940522519 148 148 150
184.701763727805 528.427762220061 2483.21868705332 144 144 146
176.088055366441 529.384831772968 2485.96279721534 200 200 202
169.722748143174 530.144586903289 2490.7541027484 169 169 171
161.841174543978 531.037234600072 2494.19762310858 182 182 184
155.465351028724 531.797299968136 2498.99966346403 184 184 186
145.284181100592 532.892166418776 2500.44576333446 191 191 193
137.367183723817 533.787717171682 2503.924030959 186 186 188
127.146270488147 534.886473490028 2505.40902160058 189 190 194
116.136401954876 536.05525212193 2506.25019793049 192 193 197
102.795375234659 537.43061167876 2505.12465043526 187 188 192
92.4964575607263 538.537609537674 2506.68588254106 200 201 205
81.4028235147979 539.71535598511 2507.6089138241 202 203 207
73.3785514724925 540.621364035154 2511.19216119338 212 213 217
63.7915218923997 541.665978179259 2513.47294534387 201 202 206
54.1854936341357 542.712558180335 2515.77196706783 202 203 207
39.8818968683972 544.177055413475 2514.17218202986 200 201 205
25.5362135050694 545.646268642704 2512.61349258328 204 205 209
3.31119806220093 547.818360595263 2504.6047666561 200 201 203
-11.1379820043833 549.299382883077 2503.14710559212 196 198 195
320.069815683462 503.306318421977 2331.25381980042 207 210 203
368.479855916565 499.630540206893 2392.83533830414 208 210 205
374.956789312273 499.349576194335 2410.53432166508 202 204 201
377.970748346157 499.347101778944 2424.54570684605 198 200 197
378.908317753418 499.511411677995 2436.34359901894 200 201 203
377.751818055287 499.844541317719 2445.94491549042 203 204 206
373.060303161758 500.465242446364 2451.92882909501 178 179 181
368.372949103739 501.084904762645 2457.90910230643 183 184 186
364.404964515601 501.644892876441 2464.60042229682 220 221 223
359.727597587587 502.262323170659 2470.5711080324 227 228 230
352.17625979325 503.115403305936 2473.69254742487 225 225 227
343.891857460657 504.028907730442 2476.11575289725 236 236 238
334.868925967925 505.003381333122 2477.84674604948 244 244 246
317.84810730486 506.638850354497 2471.83471069525 177 177 179
286.219917852554 509.484552546328 2451.80892513096 186 186 188
254.451708852586 512.347316738697 2431.91965929114 133 133 135
238.629115358082 513.892863775853 2427.56521553894 134 134 136
232.282671511117 514.653264734519 2432.33803184933 140 140 142
228.137643738687 515.230235275999 2439.2026483435 151 151 153
221.789886238437 515.989740402658 2443.9769015346 173 173 175
217.655284323418 516.5643941291 2450.83150742249 185 185 187
214.269846186832 517.075591531233 2458.36880858046 166 166 168
207.925110507189 517.833212004315 2463.14033961 182 182 184
201.576882368927 518.590771522273 2467.91534771172 201 201 203
194.478331462139 519.410813065955 2472.00895543856 182 182 184
188.869845413124 520.10567478494 2477.47556473529 147 147 149
181.009886977705 520.989140460379 2480.89897801704 166 166 168
172.386188352893 521.936855055966 2483.65439131696 184 184 186
166.765481993956 522.631724149701 2489.1331344721 166 166 168
161.145258261066 523.326060650143 2494.6114770895 184 184 186
155.525527514257 524.019892735658 2500.08940471674 186 186 188
144.583842056448 525.16303381666 2500.86666346362 187 187 189
136.664642171957 526.050960407911 2504.34824505864 186 186 188
124.913155650262 527.263449488251 2504.50248931128 188 189 193
113.130936523598 528.479295220239 2504.68641754133 191 192 196
102.086464242447 529.633241851373 2505.56414806766 184 185 189
93.3256581803046 530.593611965104 2508.45384059962 205 206 210
83.777731021923 531.621073634055 2510.69799275365 206 207 211
74.2111829378538 532.650427462455 2512.96069394381 207 208 212
63.8498399497185 533.747781282658 2514.58534069413 200 201 205
50.3543622899429 535.113156905716 2513.61464088614 202 203 207
36.0409579432597 536.549435611443 2512.02876560705 201 202 206
19.3400317294521 538.19115818177 2508.53196668547 204 205 209
-1.33279604659364 540.174677070006 2501.84426079556 199 200 202
-23.6502329823476 542.30136788064 2493.93402104602 193 195 192
493.930093483881 481.325784510352 2482.10152403222 150 154 139
407.291405630632 488.247432525943 2401.3214527869 168 172 158
335.54062750577 494.31894074291 2348.39377534001 207 210 203
381.183481653339 491.062453753035 2406.99286651837 205 207 202
377.136894256847 491.640741019635 2413.75987349461 200 202 199
378.744517214819 491.779502472838 2426.3130779533 196 197 199
379.683278532771 491.967793400548 2438.1059043137 198 199 201
379.947685319556 492.206457099632 2449.144358143 195 196 198
375.261622664853 492.829153968546 2455.1225626243 200 201 203
368.438894380338 493.618155170621 2458.94720000074 188 189 191
365.901664538953 494.071644518644 2467.06765632567 193 194 196
360.510183712685 494.747552339005 2472.32157760622 222 223 225
353.679893466839 495.535957210469 2476.15347441746 200 200 202
344.677944123709 496.494989444453 2477.86591421251 203 203 205
335.656529759981 497.455898903215 2479.59706776577 198 198 200
317.187198176797 499.162499725489 2472.17909526963 187 187 189
282.648584685656 502.141376317606 2449.3557455688 169 169 171
253.058668388279 504.735394758913 2431.59418917402 129 129 131
237.963196095435 506.185927985288 2427.9486556372 138 138 140
231.614291678748 506.943998578582 2432.72392191469 144 144 146
227.467085785691 507.526685285316 2439.59019431011 164 164 166
221.853958353791 508.225227987753 2445.0608685209 191 191 193
217.718934601709 508.805389509909 2451.91507924943 162 162 164
213.592246068962 509.384015456706 2458.76157778131 159 159 161
208.730766863278 510.020541249004 2464.91192958202 198 198 200
202.384145914097 510.77533301129 2469.6857507943 189 189 191
193.793885196202 511.709721543712 2472.40992934467 159 159 161
187.43449753532 512.465061313986 2477.19634709505 168 168 170
178.819631529231 513.40150333298 2479.94431771391 205 205 207
171.695012770108 514.218095659521 2484.06465883826 159 159 161
166.826459855804 514.852594248277 2490.222334556 170 170 172
161.962291054953 515.486009430433 2496.37581691129 190 190 192
154.827481372259 516.302441748569 2500.50630142257 191 191 193
144.643946800931 517.365556742864 2501.95944227003 182 182 184
135.199816182304 518.36928933554 2504.1040300728 191 191 193
122.680117627305 519.622974068002 2503.59812221366 192 193 197
110.89190746375 520.818198865785 2503.79104739698 183 184 188
102.145776870321 521.766635234174 2506.6679307739 186 187 191
94.1547393287485 522.653681856292 2510.22097828342 212 213 217
85.3807053782125 523.604633416159 2513.12519836224 208 209 213
74.2698784588716 524.746718796285 2514.07057311292 197 198 202
61.5805778104801 526.018701742005 2513.73004032977 197 198 202
47.3013870109575 527.421802045919 2512.11509424588 201 202 206
32.9799204683514 528.829684713042 2510.54108392664 200 201 205
18.6166199801296 530.242238487548 2509.00826278817 202 203 207
-2.84190858856714 532.239568450924 2501.68148096958 194 195 197
351.678409768778 485.105375899859 2354.9854709864 198 201 190
384.0598648249 483.312144766483 2410.95004290462 203 205 200
379.316867546371 483.946812070832 2416.98335292588 198 200 197
378.812355297971 484.268051767306 2427.35590286777 195 196 198
379.750528309544 484.48068253248 2439.14571600776 196 197 199
382.143438407713 484.583217935119 2452.34172008171 193 194 196
378.174410471386 485.155160829241 2459.03230922097 207 208 210
369.931937359633 486.04396562741 2461.4178667932 211 212 214
365.251712567484 486.667712052287 2467.39045690876 190 191 193
359.857919332448 487.343970357342 2472.64662264391 188 189 191
355.183656428658 487.965916790493 2478.61322071219 176 176 178
345.463869067726 488.965114463829 2479.61530067641 171 171 173
334.997615552955 490.020987743035 2479.93334661867 207 207 209
312.174720212641 492.006563102766 2468.29516338576 155 155 157
277.622859331659 494.879504668448 2445.50028784753 147 147 149
249.478095930997 497.276372691309 2429.1669684862 138 138 140
237.297229604597 498.472229771451 2428.33280427497 139 139 141
232.412400351015 499.116963880364 2434.5054676748 139 139 141
228.266550163035 499.70494733329 2441.36927313627 173 173 175
222.655016047402 500.403407110548 2446.83837741676 195 195 197
216.304972069665 501.15750999227 2451.61569956325 155 155 157
210.692203751156 501.855093405947 2457.0861589516 167 167 169
205.079800867265 502.552188484586 2462.55632763367 198 198 200
198.723127585384 503.305593905942 2467.34033586151 168 168 170
190.122688535562 504.230575774734 2470.07567410472 154 154 156
183.00463520142 505.042065185217 2474.19024987378 185 185 187
176.629610422566 505.796322921607 2478.99201759561 202 202 204
171.756475026869 506.434747390154 2485.15400138379 161 161 163
167.641982880597 507.013942219893 2491.98796680096 176 176 178
159.753728430246 507.88360873822 2495.44151795322 188 188 190
152.612801687379 508.695563983431 2499.5787385051 185 185 187
142.423227074958 509.743430384488 2501.04013093808 183 183 185
133.735417283692 510.675433289806 2503.86152975498 192 192 194
118.154669027459 512.143034579877 2500.69535977114 194 195 199
105.588546072182 513.377935914089 2500.23799036382 180 181 185
97.596619477359 514.257694027772 2503.79299795472 196 197 201
91.1338063246259 515.018199886322 2508.68135520183 209 210 214
83.1236912731788 515.899277958328 2512.25422910977 204 205 209
72.7807258202624 516.962943582522 2513.86560579661 195 196 200
59.3116028902414 518.272101735782 2512.87704426986 195 196 200
44.2485380896094 519.70756438997 2510.61846635591 200 201 205
29.1397054295817 521.148312021534 2508.40489332756 199 200 204
14.7664079456664 522.532743154102 2506.8858180258 201 202 206
-9.05269380683515 524.662788778911 2497.63243916246 193 194 196
392.929360872888 474.548199013408 2399.18674377349 201 204 195
381.876982209606 475.625674222776 2398.66671857918 203 206 199
386.234251870219 475.630920208713 2414.17719185551 203 205 200
381.496710464203 476.26761227966 2420.2047848551 198 200 197
378.880213882197 476.755153741039 2428.39892133775 194 195 197
377.694831865188 477.141016004024 2438.02112452015 195 196 198
380.081099436882 477.27397470706 2451.21889032859 196 197 199
376.817538719785 477.802033987585 2458.63267322906 209 210 212
369.284402290167 478.630263975502 2461.73971123823 197 198 200
362.455149023589 479.408867231709 2465.57202698819 163 164 166
357.053203393488 480.086123791285 2470.83614063058 180 181 183
352.370932251995 480.711897255806 2476.81046320571 227 227 229
343.364425942401 481.644686189682 2478.53096904212 186 186 188
330.7222203544 482.837244303657 2476.73849980555 176 176 178
304.986884380264 484.966980613934 2462.3031311374 226 226 228
270.416097887656 487.734660460936 2439.54260664734 245 245 247
246.62709186088 489.736610052952 2427.44445618573 134 134 136
236.631567603338 490.751639750083 2428.71800699821 135 135 137
231.744217338782 491.399505729654 2434.89237306811 137 137 139
227.596193806313 491.993263714553 2441.75782106147 181 181 183
221.982341698014 492.692104164857 2447.22917087964 179 179 181
217.107675277359 493.336867439291 2453.3914002835 164 164 166
212.237275509475 493.980621083738 2459.54954206095 188 188 190
205.142981211874 494.785341285254 2463.64152524163 173 173 175
198.041104092008 495.590588193714 2467.74062258785 150 150 152
190.185255277227 496.450685365911 2471.16340881014 181 181 183
183.815465606615 497.202235671301 2475.96071599121 196 196 198
176.69156851129 498.008666389236 2480.08150453206 175 175 177
171.065422239033 498.705135287293 2485.56541315117 176 176 178
166.194380800703 499.345625047888 2491.72501235946 178 178 180
158.301968322796 500.207884444496 2495.18378726391 178 178 180
149.640064580927 501.127039046354 2497.98135996445 168 168 170
140.202730792253 502.103791600487 2500.12318605251 194 194 196
130.746670592769 503.082361158905 2502.2836770329 191 191 193
117.450701859827 504.346073459311 2501.12988770596 181 182 186
105.648532305565 505.500335145313 2501.34272910064 187 188 192
96.1203026087252 506.48646962611 2503.57376736653 210 211 215
89.6531352573859 507.245060747777 2508.46639355251 201 202 206
79.3229605546286 508.291575608899 2510.06760371065 197 198 202
68.970253347997 509.340475746052 2511.69117427747 194 195 199
54.7153216170959 510.682269646253 2510.06086179752 193 194 198
44.3073752434091 511.737114641574 2511.73806918438 197 198 202
32.3174803341848 512.911431955077 2512.13469826063 196 197 201
14.0434718181779 514.559615765748 2507.36521971561 200 201 205
-17.6137776249656 517.218743254453 2491.6469326066 192 193 195
381.24657694613 468.105998467623 2398.98721579982 203 206 199
381.390135524364 468.426515331014 2410.13323798275 202 204 199
380.157410128465 468.835417454429 2419.79904855894 197 199 196
380.3594631763 469.14758717485 2430.88821857294 194 195 197
378.469839036899 469.5960945639 2439.78357635349 195 196 198
379.43826624951 469.852869408746 2451.5371599909 199 200 202
375.460626496295 470.436748223295 2458.2345366678 189 190 192
370.063918576516 471.114494378378 2463.49337682441 192 193 195
362.520871087346 471.935452817405 2466.61133139398 176 177 179
355.683813907094 472.709159444786 2470.45245810717 152 153 155
348.838948839956 473.483332698842 2474.30093135825 215 215 217
340.543907933899 474.355265425398 2476.74118321214 210 210 212
326.447164531616 475.619786880651 2473.54829889932 198 198 200
298.524747628822 477.823010645345 2457.02280671552 200 200 202
263.209851116162 480.534556549191 2433.5925817299 201 201 203
242.318027759072 482.273176214302 2424.32438121012 131 131 133
234.503802115766 483.124075212995 2427.70719449385 135 135 137
228.877270202374 483.825575593082 2433.19074240946 142 142 144
224.721038340471 484.425881953606 2440.06337354823 183 183 185
219.835904340533 485.075208118189 2446.23532301989 172 172 174
215.694020543518 485.672703207102 2453.09412182285 173 173 175
210.078581850297 486.370888623662 2458.567143957 195 195 197
203.720667417562 487.119805012422 2463.35271030104 158 158 160
195.869946265358 487.971796204726 2466.77160273888 155 155 157
190.247951865251 488.669363336055 2472.25122616916 200 200 202
183.129281953896 489.470463509192 2476.36794973324 194 194 196
177.504299518303 490.16737537541 2481.85063717483 166 166 168
170.374703405357 490.96889302214 2485.97781107421 180 180 182
163.238030581853 491.770759043333 2490.11229860418 177 177 179
153.82470425121 492.73213110677 2492.23255816133 176 176 178
145.150886344665 493.642173289628 2495.04330861506 166 166 168
136.462064998508 494.553546690592 2497.86876095266 200 200 202
126.99587195852 495.520050253271 2500.04075950036 193 193 195
115.982578331647 496.59641425535 2500.89899584078 174 175 179
106.474727365914 497.56719647585 2503.11172894081 192 193 197
95.4120382297359 498.648755612276 2504.01824791359 212 213 217
86.6327834475644 499.569141347305 2506.93216997096 199 200 204
76.2946336346904 500.600710530213 2508.54350849605 197 198 202
67.4816506452864 501.524345771633 2511.49044288618 194 195 199
54.774492640425 502.726431561678 2511.17797349108 193 194 198
47.4776884044381 503.542794200043 2515.46933128713 196 197 201
34.7155441537477 504.750750441194 2515.21059639687 195 196 200
14.883962363716 506.467640938313 2509.14349984245 198 199 201
-26.9579766671351 509.770433236359 2485.02245417538 198 199 201
380.757281005727 460.922037972076 2410.45392103364 199 201 198
382.337112991554 461.172481231077 2423.01821581637 197 199 198
381.838799493122 461.549549550045 2433.37635886189 196 197 199
379.952430362537 462.011045555034 2442.26622681681 194 195 197
378.085778947234 462.469659493429 2451.13727859916 191 192 196
374.104012466112 463.059441157316 2457.83821858131 196 197 201
370.129964023595 463.647820611512 2464.53136384103 191 192 196
363.302214695203 464.415488908086 2468.36414018239 187 188 192
356.466627441619 465.18371607138 2472.20427925708 206 207 209
346.026725239213 466.180836652065 2472.5048415798 162 162 164
335.559706715128 467.180903925347 2472.83189529092 191 191 193
319.279474896554 468.55339897144 2467.54022300865 189 189 191
291.337932583295 470.675592908543 2451.04569881329 191 191 193
258.185612193265 473.139126472779 2429.75572567978 157 157 159
238.009308347678 474.776027722029 2421.20894696292 136 136 138
230.91428046778 475.57329239346 2425.30276052575 139 139 141
225.277633978569 476.276156329783 2430.79615083164 150 150 152
222.58105750989 476.787886682823 2439.06623271794 171 171 173
219.163539955857 477.345055040873 2446.62859472444 154 154 156
215.758090952393 477.900230215751 2454.17926707343 194 194 196
210.142311314178 478.598547067084 2459.65260834499 189 189 191
204.526929267701 479.29634204505 2465.12563193474 147 148 150
197.422501847866 480.091355039403 2469.22877433458 167 168 170
191.804078350205 480.788530970567 2474.70490962516 192 193 195
184.688839200002 481.583933969688 2478.81873059054 165 166 168
177.566447857205 482.379812796634 2482.93992130374 165 166 168
169.684162883735 483.225905831701 2486.39102882776 180 181 183
158.773047887292 484.273172166581 2487.15210090019 164 165 167
150.8606374969 485.122119487901 2490.63270154628 174 175 177
142.178796283798 486.022499778442 2493.45284728549 171 172 174
133.481773114877 486.924276314217 2496.28752472483 193 194 196
122.48327151868 487.980583662824 2497.13403672475 177 178 180
115.278970223884 488.783368348779 2501.33554454819 164 165 167
107.30124367558 489.63813208775 2504.88014544065 206 207 211
97.0083198164486 490.649051223065 2506.44962599313 205 206 210
84.3827028375332 491.818331379441 2506.06103381219 197 198 202
74.0385119065508 492.83477004254 2507.68060754109 192 193 198
64.4456565542999 493.801070905896 2509.97875143815 192 193 197
55.6098365303974 494.716528463414 2512.94957199923 195 196 200
45.9811930706331 495.686381038645 2515.28239123264 194 195 197
33.9948757505439 496.817671847473 2515.68182700859 194 195 197
10.2532861791773 498.75366824748 2506.38015779423 195 197 196
382.229699347582 453.288413286669 2412.95385288402 197 199 196
382.405457173183 453.647521831353 2424.06253474668 195 197 196
383.318062952929 453.960808700194 2435.86319743965 195 196 198
382.142702341534 454.393922503458 2445.46812761912 194 195 197
378.862192653729 454.948914862584 2452.8947604008 182 183 187
373.458839777866 455.627970470576 2458.16000556046 194 195 199
368.769180926448 456.264316676449 2464.14010159421 198 199 203
362.652444031896 456.984686322401 2468.6903942737 164 165 169
355.814780131174 457.747796078944 2472.53368968217 184 185 187
343.934015818916 458.812413910634 2471.42091683818 205 205 207
336.34605026155 459.621432791172 2474.58524037501 183 183 185
320.791122555177 460.909862387992 2470.00300238376 208 208 210
292.853666603211 462.948083838351 2453.5164936261 209 209 211
258.978869928279 465.352713661047 2431.53608459521 169 169 171
239.533633724674 466.891449990815 2423.69476295264 128 128 130
231.711050586118 467.727422032603 2427.08808155042 139 139 141
226.808924085907 468.385465395997 2433.27561642786 159 159 161
222.646066216905 468.997516302898 2440.15309145081 166 166 168
218.491144286924 469.6081375303 2447.02255943302 153 153 155
213.605811637315 470.26266495665 2453.19427526451 195 195 197
206.502253420812 471.05317519654 2457.29722003772 179 179 181
201.619429451836 471.706485384935 2463.46628677751 142 143 145
194.507107429687 472.497232355883 2467.57823699253 188 189 191
188.88054081998 473.195552793362 2473.06228935622 182 183 185
180.26021174728 474.079981834337 2475.82371021841 156 157 159
173.876138672852 474.825208129588 2480.63579787457 178 179 181
166.73641058774 475.617493583377 2484.77473532816 170 171 173
157.326044183137 476.552339826562 2486.89597613965 153 154 156
147.140414450679 477.536700721724 2488.36283733454 189 190 192
138.448593334164 478.427754233311 2491.19427175922 194 195 197
128.981605091898 479.368251300246 2493.37124154525 179 180 182
119.495511878576 480.310727624059 2495.56655247466 165 166 168
112.28295948756 481.10931730415 2499.77653593667 182 183 185
106.595454383778 481.810749923027 2505.32064114676 204 205 209
97.0685448156146 482.756914022754 2507.55627611022 199 200 204
85.2127388744233 483.852865327555 2507.83099747889 195 196 200
74.0984432673102 484.902659511249 2508.79345728633 190 191 196
65.279190456228 485.805974323435 2511.74962105263 187 188 192
54.8934022315275 486.81073293316 2513.4122278159 191 192 196
41.3740054946561 488.018846665571 2512.48852324381 191 192 194
26.2572037085129 489.332253281272 2510.30168462203 194 196 195
2.49630172363835 491.208884987711 2501.02796699555 193 195 194
384.403910273184 445.626169409302 2416.17837138813 198 200 197
383.177480923631 446.082779675815 2425.83087865451 194 196 195
381.974465106049 446.536025512812 2435.46063319874 194 195 197
380.794882541489 446.985845465315 2445.06762452055 193 194 196
376.800377163004 447.588538637808 2451.77896825878 189 190 194
371.390832188052 448.268433827105 2457.05023817462 176 177 181
368.121775503621 448.829117581179 2464.46465676896 189 190 194
361.287581048767 449.586954515172 2468.30528628727 202 203 207
355.162858211555 450.305205568285 2472.86382225297 165 166 168
343.99944320025 451.305542352291 2472.46545881925 179 179 181
336.411199844157 452.106605977784 2475.63123399754 189 189 191
323.025886458886 453.235001979749 2473.16925560322 156 156 158
297.270133668838 455.065906035436 2458.79799056982 184 184 186
259.044931140906 457.61165595707 2432.61460978249 246 246 248
238.870616452111 459.140760339909 2424.08145029131 136 136 138
231.045972658043 459.96898884617 2427.47829748363 154 154 156
226.874431868409 460.588103262566 2434.36301294951 165 165 167
223.446014090445 461.163510851414 2441.93350328917 153 153 155
218.555859926221 461.821961398485 2448.10908927843 161 161 163
211.453756304014 462.60752823521 2452.21165809283 194 194 196
204.344048870218 463.393594940503 2456.32136588219 169 169 171
198.712401858225 464.093676251117 2461.81020290417 156 157 159
193.081162798005 464.793263866729 2467.29870779192 194 195 197
187.450353486643 465.492296070645 2472.7868680223 170 171 173
178.825901517776 466.366630479425 2475.55387496356 162 163 165
170.936763022952 467.198196646046 2479.01393520041 182 183 185
163.036415206021 468.030674690802 2482.48499168461 157 158 160
155.879235638118 468.819423758618 2486.6414435529 162 163 165
146.4459801144 469.743373280067 2488.78736197075 190 191 193
135.477136984578 470.759557941796 2489.61035279072 194 195 197
126.001960523106 471.687802831405 2491.79692662393 171 172 174
117.270183704058 472.57227653535 2494.66901014458 167 168 170
111.579824296614 473.274688157235 2500.21580502418 190 191 193
105.124068246107 474.022746465926 2505.09899420689 203 204 208
97.8968813753522 474.817136750006 2509.32413059251 197 198 202
85.2729787948494 475.93814118564 2508.94097111905 194 195 199
74.9305651152388 476.922411140515 2510.56387237409 189 190 195
63.017564302529 478.003312035663 2510.89761353964 191 192 196
49.5226629688124 479.18212608992 2509.95391514974 193 194 198
35.211920004087 480.412769316772 2508.395789913 189 190 192
19.2996998197943 481.743806694556 2505.57896054038 192 194 193
