ply
format ascii 1.0
comment KinectMotionCapture
element vertex 762
property float x
property float y
property float z
property uchar red
property uchar green
property uchar blue
end_header
183.010200500447 764.329403791976 1857.72127400296 217 217 225
171.341007157891 766.186970053741 1857.69811994451 217 217 225
164.919509282657 767.012128633333 1863.95280418409 218 219 224
153.203119050336 768.874511367368 1863.97614330437 219 220 225
137.472629249058 771.519921196444 1859.36767998294 221 222 227
116.361629006838 775.213538644237 1848.61093037192 222 222 230
101.173728726358 777.743177584024 1844.89768783998 221 221 229
82.5869253114271 780.932275757424 1837.37691630627 219 219 227
70.6454443022513 782.820086319103 1837.6200156736 220 219 225
51.2641470618482 786.154471106583 1829.44980563752 219 218 224
36.536872086562 788.577420665551 1826.71217117184 218 217 223
18.375599593996 791.664148762971 1820.20088071195 219 218 223
11.0172855140878 792.647464634875 1825.94555239502 219 219 219
283.369985106694 741.407771639637 1799.70958583487 217 219 218
280.185748536239 741.615326197378 1809.92578777859 212 213 217
275.75127114982 742.067034526198 1818.51359287835 210 209 217
266.235613327341 743.506970884969 1820.66507536777 205 204 210
259.253931484486 744.452772010628 1826.04129033491 206 205 211
251.627300393956 745.5228384715 1830.6223359171 208 207 213
243.992447080656 746.59341075476 1835.21147152772 208 207 213
233.772074892886 748.163613601961 1836.62624530966 209 208 214
225.466909717075 749.361209723425 1840.44566496525 213 212 218
219.742195836912 750.058647791161 1847.44421875097 214 213 219
214.020942399114 750.755000958061 1854.43949661413 216 215 221
205.042808773362 752.079274272689 1857.49121389527 218 217 223
193.432621247861 753.909044630604 1857.41391225266 220 219 225
183.10278691515 755.489744666174 1858.93583208282 220 219 225
173.407116232561 756.94631375503 1861.26327385118 220 219 225
168.310756074552 757.517273892902 1869.07380364453 222 221 227
158.589076740757 758.975824471321 1871.42677952472 223 222 228
143.537750888909 761.454633803208 1867.58542916006 224 223 229
122.444517318701 765.086970646476 1856.82043206967 224 223 229
104.603341369768 768.090769995727 1850.00353784283 223 222 228
88.7046605090447 770.718227679508 1845.56474404898 221 220 226
72.0798074018374 773.480412985481 1840.41022802924 221 220 226
55.3961938712719 776.249311388474 1835.31273194374 220 219 225
40.6802273150904 778.638651400182 1832.56849768514 219 218 224
24.5627694044788 781.291330654267 1828.34322499887 220 219 225
11.7870268671574 783.303920716875 1827.97906888084 220 219 224
-1.70511213179392 785.449770133355 1826.88970004748 220 220 220
289.774227937826 731.43509512838 1808.99414196772 206 208 207
285.97627249493 731.774168975428 1818.38342801296 211 212 216
280.289572413496 732.473419308385 1825.34396568259 210 209 215
270.787260744242 733.898169311217 1827.48443978134 208 207 213
262.541803976016 735.082295425613 1831.24622112472 210 209 215
254.924554405036 736.14581303367 1835.8189186369 212 211 217
246.6569109245 737.331661658899 1839.60281496921 211 210 216
237.088314513474 738.762776004461 1841.80783230735 212 211 217
228.146180183927 740.073429836519 1844.82581470877 216 215 221
222.428755021441 740.77260264277 1851.81687429649 216 215 221
216.06474422416 741.593580441731 1858.0150909354 217 216 222
206.440107496159 743.029446737549 1860.27539264255 219 218 224
193.525508836466 745.084089743666 1858.6259979823 220 219 225
185.163239981564 746.277870558579 1862.50234849402 221 220 226
176.788890472147 747.472643612508 1866.39054862177 221 220 226
169.7220896334 748.420107178715 1871.85070446013 223 222 228
159.342395124157 749.989153320622 1873.42419646504 224 223 229
147.611385576757 751.809873095581 1873.46787270647 224 223 229
131.189501228987 754.507787414214 1868.12130493205 224 223 229
112.038465995258 757.713073918503 1859.74152198933 223 222 228
94.152406680597 760.676404868954 1852.97551666181 222 221 227
77.5428473462378 763.396399481274 1847.81171162366 221 220 226
60.8748516560529 766.123099229761 1842.70528157649 220 219 225
48.8757192660358 767.974023050913 1843.01074361938 220 219 225
32.7814573552252 770.586214938186 1838.76842097755 220 219 225
15.953137991926 773.331311037395 1833.8181378932 221 220 225
2.47240476696398 775.448891758786 1832.72162105844 217 217 219
-6.26535381733806 776.68122266523 1836.96514073552 227 228 223
-10.9043425055724 777.150398288661 1845.7534469227 223 224 218
303.968521228685 721.500225436558 1770.86097353048 216 222 212
300.106561223418 721.860505086079 1780.31102068597 207 212 205
296.886115761348 722.101165261961 1790.55828559844 211 213 210
294.313301872267 722.221467708409 1801.59747876472 210 212 211
293.024484138634 722.103031874429 1814.23074881672 205 207 206
286.705369277211 722.923244239906 1820.38449625838 194 193 198
281.020343198145 723.624924097548 1827.34335037821 201 200 206
271.519538567115 725.036052259737 1829.48400342584 209 208 213
263.914276946132 726.093328052189 1834.04605710608 213 212 217
255.660225839081 727.269869202059 1837.81749380939 218 217 222
248.03631187 728.328389049569 1842.39754783423 216 215 220
241.048465884979 729.267891004114 1847.7808149004 213 212 217
235.348571227764 729.968038128257 1854.75432243348 215 214 219
230.300326553119 730.547261969763 1862.51585146878 217 216 221
222.008917548093 731.725741141421 1866.32409867827 218 217 222
209.141232268871 733.748169873896 1864.63287959328 219 218 223
194.926243767881 736.016328316277 1861.40907730307 220 219 224
186.567492039518 737.201645981103 1865.28318610604 219 218 223
179.51244233215 738.145551183645 1870.73253666382 220 219 225
169.813801381216 739.575074217709 1873.06692534764 221 220 226
159.433806915952 741.128118653036 1874.64308025856 222 221 227
148.366174827407 742.805397877486 1875.46612264526 223 222 228
135.939977121597 744.729918477579 1874.76821781242 223 222 228
117.470104591098 747.760155843122 1867.15481173993 222 221 227
100.269039204293 750.553261862471 1861.15066580417 223 222 228
83.005634897241 753.353741904719 1855.20767130239 223 222 228
68.3731583800946 755.668870337806 1852.39149863972 222 221 227
53.0184505558 758.112686505371 1848.85658303291 221 220 226
36.258297301357 760.80956213205 1843.84573695958 221 220 226
19.4397438165828 763.513256278355 1838.89221324604 222 221 227
5.96847652044952 765.60281285296 1837.79043856068 220 219 224
-4.12632402935431 767.074789058215 1840.51194502233 216 216 216
-15.6108022951686 768.797647007289 1841.74252315158 217 218 213
310.296404138001 711.567059463871 1780.21585439615 221 226 219
303.954011929932 712.392447124161 1786.39195168082 215 220 213
300.117983327681 712.759495446711 1795.81491032087 212 214 211
298.811638451824 712.665323528606 1808.46199888803 213 213 213
293.752095729688 713.256350181977 1816.23300260107 211 211 211
288.067085539312 713.961225391137 1823.19103082964 198 197 202
281.750887411014 714.780598305447 1829.34200598271 198 197 203
275.434141944787 715.599450532135 1835.49360160783 203 202 207
269.116869860702 716.417838427933 1841.64578880018 209 208 213
262.158821681913 717.35199173722 1847.0002567317 219 218 223
253.26946739579 718.635588592201 1849.96982677916 217 216 221
245.652433434761 719.687108347423 1854.54408346488 215 214 219
238.673439377163 720.622251090409 1859.91920472583 216 215 220
233.634269155861 721.20559221635 1867.67077631998 218 217 222
224.052198429315 722.609792294728 1869.89348961155 219 218 223
212.494105013927 724.369263098807 1869.77451014887 220 219 224
198.942776266644 726.486030542269 1867.33130659577 220 219 224
191.907144935668 727.425305903342 1872.76205870729 220 219 224
182.893535126758 728.720098548408 1875.85302375083 220 219 225
172.544720350102 730.25364451837 1877.40109863471 220 219 225
158.201728489201 732.503619961145 1874.30709301253 222 221 227
149.121072741604 733.805023740567 1877.46399638353 223 222 228
137.361995378155 735.585762915776 1877.5414534964 223 222 228
122.901490255032 737.848652732106 1874.562569384 222 221 227
104.37686571347 740.836966270292 1867.00972919125 224 223 229
89.1392169440257 743.232413052908 1863.3657211865 224 223 229
70.4839237097006 746.236066010444 1855.94070761982 222 221 227
54.4596076929809 748.764962478527 1851.64123869774 222 221 227
39.0578434581017 751.179270589627 1848.15741208013 223 222 228
24.9635899620992 753.356829414852 1846.24401804674 223 222 228
12.1887319977425 755.296304555799 1845.88978988818 223 222 230
-1.98744319670885 757.482939529529 1844.05674170359 223 222 228
-16.8915742950455 759.796153410446 1841.5109468678 221 221 223
-31.8427055859729 762.114715762086 1839.01069557441 217 218 213
305.412354247043 703.689370877676 1774.89381900236 222 224 219
307.176222400731 703.06686792143 1791.65545001438 214 216 213
305.22958112299 703.108037563131 1803.50144963277 204 206 205
302.68092218789 703.257314966602 1814.51237408669 204 204 206
296.371305063862 704.076860710806 1820.65678866105 208 208 210
290.693647905402 704.783403581823 1827.60726874054 214 213 218
285.653879404571 705.376183135906 1835.35837728155 209 207 212
280.621322946455 705.967463809144 1843.10254569146 198 197 202
274.957519661398 706.670668020975 1850.03976212223 202 201 206
266.095598144281 707.940486994901 1852.98412738934 217 216 221
257.21744183327 709.211893909855 1855.9440415078 229 228 233
248.32340776078 710.484758711583 1858.91984484509 222 221 226
240.705681149372 711.530455865832 1863.49598776275 215 214 219
234.375786060281 712.347604588312 1869.66089293494 219 218 223
225.44519467356 713.623380962312 1872.67223005457 221 220 225
215.846840490325 715.015599248438 1874.912883963 221 220 225
202.958964965663 716.986439899451 1873.24933878612 221 220 225
195.278596906784 718.037157568899 1877.88660571518 219 218 223
186.274522540574 719.319884817917 1880.97022302542 219 218 224
175.934976618546 720.836235818584 1882.51129736659 220 219 225
162.263348309791 722.936443704604 1880.19000055175 222 221 227
151.203092850221 724.575275776211 1881.01173815123 224 223 229
138.784056343545 726.450611162388 1880.31365385293 224 223 229
124.327120440444 728.680985018126 1877.33569345506 223 222 228
107.14538561387 731.385972408332 1871.32537588214 224 223 229
89.9012916854876 734.098218427991 1865.37624683889 224 223 229
71.9210540094135 736.935507010102 1858.72205318147 223 222 228
55.2252538262268 739.544472049483 1853.66063454546 223 222 228
41.8570097092323 741.568794535125 1852.46619789011 223 222 228
27.7703160820177 743.71603384318 1850.54977800666 223 222 228
13.6407856569423 745.8678937776 1848.67555061217 232 230 241
0.151290296121598 747.905496969029 1847.59955535185 221 220 228
-13.3772771819674 749.947318195752 1846.56173585779 219 218 223
-31.0667373698581 752.710651427834 1841.04697358427 225 225 223
-46.0628035618664 755.001960894655 1838.59570911839 223 224 218
307.379782023395 694.572782913127 1778.53862765144 220 222 219
309.773413847476 693.875529885852 1796.1028513747 212 214 211
310.34086059514 693.498179794002 1811.18249440753 204 206 205
307.807004032121 693.661466775506 1822.17631143564 202 202 204
301.512586790722 694.479096332988 1828.30591551341 202 202 204
293.952613014436 695.515920666401 1832.8260204111 209 208 213
290.190922325451 695.892585475929 1842.17373909178 212 210 215
283.262315146874 696.818604617355 1847.50017390133 204 203 208
276.329081434518 697.744630356522 1852.83086411018 199 198 203
267.470765052519 699.003321488289 1855.77329411504 208 207 212
259.238538833046 700.152344357176 1859.52712557227 227 226 231
251.638416502466 701.190927799509 1864.08683858234 219 218 223
240.79939697565 702.788129829928 1864.69503853204 219 218 223
231.876730920903 704.052882389403 1867.70013499483 220 219 224
223.588147418243 705.206769173909 1871.50921118278 222 221 226
216.591404370972 706.136955262232 1876.90269004424 223 222 227
205.013128159196 707.855379427809 1876.81015691397 222 221 226
196.682424696425 709.012983944231 1880.6605093658 221 220 225
188.997328923992 710.058223827965 1885.30328059865 220 219 225
178.665264762178 711.557474175421 1886.8394529104 219 218 224
165.662869573254 713.513621249476 1885.2917991573 219 218 224
153.284946982551 715.360231973596 1884.55747146716 223 222 228
139.540354721348 717.438987373312 1882.31146176181 224 223 229
123.750313188433 719.865641257193 1877.7944662234 223 222 228
107.235957752287 722.413297666215 1872.56159381813 221 220 226
92.0058019285843 724.738039722235 1868.92059533521 221 220 226
74.7049729929277 727.413919097101 1863.03317996709 221 220 226
58.6918998310115 729.866343946495 1858.73351135384 221 220 226
47.3647876614312 731.515878673075 1859.8186597635 222 221 227
33.2935989992755 733.631547945118 1857.89184710007 222 221 227
16.454849805426 736.216443274461 1852.97559859547 221 220 228
0.240711929056392 738.691725797277 1848.8725497038 221 220 228
-12.6031757325609 740.590192507678 1848.59293008318 221 220 226
-29.603755930236 743.193471228432 1843.83500294245 223 223 223
-46.6629907968916 745.803508683015 1839.13398397519 224 224 222
307.002027474677 686.123929522558 1764.57546432301 89 94 90
309.969732729561 685.365138790617 1782.99562920672 210 212 211
312.995160109436 684.598232666173 1801.36001246049 201 203 202
313.571481780858 684.24920223149 1816.42631908787 207 207 209
311.675483619214 684.320666113792 1828.21755186781 210 209 214
305.392355759273 685.136754527707 1834.33617320325 206 204 209
297.211115171757 686.273865746695 1838.0411357109 204 202 207
293.458784628735 686.660010880782 1847.37849628244 205 203 206
285.903018500293 687.689772271497 1851.89512898147 216 216 218
276.423989670547 689.043844958743 1854.02259111079 209 209 211
266.92514970405 690.39993036604 1856.16976635462 199 199 201
260.6172846812 691.215952975768 1862.31296178435 222 222 224
254.308873397437 692.031336824446 1868.45679406784 215 215 217
244.123445449408 693.49989480012 1869.85189077077 221 221 223
233.266234603997 695.080107329036 1870.48066600965 221 221 223
224.981200115742 696.225526943484 1874.28746941786 222 222 224
216.684011106462 697.37188914017 1878.10620313189 223 223 225
206.413154232549 698.849034942781 1879.58486274402 222 222 224
197.430210735026 700.108164376646 1882.65098453606 221 221 223
190.404533173749 701.037516489397 1888.07331905889 220 219 225
180.735688290388 702.409503685953 1890.3866235788 219 218 224
169.723846747274 704.005258959921 1891.16665217543 219 218 224
155.366447877876 706.159752071343 1888.10106517254 222 221 227
141.627692166779 708.208274230028 1885.85406598848 223 222 228
123.840977418892 710.931756393234 1879.02485958358 223 222 228
110.004304842521 712.991443152093 1876.87344317118 221 220 226
94.1103138130583 715.392531009442 1872.46311182505 221 220 226
76.1418325890815 718.137217629142 1865.81126820851 221 220 226
61.4832491846862 720.326305575806 1863.03998664165 221 220 226
48.132003471848 722.294705572761 1861.83693563909 222 221 227
34.7414579474665 724.26754225388 1860.67191634839 222 221 227
17.9066396912346 726.811712248508 1855.7581213933 219 218 226
5.11127593364735 728.68065112568 1855.43468101952 220 219 227
-6.34928704022508 730.325485824922 1856.65304271259 221 220 226
-21.2719006437898 732.543921099994 1854.13927167228 222 222 222
-36.9301616094781 734.881885152375 1850.92143371861 222 222 220
-48.4942716700782 736.537650729442 1852.24100362054 222 223 217
310.826268783798 676.691125428785 1770.67389424425 14 16 13
311.936718209169 676.280744595032 1786.63611883801 211 212 214
313.717725330335 675.760337884827 1803.36564082138 198 199 201
314.92202250072 675.336769768627 1819.23662229159 207 206 211
312.40083719357 675.530643278339 1830.21367374179 211 210 215
306.749698046972 676.242216705966 1837.13707752943 212 210 213
301.734272172772 676.848333856845 1844.86170434937 208 206 209
297.360510598623 677.348113533818 1853.38211282573 203 201 204
288.543474985357 678.581020448321 1856.28736131304 209 209 211
275.880629578596 680.44695094062 1854.41586357817 214 214 216
267.019789192551 681.684377672711 1857.36394282534 195 195 197
260.711499536666 682.500394845354 1863.50756072554 205 205 207
255.046726666499 683.209795077921 1870.4448241995 215 215 217
246.155182176247 684.4495003919 1873.42305630263 214 214 216
234.655610685718 686.116665429434 1873.25994429743 220 220 222
226.374105030307 687.253502480377 1877.0645120216 220 220 222
216.124798248082 688.712304812496 1878.52448323104 221 221 223
207.813220860701 689.851930413024 1882.35850048319 221 221 223
197.522214981845 691.314869171142 1883.85926815006 221 221 223
188.522931368413 692.564736521567 1886.94298485064 221 220 226
178.188324288783 694.031992527308 1888.48641106711 220 219 225
169.153272721732 695.285248588912 1891.60514502434 220 219 225
156.120963103865 697.190856562868 1890.09466639832 222 221 227
143.049414999234 699.100880452115 1888.62249949935 223 222 228
127.268881834644 701.451209370151 1884.10734280725 222 221 227
110.094775087069 704.02644720276 1878.10862736707 219 218 224
92.8581203614427 706.608980513584 1872.17094472523 219 218 224
74.2123100543215 709.418328128654 1864.76489487442 221 220 226
59.5477074162458 711.575918947281 1862.00424575735 221 220 226
47.5446177896459 713.297905066857 1862.33269433066 220 219 225
36.1893851006929 714.912655094509 1863.45090799506 220 219 225
24.1256860376993 716.640971644495 1863.83894484182 219 218 223
8.6155879768377 718.927529709814 1860.48157671585 220 219 224
-4.89043313811388 720.886016161071 1859.43368519332 221 220 225
-21.8700488242005 723.406231530618 1854.66687886771 221 221 221
-38.219228976577 725.821407053021 1850.70681274082 221 221 221
-55.313909730986 728.354712950903 1846.05233295465 215 216 211
314.029550364885 667.389561034778 1775.95297770887 35 37 36
315.771649525471 666.909499555941 1792.71517286468 196 197 199
316.314201763612 666.624107903163 1807.80560725435 204 205 207
315.645745716788 666.534876894222 1821.23577968004 206 205 210
311.240283784711 667.048382761379 1829.78563835553 207 206 211
306.21544837337 667.661511009838 1837.51891058978 211 209 212
303.727293193511 667.86609372936 1848.46124197678 210 208 211
298.724576934004 668.475313099568 1856.17312729678 207 205 208
290.547426427505 669.594689801522 1859.87664944738 197 197 199
276.613738622276 671.638036919689 1856.40673842344 210 210 212
267.11437890652 672.967298064764 1858.5583944002 199 199 201
260.163603389996 673.886323052233 1863.90787642995 196 196 198
253.20822259827 674.805351957461 1869.261593145 219 219 221
244.310526094753 676.035100504044 1872.24740589412 209 209 211
234.100780663234 677.473878448551 1873.67105169324 218 218 220
224.517250585706 678.811097007947 1875.90511398115 219 219 221
216.869254336231 679.83733048249 1880.51385397825 219 219 221
208.559229272531 680.968563721072 1884.34757013746 221 221 223
200.237134722113 682.100728821965 1888.19313374657 221 221 223
188.61456984536 683.759162942434 1888.15344641779 219 218 224
177.620094605351 685.315696494927 1888.92202697202 219 218 224
167.921047754883 686.664011656186 1891.26882120822 218 217 223
156.875232653526 688.225897006255 1892.08759201036 220 219 225
146.46724523275 689.684477246713 1893.70516826467 221 220 226
127.359399218319 692.527603594371 1885.33636274371 220 219 225
108.177144852258 695.379592615524 1877.03979807461 217 216 222
88.249420679825 698.347218401251 1868.04949556229 218 217 223
74.3026919941103 700.360585347485 1866.01387469948 220 219 225
62.338635283302 702.056762745335 1866.30771537018 220 219 225
50.3430386801007 703.756339597414 1866.63203534044 219 218 224
38.3162331822069 705.45913016273 1866.98720906105 218 217 223
26.9390427073901 707.057188605447 1868.12969414037 219 218 223
13.4854712167232 708.982939758042 1867.03455762843 220 219 224
-2.06194574939378 711.238644261973 1863.71880786995 220 220 222
-19.7207294961221 713.826393018506 1858.19953474568 220 220 220
-38.8194365786081 716.63945564247 1851.24300685315 220 220 218
-60.0607607564179 719.788515155662 1842.11306557935 215 216 211
-73.0714634643457 721.63282629947 1842.00709993479 229 230 224
313.508002328922 658.699046298813 1776.33842758341 92 94 91
315.870072163322 658.156319575842 1793.91115390872 194 195 197
315.162742927099 658.096638119563 1807.37556057516 204 205 209
315.116290631516 657.933694269528 1821.6158781244 205 204 209
310.079818434342 658.554140471473 1829.35928642669 208 206 211
306.311645230121 658.975423305215 1838.70718565833 207 205 208
303.190597118108 659.295190422114 1848.84405556149 207 205 208
297.551027459069 660.009433149857 1855.75557615556 210 208 211
287.460999880096 661.420014639423 1857.06484562306 200 200 202
275.43222167344 663.132813681439 1856.00325186444 202 202 204
264.648318497229 664.649356387 1856.5686418762 212 212 214
257.68921558221 665.566731647257 1861.92629912271 190 190 192
250.725863347387 666.484098844447 1867.28851504032 218 218 220
241.820081377106 667.704016428517 1870.28380978943 203 203 205
232.898232769103 668.925428748121 1873.29483802604 210 210 212
222.660535357828 670.351101274747 1874.7481775293 211 211 213
216.310031834623 671.169491734792 1880.93336365295 212 212 214
208.651440504313 672.190987098496 1885.55332501265 215 215 217
202.296143851345 673.00874346335 1891.743364504 217 217 219
191.336795278775 674.542568405064 1892.48042008095 221 220 225
179.030570471141 676.284624023409 1891.69001078931 220 219 225
168.012070048646 677.82472661916 1892.48487719314 219 218 224
158.293048388902 679.16157127273 1894.85353988825 221 220 226
147.223261251501 680.707018966104 1895.69854475504 222 221 227
126.782395319138 683.706164903894 1885.79589377153 220 219 225
102.912947949078 687.234521285315 1872.13477333636 215 214 220
86.3261696820867 689.629838058104 1866.99667144643 216 215 221
76.4127369002163 690.988137981616 1869.55487833821 218 217 223
67.1548549499934 692.243657007649 1872.89455169482 219 218 224
51.1100625499505 694.54922527496 1868.64842393462 217 216 222
39.0847358105799 696.230436773166 1869.00498076086 216 215 220
27.0282267497377 697.914858634632 1869.39236544499 219 219 221
13.5744065566703 699.813751355241 1868.30144556273 219 219 221
-0.603512070542767 701.822828142443 1866.49603381307 218 218 220
-18.9453009556919 704.473345785028 1860.22880835626 219 219 219
-37.3533936568724 707.131455482403 1854.02630146654 219 219 217
-65.4979244754559 711.289781484811 1837.43240842765 220 221 216
-82.6805683135388 713.753035421828 1832.87563093313 216 217 211
314.227809851158 649.811965354958 1778.35406407318 186 186 184
316.591025833557 649.306539346635 1795.92013922724 197 197 199
319.632673454571 648.698219486399 1814.24497656119 203 203 205
317.719468088644 648.847332708107 1826.0418198109 203 203 205
313.318941559413 649.376137972464 1834.58451631418 203 203 205
307.038154835492 650.191636404853 1840.70090006595 204 204 206
300.12445886723 651.103156422423 1846.01467078741 206 206 208
293.206094386543 652.014629360981 1851.33274652698 208 208 208
284.374642940149 653.217038703397 1854.25681767753 210 210 212
275.527082338879 654.42094814131 1857.19666374354 203 202 207
264.742989550819 655.918703694811 1857.76501877555 208 207 212
255.857259612147 657.126494520876 1860.74185604839 192 191 196
248.887661406941 658.041877587032 1866.11056756062 208 207 212
240.621652840507 659.153527266037 1869.90346912892 195 194 199
233.639351699333 660.069450300237 1875.28471503731 207 206 211
223.403343086012 661.478752468591 1876.73879707104 207 206 211
215.750851079841 662.494748371545 1881.35385237159 208 207 212
206.782392733951 663.709548235904 1884.41180424295 211 210 215
200.420804080668 664.528038838548 1890.6079832636 214 213 218
190.77071476584 665.844399709455 1892.91122261533 217 216 221
180.441056080881 667.262677453706 1894.4569739684 216 215 220
168.764738321234 668.883720328128 1894.47619045679 217 216 221
159.04713974242 670.206835787553 1896.8451313384 219 218 223
145.982779217477 672.035402151203 1895.37786645326 220 219 224
126.872901700838 674.776781570092 1887.02577855367 218 217 222
104.342335536191 678.032931528625 1874.90951775708 213 212 217
89.101761522242 680.184557174335 1871.30445122092 217 216 221
79.8690573163281 681.426759507486 1874.62109090663 218 217 222
68.5950990187783 682.976245691598 1875.66824386648 218 217 222
52.5538998852615 685.243751897184 1871.42383565361 218 217 222
39.1742082185544 687.107707068499 1870.26446880337 219 218 223
25.7553838194613 688.976123791913 1869.14330191944 218 219 223
15.7121053238387 690.334032646177 1871.8308431663 217 218 222
0.854974407919151 692.416073528052 1869.27220588089 216 217 221
-15.4225557335104 694.710116688964 1865.25889354408 217 218 222
-32.4435851010665 697.114136097373 1860.55038532868 217 218 222
-59.1929310362076 700.979725849118 1845.44813800136 217 218 220
-81.8993297117525 704.23384817952 1834.92369048764 206 208 207
316.349324021179 640.837558055314 1767.65474171218 6 7 2
318.671630762482 640.375383168758 1785.25504785049 222 222 220
322.915588379916 639.62825548263 1805.24030795607 206 206 208
320.979183344456 639.799635166396 1817.05689784721 199 199 201
319.069461295892 639.966989340687 1828.84792394845 200 200 202
315.929175637392 640.316955973265 1838.99943354442 200 200 202
310.286126265622 641.037888069695 1845.9134208589 206 206 208
301.484761140817 642.226597790373 1848.80964064546 208 208 210
295.838532137112 642.946928259881 1855.72687430165 207 207 207
287.650929777641 644.043255420729 1859.44451985086 212 211 216
280.089038636185 645.046132587039 1863.97120825499 205 204 209
265.477663751409 647.091842744211 1859.75699194523 190 189 194
255.309565737511 648.478608090578 1861.14696868228 190 189 194
245.76168986534 649.772530383043 1863.35202498655 206 205 210
240.069380625821 650.495426713003 1870.31463776504 187 186 191
232.436743375527 651.504627922076 1874.9106434103 203 202 207
223.496304664264 652.706211540824 1877.94306256759 198 197 202
214.53982003535 653.909346251839 1880.99118630755 202 201 206
204.913463998749 655.210403719094 1883.27278215754 205 204 209
195.9229976752 656.416642986136 1886.35419137059 205 204 209
188.889356159125 657.333318314188 1891.78630784151 209 208 213
180.53225815249 658.44442162388 1895.66974332362 209 208 213
172.16306940056 659.556459475866 1899.56504696961 214 213 218
159.801163666564 661.256000745469 1898.83621326314 219 218 223
145.407866355815 663.253313865706 1895.82984291923 219 218 223
125.628817724238 666.042332248563 1886.71830149315 217 216 221
107.110071096494 668.643482062389 1879.21684707447 212 211 216
96.5756277019651 670.067880585133 1880.96504802303 217 216 221
83.998215819928 671.79168731854 1880.44696652437 218 217 222
68.6849067202093 673.916275518066 1876.91812312634 218 217 222
49.9354187012964 676.544273135172 1869.64183022648 218 217 222
37.2266538106012 678.282765037897 1869.25167590356 218 217 222
25.8446050437957 679.825061747398 1870.40722689847 217 218 222
15.1179393955854 681.269859965783 1872.34329232039 216 217 222
2.99815044869334 682.917855736022 1872.79889862719 216 217 222
-13.2736959843327 685.173678201538 1868.785591286 216 217 222
-29.6001816662193 687.435740155463 1864.82561933298 217 218 223
-57.0323155357286 691.323690803009 1848.9808384276 216 217 221
-85.2737394634766 695.327114067149 1832.50605623552 206 207 209
-96.2717889566416 696.801996713449 1834.70716336197 211 213 212
322.636005830124 631.13356277687 1777.01632670906 10 11 6
331.183565193909 629.810966727907 1802.73214154231 210 210 208
331.107309821288 629.733098041001 1816.98947991567 211 211 213
326.072956904721 630.370011182762 1824.72868777646 195 195 197
322.925039880682 630.734856513273 1834.88557636617 198 198 200
318.53910068681 631.277685426549 1843.41171474061 200 200 202
314.794722656282 631.727811666857 1852.73172197013 202 202 204
304.741993938177 633.086175206123 1854.01133306566 204 204 206
299.105096091074 633.807806025787 1860.91910855422 206 206 206
289.654288587538 635.077946455953 1863.03095164038 210 209 214
280.18360563301 636.350166682829 1865.16256179212 211 210 215
264.932180718882 638.45299467672 1860.15857331416 193 192 197
254.119929131924 639.916088294687 1860.76001346866 184 183 188
243.923815362538 641.289756263118 1862.17974605179 194 193 198
238.87108648433 641.92322007974 1869.9373734809 182 181 186
231.882161308178 642.834376140285 1875.32590171057 202 201 206
222.289705877043 644.118822374918 1877.57662673311 193 192 197
213.32886857409 645.311727552321 1880.63024682134 197 196 201
203.69848744376 646.59983451625 1882.91809156964 198 197 202
194.048046052674 647.889893744436 1885.22523006761 197 196 201
185.692939799238 648.993315889854 1889.10782298208 203 202 207
177.325743877524 650.097554504137 1893.00230044213 203 202 207
169.608040183937 651.107913702237 1897.68294501481 208 207 212
158.565027985353 652.59414251046 1898.51011449692 211 210 215
142.83676208409 654.750433447989 1893.97139652646 212 211 216
125.051919960987 657.199946244564 1887.18082313021 211 210 215
109.208344688918 659.369640314861 1882.75496593438 209 208 213
98.0082850337109 660.873308697313 1883.73550830104 216 215 220
84.761262638497 662.668764169279 1882.45452312865 218 217 222
65.3992320459893 665.337733573538 1874.36352912944 218 217 222
50.7021909257559 667.33767532514 1871.65805452595 216 215 220
38.6742046922341 668.954579223108 1872.02709474642 215 214 219
26.6148551977503 670.575024176677 1872.42675578219 217 218 222
13.8411617044429 672.296049921915 1872.10365801195 216 217 221
3.08670990746451 673.727603879136 1874.06927298637 215 216 221
-13.1852919956943 675.945764864011 1870.06168637971 215 216 221
-31.5780574047997 678.465193604071 1863.8644562473 215 216 220
-58.3250271624207 682.17474713015 1848.78291142658 215 216 218
-87.2627936124264 686.194338238519 1831.57997089291 211 212 214
-101.045202839317 688.050034561906 1830.82172918732 203 205 204
326.4473171841 621.828333084843 1783.10907866803 134 135 130
330.661079865568 621.176649506522 1803.11021619393 214 214 214
331.204772010929 621.038654154181 1818.17773353004 198 198 200
324.92095472189 621.85583195164 1824.29687846835 200 200 202
323.648153897335 621.971534043917 1836.87997585161 202 201 206
319.263735321189 622.522249988395 1845.40343853041 204 203 208
317.411658296619 622.718439051185 1857.13262264475 202 202 204
307.998742525247 623.97118329757 1859.20940982909 203 203 205
302.371298781225 624.694321805429 1866.10791225986 212 212 214
291.657552298199 626.127437617483 1866.61562825462 207 206 211
280.916212962187 627.563665096219 1867.15062229931 215 214 219
264.386571277008 629.807335199174 1860.56094909087 215 214 219
251.004207670364 631.610434460222 1857.99632067573 184 183 188
240.798123446407 632.969083966767 1859.42817378975 163 162 167
233.151866201778 633.969669609994 1864.03931550959 179 178 183
226.792829373031 634.790079330015 1870.23267688604 200 199 204
218.483992578483 635.881830561126 1874.07104849988 188 187 192
210.81463469893 636.883631348382 1878.70461205194 191 190 195
201.176192334682 638.159250697669 1881.00230738867 191 190 195
191.517667374085 639.436943064624 1883.31930080736 190 189 194
183.811930427253 640.441619915382 1887.98856423008 197 196 201
175.438683359937 641.538529605579 1891.89047162093 198 197 202
168.375970804773 642.452160391719 1897.35156820338 202 201 206
156.001965163626 644.104754671511 1896.64168862817 205 204 209
142.92729748643 645.853951060851 1895.19638974513 207 206 211
122.473362879004 648.629234682414 1885.34014074372 207 206 211
106.621924287079 650.76241587548 1880.92748852805 209 208 213
94.7425035483151 652.341674776835 1881.15422708809 215 214 219
81.4855438541859 654.111493218351 1879.88689894233 218 217 222
64.1389866317375 656.449008336928 1874.0945646863 217 216 221
50.7919443965044 658.228944768747 1872.91519440097 215 214 219
40.1216338256467 659.635666862374 1874.8012638746 214 213 218
28.0657204943027 661.234109080399 1875.20042690229 217 218 222
15.2956539376308 662.930559342614 1874.87735977601 217 218 222
4.54490273783392 664.345476284394 1876.84209678833 216 217 221
-11.0366701715381 666.430172366562 1873.58553935648 215 216 220
-30.11247916531 668.998825047254 1866.64205916424 215 216 220
-57.5459057789067 672.725881762705 1850.82267986774 212 213 215
-89.9442126369574 677.139840664364 1829.91293529724 209 210 212
-100.956649271216 678.584281090316 1832.13282841435 198 200 199
324.071700208677 613.393199500447 1781.04683538981 183 184 179
326.415048034327 613.040648696499 1798.61004502879 209 209 209
326.94448224359 612.93399416562 1813.68708854649 200 200 202
324.393586796639 613.244656350891 1824.67638128946 207 207 209
321.238837285228 613.636898996916 1834.83600532886 201 200 205
316.846203975509 614.196611330662 1843.36629569713 202 201 206
313.72522140374 614.58340470297 1853.49353190857 206 206 208
305.564983024252 615.652825644316 1857.18764350664 206 206 208
299.929207010211 616.379504295828 1864.09355893104 206 206 208
289.207678613849 617.794836016976 1864.61196880364 212 211 216
278.458348306698 619.213200860122 1865.15753809054 208 207 212
262.561000618826 621.328199240865 1859.37591453782 217 216 221
249.814636389131 623.015427643678 1857.61376431953 195 194 199
239.604573101377 624.358408278074 1859.05222239718 157 156 161
230.016362690849 625.616563021147 1861.30228008048 180 179 184
223.64718659784 626.438133018881 1867.50553840769 192 191 196
214.028861102758 627.698891832432 1869.78545377666 180 179 184
206.345543363604 628.697027349767 1874.43342140096 183 182 187
196.693024962054 629.961048321515 1876.74647084395 179 178 183
188.9875098813 630.960907689673 1881.41656381419 182 181 186
181.931197617311 631.87212642119 1886.87199915551 194 193 198
172.23259668505 633.140128794534 1889.23022078331 192 191 196
162.514133920548 634.410163316811 1891.60786515341 193 192 197
152.112655877834 635.771731752835 1893.2336536434 196 195 200
140.356620161266 637.315622485938 1893.34309645226 199 198 203
122.563982281322 639.674657411661 1886.57363694759 203 202 207
106.712430197912 641.770230800837 1882.16665584764 209 208 213
93.4905742061658 643.509382735109 1880.86900170286 213 212 217
80.9025298213606 645.161834339293 1880.37168685157 215 214 219
64.2289464990302 647.365372481052 1875.34779062072 215 214 219
52.2356949214955 648.935616875136 1875.68923506863 214 213 218
42.2478119170422 650.234059991972 1878.33055678389 214 213 218
30.8782660144211 651.718301418922 1879.48193495325 214 215 219
16.0674305463733 653.666235788484 1876.89748432967 215 216 220
1.20950615230475 655.619352908548 1874.35868985549 214 215 219
-13.0084876925838 657.485103208373 1872.61459482364 212 213 217
-30.0242086838987 659.727350577665 1867.9247251489 211 212 216
-54.6950188840953 663.001090484453 1855.09700205413 214 215 217
-86.3926292457906 667.221262306255 1834.93700646804 208 209 211
-100.868090177172 669.116757857298 1833.44418372401 198 200 197
332.981940679265 603.460016770249 1779.33493006734 25 26 21
322.933387764723 604.772624793215 1780.61715717353 210 210 208
323.41037878684 604.702655660868 1795.74085546544 211 211 211
327.042013975591 604.217958921389 1814.87846429746 207 207 209
325.11500429342 604.462749737084 1826.67487433066 195 194 199
321.335335531613 604.950360515555 1836.02404773766 200 199 204
316.313963453174 605.600497360686 1843.74841097672 208 207 212
311.299717306127 606.249264118327 1851.46590055889 208 208 210
305.028082002007 607.062488461137 1857.57353292497 209 209 211
298.755833968706 607.875377266411 1863.68182333249 199 199 201
291.84676386914 608.77123113806 1868.99297810548 217 216 221
279.829025802782 610.337267199785 1867.94245067073 202 201 206
262.015584461076 612.663396459094 1859.78126559453 214 213 218
246.699442318299 614.66098603465 1854.85709647358 206 205 210
235.835478605848 616.073634901327 1855.51734324535 156 155 160
228.172763004534 617.065399186938 1860.14579430749 181 180 185
219.85400351678 618.142715623349 1863.99615275872 189 188 193
211.523120857356 619.22102965874 1867.85840225395 177 176 181
201.876777171026 620.471286029786 1870.16769235742 180 179 184
192.864069356211 621.637812666312 1873.27705720953 177 176 181
185.801815898575 622.547670539846 1878.73825553619 182 181 186
180.050436944934 623.285017798292 1885.75772741508 194 193 198
170.345708770764 624.540347715399 1888.12390646818 192 191 196
161.282565263502 625.710873819289 1891.28276358894 191 190 195
151.54001822153 626.969792029069 1893.68596698873 194 193 198
141.112577491541 628.317827358807 1895.33953699818 198 197 202
122.654552447619 630.718494189575 1887.80741644648 203 202 207
105.464505627064 632.951953263279 1881.87504448571 209 208 213
92.9096168105672 634.576637550666 1881.34890966226 213 212 217
80.3195575353612 636.205270844687 1880.85745380476 214 213 218
65.6689630197391 638.103120138956 1878.12094625689 214 213 218
53.6793253137886 639.651385325439 1878.46205059417 214 213 218
43.6948195638354 640.936029799981 1881.1017202371 215 214 219
29.60567672661 642.757880003313 1879.23616266497 213 214 218
12.0594753660841 645.032051229162 1873.65144018902 213 214 218
-4.1796888347676 647.133913791926 1869.62843411453 212 213 217
-12.9200916157406 648.252237486829 1873.89142973407 211 212 216
-29.9359326765449 650.454106346649 1869.20764721617 210 211 215
-51.1536449341889 653.205733683888 1860.11333710062 209 210 212
-86.9962899649233 657.872274748778 1835.50131744628 202 204 203
-100.085107211317 659.556485313431 1835.49658348884 191 193 190
339.864202156472 593.825278007338 1789.51176888431 10 10 8
328.599735114911 595.275932182307 1789.14719489674 211 211 209
324.749821220617 595.784781929438 1798.56298364842 203 203 203
328.384530600837 595.342509007302 1817.6912695412 201 200 205
327.709575422047 595.446938417713 1831.09893493361 197 196 201
322.684579667407 596.103252060976 1838.82598360864 207 206 211
317.038261246466 596.838041165435 1845.74116907753 197 196 201
310.134769213303 597.731999418743 1851.04740276168 201 200 205
303.85888273227 598.545700721124 1857.15918611486 198 197 202
295.67994146959 599.600673342526 1860.8740054078 207 207 209
287.488738854491 600.656660982788 1864.60085038561 192 191 196
275.457255229645 602.200193702885 1863.5672984777 203 202 207
258.270262853558 604.398270161446 1856.21987578377 223 222 227
244.868216971203 606.115043633407 1853.6875510733 203 202 207
233.998196818129 607.509585986184 1854.356488115 154 153 158
225.683545927518 608.578777490026 1858.20396753002 185 184 189
216.061149182201 609.813585584179 1860.49142337365 185 184 189
206.418951390912 611.050464095107 1862.79857378394 175 174 179
198.711529847144 612.040788015935 1867.47163139309 174 173 178
190.995979831758 613.031533933591 1872.15303616577 183 182 187
184.583128812328 613.856192127882 1878.39920790645 189 188 193
176.85480498392 614.847382049017 1883.09289379877 193 192 197
168.458908003772 615.922865002019 1887.0201219083 192 191 196
158.728296212905 617.167351372846 1889.4139442888 190 189 194
149.640918556309 618.329505661896 1892.59776578668 195 194 199
139.207332838611 619.662158206519 1894.25971142869 201 200 205
125.413822568802 621.421395669843 1892.1095026405 200 199 204
111.577288411565 623.185395282797 1890.00165120688 207 206 211
98.3686574265388 624.869100425085 1888.69905944657 213 212 217
83.77465489251 626.72820810987 1885.91208121736 213 212 217
67.7837769298066 628.764214514892 1881.6522567494 212 211 216
57.1534459545626 630.118144833703 1883.50609065285 213 212 217
46.4994973090969 631.474403878024 1885.38303306736 211 210 215
29.6947028292416 633.611913876066 1880.49952822839 210 211 213
9.41740015960812 636.19030664896 1871.91389080082 212 213 217
-5.4603656766341 638.081531139561 1869.40394687562 211 212 216
-14.8916890030417 639.279543166491 1872.92434959207 212 213 217
-30.5362294551248 641.266800015009 1869.74472133714 211 212 214
-58.6615156558641 644.840100959835 1853.21784671427 209 210 212
-94.5248603151101 649.396549076488 1828.64299162869 203 205 204
-110.413120554901 651.412584705522 1825.7011272346 188 190 187
338.729599325358 585.231007491687 1789.07451921962 48 48 46
332.409612042034 586.053747561692 1795.2287593955 212 212 210
329.19151252635 586.495536467104 1805.44430585212 198 198 198
334.083767153473 585.941812295112 1826.17412180628 198 197 202
332.801508223722 586.144624312014 1838.753736419 201 200 205
327.791622445877 586.804222359345 1846.46529523021 204 203 209
320.275629003852 587.771003414545 1850.95174152976 195 194 200
312.121010014096 588.815656661323 1854.64393364521 204 203 208
307.114985501401 589.473293714167 1862.35194799718 194 193 198
296.408960589209 590.830427752242 1862.86322643096 213 212 217
286.31140009507 592.112404373681 1864.19898393792 200 199 204
270.447765389766 594.102443509488 1858.40235181697 193 192 197
254.525394554525 596.099461448058 1852.66335191932 227 226 231
241.753303064348 597.709217895302 1850.93786173022 202 201 206
230.873336689549 599.086085134066 1851.61928789125 171 170 175
224.485960561999 599.910244379474 1857.84023643213 180 179 184
214.859538722953 601.1321019703 1860.13394117407 183 182 187
208.461373469882 601.956500948708 1866.36556804365 174 173 178
200.107855629009 603.020803424005 1870.25236551112 174 173 178
192.395663854533 604.005654919083 1874.93096885202 186 185 190
182.708898210586 605.23293795876 1877.2837940053 190 189 194
173.002030327236 606.462119585944 1879.65596252707 193 192 197
164.594090810709 607.530924025124 1883.59613613467 190 189 194
158.819492221704 608.27526733658 1890.63763144115 194 193 198
149.731767220407 609.426615149876 1893.82339504985 198 197 202
139.963066057822 610.661279022256 1896.25649250052 199 198 203
123.502706630946 612.719173687473 1891.04238783168 201 200 205
108.991108399898 614.5366854534 1888.18006661209 206 205 210
94.4323016281161 616.359689893296 1885.36347451451 212 211 216
81.1725401453316 618.02230240529 1884.11477357586 211 210 215
67.8735412527991 619.689212759149 1882.90440074598 210 209 214
55.2121906928229 621.277135769574 1882.48941730827 211 210 215
44.5520550810019 622.617958352028 1884.37478497415 209 208 213
27.0605863743976 624.799711820878 1878.74970930987 210 211 213
8.82359079832629 627.073076042629 1872.43382781691 211 212 214
-6.05614164896551 628.932279469806 1869.93090730675 210 211 213
-17.5497204354267 630.373647098787 1871.21212653391 211 212 214
-35.2679712943673 632.581467439731 1865.80805838506 209 210 212
-62.0254823794966 635.902978706385 1850.79433373486 205 207 206
-101.360450743475 640.774535525266 1822.53505710695 197 199 198
-117.962909012677 642.843722607715 1818.87729899254 184 186 183
332.662372859399 577.207961606672 1782.11506076522 7 8 3
333.126625453207 577.228274432737 1797.23840271271 209 209 207
333.632680784137 577.242681740386 1812.32076891533 205 205 207
336.048031150379 577.03006809664 1829.79179631594 204 203 208
335.395339335704 577.1796784431 1843.17101397805 199 198 203
328.513893010461 578.066139978514 1848.45646395997 197 196 202
322.256069857874 578.878271737248 1854.55054213885 208 207 213
314.737156219855 579.8392881716 1859.04074024463 201 200 205
307.842075350805 580.725994337243 1864.33969337387 208 207 212
296.503760866919 582.139149945388 1864.05365541799 201 200 205
282.589873222559 583.857546357561 1860.61244795603 214 213 218
266.714638816129 585.808654173868 1854.83308854179 213 212 217
252.060367317681 587.614992532072 1850.69684825089 186 185 190
239.922468095199 589.122524752535 1849.77428946267 182 181 186
229.680217813973 590.404828335322 1851.25333990038 183 182 187
221.35134475337 591.459537373564 1855.11708264253 178 177 182
213.010189620277 592.515205073934 1858.99287997439 179 178 183
206.605774884046 593.340332930168 1865.23060494531 174 173 178
200.200813348394 594.164881062066 1871.46895857915 178 177 182
194.448812898816 594.911282969485 1878.48737149754 191 190 195
184.767592048805 596.124304169693 1880.83679848211 192 191 196
173.093998620455 597.573830133504 1880.87832195174 191 190 195
163.367093229113 598.791431219515 1883.27243745608 187 186 191
156.265294700778 599.696249677054 1888.773649446 200 199 204
147.169608256211 600.837855792448 1891.96909654625 202 201 206
136.062360378009 602.218431662469 1892.87566846592 197 196 201
120.257513789419 604.157923480857 1888.44537690717 205 204 209
109.081387723759 605.546062133133 1889.41922810927 205 204 209
93.8514774605541 607.416713268452 1885.84510022091 211 210 215
81.2624896062917 608.972398030045 1885.36302434582 209 208 213
63.9137089202939 611.095075172531 1879.60465098101 209 208 213
53.271056081766 612.418243941084 1881.47526722054 210 209 214
41.925994847686 613.824613176632 1882.61417906996 208 207 212
30.5534261622817 615.233742537577 1883.77999827986 209 210 212
12.3262789723264 617.460151335341 1877.46161502705 211 212 214
-3.22868345553173 619.367475736547 1874.20484845066 210 211 213
-20.2077274949986 621.444409341127 1869.50299132278 210 211 213
-35.1795114196292 623.281664057393 1867.09472330027 208 209 211
-64.698755473271 626.854884280362 1849.11826272703 204 206 205
-104.040994809781 631.601118501276 1820.88439106559 193 195 194
-124.123120550371 634.048142616056 1813.54160345224 184 186 183
328.445340141417 568.919054897825 1777.608692477 8 9 4
333.843287433674 568.406691618836 1799.24748217695 205 205 205
335.591582897819 568.308851525471 1815.94703215789 207 207 209
336.767311315866 568.275012830236 1831.78878098328 201 200 205
334.242940225319 568.662174989983 1842.74042798543 196 195 200
327.98351998691 569.474802930894 1848.83601875863 208 207 213
322.351567210835 570.215329027346 1855.73609100489 199 198 204
314.202263221953 571.242977868877 1859.42551848957 204 203 208
307.304912274945 572.127139710246 1864.72710188979 202 201 206
296.598510831591 573.44640426063 1865.24435131833 193 192 197
283.956469882313 574.986975633167 1863.40028238543 201 200 205
266.171492629291 577.116144721882 1855.24028051759 219 218 223
248.955818294631 579.180662468755 1847.94141719378 179 178 183
235.52418770611 580.81219464176 1845.45073131864 168 167 172
227.843316826073 581.785064842114 1850.10034122047 176 175 180
221.445356619665 582.610263534703 1856.33164627828 180 179 184
213.751509970123 583.583603198358 1860.99373408259 176 175 180
206.699064944779 584.482894450659 1866.44709207498 176 175 180
198.990538850106 585.456964283917 1871.12364886655 180 179 184
193.887798415922 586.131452452709 1878.92521297071 191 190 195
185.515115926745 587.180716163801 1882.83326394003 192 191 196
175.158092982453 588.457439263426 1884.4271101218 189 188 193
164.118009383535 589.812329111515 1885.27078330209 188 187 192
155.695289191291 590.866190774177 1889.22784287502 200 199 204
145.934132139904 592.073426588379 1891.65750276676 201 200 205
136.818081145542 593.2061140956 1894.87415249039 197 196 201
120.348039243485 595.184546998127 1889.68174491837 206 205 210
108.502479667865 596.630749244802 1889.8945245583 206 205 210
91.2576294004643 598.698443401927 1884.04141105467 210 209 214
81.352389292721 599.920966740181 1886.61155021993 208 207 212
62.653866717219 602.156044626675 1879.34305908794 207 206 211
51.3300468975295 603.541527714955 1880.46362702032 209 208 213
39.9788548178064 604.929799816537 1881.61130163859 207 206 211
30.6423722884728 606.085486708399 1885.04378167801 208 209 211
13.7806097788755 608.108584711572 1880.2337569776 210 211 213
-5.87843181377545 610.454402697782 1872.48546093062 209 210 212
-24.9251180998744 612.729729122758 1865.55641495165 208 209 211
-39.2222515845431 614.456972726576 1863.91137798119 205 206 208
-65.3005587678148 617.544359153083 1849.67470668281 201 203 202
-104.643897285097 622.164348710142 1821.4609232723 181 183 180
333.47664211522 559.577975804923 1785.32943071893 207 207 205
333.941359959421 559.656975967867 1800.44329886115 202 202 202
338.170560851275 559.321777820818 1820.38232960739 204 204 204
336.241526258605 559.660525373934 1832.16686364189 186 185 190
