ply
format ascii 1.0
comment KinectMotionCapture
element vertex 766
property float x
property float y
property float z
property uchar red
property uchar green
property uchar blue
end_header
380.751401185989 840.44736623764 2770.99990844727 244 246 243
389.935076236725 844.064056873322 2782.99999237061 242 247 243
90.3869792819023 857.969403266907 2851.99999809265 246 246 244
98.1592610478401 858.263254165649 2852.9999256134 253 253 251
105.602689087391 855.849027633667 2845.00002861023 251 251 249
113.400839269161 856.442451477051 2846.99988365173 249 249 247
120.784148573875 854.027211666107 2838.99998664856 248 248 246
128.350108861923 853.115618228912 2835.99996566772 238 237 235
135.419845581055 849.195301532745 2822.99995422363 234 230 229
142.722889780998 847.079396247864 2815.99998474121 236 226 224
150.254637002945 846.467018127441 2813.99989128113 206 193 187
157.88745880127 846.455752849579 2813.99989128113 187 168 154
165.284708142281 845.240831375122 2809.99994277954 177 154 138
172.413811087608 842.822253704071 2802.00004577637 154 128 105
179.884642362595 842.207849025726 2799.99995231628 143 115 91
187.679097056389 843.097031116486 2802.99997329712 136 106 82
194.79276239872 840.977787971497 2796.0000038147 141 114 87
201.868131756783 838.858306407928 2789.00003433228 139 112 85
208.905130624771 836.738288402557 2782.00006484985 120 94 69
216.448411345482 836.723208427429 2782.00006484985 119 93 70
223.830282688141 836.106240749359 2779.99997138977 115 89 66
231.117635965347 835.187911987305 2776.99995040894 116 88 66
237.958669662476 832.765698432922 2769.00005340576 120 90 64
245.287790894508 832.147419452667 2766.99995994568 119 87 62
253.062397241592 833.032369613647 2769.99998092651 117 85 62
261.135071516037 834.819197654724 2776.00002288818 119 88 67
268.368780612946 833.898901939392 2773.00000190735 126 99 78
275.386780500412 832.376837730408 2767.99988746643 140 119 102
282.377272844315 830.854654312134 2763.00001144409 128 109 94
289.969563484192 831.136107444763 2763.99993896484 125 113 101
297.351628541946 830.816030502319 2763.00001144409 182 177 171
305.058747529984 831.397414207459 2765.00010490417 168 167 163
312.663197517395 831.677854061127 2766.00003242493 151 150 146
320.388287305832 832.258641719818 2767.99988746643 192 191 187
327.649891376495 831.636309623718 2766.00003242493 162 161 157
335.02134680748 831.314504146576 2765.00010490417 168 167 163
342.262953519821 830.691695213318 2763.00001144409 176 175 171
349.493265151978 830.068528652191 2760.99991798401 178 177 173
356.8414747715 829.745769500732 2759.99999046326 186 185 181
363.919764757156 828.82159948349 2756.99996948242 191 190 186
371.116042137146 828.197836875916 2755.00011444092 207 208 203
378.713190555573 828.475594520569 2756.00004196167 214 214 212
386.455297470093 829.05375957489 2757.99989700317 217 219 216
394.921958446503 831.134676933289 2765.00010490417 234 236 233
403.571426868439 833.515703678131 2773.00000190735 238 240 237
74.8375281691551 849.412441253662 2848.99997711182 255 255 253
82.3363363742828 847.021400928497 2841.00008010864 255 255 253
90.0450944900513 847.014904022217 2841.00008010864 251 251 249
97.684882581234 846.4115858078 2838.99998664856 253 253 251
105.276480317116 845.50952911377 2835.99996566772 244 244 242
112.93125897646 845.203161239624 2835.00003814697 241 241 239
120.410189032555 843.703746795654 2829.99992370605 241 241 239
127.907022833824 842.502057552338 2825.99997520447 233 232 230
135.18999516964 840.107381343842 2818.00007820129 228 224 223
142.68271625042 839.202702045441 2815.00005722046 231 221 219
150.372460484505 839.489936828613 2815.99998474121 222 211 205
157.786801457405 838.286221027374 2812.00003623962 189 171 159
165.120303630829 836.783826351166 2806.99992179871 184 163 146
172.426342964172 835.280954837799 2802.00004577637 168 141 120
180.090427398682 835.566163063049 2802.99997329712 158 130 106
187.759593129158 835.850894451141 2803.99990081787 149 119 95
194.806769490242 833.452343940735 2796.0000038147 150 120 96
201.810196042061 831.053376197815 2788.00010681152 143 115 91
208.995074033737 829.548180103302 2782.99999237061 123 97 72
216.463774442673 829.235017299652 2782.00006484985 122 96 73
224.007129669189 829.219460487366 2782.00006484985 122 94 72
231.217101216316 828.010976314545 2778.00011634827 123 95 73
238.233134150505 826.206147670746 2772.0000743866 125 95 71
245.393484830856 824.996948242188 2767.99988746643 122 90 65
253.262639045715 826.17175579071 2772.0000743866 121 91 67
261.24706864357 827.644169330597 2776.99995040894 133 105 83
268.483877182007 826.731860637665 2773.9999294281 115 88 69
275.007516145706 823.733031749725 2763.99993896484 123 104 89
281.680852174759 821.329951286316 2756.00004196167 130 112 98
289.044767618179 821.012616157532 2755.00011444092 158 145 136
296.833276748657 821.886956691742 2757.99989700317 186 181 175
304.637581110001 822.760879993439 2760.99991798401 154 153 149
312.344551086426 823.336482048035 2763.00001144409 153 152 148
319.598853588104 822.719633579254 2760.99991798401 160 159 155
327.315717935562 823.294639587402 2763.00001144409 151 150 146
334.800511598587 823.273181915283 2763.00001144409 162 161 157
342.40859746933 823.549270629883 2763.99993896484 168 167 163
349.262148141861 822.037577629089 2759.0000629425 169 168 164
356.217324733734 820.823550224304 2755.00011444092 177 176 172
363.018304109573 819.311261177063 2750 181 180 176
370.330572128296 818.990588188171 2749.00007247925 190 191 186
377.774298191071 818.967640399933 2749.00007247925 198 198 196
384.797096252441 818.050682544708 2746.00005149841 204 206 203
392.37442612648 818.324983119965 2746.99997901917 217 219 216
400.684416294098 820.088624954224 2753.00002098084 223 225 222
410.064071416855 823.937118053436 2766.00003242493 233 235 232
420.268386602402 829.274654388428 2783.99991989136 231 233 230
51.8480539321899 845.009386539459 2859.99989509583 255 255 253
59.3802928924561 841.755151748657 2848.99997711182 243 243 241
66.8526962399483 838.500320911407 2838.00005912781 236 236 234
74.370339512825 836.426734924316 2831.00008964539 237 237 235
82.0237323641777 836.125314235687 2829.99992370605 235 235 233
89.7983312606812 837.005257606506 2832.99994468689 234 234 232
97.4513664841652 836.702704429626 2832.00001716614 233 233 231
104.913160204887 834.922432899475 2825.99997520447 229 229 227
112.621031701565 835.209548473358 2826.99990272522 230 230 228
120.078794658184 833.723664283752 2822.00002670288 227 227 225
127.64498591423 833.123445510864 2819.9999332428 224 224 222
134.960159659386 831.045627593994 2812.99996376038 224 224 222
142.287790775299 829.262733459473 2806.99992179871 212 207 203
149.849578738213 828.956365585327 2805.99999427795 220 213 207
157.181173563004 827.467918395996 2801.00011825562 167 153 142
164.72065448761 827.160596847534 2799.99995231628 175 156 142
172.254368662834 826.852798461914 2799.00002479553 177 152 132
179.910823702812 827.135264873505 2799.99995231628 179 152 131
187.304496765137 826.235592365265 2796.99993133545 175 147 125
194.472506642342 824.449181556702 2790.99988937378 164 133 112
201.897159218788 823.844075202942 2789.00003433228 148 117 96
209.085211157799 822.352230548859 2783.99991989136 130 102 80
216.557055711746 822.041630744934 2782.99999237061 127 99 77
224.023073911667 821.730434894562 2782.00006484985 136 105 84
231.483206152916 821.418762207031 2780.99989891052 140 109 88
238.421812653542 819.334506988525 2773.9999294281 140 110 86
245.499357581139 817.840695381165 2769.00005340576 136 106 82
253.006190061569 817.823112010956 2769.00005340576 127 100 79
260.700702667236 818.395853042603 2770.99990844727 123 98 78
267.921626567841 817.491412162781 2767.99988746643 125 104 87
274.528861045837 814.814865589142 2759.0000629425 119 103 90
281.393438577652 813.023746013641 2753.00002098084 128 114 103
288.644641637802 812.413692474365 2750.99992752075 176 167 158
296.422719955444 813.279867172241 2753.99994850159 156 153 146
303.995877504349 813.55494260788 2755.00011444092 154 153 148
311.23474240303 812.943696975708 2753.00002098084 164 163 158
318.809568881989 813.218116760254 2753.99994850159 150 149 144
326.507776975632 813.787341117859 2756.00004196167 147 146 141
334.458649158478 814.946889877319 2759.99999046326 156 155 150
342.0589864254 815.220177173615 2760.99991798401 162 161 156
349.157810211182 814.312100410461 2757.99989700317 160 159 154
355.981230735779 812.813401222229 2753.00002098084 164 163 158
362.64505982399 811.019241809845 2746.99997901917 163 162 157
369.81463432312 810.405731201172 2744.99988555908 161 160 155
376.835554838181 809.496939182281 2742.00010299683 161 162 157
383.839577436447 808.587729930878 2739.00008201599 182 182 180
391.541093587875 809.154510498047 2740.9999370575 170 170 168
399.543941020966 810.311317443848 2744.99988555908 175 177 174
407.864481210709 812.058329582214 2750.99992752075 215 217 214
415.915012359619 813.214778900146 2755.00011444092 231 233 230
424.754977226257 815.846621990204 2763.99993896484 224 226 223
43.9665019512177 834.973335266113 2851.99999809265 251 253 250
51.5438169240952 832.334756851196 2842.99993515015 233 233 231
59.0721778571606 829.695701599121 2834.00011062622 223 223 221
66.6693300008774 828.519701957703 2829.99992370605 218 218 216
74.1658359766006 826.464951038361 2822.99995422363 221 221 219
81.8850547075272 827.044546604156 2825.00004768372 221 221 219
89.6149575710297 827.623546123505 2826.99990272522 226 226 224
97.3211228847504 827.909171581268 2828.00006866455 226 226 224
104.772590100765 826.144874095917 2822.00002670288 226 226 224
112.310834228992 825.258374214172 2819.00000572205 225 225 223
119.875080883503 824.664056301117 2816.99991226196 221 221 219
127.382978796959 823.776483535767 2813.99989128113 219 219 217
134.634435176849 821.424722671509 2805.99999427795 219 219 217
141.842201352119 819.072484970093 2798.00009727478 209 205 202
149.326682090759 818.476021289825 2796.0000038147 213 208 202
156.74389898777 817.586421966553 2792.99998283386 169 157 145
164.497539401054 818.452656269073 2796.0000038147 159 141 127
171.95937037468 817.854702472687 2793.99991035461 175 149 132
179.602771997452 818.134307861328 2795.00007629395 170 143 124
186.849445104599 816.657304763794 2789.99996185303 162 134 112
194.277673959732 816.057920455933 2788.00010681152 158 127 106
201.694637537003 815.457940101624 2786.00001335144 148 117 96
209.025263786316 814.564943313599 2782.99999237061 133 102 81
216.261401772499 813.378751277924 2779.00004386902 133 102 81
223.797559738159 813.362836837769 2779.00004386902 139 108 87
231.250032782555 813.053786754608 2778.00011634827 142 111 90
238.610669970512 812.451601028442 2776.00002288818 138 110 88
245.694041252136 810.971081256866 2770.99990844727 134 106 84
252.841234207153 809.782803058624 2766.99995994568 123 98 78
260.060340166092 808.886766433716 2763.99993896484 126 103 85
267.262697219849 807.990312576294 2760.99991798401 114 95 80
274.149805307388 806.215584278107 2755.00011444092 117 103 92
281.310528516769 805.318474769592 2752.00009346008 164 151 142
288.664311170578 805.006206035614 2750.99992752075 155 148 140
296.55048251152 806.156814098358 2755.00011444092 147 144 137
303.795665502548 805.551111698151 2753.00002098084 156 155 150
311.142534017563 805.237889289856 2752.00009346008 163 162 157
318.599224090576 805.216729640961 2752.00009346008 148 147 142
326.173841953278 805.487811565399 2753.00002098084 154 153 148
333.874613046646 806.051194667816 2755.00011444092 162 161 156
341.33780002594 806.029081344604 2755.00011444092 157 156 151
348.420709371567 805.128931999207 2752.00009346008 154 153 148
355.616062879562 804.521203041077 2750 154 153 148
362.536013126373 803.327977657318 2746.00005149841 152 151 146
369.568467140198 802.427232265472 2743.00003051758 149 148 143
376.309216022491 800.941050052643 2737.99991607666 151 152 147
383.4428191185 800.332307815552 2736.00006103516 172 172 170
391.279280185699 801.186084747314 2739.00008201599 150 150 148
398.694753646851 801.161825656891 2739.00008201599 157 159 156
406.406223773956 801.722526550293 2740.9999370575 199 201 198
413.825988769531 801.697909832001 2740.9999370575 210 212 209
422.320961952209 803.720474243164 2747.99990653992 203 205 202
433.981150388718 811.592042446136 2775.00009536743 211 215 214
28.7471655756235 834.84411239624 2878.00002098084 222 224 221
36.2541265785694 827.879726886749 2854.00009155273 244 246 243
43.8465625047684 824.975907802582 2844.00010108948 220 222 219
51.4752715826035 823.521852493286 2838.99998664856 201 201 199
58.9933395385742 820.906817913055 2829.99992370605 193 193 191
66.5802285075188 819.741666316986 2825.99997520447 192 192 190
74.0927159786224 817.995846271515 2819.9999332428 203 203 201
81.8333625793457 818.859994411469 2822.99995422363 206 206 204
89.43160623312 818.273365497589 2821.00009918213 213 213 211
97.1220582723618 818.556189537048 2822.00002670288 214 214 212
104.557819664478 816.80816411972 2815.99998474121 217 217 215
112.160012125969 816.509783267975 2815.00005722046 215 215 213
119.628854095936 815.34069776535 2811.00010871887 213 213 211
127.121016383171 814.461171627045 2808.00008773804 214 216 213
134.308725595474 811.840772628784 2799.00002479553 204 206 203
141.650080680847 810.380101203918 2793.99991035461 200 201 196
149.070858955383 809.498965740204 2790.99988937378 201 198 191
156.587287783623 809.19748544693 2789.99996185303 202 194 183
164.156794548035 809.185445308685 2789.99996185303 150 136 123
171.849071979523 809.752941131592 2792.00005531311 158 136 122
179.423317313194 809.739887714386 2792.00005531311 161 138 122
186.796277761459 808.856189250946 2789.00003433228 159 130 112
194.291964173317 808.551967144012 2788.00010681152 146 117 99
201.709434390068 807.957410812378 2786.00001335144 139 108 88
208.890274167061 806.492269039154 2780.99989891052 144 113 93
216.199308633804 805.606842041016 2778.00011634827 137 106 86
223.330527544022 804.140865802765 2773.00000190735 140 109 88
230.850413441658 804.124355316162 2773.00000190735 139 111 89
238.11200261116 803.237497806549 2769.99998092651 136 109 88
245.534226298332 802.930176258087 2769.00005340576 133 108 88
252.584993839264 801.462590694427 2763.99993896484 126 105 88
259.890466928482 800.864517688751 2762.00008392334 122 105 89
266.894221305847 799.396097660065 2756.99996948242 150 138 126
274.069368839264 798.507213592529 2753.99994850159 174 165 156
281.432241201401 798.19792509079 2753.00002098084 164 157 149
288.89411687851 798.178136348724 2753.00002098084 153 150 143
296.570777893066 798.737943172455 2755.00011444092 144 141 136
303.595572710037 797.557532787323 2750.99992752075 152 151 146
310.824334621429 796.956956386566 2749.00007247925 162 161 156
318.2732462883 796.935558319092 2749.00007247925 151 150 145
325.603157281876 796.62412405014 2747.99990653992 161 160 155
333.290696144104 797.181904315948 2750 164 163 158
340.492844581604 796.579897403717 2747.99990653992 155 154 149
348.063558340073 796.847224235535 2749.00007247925 152 151 146
355.121701955795 795.954763889313 2746.00005149841 150 149 144
362.427115440369 795.641660690308 2744.99988555908 147 146 141
369.322389364243 794.458866119385 2740.9999370575 146 145 140
376.332879066467 793.56575012207 2737.99991607666 152 153 148
383.606851100922 793.251991271973 2736.99998855591 169 170 165
391.160577535629 793.517649173737 2737.99991607666 140 141 136
398.282438516617 792.913734912872 2736.00006103516 150 151 146
405.689418315887 792.88911819458 2736.00006103516 183 185 182
413.246840238571 793.154120445251 2736.99998855591 181 183 180
421.42391204834 794.578075408936 2742.00010299683 190 192 189
431.347787380219 799.189209938049 2757.99989700317 211 213 210
28.5596027970314 821.636140346527 2858.99996757507 222 224 221
36.2188294529915 819.334506988525 2851.0000705719 226 228 225
43.8037104904652 816.457569599152 2841.00008010864 209 211 208
51.4067336916924 814.729630947113 2835.00003814697 200 200 198
58.9353740215302 812.426209449768 2826.99990272522 187 187 185
66.6089504957199 812.421321868896 2826.99990272522 189 189 187
74.1247311234474 810.691654682159 2821.00009918213 202 202 200
81.8106979131699 810.972929000854 2822.00002670288 202 202 200
89.3116891384125 809.529483318329 2816.99991226196 210 210 208
96.9230234622955 809.234917163849 2815.99998474121 212 212 210
104.454450309277 808.364987373352 2812.99996376038 212 212 210
112.088911235332 808.356702327728 2812.99996376038 212 212 210
119.638010859489 807.773113250732 2811.00010871887 212 212 210
127.040177583694 806.326746940613 2805.99999427795 208 210 207
134.318932890892 804.3053150177 2799.00002479553 198 200 197
141.711562871933 803.145408630371 2795.00007629395 205 206 201
149.135574698448 802.272319793701 2792.00005531311 204 203 198
156.542971730232 801.398694515228 2789.00003433228 206 199 189
164.051458239555 801.099240779877 2788.00010681152 196 184 172
171.615734696388 801.086604595184 2788.00010681152 162 143 129
179.308176040649 801.648020744324 2789.99996185303 156 134 120
186.810180544853 801.347076892853 2789.00003433228 161 134 117
194.236665964127 800.758123397827 2786.99994087219 145 116 100
201.579511165619 799.881458282471 2783.99991989136 145 116 98
208.830535411835 798.717081546783 2779.99997138977 139 108 88
216.059476137161 797.552287578583 2776.00002288818 138 107 87
222.94408082962 795.23777961731 2767.99988746643 144 116 95
230.284363031387 794.646620750427 2766.00003242493 138 110 89
237.699374556541 794.342398643494 2765.00010490417 139 114 94
245.28580904007 794.612169265747 2766.00003242493 135 112 94
252.420276403427 793.445229530334 2762.00008392334 125 107 93
259.720742702484 792.852282524109 2759.99999046326 123 107 94
266.816288232803 791.684627532959 2756.00004196167 177 167 157
273.989140987396 790.803730487823 2753.00002098084 169 162 154
281.349688768387 790.49688577652 2752.00009346008 148 143 137
288.599342107773 789.902448654175 2750 148 145 140
296.375900506973 790.743887424469 2753.00002098084 150 149 144
303.506046533585 789.861500263214 2750 155 154 149
311.071634292603 790.127635002136 2750.99992752075 158 157 152
318.178951740265 789.244472980499 2747.99990653992 160 159 154
325.625002384186 789.222717285156 2747.99990653992 160 159 154
332.82807469368 788.626372814178 2746.00005149841 159 158 153
340.267568826675 788.603901863098 2746.00005149841 156 155 150
347.453236579895 788.006722927094 2743.99995803833 154 153 148
354.627519845963 787.409424781799 2742.00010299683 146 145 140
361.922383308411 787.09888458252 2740.9999370575 143 142 137
369.076579809189 786.500990390778 2739.00008201599 144 143 138
376.3567507267 786.189913749695 2737.99991607666 148 149 144
383.771151304245 786.165833473206 2737.99991607666 161 162 157
391.184955835342 786.141455173492 2737.99991607666 143 144 139
398.307025432587 785.542607307434 2736.00006103516 156 157 152
405.565947294235 785.23063659668 2734.99989509583 176 177 172
413.724839687347 786.641120910645 2740.00000953674 166 167 162
422.063946723938 788.338422775269 2746.00005149841 186 188 185
431.217014789581 791.47070646286 2756.99996948242 200 202 199
28.5418592393398 813.369572162628 2857.00011253357 218 220 217
36.1962579190731 811.089396476746 2848.99997711182 201 203 200
43.8071377575397 808.80880355835 2841.00008010864 200 202 199
51.3926185667515 806.812226772308 2834.00011062622 193 193 191
58.9608289301395 805.099785327911 2828.00006866455 177 177 175
66.614143550396 804.810047149658 2826.99990272522 181 181 179
74.1567760705948 803.381264209747 2822.00002670288 196 196 194
81.7880630493164 803.090512752533 2821.00009918213 198 198 196
89.2552062869072 801.37574672699 2815.00005722046 205 205 203
96.7239961028099 799.945056438446 2809.99994277954 208 208 206
104.202568531036 798.798561096191 2805.99999427795 209 209 207
111.818619072437 798.790216445923 2805.99999427795 209 209 207
119.476951658726 799.065887928009 2806.99992179871 211 211 209
126.823544502258 797.348499298096 2801.00011825562 207 209 206
134.281247854233 796.484470367432 2798.00009727478 201 206 202
141.874492168427 796.473801136017 2798.00009727478 204 206 201
149.360582232475 795.893311500549 2796.0000038147 198 199 193
156.667098402977 794.458389282227 2790.99988937378 203 196 188
163.887336850166 792.738378047943 2785.00008583069 201 191 181
171.44401371479 792.725682258606 2785.00008583069 140 122 110
179.064571857452 792.997062206268 2786.00001335144 159 140 126
186.757192015648 793.55251789093 2788.00010681152 145 119 104
194.111779332161 792.684376239777 2785.00008583069 152 124 110
201.449692249298 791.81569814682 2782.00006484985 144 115 99
208.695769309998 790.662050247192 2778.00011634827 144 115 97
216.153234243393 790.361642837524 2776.99995040894 145 116 98
223.040997982025 788.068532943726 2769.00005340576 133 104 86
230.467706918716 787.767291069031 2767.99988746643 143 116 97
237.544730305672 786.327302455902 2763.00001144409 132 109 91
245.214894413948 786.878883838654 2765.00010490417 126 105 88
252.438455820084 786.007165908813 2762.00008392334 122 106 93
259.645253419876 785.13503074646 2759.0000629425 145 131 120
266.932100057602 784.546911716461 2756.99996948242 171 162 153
274.008512496948 783.389389514923 2753.00002098084 153 149 140
281.369477510452 783.08516740799 2752.00009346008 145 142 135
288.514584302902 782.211542129517 2749.00007247925 145 142 137
296.181172132492 782.760083675385 2750.99992752075 152 151 146
303.195863962173 781.601071357727 2746.99997901917 155 154 149
310.527563095093 781.295359134674 2746.00005149841 157 156 151
317.737489938736 780.70479631424 2743.99995803833 161 160 155
325.29154419899 780.967354774475 2744.99988555908 160 159 154
332.72922039032 780.945003032684 2744.99988555908 155 154 149
340.042412281036 780.637979507446 2743.99995803833 155 154 149
346.843123435974 779.192745685577 2739.00008201599 153 152 147
354.004055261612 778.600454330444 2736.99998855591 146 145 140
361.549764871597 778.861463069916 2737.99991607666 144 143 138
369.100391864777 779.122292995453 2739.00008201599 145 144 139
376.518368721008 779.098212718964 2739.00008201599 152 153 148
383.795499801636 778.789281845093 2737.99991607666 159 160 155
391.066700220108 778.480350971222 2736.99998855591 146 147 142
398.186236619949 777.886688709259 2734.99989509583 153 154 149
405.739277601242 778.146028518677 2736.00006103516 173 174 169
413.750141859055 779.25843000412 2740.00000953674 163 164 159
421.782046556473 780.37041425705 2743.99995803833 184 186 183
430.304288864136 782.33540058136 2750.99992752075 196 198 195
440.614193677902 787.428081035614 2769.00005340576 210 212 209
20.8456069231033 807.934820652008 2865.00000953674 222 224 221
28.5241231322289 805.112719535828 2855.00001907349 210 212 209
36.173690110445 802.854180335999 2846.99988365173 193 195 192
43.8105799257755 801.159083843231 2841.00008010864 198 200 197
51.396656781435 799.181401729584 2834.00011062622 192 192 190
59.0071491897106 798.049032688141 2829.99992370605 173 173 171
66.6429325938225 797.48010635376 2828.00006866455 179 179 177
74.1363018751144 795.500576496124 2821.00009918213 196 196 194
81.6204845905304 793.802499771118 2815.00005722046 198 198 196
89.0719145536423 792.103946208954 2809.00001525879 203 203 201
96.5249985456467 790.686726570129 2803.99990081787 206 206 204
104.136392474175 790.678858757019 2803.99990081787 208 208 206
111.707724630833 790.388464927673 2802.99997329712 208 208 206
119.315944612026 790.379583835602 2802.99997329712 209 209 207
126.742765307426 789.242088794708 2799.00002479553 206 206 204
134.291589260101 788.950085639954 2798.00009727478 201 206 202
141.834676265717 788.657367229462 2796.99993133545 200 202 199
149.211764335632 787.518382072449 2792.99998283386 194 195 190
156.454533338547 785.814881324768 2786.99994087219 190 185 181
163.546726107597 783.547103404999 2779.00004386902 193 186 178
171.087622642517 783.534228801727 2779.00004386902 176 162 153
178.756713867188 784.084856510162 2780.99989891052 145 128 118
186.503291130066 784.916818141937 2783.99991989136 152 130 117
193.84753704071 784.056663513184 2780.99989891052 147 124 110
200.957834720612 782.350301742554 2775.00009536743 146 120 105
208.485931158066 782.335042953491 2775.00009536743 143 117 100
215.857908129692 781.755268573761 2773.00000190735 138 111 94
223.299145698547 781.457126140594 2772.0000743866 144 118 103
230.651214718819 780.876517295837 2769.99998092651 138 115 101
237.73404955864 779.449701309204 2765.00010490417 131 112 98
244.966685771942 778.586387634277 2762.00008392334 132 114 102
251.999706029892 777.158796787262 2756.99996948242 171 158 149
259.287506341934 776.576519012451 2755.00011444092 173 163 154
266.757607460022 776.557624340057 2755.00011444092 146 142 133
273.928552865982 775.692582130432 2752.00009346008 147 142 136
281.184911727905 775.108993053436 2750 147 144 137
288.324952125549 774.243295192719 2746.99997901917 156 155 150
295.771241188049 774.222731590271 2746.99997901917 156 156 148
302.885800600052 773.356199264526 2743.99995803833 157 157 149
310.096651315689 772.771239280701 2742.00010299683 160 160 152
317.527711391449 772.749543190002 2742.00010299683 164 164 156
325.195163488388 773.291110992432 2743.99995803833 162 162 154
332.509338855743 772.986888885498 2743.00003051758 157 157 149
339.693456888199 772.400557994843 2740.9999370575 157 157 149
346.612960100174 771.250307559967 2736.99998855591 155 155 147
354.027509689331 771.22700214386 2736.99998855591 149 149 141
361.573547124863 771.485090255737 2737.99991607666 147 147 139
369.259148836136 772.024571895599 2740.00000953674 145 145 137
376.680165529251 772.000372409821 2740.00000953674 159 158 153
384.100437164307 771.975696086884 2740.00000953674 158 157 153
391.520172357559 771.950960159302 2740.00000953674 148 147 143
398.793697357178 771.644175052643 2739.00008201599 143 144 139
405.764520168304 770.773768424988 2736.00006103516 172 173 168
413.322627544403 771.030008792877 2736.99998855591 154 155 150
421.500384807587 772.412836551666 2742.00010299683 177 178 173
430.330276489258 774.921953678131 2750.99992752075 182 184 181
439.685761928558 778.275907039642 2763.00001144409 207 209 206
13.2506163790822 811.393320560455 2904.99997138977 209 214 210
20.7308288663626 795.750558376312 2848.99997711182 216 218 215
28.4364558756351 794.910788536072 2845.99995613098 202 204 201
36.1130200326443 793.791055679321 2842.00000762939 190 192 189
43.7831953167915 792.949855327606 2838.99998664856 199 201 198
51.4007098972797 791.549682617188 2834.00011062622 192 192 190
59.0117983520031 790.428042411804 2829.99992370605 169 169 167
66.6010454297066 789.305865764618 2825.99997520447 177 177 175
74.0632861852646 787.065923213959 2818.00007820129 196 196 194
81.5689042210579 785.663247108459 2812.99996376038 199 199 197
88.9520570635796 783.422231674194 2805.0000667572 202 202 200
96.5325459837914 783.135533332825 2803.99990081787 206 206 204
104.033119976521 782.289981842041 2801.00011825562 207 207 205
111.636735498905 782.281517982483 2801.00011825562 208 208 206
118.984661996365 780.596733093262 2795.00007629395 207 207 205
126.345053315163 779.190719127655 2789.99996185303 204 204 202
133.869990706444 778.901338577271 2789.00003433228 199 201 198
141.338512301445 778.33217382431 2786.99994087219 195 195 193
148.902699351311 778.320908546448 2786.99994087219 191 192 187
156.241983175278 777.192056179047 2782.99999237061 186 181 177
163.500383496284 775.783538818359 2778.00011634827 183 176 170
170.915976166725 775.212168693542 2776.00002288818 193 180 171
178.513184189796 775.478065013886 2776.99995040894 152 138 127
186.24946475029 776.301860809326 2779.99997138977 145 126 112
193.653047084808 775.729060173035 2778.00011634827 145 123 109
200.755685567856 774.038732051849 2772.0000743866 151 128 112
208.276122808456 774.023234844208 2772.0000743866 146 123 107
215.718299150467 773.728132247925 2770.99990844727 145 119 104
223.315730690956 773.991048336029 2772.0000743866 140 117 103
230.751544237137 773.69487285614 2770.99990844727 141 119 106
237.837553024292 772.281527519226 2766.00003242493 123 105 93
244.71852183342 770.309329032898 2759.0000629425 139 122 112
251.652449369431 768.616020679474 2753.00002098084 177 167 157
259.118050336838 768.597364425659 2753.00002098084 165 156 147
266.389489173889 768.01997423172 2750.99992752075 139 135 126
273.749053478241 767.721176147461 2750 151 146 140
281.102746725082 767.422199249268 2749.00007247925 151 148 141
288.660317659378 767.680943012238 2750 160 157 150
295.792073011398 766.822755336761 2746.99997901917 156 156 148
302.686274051666 765.40607213974 2742.00010299683 160 160 152
309.665828943253 764.267981052399 2737.99991607666 164 164 156
317.086398601532 764.246225357056 2737.99991607666 165 165 157
324.38787817955 763.944923877716 2736.99998855591 161 161 153
332.047045230865 764.480650424957 2739.00008201599 161 161 153
339.096754789352 763.620376586914 2736.00006103516 160 160 152
346.256256103516 763.03905248642 2733.99996757507 158 158 150
353.792399168015 763.294637203217 2734.99989509583 152 152 144
361.333310604095 763.549864292145 2736.00006103516 149 149 141
369.013845920563 764.083802700043 2737.99991607666 145 145 137
376.292169094086 763.780295848846 2736.99998855591 161 160 155
384.125232696533 764.592826366425 2740.00000953674 158 157 152
391.688078641891 764.846861362457 2740.9999370575 144 143 138
398.964554071426 764.542520046234 2740.00000953674 141 140 136
406.086623668671 763.958990573883 2737.99991607666 173 174 169
413.650363683701 764.212310314178 2739.00008201599 151 152 147
421.680063009262 765.302360057831 2743.00003051758 173 174 169
430.043667554855 766.950070858002 2749.00007247925 176 177 172
438.598334789276 768.876552581787 2756.00004196167 204 206 203
13.0555182695389 791.67503118515 2861.99998855591 217 222 218
20.7470338791609 788.630902767181 2851.0000705719 198 200 197
28.4387152642012 787.245750427246 2845.99995613098 194 196 193
36.103181540966 785.860240459442 2841.00008010864 171 173 170
43.7712520360947 785.027205944061 2838.00005912781 197 199 196
51.3866432011127 783.640325069427 2832.99994468689 192 192 190
58.9956268668175 782.529592514038 2828.9999961853 164 164 162
66.5356069803238 780.864834785461 2822.99995422363 193 193 191
74.0165710449219 778.923034667969 2815.99998474121 194 194 192
81.6043391823769 778.363645076752 2813.99989128113 199 199 197
89.0859216451645 776.973962783813 2809.00001525879 203 203 201
96.6434329748154 776.413321495056 2806.99992179871 206 206 204
104.004144668579 774.469256401062 2799.99995231628 206 206 204
111.565768718719 774.184226989746 2799.00002479553 205 205 203
118.866242468357 772.239029407501 2792.00005531311 201 201 199
126.309618353844 771.399676799774 2789.00003433228 197 197 195
133.688405156136 770.283222198486 2785.00008583069 192 192 192
141.095906496048 769.442796707153 2782.00006484985 187 187 185
148.486778140068 768.601775169373 2779.00004386902 183 183 181
155.80490231514 767.483711242676 2775.00009536743 184 181 176
163.218662142754 766.918182373047 2773.00000190735 181 176 172
170.682802796364 766.628801822662 2772.0000743866 183 173 164
178.46255004406 767.721593379974 2776.00002288818 198 185 176
186.129659414291 768.260776996613 2778.00011634827 146 130 117
193.667769432068 768.246293067932 2778.00011634827 144 125 111
200.770869851112 766.572058200836 2772.0000743866 142 120 106
208.216667175293 766.280055046082 2770.99990844727 141 119 105
215.578779578209 765.711009502411 2769.00005340576 138 116 103
223.090693354607 765.694499015808 2769.00005340576 141 119 108
230.352327227592 764.848113059998 2766.00003242493 130 110 99
237.253189086914 762.894988059998 2759.0000629425 166 149 141
244.204327464104 761.218190193176 2753.00002098084 176 162 153
251.396656036377 760.370373725891 2750 150 139 133
259.042829275131 760.904669761658 2752.00009346008 149 140 133
266.408801078796 760.608971118927 2750.99992752075 151 147 138
273.669302463531 760.036468505859 2749.00007247925 150 147 140
281.020641326904 759.739875793457 2747.99990653992 156 153 146
288.260996341705 759.166598320007 2746.00005149841 155 152 145
295.597702264786 758.869290351868 2744.99988555908 155 155 147
302.376419305801 757.189512252808 2739.00008201599 162 162 154
309.57442522049 756.614983081818 2736.99998855591 162 162 154
316.645175218582 755.763709545136 2733.99996757507 159 159 151
323.817670345306 755.188584327698 2732.00011253357 159 159 151
331.463664770126 755.71882724762 2733.99996757507 164 164 156
338.871985673904 755.695819854736 2733.99996757507 162 162 154
346.659660339355 756.5016746521 2736.99998855591 159 159 151
353.816151618958 755.925178527832 2734.99989509583 155 155 147
361.357390880585 756.177663803101 2736.00006103516 152 152 144
368.768692016602 756.153285503387 2736.00006103516 145 145 137
376.179397106171 756.12872838974 2736.00006103516 172 171 166
383.869796991348 756.656527519226 2737.99991607666 145 144 139
391.570419073105 757.184028625488 2740.00000953674 141 140 135
398.990035057068 757.158577442169 2740.00000953674 150 149 144
406.260699033737 756.856620311737 2739.00008201599 158 159 154
413.978338241577 757.383227348328 2740.9999370575 152 153 148
421.859979629517 758.186042308807 2743.99995803833 166 167 162
430.383056402206 760.093748569489 2750.99992752075 166 167 162
438.465863466263 761.172235012054 2755.00011444092 197 197 195
448.026418685913 764.736890792847 2767.99988746643 201 201 199
13.0656864494085 784.513890743256 2864.00008201599 218 220 217
20.7850784063339 782.321095466614 2855.99994659424 192 194 191
28.4809600561857 780.675649642944 2849.99990463257 193 195 192
36.0933504998684 777.933776378632 2839.99991416931 158 160 157
43.7284670770168 776.56102180481 2835.00003814697 191 193 190
51.3000413775444 774.639904499054 2828.00006866455 194 194 192
58.9377582073212 774.08754825592 2825.99997520447 165 165 163
66.4466172456741 772.165179252625 2819.00000572205 195 195 193
73.9173069596291 770.242273807526 2812.00003623962 195 195 193
81.4948081970215 769.688189029694 2809.99994277954 200 200 198
89.0295431017876 768.859684467316 2806.99992179871 203 203 201
96.5133458375931 767.756760120392 2802.99997329712 205 205 203
103.752322494984 765.009760856628 2792.99998283386 205 205 203
111.375235021114 765.275180339813 2793.99991035461 203 203 201
118.747852742672 763.896644115448 2789.00003433228 198 198 196
126.22894346714 763.339161872864 2786.99994087219 194 194 192
133.410826325417 761.137902736664 2779.00004386902 186 186 184
140.751853585243 760.031700134277 2775.00009536743 185 185 183
148.231148719788 759.746491909027 2773.9999294281 182 181 177
155.592352151871 758.912980556488 2770.99990844727 185 182 177
163.17243874073 759.174585342407 2772.0000743866 183 178 174
170.695960521698 759.161591529846 2772.0000743866 176 169 161
178.219124674797 759.148120880127 2772.0000743866 182 173 164
185.808852314949 759.407937526703 2773.00000190735 171 158 149
193.124771118164 758.571922779083 2769.99998092651 138 124 113
200.568839907646 758.283078670502 2769.00005340576 149 131 119
207.931861281395 757.719814777374 2766.99995994568 142 124 112
215.361461043358 757.429957389832 2766.00003242493 142 124 114
222.624018788338 756.591975688934 2763.00001144409 129 112 102
229.703217744827 755.205750465393 2757.99989700317 141 124 114
236.754849553108 753.819227218628 2753.00002098084 176 163 155
243.956282734871 752.979934215546 2750 168 158 149
251.41516327858 752.96151638031 2750 156 147 140
258.967667818069 753.216624259949 2750.99992752075 144 137 129
266.331404447556 752.923548221588 2750 158 154 145
273.589581251144 752.356231212616 2747.99990653992 156 153 146
281.040906906128 752.336084842682 2747.99990653992 157 154 147
288.176715373993 751.494288444519 2744.99988555908 158 155 148
295.40342092514 750.925898551941 2743.00003051758 156 156 148
302.177041769028 749.261975288391 2736.99998855591 161 160 155
309.256881475449 748.419046401978 2733.99996757507 160 160 152
316.435724496841 747.849524021149 2732.00011253357 156 156 148
323.603093624115 747.279703617096 2730.00001907349 159 158 153
331.244051456451 747.804343700409 2732.00011253357 163 162 157
339.019149541855 748.602390289307 2734.99989509583 160 160 152
346.683263778687 749.126374721527 2736.99998855591 158 157 152
353.969424962997 748.828768730164 2736.00006103516 155 154 149
361.117482185364 748.257339000702 2733.99996757507 153 153 145
368.52365732193 748.232781887054 2733.99996757507 146 145 140
376.066654920578 748.481750488281 2734.99989509583 178 177 172
383.474260568619 748.456656932831 2734.99989509583 139 138 133
391.024202108383 748.705089092255 2736.00006103516 142 141 136
398.578822612762 748.953104019165 2736.99998855591 165 164 159
406.138211488724 749.200880527496 2737.99991607666 150 149 145
414.004504680634 749.995708465576 2740.9999370575 153 154 149
421.578884124756 750.242948532104 2742.00010299683 164 165 160
429.314494132996 750.763595104218 2743.99995803833 164 165 160
437.537789344788 752.104759216309 2749.00007247925 195 195 193
446.434944868088 754.539906978607 2757.99989700317 199 199 197
5.30508253723383 779.240369796753 2872.99990653992 208 208 206
13.0758592858911 777.34100818634 2865.9999370575 204 204 202
20.801305770874 775.169849395752 2858.00004005432 188 189 184
28.4932386130095 773.269236087799 2851.0000705719 175 176 171
36.0962450504303 770.283162593842 2839.99991416931 154 155 150
43.6856932938099 768.110156059265 2832.00001716614 188 189 184
51.2315817177296 765.936493873596 2823.99988174438 175 177 174
58.8590353727341 765.389680862427 2822.00002670288 159 161 158
66.4283484220505 764.299809932709 2818.00007820129 192 192 190
73.8969072699547 762.395679950714 2811.00010871887 197 197 195
81.3852772116661 761.033296585083 2805.99999427795 200 200 198
88.9414474368095 760.484039783478 2803.99990081787 201 201 199
96.2455272674561 758.035838603973 2795.00007629395 199 199 197
103.57478260994 756.129503250122 2788.00010681152 195 195 193
111.065119504929 755.578577518463 2786.00001335144 195 194 192
118.714638054371 756.111800670624 2788.00010681152 190 189 187
126.193583011627 755.559802055359 2786.00001335144 188 187 185
133.517310023308 754.193484783173 2780.99989891052 185 184 180
140.864327549934 753.09807062149 2776.99995040894 184 183 179
148.189291357994 752.002000808716 2773.00000190735 179 178 173
155.548334121704 751.176476478577 2769.99998092651 177 176 171
163.067355751991 751.164078712463 2769.99998092651 177 174 169
170.524418354034 750.879943370819 2769.00005340576 177 174 169
177.975669503212 750.595271587372 2767.99988746643 168 165 160
185.287073254585 749.76772069931 2765.00010490417 179 176 169
192.651495337486 749.210834503174 2763.00001144409 184 179 173
200.221940875053 749.466955661774 2763.99993896484 139 134 128
207.647040486336 749.180197715759 2763.00001144409 121 116 110
215.06629884243 748.893022537231 2762.00008392334 156 149 141
222.479656338692 748.605370521545 2760.99991798401 176 169 161
229.553908109665 747.232615947723 2756.00004196167 175 168 160
236.772552132607 746.40166759491 2753.00002098084 151 144 136
243.885725736618 745.299279689789 2749.00007247925 148 144 135
251.433789730072 745.551943778992 2750 153 150 141
258.892595767975 745.532989501953 2750 155 152 143
266.254067420959 745.242595672607 2749.00007247925 157 154 145
273.609519004822 744.951665401459 2747.99990653992 156 153 144
280.652165412903 743.847131729126 2743.99995803833 155 155 145
287.77751326561 743.013322353363 2740.9999370575 157 157 149
294.993788003922 742.45023727417 2739.00008201599 157 156 151
301.867306232452 741.073429584503 2733.99996757507 156 155 151
309.052586555481 740.509688854218 2732.00011253357 155 154 149
316.110491752625 739.67432975769 2729.00009155273 156 155 150
323.744297027588 740.193903446198 2730.99994659424 157 156 152
330.903321504593 739.629030227661 2729.00009155273 157 158 153
338.918596506119 740.960896015167 2733.99996757507 157 158 152
346.453666687012 741.208255290985 2734.99989509583 158 159 154
353.734701871872 740.913331508636 2733.99996757507 155 156 151
360.877633094788 740.34708738327 2732.00011253357 149 150 144
368.413507938385 740.593492984772 2733.00004005432 142 143 138
376.366704702377 741.652548313141 2736.99998855591 169 170 165
383.639812469482 741.356372833252 2736.00006103516 138 139 134
391.192644834518 741.601765155792 2736.99998855591 145 146 141
398.750275373459 741.846919059753 2737.99991607666 169 168 163
406.164288520813 741.820931434631 2737.99991607666 150 149 144
413.426637649536 741.523802280426 2736.99998855591 151 150 145
421.297907829285 742.309987545013 2740.00000953674 165 164 159
429.184824228287 743.095993995667 2743.00003051758 163 162 158
437.723994255066 744.965255260468 2750 201 201 199
446.62418961525 747.376084327698 2759.0000629425 192 192 190
458.041161298752 753.849625587463 2782.99999237061 201 203 202
5.30550954863429 771.499693393707 2872.99990653992 199 199 197
13.0723491311073 769.35076713562 2865.00000953674 200 200 198
20.8029802888632 767.469704151154 2858.00004005432 183 184 179
28.4755416214466 765.050828456879 2848.99997711182 173 174 169
36.0864363610744 762.362897396088 2838.99998664856 155 156 151
43.7046252191067 760.748445987701 2832.99994468689 184 185 180
51.2538328766823 758.596479892731 2825.00004768372 169 171 168
58.9263364672661 758.592009544373 2825.00004768372 155 157 154
66.3865208625793 756.170272827148 2815.99998474121 197 197 195
73.8239511847496 754.016399383545 2808.00008773804 197 197 195
81.159733235836 751.325011253357 2798.00009727478 199 199 197
88.6947810649872 750.781059265137 2796.0000038147 197 197 195
95.9776863455772 748.357057571411 2786.99994087219 195 195 193
103.47156971693 747.812211513519 2785.00008583069 189 189 187
110.954329371452 747.266530990601 2782.99999237061 188 187 185
118.596293032169 747.794449329376 2785.00008583069 185 184 182
126.022353768349 746.979296207428 2782.00006484985 183 182 180
133.431807160378 746.163487434387 2779.00004386902 182 181 177
140.824675559998 745.347142219543 2776.00002288818 181 180 176
148.147463798523 744.261860847473 2772.0000743866 177 176 171
155.616655945778 743.98136138916 2770.99990844727 176 175 170
163.021206855774 743.43204498291 2769.00005340576 176 173 168
170.599266886711 743.687450885773 2769.99998092651 175 172 167
177.860856056213 742.599964141846 2766.00003242493 171 168 163
185.100317001343 741.512000560761 2762.00008392334 167 164 157
192.178204655647 739.88664150238 2756.00004196167 176 171 165
199.730202555656 740.14014005661 2756.99996948242 172 167 161
207.21198618412 740.124404430389 2756.99996948242 158 153 147
214.771181344986 740.376770496368 2757.99989700317 183 176 170
222.093611955643 739.823281764984 2756.00004196167 179 172 166
229.404628276825 739.269316196442 2753.99994850159 157 150 144
236.790359020233 738.983273506165 2753.00002098084 147 142 136
243.992686271667 738.160014152527 2750 152 147 141
251.269608736038 737.604558467865 2747.99990653992 154 151 144
258.535176515579 737.048864364624 2746.00005149841 155 152 145
265.983104705811 737.029492855072 2746.00005149841 157 154 147
273.430466651917 737.009584903717 2746.00005149841 157 154 147
280.570358037949 736.184120178223 2743.00003051758 156 156 148
287.693411111832 735.35829782486 2740.00000953674 157 157 149
294.907301664352 734.800457954407 2737.99991607666 154 153 148
301.778554916382 733.437120914459 2733.00004005432 153 152 148
308.848261833191 732.610166072845 2730.00001907349 153 152 148
315.901160240173 731.782913208008 2726.99999809265 155 154 150
323.529958724976 732.297122478485 2729.00009155273 157 156 152
330.68385720253 731.737375259399 2726.99999809265 155 156 151
338.446170091629 732.519030570984 2730.00001907349 156 157 152
345.717430114746 732.227087020874 2729.00009155273 150 151 146
353.370726108551 732.739567756653 2730.99994659424 149 150 145
361.034244298935 733.251869678497 2733.00004005432 149 150 145
368.707895278931 733.763635158539 2734.99989509583 138 139 134
376.391798257828 734.275162220001 2736.99998855591 171 173 168
383.665204048157 733.981549739838 2736.00006103516 141 142 137
391.504228115082 734.760761260986 2739.00008201599 145 146 141
399.067521095276 735.002994537354 2740.00000953674 157 156 151
406.487196683884 734.976828098297 2740.00000953674 151 148 143
413.604140281677 734.413862228394 2737.99991607666 153 150 145
421.324700117111 734.923720359802 2740.00000953674 160 157 152
429.211765527725 735.701322555542 2743.00003051758 159 158 154
437.910407781601 737.819850444794 2750.99992752075 175 175 173
446.813553571701 740.206122398376 2759.99999046326 200 200 198
457.904517650604 746.078491210938 2782.00006484985 192 194 193
5.30778523534536 764.023900032043 2874.00007247925 175 175 173
13.0688417702913 761.364817619324 2864.00008201599 190 190 188
20.7901000976563 759.236693382263 2855.99994659424 180 181 176
28.4578464925289 756.842076778412 2846.99988365173 174 175 170
36.1020565032959 754.978597164154 2839.99991416931 154 155 150
43.7235794961452 753.380417823792 2834.00011062622 165 166 161
51.3305403292179 752.04735994339 2828.9999961853 160 162 159
58.9310713112354 750.979542732239 2825.00004768372 150 152 149
66.415436565876 748.847901821136 2816.99991226196 201 201 199
73.8298818469048 746.449768543243 2808.00008773804 193 193 191
81.2532752752304 744.582772254944 2801.00011825562 193 193 191
88.7018740177155 743.246793746948 2796.0000038147 187 187 185
96.0542410612106 741.378605365753 2789.00003433228 184 184 182
103.516958653927 740.573167800903 2786.00001335144 178 178 176
110.923290252686 739.501357078552 2782.00006484985 182 181 179
118.435367941856 739.226400852203 2780.99989891052 180 179 177
125.805839896202 738.153457641602 2776.99995040894 180 179 177
133.346319198608 738.143146038055 2776.99995040894 180 179 175
140.785053372383 737.600743770599 2775.00009536743 178 177 173
148.052230477333 736.26035451889 2769.99998092651 175 174 169
155.516549944878 735.982656478882 2769.00005340576 174 173 168
162.857338786125 735.172688961029 2766.00003242493 175 172 167
170.304611325264 734.893918037415 2765.00010490417 169 166 161
177.681758999825 734.348773956299 2763.00001144409 174 171 166
184.846580028534 733.00576210022 2757.99989700317 163 160 153
192.193046212196 732.459664344788 2756.00004196167 162 157 151
199.455767869949 731.647253036499 2753.00002098084 182 177 171
206.927180290222 731.631577014923 2753.00002098084 186 181 175
214.553952217102 732.146918773651 2755.00011444092 170 163 157
222.191050648689 732.661724090576 2756.99996948242 152 145 139
229.755222797394 732.910335063934 2757.99989700317 143 136 130
236.980244517326 732.095420360565 2755.00011444092 150 145 139
244.010984897614 730.748653411865 2750 153 148 142
251.014053821564 729.401409626007 2744.99988555908 153 150 143
258.366078138351 729.11673784256 2743.99995803833 154 151 144
265.905886888504 729.362964630127 2744.99988555908 156 153 146
273.151844739914 728.811681270599 2743.00003051758 157 154 147
280.284017324448 727.99426317215 2740.00000953674 155 155 147
287.504315376282 727.44208574295 2737.99991607666 156 156 148
295.036375522614 727.686583995819 2739.00008201599 152 151 147
301.80025100708 726.071000099182 2733.00004005432 151 150 146
308.983504772186 725.517749786377 2730.99994659424 151 150 146
315.923631191254 724.432766437531 2726.99999809265 152 151 147
323.434233665466 724.675714969635 2727.9999256134 153 152 148
330.70707321167 724.386990070343 2726.99999809265 158 159 154
338.097810745239 724.363625049591 2726.99999809265 161 162 157
345.614671707153 724.6053814888 2727.9999256134 149 150 145
353.13618183136 724.846959114075 2729.00009155273 145 146 141
361.190974712372 726.150453090668 2733.99996757507 146 147 142
