ply
format ascii 1.0
comment KinectMotionCapture
element vertex 796
property float x
property float y
property float z
property uchar red
property uchar green
property uchar blue
end_header
-41.0460606217384 184.299409389496 2055.0000667572 18 21 14
-35.1114086806774 182.597070932388 2036.00001335144 23 26 19
-29.5851547271013 182.777836918831 2038.00010681152 28 31 24
-24.0478683263063 182.958364486694 2039.99996185303 25 28 21
-18.4542741626501 182.690247893333 2036.99994087219 17 20 13
-12.8516554832458 182.063117623329 2029.99997138977 16 19 12
-7.34482239931822 182.870745658875 2039.00003433228 24 27 20
-1.77050021011382 181.794703006744 2026.99995040894 26 29 22
3.74947162345052 181.256532669067 2020.99990844727 20 23 16
9.24585107713938 180.897504091263 2016.99995994568 15 18 11
14.8373674601316 181.973233819008 2029.00004386902 12 15 8
20.3738175332546 181.972473859787 2029.00004386902 19 22 15
25.7569439709187 180.895209312439 2016.99995994568 22 25 18
31.0589857399464 179.72806096077 2003.99994850159 11 14 7
36.3810993731022 179.009154438972 1996.00005149841 11 14 7
41.9737435877323 179.635226726532 2003.00002098083 16 19 12
47.7228388190269 180.709481239319 2015.00010490417 24 27 20
53.6164566874504 182.052478194237 2029.99997138977 30 33 26
59.5334284007549 183.215856552124 2042.99998283386 7 10 3
64.7562593221664 182.226702570915 2032.00006484985 2 5 0
69.745846092701 180.788934230804 2016.00003242493 14 17 10
75.2823576331139 180.875465273857 2016.99995994568 26 29 22
81.1043977737427 181.589484214783 2025.00009536743 17 20 13
87.0125368237495 182.39289522171 2033.99991989136 12 15 8
92.605397105217 182.478725910187 2035.00008583069 10 13 6
97.8657007217407 181.936591863632 2029.00004386902 13 16 9
103.296734392643 181.752935051918 2026.99995040894 12 15 8
108.931228518486 181.927725672722 2029.00004386902 11 14 7
114.576175808907 182.102248072624 2030.99989891052 9 12 5
120.054200291634 182.00758099556 2029.99997138977 7 10 3
125.588163733482 182.002335786819 2029.99997138977 7 10 3
131.250828504562 182.176187634468 2032.00006484985 8 11 4
136.78927719593 182.170495390892 2032.00006484985 12 15 8
142.537325620651 182.433515787125 2035.00008583069 16 19 12
148.08289706707 182.427391409874 2035.00008583069 26 29 22
153.929844498634 182.779610157013 2039.00003433228 14 17 10
159.406945109367 182.683378458023 2038.00010681152 12 15 8
165.201783180237 182.945474982262 2040.99988937378 3 6 0
170.761346817017 182.938456535339 2040.99988937378 12 15 8
176.579460501671 183.200120925903 2043.99991035461 21 24 17
182.056799530983 183.103039860725 2042.99998283386 43 46 39
187.895372509956 183.364257216454 2046.0000038147 43 46 39
193.465933203697 183.356389403343 2046.0000038147 32 35 28
199.23035800457 183.527559041977 2048.00009727478 2 5 0
205.004945397377 183.698490262032 2049.99995231628 0 2 0
210.892423987389 183.958828449249 2052.99997329712 6 9 2
217.006370425224 184.398129582405 2058.00008773804 8 11 4
222.389623522758 184.210062026978 2055.99999427795 25 28 21
228.315606713295 184.469729661942 2059.00001525879 34 37 30
234.257146716118 184.729218482971 2062.00003623962 28 31 24
240.563198924065 185.257241129875 2068.00007820129 4 7 0
247.020080685616 185.874596238136 2075.00004768372 13 16 9
252.17479467392 185.506388545036 2071.00009918213 4 7 0
257.431387901306 185.227632522583 2068.00007820129 10 13 6
261.78041100502 184.321761131287 2058.00008773804 8 10 5
266.333997249603 183.594927191734 2049.99995231628 22 22 20
269.119024276733 181.703835725784 2029.00004386902 22 29 22
262.720376253128 173.813074827194 1940.99998474121 27 28 12
263.574659824371 170.937493443489 1909.00003910065 82 74 55
267.069935798645 169.852823019028 1896.99995517731 166 128 109
270.929753780365 169.036760926247 1888.00001144409 172 121 102
275.47088265419 168.668270111084 1883.99994373322 152 105 85
279.989451169968 168.299734592438 1879.99999523163 154 109 86
284.788757562637 168.110117316246 1878.00002098083 143 96 78
289.267599582672 167.741343379021 1873.99995326996 166 114 100
294.038027524948 167.551532387733 1871.99997901917 171 126 107
298.636972904205 167.272135615349 1868.99995803833 176 135 115
303.706228733063 167.261123657227 1868.99995803833 189 148 126
309.270203113556 167.518436908722 1871.99997901917 191 150 128
315.353363752365 168.044075369835 1878.00002098083 185 149 127
321.638762950897 168.659001588821 1884.99999046326 183 151 130
328.481256961823 169.542133808136 1894.99998092651 168 141 122
335.377037525177 170.425042510033 1904.99997138977 140 126 113
-215.482950210571 189.067423343658 2176.00011825562 123 114 97
-208.789005875587 188.380762934685 2167.99998283386 157 134 116
-202.325046062469 187.867626547813 2161.99994087219 163 135 114
-195.89301943779 187.354236841202 2155.99989891052 167 132 110
-189.757406711578 187.101319432259 2153.00011634827 164 130 105
-183.808192610741 187.02195584774 2151.99995040894 162 128 103
-178.029209375381 187.116220593452 2153.00011634827 156 125 97
-172.324001789093 187.297135591507 2154.99997138977 155 125 97
-166.761755943298 187.651723623276 2158.99991989136 145 113 90
-160.953596234322 187.745347619057 2160.00008583069 142 110 89
-155.426487326622 188.186421990395 2164.99996185303 140 111 97
-71.3333487510681 184.513956308365 2121.99997901917 82 64 60
-64.8030638694763 182.429939508438 2098.00004959106 26 19 11
-58.2063533365726 179.73692715168 2066.99991226196 24 25 17
-52.3380637168884 178.956687450409 2058.00008773804 14 26 16
-46.8138083815575 179.306596517563 2062.00003623962 12 24 14
-41.3674153387547 180.091083049774 2071.00009918213 19 22 15
-34.9404588341713 176.179558038712 2026.00002288818 22 25 18
-29.7170840203762 178.00709605217 2046.99993133545 29 32 25
-24.1196341812611 177.921265363693 2046.0000038147 28 31 24
-18.5094270855188 177.661284804344 2042.99998283386 20 23 16
-12.9091907292604 177.31411755085 2039.00003433228 20 23 16
-7.29830842465162 176.184043288231 2026.00002288818 19 22 15
-1.75922084599733 175.140678882599 2013.99993896484 20 23 16
3.72922420501709 174.792796373367 2009.99999046326 22 25 18
9.2370817437768 175.227344036102 2015.00010490417 21 24 17
14.8014416918159 176.009476184845 2023.9999294281 21 24 17
20.3044023364782 175.834819674492 2022.0000743866 17 20 13
25.6686601787806 174.790307879448 2009.99999046326 16 19 12
30.9983268380165 173.919498920441 2000 16 19 12
36.3462045788765 173.396304249763 1993.99995803833 18 21 14
41.9545881450176 174.090340733528 2002.00009346008 13 16 9
47.5117191672325 174.436271190643 2006.00004196167 13 16 9
53.0904904007912 174.781963229179 2009.99999046326 29 32 25
58.6617328226566 175.04046857357 2013.00001144409 13 16 9
64.3128529191017 175.472646951675 2017.99988746643 6 9 2
69.7142332792282 175.208985805511 2015.00010490417 17 20 13
75.5468457937241 175.9884506464 2023.9999294281 25 28 21
81.1479091644287 176.15906894207 2026.00002288818 16 19 12
86.8023410439491 176.416397094727 2029.00004386902 12 15 8
92.2452509403229 176.238730549812 2026.99995040894 11 14 7
97.4357277154922 175.626158714294 2019.99998092651 9 12 5
102.638602256775 175.100311636925 2013.99993896484 8 11 4
108.184181153774 175.1828789711 2015.00010490417 9 12 5
114.186093211174 175.960674881935 2023.9999294281 9 12 5
119.822680950165 176.129668951035 2026.00002288818 12 15 8
125.469714403152 176.298469305038 2028.00011634827 11 14 7
131.062552332878 176.380082964897 2029.00004386902 13 16 9
136.391073465347 176.113784313202 2026.00002288818 18 21 14
141.84282720089 176.02114379406 2025.00009536743 9 12 5
147.28856086731 175.928249955177 2023.9999294281 16 19 12
153.709754347801 176.96513235569 2036.00001335144 17 20 13
159.257113933563 176.958724856377 2036.00001335144 14 17 10
165.127649903297 177.299752831459 2039.99996185303 10 13 6
170.684695243835 177.292928099632 2039.99996185303 10 13 6
176.586672663689 177.63352394104 2043.99991035461 8 11 4
182.153359055519 177.626296877861 2043.99991035461 7 10 3
188.178539276123 178.053334355354 2049.00002479553 9 12 5
193.757474422455 178.045675158501 2049.00002479553 10 13 6
199.53028857708 178.211614489555 2051.00011825562 10 13 6
205.213233828545 178.29042673111 2052.00004577637 15 18 11
211.414560675621 178.803458809853 2058.00008773804 12 15 8
217.225953936577 178.968742489815 2059.99994277954 15 18 11
221.74945473671 178.091332316399 2049.99995231628 30 33 26
226.772218942642 177.648186683655 2045.00007629395 26 29 22
233.016699552536 178.160414099693 2051.00011825562 16 19 12
240.1073127985 179.280400276184 2063.99989128113 6 9 2
247.505947947502 180.57382106781 2078.9999961853 9 12 5
252.306401729584 179.956212639809 2072.00002670288 8 11 4
258.063793182373 180.033251643181 2072.99995422363 14 17 10
262.680977582932 179.328560829163 2065.00005722046 6 8 3
267.643451690674 178.884267807007 2059.99994277954 19 19 17
261.512130498886 167.749777436256 1932.000041008 29 30 14
262.618094682693 165.135219693184 1901.99995040894 147 118 102
266.235291957855 164.170369505882 1891.00003242493 169 127 111
270.509392023087 163.639515638351 1884.99999046326 166 118 98
275.33495426178 163.455843925476 1883.00001621246 149 104 83
280.148804187775 163.272053003311 1881.00004196167 150 108 86
284.799247980118 163.001358509064 1878.00002098083 125 80 61
288.969457149506 162.470206618309 1871.99997901917 158 109 94
293.420493602753 162.112578749657 1868.00003051758 169 124 105
298.008620738983 161.841630935669 1865.00000953674 170 127 108
303.229659795761 161.917716264725 1866.00005626678 184 142 120
308.785617351532 162.167191505432 1868.99995803833 186 144 120
314.860761165619 162.676841020584 1875 179 143 119
320.967584848404 163.186296820641 1881.00004196167 177 145 122
327.626049518585 163.955822587013 1889.99998569489 168 141 120
-215.29333293438 182.973384857178 2174.00002479553 149 138 120
-208.508297801018 182.224109768867 2164.99996185303 157 132 112
-202.42665708065 182.063743472099 2163.00010681152 163 132 112
-196.082532405853 181.650668382645 2157.99999237061 160 124 102
-189.853072166443 181.321501731873 2154.00004386902 157 121 97
-183.900982141495 181.244686245918 2153.00011634827 155 121 96
-178.119018673897 181.336000561714 2154.00004386902 149 118 90
-172.570839524269 181.679666042328 2157.99999237061 145 113 88
-166.845753788948 181.854799389839 2160.00008583069 136 104 81
-161.034598946571 181.945487856865 2161.00001335144 140 107 88
-155.57636320591 182.456970214844 2167.00005531311 142 112 101
-70.9329098463058 177.72065103054 2109.99989509583 50 41 34
-64.6513104438782 176.291540265083 2092.99993515015 44 41 32
-58.6311966180801 175.367549061775 2082.00001716614 23 23 15
-52.467405796051 173.769444227219 2062.99996376038 33 36 27
-46.6114245355129 172.929167747498 2052.99997329712 25 28 19
-40.6700000166893 171.498998999596 2036.00001335144 24 27 20
-35.5972871184349 173.859104514122 2063.99989128113 20 23 16
-29.834471642971 173.102378845215 2055.0000667572 13 16 9
-24.1324342787266 172.429576516151 2046.99993133545 16 19 12
-18.5736250132322 172.68317937851 2049.99995231628 26 29 22
-13.0236949771643 173.273473978043 2056.99992179871 26 29 22
-7.388676982373 172.768503427505 2051.00011825562 23 26 19
-1.76366255618632 170.073106884956 2019.00005340576 17 20 13
3.74236842617393 169.904604554176 2016.99995994568 14 17 10
9.27414279431105 170.409753918648 2023.00000190735 11 14 7
14.7874355316162 170.325011014938 2022.0000743866 8 11 4
20.3152932226658 170.408517122269 2023.00000190735 15 18 11
25.7719028741121 169.986397027969 2017.99988746643 19 22 15
31.2166195362806 169.64827477932 2013.99993896484 11 14 7
36.5664660930634 168.973013758659 2006.00004196167 9 12 5
42.2497428953648 169.813737273216 2016.00003242493 20 23 16
47.7268733084202 169.727638363838 2015.00010490417 33 36 29
53.0927032232285 169.304415583611 2009.99999046326 17 20 13
58.3144649863243 168.544039130211 2000.99992752075 9 12 5
63.5506212711334 167.951941490173 1993.99995803833 8 11 4
69.3365335464478 168.791502714157 2003.99994850159 9 12 5
75.2140432596207 169.715046882629 2015.00010490417 16 19 12
80.8708891272545 170.048743486404 2019.00005340576 14 17 10
86.2069800496101 169.708460569382 2015.00010490417 17 20 13
91.5664210915565 169.452160596848 2012.00008392334 24 27 20
97.0055982470512 169.364094734192 2010.99991798401 22 25 18
102.43896394968 169.27582025528 2009.99999046326 30 33 26
108.18862169981 169.692650437355 2015.00010490417 26 29 22
113.852269947529 169.940784573555 2017.99988746643 21 24 17
119.591012597084 170.272931456566 2022.0000743866 15 18 11
125.165462493896 170.352205634117 2023.00000190735 14 17 10
130.744889378548 170.43125629425 2023.9999294281 12 15 8
135.992661118507 170.089080929756 2019.99998092651 14 17 10
141.148090362549 169.662550091743 2015.00010490417 15 18 11
146.566793322563 169.572606682777 2013.99993896484 12 15 8
152.734458446503 170.324400067329 2023.00000190735 10 13 6
158.559501171112 170.654997229576 2026.99995040894 9 12 5
164.162904024124 170.732796192169 2028.00011634827 13 16 9
170.022144913673 171.062931418419 2032.00006484985 16 19 12
176.075369119644 171.561226248741 2038.00010681152 11 14 7
181.62590265274 171.554207801819 2038.00010681152 5 8 1
187.26758658886 171.631157398224 2039.00003433228 6 9 2
192.819476127625 171.623751521111 2039.00003433228 8 11 4
198.176085948944 171.447813510895 2036.99994087219 8 11 4
203.921139240265 171.608343720436 2039.00003433228 14 17 10
210.292741656303 172.273650765419 2046.99993133545 9 12 5
216.496244072914 172.770410776138 2052.99997329712 7 10 3
221.541702747345 172.341257333755 2048.00009727478 20 23 16
226.115599274635 171.575367450714 2039.00003433228 23 26 19
232.116714119911 171.903267502785 2042.99998283386 16 19 12
239.418506622314 173.156455159187 2058.00008773804 9 12 5
246.443897485733 174.156934022903 2069.9999332428 11 14 7
252.194195985794 174.231737852097 2071.00009918213 15 18 11
257.700085639954 174.138069152832 2069.9999332428 18 21 14
263.454139232636 174.212545156479 2071.00009918213 11 12 6
267.913371324539 173.445656895638 2062.00003623962 16 15 11
265.15993475914 168.136715888977 1998.99995326996 24 30 20
259.220659732819 161.062061786652 1914.99996185303 24 23 5
261.937379837036 159.538716077805 1896.99995517731 148 119 103
265.541076660156 158.604085445404 1886.0000371933 165 123 107
270.3757584095 158.426225185394 1883.99994373322 172 123 106
275.491148233414 158.416464924812 1883.99994373322 155 112 93
280.754655599594 158.490642905235 1884.99999046326 146 105 85
285.112768411636 158.060222864151 1879.99999523163 134 91 74
288.979798555374 157.377526164055 1871.99997901917 150 102 88
293.11665892601 156.862944364548 1866.00005626678 169 123 107
297.6995408535 156.60049021244 1863.00003528595 168 125 106
302.915245294571 156.674161553383 1863.9999628067 184 139 118
308.631151914597 156.999841332436 1868.00003051758 186 144 120
314.87163901329 157.577499747276 1875 175 139 115
320.466637611389 157.818853855133 1878.00002098083 170 138 115
327.117115259171 158.564224839211 1886.99996471405 164 137 116
333.463370800018 159.141391515732 1894.00005340576 152 138 125
-224.271908402443 179.487407207489 2203.9999961853 114 105 88
-215.499624609947 177.215367555618 2176.00011825562 153 140 121
-208.419963717461 176.246017217636 2164.00003433228 156 129 108
-202.153667807579 175.927996635437 2160.00008583069 162 130 109
-195.908337831497 175.609707832336 2155.99989891052 154 116 95
-189.948558807373 175.535604357719 2154.99997138977 153 117 93
-184.164330363274 175.624176859856 2155.99989891052 151 117 92
-178.539410233498 175.875514745712 2158.99991989136 141 109 84
-172.897443175316 176.126629114151 2161.99994087219 131 99 76
-167.006760835648 176.133170723915 2161.99994087219 134 102 81
-161.18997335434 176.22098326683 2163.00010681152 141 108 89
-155.726090073586 176.715955138206 2168.99991035461 139 111 99
-70.1289176940918 170.014068484306 2085.99996566772 38 35 26
-64.190573990345 169.364720582962 2078.00006866455 77 77 67
-58.4927536547184 169.285625219345 2076.99990272522 52 52 44
-52.5458343327045 168.391302227974 2065.99998474121 40 40 32
-46.522494405508 167.00766980648 2049.00002479553 27 28 20
-40.8314540982246 166.601851582527 2043.99991035461 31 34 27
-35.30552983284 166.847914457321 2046.99993133545 28 31 24
-29.7050140798092 166.767686605453 2046.0000038147 18 21 14
-23.9329896867275 165.464624762535 2029.99997138977 17 20 13
-18.438471481204 165.873035788536 2035.00008583069 23 26 19
-12.9988975822926 167.340829968452 2052.99997329712 23 26 19
-7.41779757663608 167.830318212509 2059.00001525879 23 26 19
-1.78994110319763 167.01540350914 2049.00002479553 22 25 18
3.76849714666605 165.548145771027 2030.99989891052 20 23 16
9.29744355380535 165.303379297256 2028.00011634827 15 18 11
14.7734088823199 164.650782942772 2019.99998092651 13 16 9
20.2759485691786 164.568573236465 2019.00005340576 10 13 6
25.7984921336174 164.649158716202 2019.99998092651 14 17 10
31.3263908028603 164.729535579681 2020.99990844727 15 18 11
36.6773307323456 163.994625210762 2012.00008392334 13 16 9
42.146660387516 163.911506533623 2010.99991798401 20 23 16
47.8235520422459 164.561778306961 2019.00005340576 28 31 24
53.2797649502754 164.396747946739 2016.99995994568 5 8 1
58.6374066770077 163.986995816231 2012.00008392334 2 5 0
64.3181204795837 164.473563432693 2017.99988746643 7 10 3
70.1005384325981 165.122911334038 2026.00002288818 7 10 3
75.2917230129242 164.38652575016 2016.99995994568 14 17 10
80.9141993522644 164.627924561501 2019.99998092651 12 15 8
86.2960070371628 164.380118250847 2016.99995994568 15 18 11
91.6156023740768 164.050608873367 2013.00001144409 21 24 17
97.2024574875832 164.20990228653 2015.00010490417 21 24 17
102.595962584019 164.042949676514 2013.00001144409 26 29 22
108.139239251614 164.12028670311 2013.99993896484 35 38 31
113.574713468552 164.034456014633 2013.00001144409 29 32 25
119.418330490589 164.518818259239 2019.00005340576 23 26 19
125.29419362545 165.002927184105 2025.00009536743 25 28 21
130.620881915092 164.753511548042 2022.0000743866 24 27 20
135.796055197716 164.340898394585 2016.99995994568 25 28 21
140.733331441879 163.683727383614 2009.0000629425 38 41 34
146.499767899513 164.004057645798 2013.00001144409 31 34 27
152.287423610687 164.324149489403 2016.99995994568 13 16 9
158.409252762794 164.969936013222 2025.00009536743 8 11 4
163.602635264397 164.637878537178 2020.99990844727 13 16 9
169.861406087875 165.364652872086 2029.99997138977 5 8 1
176.168590784073 166.091173887253 2039.00003433228 4 7 0
181.989386677742 166.328713297844 2042.00005531311 10 13 6
186.723709106445 165.588647127151 2032.99999237061 15 18 11
192.354008555412 165.662914514542 2033.99991989136 10 13 6
199.253886938095 166.795790195465 2048.00009727478 5 8 1
204.128921031952 166.21807217598 2040.99988937378 6 9 2
209.99251306057 166.454657912254 2043.99991035461 10 13 6
215.449839830399 166.365280747414 2042.99998283386 10 13 6
221.766397356987 166.927173733711 2049.99995231628 21 24 17
227.565765380859 167.081713676453 2052.00004577637 18 21 14
233.03434252739 166.99181497097 2051.00011825562 8 11 4
238.147661089897 166.657492518425 2046.99993133545 11 14 7
245.738640427589 168.032675981522 2063.99989128113 12 15 8
251.107484102249 167.860835790634 2062.00003623962 17 20 13
257.336020469666 168.258622288704 2066.99991226196 26 29 22
262.827664613724 168.167859315872 2065.99998474121 55 56 50
266.883581876755 167.181581258774 2053.99990081787 24 23 18
264.108330011368 162.044495344162 1991.00005626678 25 27 14
258.282393217087 155.28017282486 1907.99999237061 26 19 3
261.11826300621 153.887510299683 1891.00003242493 154 121 106
264.98731970787 153.145864605904 1881.99996948242 160 118 104
269.954800605774 153.055161237717 1881.00004196167 160 114 98
275.354653596878 153.208389878273 1883.00001621246 149 111 92
281.062364578247 153.524205088615 1886.99996471405 66 31 12
285.426020622253 153.107687830925 1881.99996948242 103 64 49
288.989782333374 152.284368872643 1871.99997901917 124 78 65
293.1267619133 151.786401867867 1866.00005626678 171 125 109
297.869473695755 151.613727211952 1863.9999628067 170 125 106
303.088068962097 151.684984564781 1865.00000953674 178 136 114
308.64155292511 151.918768882751 1868.00003051758 182 140 118
314.546316862106 152.315065264702 1873.00002574921 174 136 115
320.306658744812 152.629896998405 1876.99997425079 169 137 116
326.607882976532 153.18851172924 1883.99994373322 159 132 113
333.650410175323 154.072165489197 1894.99998092651 154 138 125
-221.736147999763 171.51652276516 2178.99990081787 116 108 89
-215.111434459686 170.973479747772 2171.99993133545 147 132 113
-208.235085010529 170.194014906883 2161.99994087219 153 125 104
-202.161192893982 170.044079422951 2160.00008583069 157 125 104
-196.006551384926 169.815197587013 2157.00006484985 147 109 88
-190.131992101669 169.822320342064 2157.00006484985 139 103 81
-184.512972831726 170.065447688103 2160.00008583069 131 96 74
-179.042339324951 170.465841889381 2164.99996185303 101 70 49
-173.303857445717 170.629888772964 2167.00005531311 83 52 31
-167.167589068413 170.400023460388 2164.00003433228 122 91 73
-161.345139145851 170.484885573387 2164.99996185303 127 95 80
-155.803829431534 170.884594321251 2170.00007629395 109 83 70
-69.9299350380898 163.855582475662 2079.99992370605 23 26 17
-64.1004145145416 163.464292883873 2075.00004768372 64 65 57
-58.4387257695198 163.466647267342 2075.00004768372 30 30 22
-52.4970181286335 162.602201104164 2063.99989128113 31 26 20
-46.7967949807644 162.367805838585 2061.00010871887 32 29 22
-40.8730208873749 161.187767982483 2046.0000038147 30 33 26
-35.3241674602032 161.346808075905 2048.00009727478 26 29 22
-29.5174345374107 160.166323184967 2032.99999237061 28 31 24
-23.8514021039009 159.379512071609 2023.00000190735 30 33 26
-18.3032806962729 159.143969416618 2019.99998092651 30 33 26
-12.8664402291179 160.090014338493 2032.00006484985 30 33 26
-7.34243262559175 160.563111305237 2038.00010681152 32 35 28
-1.78214919287711 160.720840096474 2039.99996185303 29 32 25
3.77977918833494 160.484448075294 2036.99994087219 25 28 21
9.31156240403652 160.011485219002 2030.99989891052 20 23 16
14.8032456636429 159.45953130722 2023.9999294281 20 23 16
20.3671343624592 159.774005413055 2028.00011634827 17 20 13
25.8633699268103 159.536734223366 2025.00009536743 12 15 8
31.3896313309669 159.535631537437 2025.00009536743 3 6 0
36.5147031843662 157.80109167099 2003.00002098083 6 9 2
41.9387295842171 157.642006874084 2000.99992752075 35 38 31
47.5648641586304 158.191740512848 2007.99989700317 14 17 10
53.5460151731968 159.686610102654 2026.99995040894 22 25 18
59.310045093298 160.314694046974 2035.00008583069 9 12 5
64.894363284111 160.391047596931 2036.00001335144 5 8 1
70.1724961400032 159.758254885674 2028.00011634827 6 9 2
75.4813179373741 159.282773733139 2022.0000743866 6 9 2
80.9173583984375 159.122228622437 2019.99998092651 11 14 7
86.3421484827995 158.961459994316 2017.99988746643 10 13 6
91.6191712021828 158.564209938049 2013.00001144409 10 13 6
97.3509475588799 158.954426646233 2017.99988746643 15 18 11
102.701887488365 158.714324235916 2015.00010490417 11 14 7
108.143426477909 158.631533384323 2013.99993896484 18 21 14
113.466255366802 158.391028642654 2010.99991798401 15 18 11
119.245484471321 158.780410885811 2016.00003242493 18 21 14
125.051498413086 159.169569611549 2020.99990844727 20 23 16
130.432099103928 159.007236361504 2019.00005340576 23 26 19
135.666608810425 158.687189221382 2015.00010490417 26 29 22
140.878811478615 158.366978168488 2010.99991798401 30 33 26
146.869242191315 158.912807703018 2017.99988746643 18 21 14
152.519747614861 159.064710140228 2019.99998092651 12 15 8
158.415243029594 159.452617168427 2025.00009536743 7 10 3
164.094552397728 159.604072570801 2026.99995040894 14 17 10
170.620918273926 160.542726516724 2039.00003433228 16 19 12
176.520809531212 160.85122525692 2042.99998283386 15 18 11
181.996196508408 160.765871405602 2042.00005531311 9 12 5
187.098070979118 160.365432500839 2036.99994087219 6 9 2
193.496033549309 161.066979169846 2046.0000038147 6 9 2
200.136914849281 161.925718188286 2056.99992179871 11 14 7
205.436706542969 161.682188510895 2053.99990081787 16 19 12
209.794774651527 160.730093717575 2042.00005531311 17 20 13
215.5631929636 160.87980568409 2043.99991035461 12 15 8
221.882700920105 161.422908306122 2051.00011825562 23 26 19
228.35037112236 162.044435739517 2059.00001525879 28 31 24
234.519883990288 162.429645657539 2063.99989128113 10 13 6
240.017756819725 162.342503666878 2062.99996376038 16 19 12
242.294669151306 160.130649805069 2035.00008583069 21 24 17
248.437225818634 160.515427589417 2039.99996185303 18 21 14
255.353182554245 161.37208044529 2051.00011825562 23 26 19
261.819183826447 161.913767457008 2058.00008773804 55 56 50
266.503214836121 161.353886127472 2051.00011825562 28 28 20
263.056337833405 155.995264649391 1983.00004005432 28 28 16
257.749944925308 149.771839380264 1904.00004386902 39 30 15
260.574966669083 148.425728082657 1886.99996471405 150 116 104
264.714866876602 147.866204380989 1879.99999523163 158 116 102
269.820511341095 147.857129573822 1879.99999523163 145 102 86
275.36404132843 148.083880543709 1883.00001621246 127 92 73
281.369835138321 148.546382784843 1889.00005817413 66 33 14
285.132318735123 147.829234600067 1879.99999523163 71 33 20
288.845121860504 147.112041711807 1871.00005149841 105 61 50
292.822331190109 146.552070975304 1863.9999628067 172 126 110
297.719538211823 146.463796496391 1863.00003528595 172 127 108
303.098022937775 146.611243486404 1865.00000953674 170 128 106
308.982133865356 146.994397044182 1870.00000476837 166 124 102
314.72447514534 147.29879796505 1873.99995326996 162 126 104
319.975703954697 147.367268800735 1875 164 131 112
325.751543045044 147.671401500702 1878.99994850159 168 141 122
333.308905363083 148.761242628098 1893.00000667572 149 133 120
-221.642300486565 165.504977107048 2177.99997329712 123 115 96
-215.218186378479 165.132731199265 2173.00009727478 140 125 104
-208.724156022072 164.684250950813 2167.00005531311 148 120 99
-202.355667948723 164.311543107033 2161.99994087219 154 119 99
-196.195378899574 164.090603590012 2158.99991989136 153 115 96
-190.491482615471 164.249524474144 2161.00001335144 131 94 75
-185.203090310097 164.788290858269 2167.99998283386 125 90 70
-179.793179035187 165.250897407532 2174.00002479553 87 59 38
-173.790082335472 165.181279182434 2173.00009727478 66 38 17
-167.482733726501 164.807319641113 2167.99998283386 115 86 68
-161.649197340012 164.889305830002 2168.99991035461 123 94 78
-156.024992465973 165.199160575867 2173.00009727478 109 83 70
-69.7308480739594 157.729163765907 2073.99988174438 21 27 17
-64.0719458460808 157.731667160988 2073.99988174438 31 32 24
-58.3564527332783 157.581865787506 2072.00002670288 33 33 23
-52.6770763099194 157.50789642334 2071.00009918213 36 32 23
-46.8666926026344 156.977370381355 2063.99989128113 30 25 19
-41.1542654037476 156.674802303314 2059.99994277954 26 29 22
-35.2047681808472 155.231148004532 2040.99988937378 25 28 21
-29.4604822993279 154.319703578949 2029.00004386902 24 27 20
-23.8051526248455 153.560146689415 2019.00005340576 25 28 21
-18.3130409568548 153.713032603264 2020.99990844727 28 31 24
-12.7656180411577 153.333336114883 2016.00003242493 28 31 24
-7.27785984054208 153.637930750847 2019.99998092651 29 32 25
-1.76125019788742 153.333872556686 2016.00003242493 28 31 24
3.75765655189753 154.018372297287 2025.00009536743 25 28 21
9.27523989230394 153.865993022919 2023.00000190735 27 30 23
14.7964982315898 153.865560889244 2023.00000190735 29 32 25
20.3277375549078 153.940945863724 2023.9999294281 23 26 19
25.8643571287394 154.016137123108 2025.00009536743 21 24 17
31.2668159604073 153.406605124474 2016.99995994568 20 23 16
36.5160927176476 152.340546250343 2003.00002098083 23 26 19
41.919369250536 152.110904455185 2000 30 33 26
47.6140603423119 152.869775891304 2009.99999046326 29 32 25
53.4687973558903 153.932645916939 2023.9999294281 21 24 17
59.108279645443 154.234766960144 2028.00011634827 16 19 12
64.546212553978 154.00430560112 2025.00009536743 12 15 8
69.7945132851601 153.393372893333 2016.99995994568 7 10 3
75.2228647470474 153.238579630852 2015.00010490417 5 8 1
80.9604749083519 153.691947460175 2020.99990844727 10 13 6
87.2011706233025 154.981628060341 2038.00010681152 12 15 8
91.759167611599 153.305307030678 2016.00003242493 11 14 7
97.4993407726288 153.682023286819 2020.99990844727 13 16 9
102.909617125988 153.526231646538 2019.00005340576 7 10 3
108.093790709972 153.066098690033 2013.00001144409 11 14 7
113.639779388905 153.138056397438 2013.99993896484 21 24 17
119.249932467937 153.285846114159 2016.00003242493 15 18 11
124.932408332825 153.509482741356 2019.00005340576 12 15 8
130.243122577667 153.276696801186 2016.00003242493 27 30 23
135.738983750343 153.271839022636 2016.00003242493 33 36 29
141.444474458694 153.494879603386 2019.00005340576 29 32 25
147.093012928963 153.641670942307 2020.99990844727 29 32 25
152.676373720169 153.712272644043 2022.0000743866 26 29 22
158.029913902283 153.554603457451 2019.99998092651 20 23 16
164.829194545746 154.765039682388 2036.00001335144 11 14 7
172.049716114998 156.279236078262 2055.99999427795 4 7 0
177.823320031166 156.424984335899 2058.00008773804 5 8 1
183.250620961189 156.266525387764 2055.99999427795 8 11 4
188.941910862923 156.335890293121 2056.99992179871 8 11 4
195.016235113144 156.70907497406 2062.00003623962 7 10 3
202.284693717957 157.994002103806 2078.9999961853 7 10 3
206.344246864319 156.770884990692 2062.99996376038 5 8 1
210.315957665443 155.547723174095 2046.99993133545 11 14 7
215.465396642685 155.236348509789 2042.99998283386 13 16 9
221.674174070358 155.684620141983 2049.00002479553 12 15 8
228.025689721107 156.208664178848 2055.99999427795 12 15 8
235.20989716053 157.264292240143 2069.9999332428 13 16 9
240.258872509003 156.876266002655 2065.00005722046 16 19 12
242.064937949181 154.437035322189 2032.99999237061 17 20 13
246.740818023682 153.896942734718 2026.00002288818 14 17 10
255.361974239349 155.787393450737 2051.00011825562 13 16 9
261.955410242081 156.386271119118 2059.00001525879 30 31 23
266.382336616516 155.69381415844 2049.99995231628 28 28 18
260.146737098694 148.92578125 1960.99996566772 29 27 14
257.758647203445 144.588500261307 1904.00004386902 67 53 40
260.583728551865 143.288969993591 1886.99996471405 130 92 81
264.864534139633 142.824709415436 1881.00004196167 140 96 85
269.829511642456 142.739996314049 1879.99999523163 140 101 86
275.373131036758 142.958864569664 1883.00001621246 110 79 61
281.23015165329 143.329441547394 1888.00001144409 106 79 60
284.989982843399 142.637059092522 1878.99994850159 122 89 74
288.545727729797 141.868770122528 1868.99995803833 140 96 87
292.517602443695 141.328170895576 1861.99998855591 167 121 105
297.569334506989 141.318827867508 1861.99998855591 176 133 114
303.270250558853 141.612932085991 1866.00005626678 156 115 95
308.991968631744 141.906902194023 1870.00000476837 135 94 74
314.734399318695 142.200723290443 1873.99995326996 144 109 89
319.815039634705 142.190918326378 1873.99995326996 148 117 97
326.281756162643 142.787963151932 1881.99996948242 146 119 102
-222.667634487152 160.304188728333 2187.99996376038 110 102 83
-216.315150260925 160.018607974052 2184.00001525879 112 95 75
-209.501996636391 159.366428852081 2174.99995231628 131 103 82
-202.737122774124 158.714026212692 2165.99988937378 140 105 86
-196.56577706337 158.501073718071 2163.00010681152 131 94 76
-190.9389346838 158.727571368217 2165.99988937378 123 88 69
-185.80761551857 159.393638372421 2174.99995231628 105 74 56
-180.626600980759 160.059556365013 2184.00001525879 74 48 31
-174.116164445877 159.552723169327 2177.00004577637 116 89 72
-167.643219232559 159.045651555061 2170.00007629395 105 77 63
-162.027612328529 159.344583749771 2174.00002479553 111 85 70
-69.9687823653221 152.588114142418 2081.00008964539 24 31 23
-64.0743002295494 152.077242732048 2073.99988174438 26 27 19
-58.076947927475 151.199549436569 2062.00003623962 27 27 17
-52.2211529314518 150.541588664055 2052.99997329712 35 33 21
-46.7094630002975 150.836676359177 2056.99992179871 35 32 23
-40.736235678196 149.518370628357 2039.00003433228 27 30 23
-35.0508280098438 149.006426334381 2032.00006484985 26 29 22
-29.3454080820084 148.200958967209 2020.99990844727 22 25 18
-23.8885693252087 148.568585515022 2026.00002288818 20 23 16
-18.340902402997 148.422673344612 2023.9999294281 18 21 14
-12.8230815753341 148.496598005295 2025.00009536743 20 23 16
-7.28173134848475 148.20359647274 2020.99990844727 22 25 18
-1.76306255161762 147.983774542809 2017.99988746643 22 25 18
3.73923825100064 147.763773798943 2015.00010490417 21 24 17
9.20680537819862 147.250175476074 2007.99989700317 21 24 17
14.745844528079 147.836416959763 2016.00003242493 22 25 18
20.268227905035 147.982448339462 2017.99988746643 21 24 17
25.8397646248341 148.34825694561 2023.00000190735 22 25 18
31.2214568257332 147.687241435051 2013.99993896484 23 26 19
36.3898165524006 146.366074681282 1996.00005149841 24 27 20
41.8999530375004 146.584644913673 1998.99995326996 26 29 22
47.5447401404381 147.169679403305 2006.99996948242 29 32 25
53.3915087580681 148.194432258606 2020.99990844727 23 26 19
58.8189661502838 147.972419857979 2017.99988746643 19 22 15
64.421072602272 148.190170526505 2020.99990844727 16 19 12
69.7624683380127 147.821128368378 2016.00003242493 6 9 2
75.1882791519165 147.671863436699 2013.99993896484 3 6 0
80.6830078363419 147.669062018394 2013.99993896484 10 13 6
86.1774161458015 147.666066884995 2013.99993896484 12 15 8
91.0342410206795 146.636426448822 2000 12 15 8
97.068689763546 147.512882947922 2012.00008392334 14 17 10
103.576004505157 148.975610733032 2032.00006484985 10 13 6
108.956903219223 148.751869797707 2029.00004386902 9 12 5
114.151731133461 148.308023810387 2023.00000190735 15 18 11
119.490846991539 148.083925247192 2019.99998092651 25 28 21
124.565616250038 147.566437721252 2013.00001144409 22 25 18
129.860162734985 147.342026233673 2009.99999046326 22 25 18
135.40717959404 147.41063117981 2010.99991798401 29 32 25
141.379475593567 147.918879985809 2017.99988746643 27 30 23
146.879896521568 147.913798689842 2017.99988746643 25 28 21
152.606293559074 148.128464818001 2020.99990844727 26 29 22
158.191993832588 148.196324706078 2022.0000743866 29 32 25
173.729494214058 152.142375707626 2075.99997520447 33 36 29
178.607240319252 151.476696133614 2066.99991226196 31 34 27
183.702722191811 151.030778884888 2061.00010871887 22 25 18
189.315959811211 151.024356484413 2061.00010871887 16 19 12
195.306792855263 151.310846209526 2065.00005722046 13 16 9
200.540289282799 151.011005043983 2061.00010871887 14 17 10
206.451416015625 151.223838329315 2063.99989128113 11 14 7
210.836961865425 150.337561964989 2052.00004577637 11 14 7
216.211065649986 150.183826684952 2049.99995231628 10 13 6
221.681743860245 150.103181600571 2049.00002479553 11 14 7
227.700710296631 150.388643145561 2052.99997329712 14 17 10
233.740657567978 150.673940777779 2056.99992179871 19 22 15
238.289013504982 150.006890296936 2048.00009727478 18 21 14
241.358652710915 148.460790514946 2026.99995040894 19 22 15
246.383711695671 148.159801959991 2023.00000190735 17 20 13
254.623413085938 149.762734770775 2045.00007629395 16 19 12
261.455178260803 150.486618280411 2055.0000667572 29 30 22
266.651093959808 150.258347392082 2052.00004577637 27 27 17
260.288000106812 143.659710884094 1962.00001239777 30 28 15
257.631719112396 139.331445097923 1902.99999713898 73 57 44
260.454088449478 138.0784958601 1886.0000371933 127 89 80
264.873087406158 137.704059481621 1881.00004196167 136 92 83
269.551128149033 137.475952506065 1878.00002098083 127 90 74
275.089502334595 137.686982750893 1881.00004196167 99 70 52
281.983852386475 138.556569814682 1893.00000667572 112 87 67
284.240633249283 137.157082557678 1873.99995326996 119 86 71
288.246065378189 136.635914444923 1866.99998378754 167 119 107
292.36963391304 136.187851428986 1860.99994182587 169 126 109
297.578573226929 136.251986026764 1861.99998855591 169 128 108
303.442090749741 136.608690023422 1866.99998378754 143 105 84
309.331893920898 136.96525990963 1871.99997901917 127 89 68
314.744025468826 137.102201581001 1873.99995326996 133 100 81
320.166110992432 137.239024043083 1876.00004673004 138 109 91
326.118230819702 137.595191597939 1881.00004196167 132 106 89
-224.914029240608 155.894830822945 2210.00003814697 110 102 83
-218.006193637848 155.267223715782 2200.99997520447 109 92 72
-210.472285747528 154.145538806915 2184.99994277954 118 90 69
-203.305557370186 153.235241770744 2171.99993133545 127 94 75
-196.935936808586 152.889117598534 2167.00005531311 140 104 88
-191.474333405495 153.248369693756 2171.99993133545 125 92 75
-188.376903533936 155.583113431931 2204.99992370605 90 58 43
-174.122124910355 153.619542717934 2177.00004577637 131 105 88
-167.803481221199 153.272449970245 2171.99993133545 117 91 76
-162.331312894821 153.701439499855 2177.99997329712 115 92 78
-69.3324059247971 145.572736859322 2062.00003623962 23 26 17
-63.7058317661285 145.575046539307 2062.00003623962 25 28 19
-57.0086874067783 142.894372344017 2023.9999294281 28 28 18
-52.2738844156265 145.084887742996 2055.0000667572 30 30 18
-46.5294644236565 144.663006067276 2049.00002479553 33 33 23
-40.7776422798634 144.099727272987 2040.99988937378 29 32 25
-34.7588248550892 142.265364527702 2015.00010490417 26 29 22
-29.1867256164551 141.913458704948 2009.99999046326 24 27 20
-23.7715058028698 142.338022589684 2016.00003242493 22 25 18
-18.3778069913387 143.186017870903 2028.00011634827 18 21 14
-12.785542756319 142.551109194756 2019.00005340576 16 19 12
-7.29280104860663 142.904475331306 2023.9999294281 17 20 13
-1.75963051151484 142.198592424393 2013.99993896484 17 20 13
3.73565987683833 142.127946019173 2013.00001144409 19 22 15
9.17045306414366 141.209870576859 2000 20 23 16
14.7097958251834 141.986086964607 2010.99991798401 18 21 14
20.1986413449049 141.985490918159 2010.99991798401 19 22 15
25.649081915617 141.772866249084 2007.99989700317 21 24 17
30.9435240924358 140.924647450447 1996.00005149841 22 25 18
36.2999550998211 140.570446848869 1991.00005626678 20 23 16
41.8595261871815 140.992701053619 1996.99997901917 17 20 13
47.3095290362835 140.991136431694 1996.99997901917 17 20 13
52.7065061032772 140.8481746912 1995.00000476837 18 21 14
58.2963936030865 141.199246048927 2000 19 22 15
64.2958581447601 142.397299408913 2016.99995994568 16 19 12
70.1455920934677 143.100932240486 2026.99995040894 12 15 8
75.5642727017403 142.886608839035 2023.9999294281 8 11 4
81.046424806118 142.813310027122 2023.00000190735 7 10 3
86.009293794632 141.892686486244 2009.99999046326 7 10 3
91.12848341465 141.324877738953 2002.00009346008 7 10 3
97.5545644760132 142.733424901962 2022.0000743866 7 10 3
103.06990146637 142.729982733727 2022.0000743866 6 9 2
109.766237437725 144.279211759567 2043.99991035461 8 11 4
114.550724625587 143.287181854248 2029.99997138977 7 10 3
119.613341987133 142.718479037285 2022.0000743866 16 19 12
124.322429299355 141.796767711639 2009.0000629425 20 23 16
129.412412643433 141.368940472603 2003.00002098083 23 26 19
134.805858135223 141.293853521347 2002.00009346008 25 28 21
140.96400141716 141.994923353195 2012.00008392334 23 26 19
146.448269486427 141.990050673485 2012.00008392334 25 28 21
152.536034584045 142.549559473991 2019.99998092651 19 22 15
159.292742609978 143.673375248909 2036.00001335144 13 16 9
175.932586193085 153.33516895771 2173.00009727478 9 12 5
179.99592423439 146.972730755806 2082.99994468689 12 15 8
184.867694973946 146.331623196602 2073.99988174438 17 20 13
189.322337508202 145.408228039742 2061.00010871887 13 16 9
195.124179124832 145.542964339256 2062.99996376038 9 12 5
201.13080739975 145.818591117859 2066.99991226196 12 15 8
206.458315253258 145.600259304047 2063.99989128113 10 13 6
211.97421848774 145.522862672806 2062.99996376038 21 24 17
216.956555843353 145.092621445656 2056.99992179871 26 29 22
221.580877900124 144.450709223747 2048.00009727478 25 28 21
227.153673768044 144.443422555923 2048.00009727478 21 24 17
232.611954212189 144.365459680557 2046.99993133545 26 29 22
238.878548145294 144.781023263931 2052.99997329712 23 26 19
243.271693587303 144.068121910095 2042.99998283386 18 21 14
248.096808791161 143.63719522953 2036.99994087219 17 20 13
255.12969493866 144.475355744362 2049.00002479553 17 20 13
261.972486972809 145.172268152237 2059.00001525879 23 26 17
267.179369926453 144.952446222305 2055.99999427795 24 27 16
257.775515317917 136.977717280388 1942.999958992 27 27 15
257.369041442871 134.00886952877 1901.00002288818 78 60 50
260.600358247757 133.013963699341 1886.99996471405 119 78 72
264.7405564785 132.512465119362 1879.99999523163 123 78 72
269.272416830063 132.222354412079 1876.00004673004 110 77 62
274.659246206284 132.355019450188 1878.00002098083 97 71 54
280.353933572769 132.628500461578 1881.99996948242 117 91 74
283.490896224976 131.703898310661 1868.99995803833 134 101 86
287.94601559639 131.413489580154 1865.00000953674 182 134 122
292.535603046417 131.193459033966 1861.99998855591 171 128 109
298.066973686218 131.39608502388 1865.00000953674 155 117 94
303.938806056976 131.739497184753 1870.00000476837 120 84 62
309.671550989151 132.012292742729 1873.99995326996 129 94 74
315.257161855698 132.214546203613 1876.99997425079 132 104 83
321.19944691658 132.557556033134 1881.99996948242 118 93 73
327.86151766777 133.182138204575 1891.00003242493 112 89 73
-219.399943947792 150.21912753582 2214.99991416931 120 105 86
-211.057066917419 148.59826862812 2190.99998474121 108 79 61
-203.686624765396 147.587537765503 2176.00011825562 115 84 64
-197.124108672142 147.119134664536 2168.99991035461 116 83 68
-191.833272576332 147.600203752518 2176.00011825562 114 82 69
-174.28782582283 147.82141149044 2178.99990081787 135 112 96
-167.886301875114 147.419944405556 2173.00009727478 106 83 69
-162.485778331757 147.900223731995 2180.0000667572 105 83 70
-63.429944217205 139.341294765472 2052.99997329712 23 26 17
-57.6021522283554 138.800352811813 2045.00007629395 26 29 18
-51.716037094593 137.987717986107 2032.99999237061 22 24 11
-46.1677126586437 137.989372014999 2032.99999237061 27 29 18
-40.5992269515991 137.922957539558 2032.00006484985 28 31 24
-34.9497757852077 137.516960501671 2026.00002288818 28 31 24
-29.14416231215 136.228382587433 2006.99996948242 26 29 22
-23.6190259456635 135.957777500153 2003.00002098083 24 27 20
-18.2153154164553 136.433631181717 2009.99999046326 21 24 17
-12.8366444259882 137.588068842888 2026.99995040894 20 23 16
-7.29665625840425 137.452661991119 2025.00009536743 16 19 12
-1.76405988167971 137.045532464981 2019.00005340576 14 17 10
3.72650916688144 136.298835277557 2007.99989700317 16 19 12
9.15242824703455 135.484099388123 1996.00005149841 18 21 14
14.637153595686 135.823085904121 2000.99992752075 18 21 14
20.1089382171631 135.890394449234 2002.00009346008 19 22 15
25.4839062690735 135.414466261864 1995.00000476837 20 23 16
30.7895541191101 134.802624583244 1985.99994182587 20 23 16
36.1553430557251 134.597882628441 1983.00004005432 19 22 15
41.798073798418 135.343194007874 1993.99995803833 18 21 14
46.9794757664204 134.595081210136 1983.00004005432 17 20 13
52.5233745574951 134.932771325111 1988.00003528595 16 19 12
58.1817924976349 135.473892092705 1996.00005149841 17 20 13
64.3936917185783 137.100771069527 2019.99998092651 17 20 13
70.2518150210381 137.777209281921 2029.99997138977 15 18 11
75.9028792381287 137.9783898592 2032.99999237061 13 16 9
81.1293125152588 137.432798743248 2025.00009536743 10 13 6
86.2261801958084 136.75132393837 2015.00010490417 10 13 6
91.5867835283279 136.544778943062 2012.00008392334 9 12 5
98.6193343997002 138.713255524635 2043.99991035461 7 10 3
103.226318955421 137.420520186424 2025.00009536743 6 9 2
109.071798622608 137.824147939682 2030.99989891052 7 10 3
115.118883550167 138.431161642075 2039.99996185303 8 11 4
119.972318410873 137.612998485565 2028.00011634827 4 7 0
124.079070985317 136.048302054405 2005.00011444092 12 15 8
129.287526011467 135.772705078125 2000.99992752075 23 26 19
134.675681591034 135.700523853302 2000 16 19 12
140.688434243202 136.238783597946 2007.99989700317 25 28 21
146.453127264977 136.505499482155 2012.00008392334 22 25 18
152.76762843132 137.246906757355 2023.00000190735 12 15 8
164.227187633514 142.397746443748 2098.99997711182 9 12 5
173.590376973152 145.44503390789 2144.00005340576 10 13 6
177.088752388954 143.539950251579 2115.9999370575 11 14 7
180.17466366291 141.43131673336 2085.00003814697 11 14 7
184.338912367821 140.272349119186 2068.00007820129 15 18 11
189.420372247696 139.859393239021 2062.00003623962 11 14 7
195.508852601051 140.192359685898 2066.99991226196 8 11 4
201.040029525757 140.118226408958 2065.99998474121 11 14 7
207.165226340294 140.450865030289 2071.00009918213 17 20 13
211.570039391518 139.630436897278 2059.00001525879 16 19 12
216.436132788658 139.149010181427 2052.00004577637 17 20 13
220.397755503654 138.125017285347 2036.99994087219 22 25 18
225.164338946342 137.643426656723 2029.99997138977 25 28 21
233.301162719727 139.195740222931 2052.99997329712 28 31 24
240.049660205841 139.866411685944 2062.99996376038 25 28 21
245.184600353241 139.587730169296 2059.00001525879 19 22 15
249.322548508644 138.766646385193 2046.99993133545 12 15 8
254.639536142349 138.623371720314 2045.00007629395 14 17 10
261.089950799942 139.090016484261 2052.00004577637 19 22 13
268.747061491013 140.166476368904 2068.00007820129 21 24 13
255.926012992859 130.737587809563 1929.00002002716 20 14 2
256.56458735466 128.425627946854 1894.99998092651 78 60 50
260.332077741623 127.74021923542 1884.99999046326 125 84 78
264.466911554337 127.258092164993 1878.00002098083 129 84 78
269.424051046371 127.182438969612 1876.99997425079 93 59 47
274.521201848984 127.174451947212 1876.99997425079 106 80 63
278.425604104996 126.624345779419 1868.99995803833 124 99 79
282.589197158813 126.209735870361 1863.00003528595 146 113 96
287.182450294495 125.998273491859 1860.00001430511 166 117 103
292.544156312943 126.125425100327 1861.99998855591 165 124 104
298.395246267319 126.455649733543 1866.99998378754 153 117 93
304.597705602646 126.921221613884 1873.99995326996 122 87 65
310.341447591782 127.183452248573 1878.00002098083 135 103 82
315.937995910645 127.377852797508 1881.00004196167 136 109 88
322.061896324158 127.775266766548 1886.99996471405 110 88 67
328.044056892395 128.104850649834 1891.99995994568 116 95 78
-220.199212431908 144.703641533852 2223.00004959106 122 107 88
-211.641669273376 143.017739057541 2197.00002670288 115 94 75
-204.254627227783 142.04765856266 2181.99992179871 117 86 68
-197.493851184845 141.467928886414 2173.00009727478 122 90 75
-192.103773355484 141.86455309391 2178.99990081787 114 84 73
-168.664291501045 142.147436738014 2183.00008773804 104 82 68
-163.161799311638 142.543315887451 2188.99989128113 91 72 58
-69.2361816763878 134.131133556366 2059.00001525879 26 27 21
-63.3393451571465 133.546978235245 2049.99995231628 24 27 18
-58.4209263324738 135.112419724464 2073.99988174438 25 28 17
-52.2519648075104 133.81128013134 2053.99990081787 16 22 8
-46.1238138377666 132.314503192902 2030.99989891052 24 27 18
-40.6804867088795 132.641643285751 2036.00001335144 25 28 21
-35.0371859967709 132.317125797272 2030.99989891052 25 28 21
-29.2613040655851 131.275787949562 2015.00010490417 27 30 23
-23.5018860548735 129.843354225159 1993.00003051758 27 30 23
-18.1977916508913 130.821272730827 2007.99989700317 27 30 23
-12.7547401934862 131.212681531906 2013.99993896484 27 30 23
-7.25365662947297 131.147861480713 2013.00001144409 22 25 18
-1.75363314338028 130.757093429565 2006.99996948242 19 22 15
3.73220024630427 131.017670035362 2010.99991798401 16 19 12
