ply
format ascii 1.0
comment KinectMotionCapture
element vertex 783
property float x
property float y
property float z
property uchar red
property uchar green
property uchar blue
end_header
19.630160671317 424.769370166793 1816.51208732653 174 176 175
8.39166320816531 423.802265821801 1815.77067635213 180 182 181
-1.68162825092177 422.947739948334 1813.40473952757 175 177 176
-8.90131111065862 422.370283587286 1806.93278131035 201 203 202
-17.8199206604355 421.627268732147 1802.93409513386 208 210 209
-28.9799697417961 420.665499358526 1802.24987456529 218 220 219
-37.3108335564787 419.978831293378 1797.44221211667 179 181 180
-45.0787561078243 419.346764848973 1791.80787774237 185 187 186
-51.7342198937056 418.822997980712 1784.51016929148 192 194 193
-58.3982840208752 418.298305772008 1777.20651605965 185 187 186
-61.2097280123578 418.150071366655 1764.05147638069 196 198 197
-66.8073834021643 417.729709192994 1755.05104631764 189 191 190
-72.4222857589643 417.307710847402 1746.03810527261 148 150 149
-76.9644975550237 416.990790409864 1735.33294501231 147 149 148
-78.2765422382983 416.990631613969 1719.56019755817 185 187 184
-78.0198354581925 417.144938817559 1701.2203440318 180 182 179
-85.364571768259 416.554110630424 1694.65766416873 162 164 161
-95.9295375117073 415.646843336408 1693.1700716461 163 165 160
-130.663416320021 412.622283532973 1693.9129577239 141 144 137
-120.563193566924 413.747462112171 1659.24633383538 176 179 172
-128.986774065208 413.04936974175 1654.37140121778 169 171 166
-140.018965367912 412.093686591325 1653.7798983095 144 144 144
-149.982585028159 411.242792478498 1651.493188831 125 125 125
-158.891008872218 410.495539490779 1647.50186502298 128 128 128
-169.337950579841 409.595866491582 1646.09957463226 138 138 138
-177.706314804657 408.901152352898 1641.2649810581 140 140 138
-185.557601708931 408.257328921677 1635.57015453382 144 145 140
359.116836944341 444.197386664991 1747.75432104157 200 202 197
339.537804208167 442.499282028042 1755.78488732682 196 198 195
326.863256964158 441.431469345441 1755.23727421809 184 186 185
316.692205350376 440.592095155559 1751.56521461113 176 178 177
307.150070965687 439.809878929647 1747.11402893544 172 174 173
300.685367284166 439.30911407005 1738.71968643574 164 166 165
292.983653560046 438.694948200395 1731.89840229401 158 160 159
284.058430934981 437.968449769393 1726.65967471083 155 155 155
257.529477907656 435.627678649014 1744.4701632074 165 165 165
215.404645578125 431.854731456448 1783.08091988645 178 178 178
191.609743520754 429.760777663456 1797.93418946328 115 115 115
169.130846274148 427.786171681528 1811.27199027416 183 183 183
152.741232069979 426.369374111911 1816.67532352374 168 168 168
134.62531176024 424.79303429832 1824.53181688789 203 205 204
126.086354697683 424.095975627367 1819.57325057248 199 201 200
113.410118684535 423.018158172423 1820.25969366904 192 194 193
101.948170361181 422.051423013031 1819.35659474442 194 196 195
85.8152193912098 420.654148471701 1824.94608753792 204 206 205
70.9142293857261 419.369413252602 1828.95915190138 208 210 209
59.5632337993099 418.410954154077 1828.13623242647 212 214 213
51.7220625669066 417.775448053898 1822.44878109753 215 217 216
40.9892458540169 416.873028862371 1820.83953438163 226 228 227
30.8549105829101 416.025361740428 1818.42908585891 224 226 225
19.0167561761116 415.019974069853 1818.48810796238 222 224 223
7.20982230182754 414.016876635333 1818.56977409663 219 221 220
-2.85762097355491 413.173907007685 1816.20813527992 207 209 208
-9.50350306822823 412.646764168114 1808.91735570151 200 202 201
-16.7231124216041 412.066441481195 1802.44573072914 191 193 192
-27.3235864194199 411.173105148175 1800.93217360118 200 202 201
-35.0987024604625 410.540814413772 1795.29262337661 226 228 227
-46.2236986465605 409.598060353552 1794.63390971619 182 184 183
-55.0971411991537 408.863379482441 1790.66800827314 181 183 182
-61.1915514879373 408.385966017845 1782.54221763571 191 193 192
-63.9885286540329 408.21430407078 1769.39754660209 173 175 174
-66.2754699039014 408.09022454178 1755.38781587399 193 195 194
-74.0790578421881 407.454208350561 1749.72760689331 196 198 195
-75.8864572473676 407.374912288768 1734.83069649024 184 186 183
-78.284848586162 407.241027390041 1720.74012354808 130 132 129
-76.942417876052 407.455231214565 1700.71697564481 147 149 146
-85.9047991207911 406.711418579477 1696.6865543916 174 176 171
-105.581683776625 404.97009585676 1709.58640781771 155 157 152
-114.752967417623 404.476249656847 1651.06008052546 150 153 146
-124.774456691493 403.632407119622 1648.73145584666 163 165 160
-135.82319963678 402.692186049582 1648.12803261793 122 122 122
-147.885869398 401.656745327991 1649.25918315415 118 118 118
-157.838471404541 400.81786647599 1646.98081594463 129 129 129
-168.804788901143 399.883789669768 1646.43688132758 130 130 130
-175.117225474301 399.384561449484 1638.15292828766 141 141 139
-182.46570475321 398.788287494446 1631.58780195973 142 143 138
345.718024310398 432.695818380196 1749.09919120141 186 191 187
331.780978656646 431.537288720988 1750.10627428846 176 177 179
322.212273064784 430.758491041731 1745.63584389324 164 165 167
312.035627056752 429.926460211407 1741.95976598607 162 163 165
303.099823782996 429.202166500391 1736.7133794322 187 188 190
292.944446746292 428.371410615329 1733.05272631409 181 183 182
284.020947126181 427.64761617342 1727.81555594724 168 168 168
262.955342222725 425.865404819409 1738.4731582139 114 114 114
218.988731163571 422.08598931009 1779.45414178766 47 47 45
188.546937615734 419.483971509708 1803.07265077926 50 50 48
167.278886398711 417.680823918848 1814.81872045285 0 0 0
150.895839063947 416.302988548011 1820.22701151742 15 15 13
132.189674871074 414.721792902675 1828.89093100474 25 29 28
125.4435111142 414.183867530316 1821.52740049364 35 39 38
112.178552829446 413.076573213261 1823.02195357463 49 53 52
101.901357347502 412.22972966267 1820.50794680784 46 50 49
86.9429295614941 410.97358877594 1824.47951813435 26 30 29
70.2824258557859 409.568132720542 1830.9215718794 15 19 18
70.0100974368492 409.594540475815 1814.66763486954 30 34 33
59.227462438181 408.702110308167 1813.02232441148 30 34 33
48.4672104259385 407.811288886265 1811.39295352955 34 38 37
34.2714960311419 406.619510930424 1814.68272145219 29 33 32
20.1248496568591 405.431503505691 1818.00778445152 31 35 34
6.02716243243639 404.247223342844 1821.36835786275 49 51 48
-4.60398953317842 403.365929857771 1819.83291709765 44 46 43
-14.0779059467206 402.585645185696 1816.66652497501 35 37 34
-23.5382570156857 401.80623541851 1813.50997109172 22 24 21
-30.7331040404386 401.22504069486 1807.05599796576 28 30 27
-38.4928811223277 400.594127010797 1801.42757425506 12 14 11
-47.9278885622594 399.816098242282 1798.28939950434 65 67 64
-56.7929476033102 399.08775725559 1794.32960756049 85 87 84
-60.6619236987385 398.797466776419 1782.87758848393 178 180 177
-63.4577238552287 398.601330536261 1769.73364672258 203 205 202
-65.1937392364787 398.498259123937 1754.88836369503 140 142 139
-72.9997339683612 397.862257058948 1749.22641004986 145 147 144
-73.7173850992998 397.848645616366 1732.64944639729 148 150 147
-75.0350516504701 397.782477485254 1716.87228918085 175 177 172
-75.8645898236603 397.759309057974 1700.21416781555 152 154 149
-84.8296856845709 397.021056722822 1696.18180684315 154 156 151
-111.57684457452 394.917395844734 1647.13833017716 149 152 145
-123.711368818693 393.898832180877 1648.21777182788 153 155 150
-133.717272768116 393.067394450278 1645.90050811618 122 122 122
-145.267170864863 392.099518039744 1646.16868337242 124 124 124
-155.74800661196 391.2255028519 1644.74224690804 134 134 134
-165.172903343796 390.444260455973 1641.61138534774 131 131 131
-172.526684660478 389.845395841022 1635.04210786025 146 146 144
-179.372126486566 389.291223421665 1627.6068207406 145 146 141
350.654818399119 422.739451117683 1743.98170227126 183 187 186
334.217630318063 421.399026197455 1748.11589841553 183 184 188
324.023132893207 420.573853593595 1744.4269143736 181 182 186
315.07416396705 419.851286341267 1739.17099250219 167 168 172
306.129155352974 419.128815879078 1733.91794203578 149 150 152
295.964282141324 418.305341177038 1730.25044181843 161 163 162
287.641378128662 417.633796539981 1724.2135895741 90 90 88
268.991141368879 416.108775466428 1731.68300548028 77 77 75
206.23251308873 410.938929191191 1797.32329219848 72 73 68
177.039824286353 408.541729406932 1819.37797358548 45 46 41
85.1335066725984 401.04401801848 1828.05797462755 39 44 40
80.7704133356744 400.696621080878 1817.48250679138 33 38 34
52.4770650997621 398.395976439534 1806.84128361417 69 74 70
33.0785548965316 396.80420652102 1817.47332640081 69 74 70
1.41179509404354 394.209446459855 1829.08794935738 74 77 70
9.60189839026482 394.899034679092 1800.44494701177 68 70 65
-32.8434126937014 391.399284724038 1845.00053770029 57 59 54
-36.9601928562848 391.081692574424 1817.31208779103 29 32 25
-37.9628271155996 391.010038532207 1801.76327641885 21 23 18
-45.7224504416725 390.379077560265 1796.1349639295 40 42 37
-56.8204285685041 389.471580465869 1795.49601482032 23 26 19
-65.1201408722917 388.795471563658 1790.71098825099 30 33 26
-64.0308252940824 388.896313539588 1771.73940316999 20 22 17
-69.0596139467354 388.490576094869 1761.91609971583 19 21 16
-75.2053104647557 387.992219861676 1753.75302451707 23 25 20
-75.3647626549316 387.989257681591 1736.34572850063 20 22 17
-73.9562590656033 388.116012487672 1716.37032976808 2 4 0
-74.786217970265 388.057292278319 1699.71172332878 21 23 18
-82.1377265440715 387.458432549441 1693.14409342585 174 176 171
-112.620055150604 384.980868507326 1650.03715846205 145 148 141
-119.495079537887 384.420326606887 1642.58039404979 139 141 136
-130.040463318766 383.555529953346 1641.10691755487 132 132 132
-141.604877585829 382.606088478465 1641.36466310605 128 128 128
-152.099924981713 381.745021528962 1639.92798989955 132 132 132
-160.505582637538 381.056864730419 1635.06610025857 136 136 136
-169.934604702176 380.283726950424 1631.93228920796 139 139 137
-179.349413108155 379.511546467896 1628.80878679075 147 148 143
353.101028141869 412.549224052471 1741.99799204482 187 193 193
337.896968862486 411.340719956241 1744.55641004325 178 179 184
327.072099314435 410.474272509858 1741.6452833604 156 157 161
319.963284191182 409.89798724661 1734.01895931106 147 148 152
310.388215060253 409.128845434257 1729.54396475944 122 123 125
298.985237883264 408.216689721476 1727.44885510378 110 112 111
290.043493480003 407.496619538159 1722.19818309134 70 70 68
203.15614618032 400.668048920794 1802.45165839244 74 75 69
123.561689897347 394.344121656404 1826.23850800936 55 60 56
50.4874986281854 388.597559940976 1893.04345267582 53 58 54
44.5374398861453 388.11060163522 1885.02225720873 25 30 26
-10.0174623440621 383.832957852318 1944.26257499816 43 48 44
21.3782670490783 386.234375677197 1868.22417512355 38 43 39
19.4464714908675 386.059742059296 1854.47164102008 51 56 52
1.90312633359913 384.668034406952 1862.74414152992 43 48 44
3.96314369055961 384.803956109009 1843.24108546365 52 55 48
-29.1867845951534 382.171158701494 1857.48544515528 57 60 53
-41.9683391398209 381.150267900322 1859.33086557466 52 55 48
-37.5582183110901 381.442017606129 1819.30010725763 53 56 49
-46.9703029083144 380.682862472469 1816.17835088645 57 60 53
-51.3395660103324 380.316037284047 1805.59860652499 30 33 26
-48.499037613791 380.509992326771 1784.19128578313 32 35 28
-47.4055586384781 380.567533304876 1765.22220503244 28 31 24
-60.1869040336196 379.545270403445 1767.06777011881 19 22 15
-39.3806698709929 381.135300880709 1717.93209075745 23 26 19
-77.9600161815623 378.106363871077 1759.11681447432 21 23 18
-69.921374778781 378.702525670981 1729.12850431738 21 23 18
-69.9195980830489 378.643549220514 1693.31078101471 12 14 9
-108.913742929913 375.428886339387 1645.2647518854 139 142 135
-117.378680259221 374.739731316828 1640.36017856485 121 123 118
-127.408295193245 373.929015638002 1638.02583121566 127 127 127
-137.94060260065 373.079223919815 1636.56220454292 129 129 129
-148.449722537736 372.231121055495 1635.11510103961 128 128 128
-154.802124166225 371.705205772563 1626.80204130294 134 134 134
-166.826508788484 370.739446478652 1627.96159298063 139 139 137
-177.27746576893 369.895562575997 1626.55667441572 146 147 142
354.301513981193 402.250017667023 1741.58075123238 172 178 176
341.577545022238 401.254325253278 1740.99797104817 197 198 203
328.884214879058 400.260910399528 1740.43711865465 186 187 191
320.537916165738 399.587724442027 1734.38329877894 181 182 186
311.5767725724 398.869069898727 1729.11857105011 197 198 200
303.843953053517 398.240689260971 1722.27466565332 149 151 150
286.956476010906 396.938370410234 1727.31766736367 61 61 59
249.466303436647 394.120690731838 1759.41214443851 73 74 69
217.033243597433 391.676249094165 1785.2933445187 58 59 53
177.537212835129 388.713699627878 1820.87343938567 13 14 6
28.0202644571901 377.327017980235 1908.81269580913 21 26 20
10.9952135879987 376.020334084427 1916.22631294223 20 25 19
47.1282171788907 378.608217014935 1849.79848633754 29 34 28
19.5825652032129 376.530299311155 1871.81372046722 27 32 26
19.9767245884259 376.498506782641 1854.80760326503 24 29 23
15.1183609656447 376.08171766128 1845.10808305018 26 31 25
21.1536222907482 376.461288154205 1819.84186046603 27 32 26
-16.120550950957 373.611485206344 1839.74150763293 25 28 21
-23.8417801738775 372.984650229799 1834.14104874731 24 27 20
-41.7439883538691 371.614318666264 1843.38854669676 24 27 20
-38.719941524445 371.771626644057 1822.11407675877 27 30 23
-37.4635801688183 371.799103811707 1803.26321511954 18 21 14
-54.7238520886446 370.475718612111 1811.74126752697 22 25 18
-66.8975062566155 369.523486558637 1812.79238456652 21 24 17
-73.4899982308015 368.977946750945 1805.54050991861 25 28 21
-82.8525077473583 368.230465318418 1802.45504518801 25 28 21
-103.621652412589 365.958114573186 1637.93721129727 121 123 118
-113.158193370176 365.194309195966 1634.72550477705 122 124 119
-124.251034423329 364.317896352552 1634.09014261305 107 107 107
-135.837927910451 363.405851047249 1634.33207639386 101 101 101
-146.873675111682 362.53374978754 1633.73812462059 120 120 120
-153.230356410414 361.999641850269 1625.42221543924 129 129 129
-161.657822027178 361.315782360923 1620.54453850869 137 137 135
-170.079911165143 360.632209066782 1615.670760552 142 143 138
359.866096863453 392.247280894986 1735.68308829643 183 189 187
345.259632060915 391.13996299684 1737.44019118327 202 203 205
333.17298719128 390.207456667959 1736.08440977634 120 121 125
321.729339764766 389.319567623733 1733.95964582729 118 119 123
311.536467876334 388.518259937037 1730.27196105192 93 94 96
300.743975873278 387.6754457423 1727.3847197265 84 86 85
292.409525288102 387.002487753577 1721.33948996644 68 68 66
254.286404213095 384.272749134581 1754.21031675627 71 72 67
206.688792504745 380.891689292411 1799.97193694927 61 62 56
125.015270565758 374.689629913306 1809.90070058747 27 32 26
72.054537455065 370.858430564653 1849.30183184046 19 24 18
60.7201849302617 369.984045410239 1848.49169760422 21 26 20
49.9959359853621 369.151608193139 1846.88901631868 27 32 26
13.5579187170043 366.461101554856 1864.92524992691 27 32 26
32.955531025423 367.689989226362 1820.94207888547 27 32 26
12.1646452503552 366.069556856409 1816.97832737209 27 30 23
-3.04740393026703 364.930752877588 1822.00167410086 26 29 22
-28.9935504393974 363.060449689685 1842.70740222842 25 28 21
-40.0871919298187 362.203996538393 1842.07185538716 24 27 20
-37.0648483230127 362.308995249542 1820.79588579 24 27 20
-34.6877592571164 362.368780196813 1800.28696501829 24 27 20
-40.2180540785104 361.889739994811 1791.33506885304 24 27 20
-55.2331048569195 360.765879438699 1796.50129961911 20 23 16
-67.9713655838508 359.797202064926 1798.3783691222 16 19 12
-119.342377877623 356.208351989971 1858.69520892085 14 17 10
-70.3212318099515 359.322277918942 1749.73756972801 19 22 13
-102.023011147632 356.18913357333 1636.57625091683 103 105 100
-111.038745652146 355.46880947516 1632.50727172106 93 95 90
-122.13942115441 354.608605132304 1631.86660677398 99 99 99
-133.212531244509 353.750504049245 1631.24564075885 106 106 106
-144.258280268796 352.894450644587 1630.64481421316 138 138 138
-150.623414833263 352.351791228443 1622.32243928714 135 135 135
-155.971302084443 351.876764907332 1612.26775796421 129 129 127
-159.289912511233 351.536725654859 1598.74409098346 144 145 140
369.174629913216 382.443068408392 1725.08969157216 0 2 0
352.671281934659 381.239459142836 1729.17661999307 197 199 198
336.225067700935 380.040314052293 1733.30498849684 193 194 196
321.686818462697 378.965436964361 1735.11170662113 171 173 172
309.036683750944 378.013264577534 1734.58237641892 179 181 180
299.479787175204 377.261322504167 1730.12064266044 111 113 112
288.100271455307 376.39164841753 1728.04275589354 72 73 68
259.716432563719 374.425102667423 1748.21589793177 44 45 40
210.27345448012 371.103412804635 1796.34547774255 28 29 23
150.869910212404 367.145083784414 1858.2483009361 33 34 28
106.756215074542 363.786142235422 1852.18986427195 30 33 26
135.042209121088 365.466532448878 1797.36066707245 31 34 27
104.0240395379 363.345298952167 1823.03415177825 41 44 37
81.4124143948978 361.764512522791 1837.51276670735 29 32 25
67.114328435586 360.716658211279 1840.72875782277 30 33 26
15.8241955313367 357.042392100128 1862.8150103695 32 35 28
2.3317680650039 356.049131560667 1865.3802804191 30 33 26
9.00203589015058 356.338116865371 1839.3388921375 28 31 24
-25.9789993588979 353.570201186425 1822.61221847304 28 31 24
-30.3355597305186 353.15563917168 1812.0414407955 27 30 23
-24.0498338754174 353.412449175442 1785.72112685904 24 27 20
-26.8231201699285 353.095714263878 1772.59289502066 26 29 22
-30.1930863150262 352.740481657881 1760.26725333262 25 28 21
-35.8001635979928 351.805202044696 1698.14668724592 18 21 12
-80.8723516542247 348.833442723408 1749.446518492 19 22 13
-135.451873825043 345.128601825043 1798.79100813296 18 21 12
-111.022185831289 345.596105780823 1633.70430572723 119 121 116
-119.502556187058 344.914801084446 1628.78828996287 142 142 142
-129.542610690119 344.137169593556 1626.44683680225 143 143 143
-138.525067763734 343.424952731262 1622.40172771404 119 119 119
-146.463520749506 342.77709240598 1616.64369218941 121 121 121
-150.796333228479 342.350805539338 1604.85473937114 132 132 130
-156.697428747553 341.827492381566 1595.63381761562 142 143 138
352.006313586182 370.789833011843 1731.11171408808 118 120 119
336.181668469184 369.663787597475 1734.45600494458 180 182 181
321.026959353478 368.579075232311 1737.05082495937 186 188 187
308.994887082588 367.68323661679 1735.7347901231 166 168 167
298.827011622524 366.899912986194 1732.06531688489 77 79 76
287.451071581119 366.044127755324 1729.99009255343 135 136 131
224.161908411577 361.904509595395 1779.19405295194 26 27 21
77.4635607907359 352.63134730279 1924.7680496006 30 33 26
142.990876357091 356.203188309748 1804.31123602672 26 29 22
95.8794742408187 353.230750392597 1851.66242630905 29 32 25
102.795027577689 353.471901880685 1825.79860844184 36 39 32
101.951971751152 353.25052582473 1810.36501498666 30 33 26
79.3720165056691 351.740932827548 1824.86665423209 31 34 27
52.2322613718713 349.964040661339 1845.9426197692 32 35 28
32.2182011640622 348.610904445486 1857.36497705399 30 33 26
5.92424268633662 346.889457579188 1877.81902837244 31 34 27
5.74511804866029 346.708345613463 1861.63160564439 29 32 25
13.5577947396368 346.995569540823 1833.94829174972 25 28 21
13.2325371737267 346.802305523162 1817.65487259083 25 28 21
4.86255166812155 346.136111779614 1812.81895370003 25 28 21
1.04358481297817 345.736195062266 1801.40263211049 25 28 21
-22.0531170799019 344.209020153146 1818.0002438399 25 28 21
-20.2194539185001 344.13891655516 1798.33176075084 24 27 20
-24.0774901831513 343.735386701314 1786.88709861133 27 30 23
-22.9313402353539 343.622055621356 1767.95533467198 27 30 23
-30.771173626706 342.985134433934 1762.26884600487 24 27 20
-33.0606462159233 342.669871264976 1748.25631187202 22 25 18
-50.3189838318185 341.486995923413 1756.73647820779 20 23 16
-42.1758662561709 341.773660296437 1726.82263186972 17 20 13
-99.5568315722406 337.910370627042 1761.78424329161 17 20 11
-101.887425225006 337.590899549644 1747.74158383132 22 25 16
-133.168811747013 334.666062714845 1689.23180622553 149 151 146
-114.1627236877 335.549425496644 1640.02261975487 125 127 122
-118.436222639389 335.1096770157 1628.27659639261 102 102 102
-124.826836597834 334.549457432424 1619.93566196443 127 127 127
-133.827595849596 333.841638077807 1615.87760198795 121 121 121
-142.818434199319 333.134477644936 1611.82644274564 125 125 125
-149.739224095935 332.543709441881 1604.3363488368 133 133 131
-157.693594542349 331.89465670847 1598.56676836546 146 147 142
353.827124806035 360.489941908404 1729.90941476198 1 1 0
334.898835503208 359.222974838012 1737.17857154016 208 207 205
320.366185919883 358.203179635594 1738.98962797442 226 222 221
308.952702323115 357.358240504675 1736.88694797906 174 169 166
301.850487089481 356.753663515259 1729.26526502738 121 117 114
289.854240276699 355.876753439807 1727.97529670703 110 109 105
266.3250343415 354.360564084942 1741.78877045762 21 20 16
130.812161082495 346.244577231518 1870.77471805665 50 51 43
92.2678090791962 343.311393910619 1857.63985501894 37 38 32
82.6646608310582 342.580413705807 1854.3800297183 33 34 28
83.666372660077 342.428827213406 1836.57840236218 33 34 28
72.2911934923798 341.600624928516 1835.73890594656 32 33 27
60.9426311461099 340.774451947394 1834.91871491164 37 38 32
25.7684766707698 338.654842018737 1867.46032768734 35 36 30
7.60961708332841 337.46308683064 1876.52297255589 35 36 30
10.891900652235 337.433428791329 1855.43475692166 35 36 30
9.48906208888989 337.14837201938 1840.83007908803 35 37 32
-3.99305272976913 336.210806677692 1843.40310710316 34 36 31
-14.0065657205446 335.460915211729 1841.0807404829 32 34 29
-21.1597868520097 334.864937997819 1834.6568679791 30 32 27
-26.6185997236981 334.359486714543 1825.75665682736 29 31 26
-30.9667924966246 333.912792855692 1815.19148776954 28 30 25
-30.2851978587908 333.733633236238 1797.15795544359 24 26 21
-54.8508584344614 332.208114361852 1816.39580595045 26 28 23
-41.9397651311437 332.677602022014 1780.05811654235 24 26 21
-63.6112985823642 331.308611477892 1795.21900231226 24 26 21
-51.4429786372614 331.733155229142 1759.57766962466 23 25 20
-57.0565983649203 331.214199495057 1750.56516727658 21 24 17
-40.1993252962034 331.878449536023 1707.20825231828 20 23 12
-66.696705496655 330.257844204769 1729.98571740637 33 36 27
-100.115557730675 328.278461787447 1763.80049651679 20 23 14
-84.0178585744269 328.896257527703 1721.12775154825 25 28 19
-98.3334946946526 327.920326270409 1725.56642111112 25 28 19
-108.883748463587 325.974164342951 1632.68474787442 153 154 149
-111.079828164016 325.621605090448 1617.50469069854 85 83 84
-118.020774246959 325.024451487804 1609.99965831974 91 89 90
-127.048505550073 324.320301990116 1605.92206431618 103 102 100
-137.101385574649 323.564099741038 1603.57112772763 114 113 111
-146.620366141477 322.835494610823 1600.37232940562 137 137 135
-158.177223053276 322.003890199386 1600.63615031286 161 163 158
353.783003341976 350.082424584399 1731.05975067324 11 5 5
334.854248065523 348.861975132935 1738.32880527811 229 217 217
320.322196270773 347.869531281601 1740.14043360204 145 129 129
310.755495608017 347.13290628442 1735.6719647127 37 18 14
303.036125521938 346.490933158129 1728.83774024813 49 31 29
291.036791958907 345.630117532514 1727.5453213212 38 30 28
159.144033228324 338.185948549775 1850.51312473047 35 36 28
130.14779926439 336.47793467812 1872.71400576196 46 46 36
112.100641492413 335.327619964347 1880.62250445832 44 45 37
120.416237275934 335.508272634605 1853.30322754223 40 43 36
101.231443949621 334.302127507396 1862.85711489028 31 34 27
84.5029586738306 333.221696844225 1869.25153366207 40 43 36
82.6105858283612 332.885886734161 1855.52676153368 37 40 33
67.7251598796986 331.899660261756 1859.55262061974 35 38 31
65.2064349833994 331.531153094338 1846.60866353485 34 37 30
52.7175130266229 330.665676802635 1847.43167566118 38 41 34
18.7331335130536 328.735275243785 1878.36666681702 36 39 32
2.33937420842478 327.681232145912 1885.00416372395 31 34 27
1.02685745187348 327.373378674354 1870.46455214882 32 35 28
1.9665305743497 327.174709599351 1852.61800760482 30 33 26
-13.7782939108264 326.15459268639 1858.49077194792 29 32 25
-19.7568476179779 325.614670683368 1850.44865160094 25 28 21
-24.0426604278412 325.156884531151 1839.92864692494 24 27 20
-36.8507034306544 324.282893752414 1841.75560937329 24 27 20
-34.9501376738728 324.124878125887 1822.13547458867 25 28 21
-33.1246719233953 323.960651605704 1802.46086674736 21 24 17
-56.0024762555928 322.599722606407 1819.21770958129 21 24 17
-67.6098400647889 321.785960021165 1819.44500733311 22 25 18
-78.0752522143426 321.028014461554 1818.0303396793 22 25 18
-87.9648577485066 320.298309862038 1815.79789846911 21 24 17
-56.5215833054911 321.545191280991 1750.90403567814 21 24 17
-78.6112905842731 320.229270882539 1766.99737823316 23 24 16
-79.4505547931677 319.663162231328 1733.03776544087 17 22 15
-75.35209376957 319.590448455853 1708.83559181122 17 22 15
-95.1781525121656 316.738867177224 1611.69547120153 154 153 149
-104.243418270075 316.037775416828 1607.59038868169 106 102 101
-114.865235264927 315.26538194197 1606.06226663613 98 94 93
-125.463893401162 314.494757150858 1604.55064742313 127 123 120
-134.486695805518 313.796779695081 1600.47665774608 130 126 123
-143.499696056334 313.099514175311 1596.40977746541 128 127 123
-154.042368100383 312.333118694988 1594.93876518773 157 162 155
340.387085318461 338.768544483475 1732.40766987561 152 132 131
323.365494253391 337.685919752043 1737.35456226297 145 121 119
315.020245585785 337.011459688159 1731.30149713421 85 56 52
306.674569385273 336.336860437666 1725.24812137271 46 20 19
295.273861502707 335.519858825266 1723.15513875128 74 63 61
139.72101973568 327.738820381453 1893.19585859971 27 29 24
137.935444827653 327.384747506622 1879.54841407085 26 27 19
200.522824016205 329.994310395508 1780.42296656389 34 34 24
130.031745815141 326.472575331306 1857.75757956381 31 31 21
112.590351705568 325.396887834954 1864.87055063906 34 37 30
96.4105938952868 324.38121383341 1870.42804503707 32 35 28
90.969638659971 323.856702153269 1861.54068272237 41 44 37
73.1011108885071 322.767130046544 1869.57898179154 33 36 29
64.1387097210528 322.083350863786 1865.54885017719 29 32 25
49.9067069794905 321.161905935427 1868.81338671589 23 26 19
32.8020067375863 320.112844683284 1876.17056922839 29 32 25
11.6938705535148 318.88660554888 1889.27052350639 31 34 27
-8.73234376333576 317.694466036279 1901.62995359098 29 32 25
-33.6818437660433 316.304103989332 1920.59023530161 28 31 24
-2.68320439351277 317.40531826428 1860.31404469711 26 29 22
-8.66601184114457 316.856971309836 1852.26879804884 26 29 22
-26.0814425863134 315.803134278325 1860.63573782714 25 28 21
-25.2209760168187 315.556478939374 1842.73123722561 25 28 21
-21.027681798204 315.453492685977 1819.83298797303 26 29 22
-27.0849821389494 314.898670365785 1811.73370703778 28 31 24
-31.4689533236872 314.416189086302 1801.14242017535 23 26 19
-35.8792057763224 313.931466711368 1790.53207010935 24 27 20
-59.8340510075386 312.599717661707 1808.97865854801 24 27 20
-80.8825697534805 311.398137495182 1823.35699231095 23 26 19
-23.8187020769018 313.557583219844 1720.2251534992 22 25 18
-67.0066360205497 311.403905484822 1767.95432903714 22 25 18
-85.2144686221577 310.326940516916 1778.21709038687 21 22 16
-88.5799311128534 309.884137329164 1765.89426993176 20 23 16
-57.1410369663292 310.913956329741 1699.76109567725 16 21 14
-52.043685843308 310.819756378917 1673.81256223091 16 21 14
-61.6302555336548 310.104061935047 1670.56483250602 21 26 19
-66.3635686371751 309.592028334451 1659.72044502002 19 24 17
-100.025233190084 306.280696121909 1601.95297417807 100 96 95
-112.752189875443 305.436088908613 1603.83886666196 96 90 90
-122.838374635907 304.700063017745 1601.46388895683 138 130 127
-130.317146992209 304.069911378513 1594.80413879936 147 142 138
-139.861589284855 303.356539399048 1591.58695988784 147 144 139
-151.958403741964 302.541572809743 1592.69447495027 159 162 153
341.582861216895 328.445932767509 1731.98689617389 153 129 127
327.645330018544 327.532507583463 1732.99486878178 122 94 91
321.133198236348 326.934969014246 1724.56565446182 86 55 52
313.993949842329 326.31035000255 1716.91702386505 70 42 38
301.345967432317 325.453479065908 1716.38973663294 88 74 71
159.670497349222 318.87950259954 1868.08866956897 32 34 29
154.188931470546 318.341133817072 1859.17179754327 26 29 20
172.174652568801 318.775890453634 1819.10182947292 28 30 19
108.944387497921 315.534302395528 1870.82340279503 21 24 17
86.8226463168393 314.313663152853 1884.42363817305 23 26 19
79.6399872822082 313.708366280346 1877.97867277612 28 31 24
59.9613004993289 312.281160679233 1872.35178904393 24 27 20
46.9185196849984 311.438756531361 1874.00874503567 21 24 17
33.3312701558253 310.57594204805 1876.50593728331 17 20 13
20.3705953753319 309.739987769215 1878.22244636106 19 22 15
-5.8901141101948 308.373695970219 1898.70269399097 27 30 23
5.54715602960743 308.514836193781 1866.23537656802 28 31 24
-3.3065313778422 307.844775076393 1862.28382888605 28 31 24
-24.1915390373093 306.699581822096 1875.54594430669 28 31 24
-28.9828203696354 306.191905148339 1865.89459311242 29 32 25
-25.2623700554326 306.016800077832 1843.88824055571 28 31 24
-13.6966383790058 306.1440490874 1810.2786461742 27 30 23
-17.5223287745099 305.666712334101 1798.85705839903 26 29 22
-47.8046716599918 304.164240652296 1826.30213036109 23 26 19
-56.0679220287073 303.517577377923 1821.54397945156 24 27 20
-53.169878068364 303.299142652815 1800.17626413387 24 27 20
-33.6876770094048 303.710287727504 1753.78019799705 23 26 19
-38.3648896318691 302.852697656467 1725.68274344147 22 25 18
-75.9019047320812 301.095154833527 1765.15914742396 21 22 16
-70.5539878025188 300.955695028624 1739.39231970506 20 23 16
-76.2022102615418 300.40122634858 1730.35455321848 16 21 14
-36.8568001558907 301.516559388736 1651.42639243852 16 21 14
-96.716306631184 296.818307684616 1616.65500651676 152 151 146
-97.3783120307172 296.428888163441 1598.88144147122 69 65 62
-110.115612286606 295.608572747843 1600.75995872283 139 131 129
-121.771768025477 294.828152548788 1600.95205504932 152 141 139
-128.734673927409 294.213634288115 1593.43101557367 159 145 142
-138.28409606586 293.508514270829 1590.21026846347 146 135 131
-150.900269332479 292.697705305155 1592.17664140662 148 143 137
340.298346428963 318.022787418638 1734.70833306977 145 120 115
329.455267692936 317.25186179932 1731.78478447185 107 78 72
324.170456558437 316.692222182239 1721.77510531197 63 30 25
317.636119457727 316.084356304963 1713.32974157288 60 31 27
313.532830450041 315.567167921919 1701.70671478312 89 75 72
188.124462298501 310.161072458302 1831.85558780946 27 29 24
187.982306322573 309.805227874644 1815.69437387513 24 29 22
157.665456352299 308.332049772896 1839.40917492815 27 29 18
174.321927383596 308.593654200042 1800.84480132498 24 26 15
92.1214897303559 304.881818191689 1878.33622670462 22 25 18
80.173509372393 304.100022717092 1878.31676617083 31 34 27
77.7164419397738 303.662316141362 1865.41715538855 25 28 21
62.2607134625595 302.755453445393 1870.26502862317 26 29 22
51.5570429134629 302.021139697479 1868.67776207063 23 26 19
67.4882786596531 301.878256744181 1813.528947036 21 24 17
45.68631113009 300.748937633555 1827.36175018981 27 30 23
27.4586899904299 299.749835347299 1836.37522968961 26 29 22
-13.3447400717965 297.611491938354 1861.13085568132 28 31 24
-12.4623423541761 297.284308693578 1843.24184554738 27 30 23
-28.7182302651754 296.36499239397 1849.97997078767 26 29 22
-14.864536022305 296.477929121294 1813.08845580977 25 28 21
-15.2948193207436 296.097242791456 1796.71795192504 23 26 19
-34.9043421149584 295.065273215536 1808.43519378655 23 26 19
-34.2267977782988 294.348432188691 1773.10401665461 24 27 20
-23.1466715267832 294.342409529779 1739.14172148998 24 27 20
1.31895978365337 294.384063335994 1666.71343830807 23 26 19
-57.249603341714 292.080333187118 1737.875783379 23 24 18
-54.1587958810295 291.798374492247 1715.41244804586 21 24 17
-30.3407040900636 291.786812376164 1642.51448009797 16 21 14
-97.0158144387585 288.877580504684 1710.26722235723 19 24 17
-91.0568320448672 286.666598267867 1589.82828294486 10 7 2
-107.999931286973 285.743120446815 1598.53828620488 39 31 28
-120.184163028825 284.966111451219 1599.58262287472 76 61 58
-128.187475590255 284.315311849813 1593.77755437151 114 96 92
-138.253385274367 283.603570528614 1591.41769198508 122 104 100
340.873469420305 307.678626170872 1735.0728567839 117 89 78
332.501913208707 307.001527080106 1729.00070738787 87 54 45
328.440451645209 306.468429934206 1717.40792162403 64 30 21
323.733954805748 305.91230921075 1706.58245603315 62 29 22
306.161674339681 304.929112069078 1712.365976648 55 40 35
217.199233818259 301.210127943661 1794.83632762122 41 43 38
168.578053668241 299.234846809646 1842.33342948853 45 48 39
143.751155462972 298.044470373567 1858.91323308971 23 24 16
130.453323934719 297.23135383695 1860.3854457234 22 24 13
112.410850853984 296.26817033373 1868.29828830889 18 21 14
106.360334145 295.690459317865 1860.20380903732 19 22 15
83.0814455960001 294.566600306289 1875.43606153996 32 35 28
80.6168140330694 294.103461130422 1862.53083853705 25 28 21
68.0960023034594 293.323645916915 1863.33146145377 17 20 13
55.0238685424782 292.528381117429 1864.96708316113 15 18 11
59.5337798584845 292.278496773682 1842.2976123316 19 22 15
66.2807375446288 292.09257413466 1816.30941266451 24 27 20
46.2226396501619 291.08273176411 1827.70158494145 28 31 24
26.8359961847935 290.09791963716 1838.34530454048 26 29 22
6.96238672904359 289.102889307624 1849.8709969727 26 29 22
9.55432527649513 288.785171996958 1829.51620752895 25 28 21
2.35242338397557 288.172010375457 1823.05695826015 25 28 21
-17.3765651324516 287.188500943877 1834.68784233029 25 28 21
-29.6410691475832 286.428763303381 1835.67407539895 25 28 21
-17.5845567448283 286.379439748861 1801.18462191271 27 30 23
-18.6217168006977 285.943146581376 1785.60893508474 26 29 22
-27.5566127863356 285.277147686984 1781.59883262434 26 29 22
-38.714595945559 284.548185202057 1780.91699442259 25 28 21
-55.4047195436984 283.663977645494 1788.57554740812 23 26 19
-31.9960245565212 283.066787863613 1700.55621520214 21 22 16
-55.2597450019709 282.001380056697 1718.27012718904 19 22 15
-90.9293898262951 280.604803782996 1755.3966517383 18 23 16
-112.624244996781 278.755304995206 1735.9551102705 14 19 12
-80.5327034097893 276.949556159266 1573.94076683759 32 29 20
-100.13385140901 276.004406226532 1586.89955615453 22 13 6
-119.636520174764 275.067186511719 1599.92948086056 86 65 62
-129.194630068371 274.378744405609 1596.70252028815 117 92 88
-136.674453346994 273.741386913975 1590.04197179559 127 102 98
346.41146242003 297.479885311452 1729.1549254753 111 81 70
339.258521784261 296.837198143524 1721.49598308449 67 33 23
333.32804523649 296.229383186791 1712.25333437597 63 26 17
327.379360738127 295.620037173172 1702.99747858038 68 35 26
282.88700664463 293.907371891938 1743.60780830599 58 40 36
216.112017872693 291.575365425847 1813.76143806063 35 34 29
207.435176825884 290.905062735126 1808.70305222676 38 40 35
183.035896678462 289.79432750402 1824.35850653012 32 37 30
135.855919239464 288.055939004187 1870.4309046949 23 24 16
124.389016812999 287.319678747018 1869.52538183602 14 17 10
127.903741281861 286.995782219281 1848.60417719475 19 22 15
114.050323098847 286.194277246262 1850.90872864965 19 22 15
95.4909000565274 285.267876199903 1859.68234059235 29 32 25
71.6873926740442 284.205032651748 1875.76963139123 22 25 18
65.0942658901843 283.606916245461 1868.51673576838 20 23 16
54.3823079964927 282.899431955143 1866.92359743937 18 21 14
43.6925273913102 282.193691996684 1865.34654473547 18 21 14
14.9621996920932 281.019943575366 1888.97763520499 21 24 17
37.4716732482034 281.176748265234 1841.06970533475 30 33 26
21.0086938855509 280.323632783407 1847.65774640536 34 37 30
8.64437279041663 279.5781633915 1848.57198669103 30 33 26
0.332434402791737 278.936574270304 1843.77827202211 29 32 25
-24.5508195029278 277.881917386166 1862.78827735504 27 30 23
-27.6649663089363 277.372845039597 1850.64730533675 26 29 22
-30.8142250616323 276.86086933354 1838.48057073587 27 30 23
-24.9599629259989 276.565416438676 1813.08001332704 29 32 25
-28.7779146883644 276.031210646819 1801.66374739928 26 29 22
-50.0017685883187 275.080449941622 1815.91624741725 25 28 21
-56.0454059766284 274.494028468121 1807.82671099186 24 27 20
-55.9853704757338 274.04945463986 1790.57628943672 21 24 17
-73.7097573424257 273.189734576895 1799.95528019899 19 22 15
-49.5820933373454 272.834887645928 1728.51502557964 19 20 14
-54.7198229242221 272.257466020777 1718.61217338015 17 20 13
-67.5086695225609 271.508901697713 1720.4536870215 17 22 15
-90.2621106586419 270.080149449579 1720.00864913534 15 20 13
-123.934777418004 268.889698392913 1754.87846540175 14 19 12
-74.7277226877297 267.033940181873 1565.74744697464 40 36 27
-95.3999696181829 266.127036847466 1580.4000408029 22 11 5
-115.965110258494 265.228783335537 1595.13061655673 71 47 43
-129.68403275493 264.468372589511 1598.76791158468 111 83 80
-135.610805826652 263.858311075517 1589.52793622573 122 93 89
356.295624840345 287.345384259148 1717.74181068336 97 65 54
349.109555679106 286.69430319927 1710.05910467774 88 54 44
339.449878736367 285.981990383595 1705.52306396779 69 31 22
328.570650264846 285.240457636568 1702.57345853584 64 31 22
202.523642723158 280.808103934131 1816.20764634533 33 35 30
143.654454111447 278.962919952755 1877.27350222465 27 32 25
115.297548959689 277.849336014065 1898.70552615462 26 27 19
121.924635656262 277.55121854233 1873.8651922663 17 20 13
122.461597781038 277.107719876221 1856.96021596781 14 17 10
127.109078096835 276.753556971711 1834.38994365063 16 19 12
113.845622015422 275.992465335339 1835.88733929572 28 31 24
80.5041488104168 274.788091152526 1864.8216966913 25 28 21
72.7012042962851 274.156044039723 1859.16197424669 21 24 17
55.5019523394642 273.319598490817 1866.45169114367 18 21 14
42.4691363703746 272.577009153869 1868.11608196905 18 21 14
31.8074216991224 271.887261522622 1866.55945586391 21 24 17
33.3608320092802 271.456167134914 1847.9213141188 25 28 21
22.1186914635565 270.754117104202 1847.17889922547 24 27 20
3.41304753987171 269.899840412861 1857.08191448404 22 25 18
-21.5215831434277 268.923736748904 1876.05507358202 22 25 18
-35.4599210332176 268.177159121251 1879.53337977623 23 26 19
-29.4162443751484 267.831190826843 1854.26987712657 23 26 19
-34.824746733672 267.253490665309 1845.40577118469 23 26 19
-60.5934940351529 266.279264460826 1866.24434411332 24 27 20
-61.4542261374065 265.791483274055 1850.79658735413 28 31 24
-75.2625268651064 265.055238471371 1854.36921260007 26 29 22
-64.4509668406403 264.782065934278 1821.44620598538 27 30 23
-42.6612324742726 264.70211544675 1771.77999149864 23 26 19
-57.6695194541426 263.938141345201 1776.95294838246 25 28 21
-70.4126206006608 263.218421991138 1778.82776998354 24 25 19
-68.8267022359947 262.754543269679 1758.97769685557 24 25 19
-71.1471422508292 262.217802843228 1744.94159194904 24 27 20
-71.8759639172253 261.705536467399 1728.35400475138 25 30 23
-75.9193074970486 261.133548266078 1716.7741561097 24 29 22
-98.9171473975707 260.244184722551 1734.68170227669 18 23 16
-127.713347900789 259.26792453546 1761.97173930327 16 21 14
-79.9480236509504 256.900911371626 1575.49809996331 23 19 8
-91.1863941330662 256.198138044294 1574.75841440591 25 15 6
-106.563179425969 255.438533418775 1580.89929775993 60 41 35
-121.358544986038 254.691194085698 1586.22669018331 73 44 40
-128.866972581852 254.046833169863 1579.54537033705 113 82 79
355.632313379669 276.912179168574 1719.67848354453 87 57 46
349.069518939725 276.268303082714 1711.21230807411 91 57 47
338.79538887479 275.549083601217 1707.4661333054 67 30 21
324.849836135638 274.757748517232 1708.4689093376 67 34 25
179.42409710554 270.901774380606 1863.63873159693 38 37 32
186.068938595848 270.539014851579 1838.81094111273 35 37 32
156.9023396051 269.490923892329 1860.89136906314 33 38 31
132.714279731868 268.545668866665 1876.70048516377 35 36 28
112.250017727928 267.676721165961 1887.79893406905 18 21 14
116.417744547042 267.26339859549 1866.1156151775 13 16 9
143.751964805547 267.262100978252 1813.05830650221 15 18 11
122.704248110826 266.383351858688 1824.96878363369 27 30 23
59.1406241598031 264.764345894336 1894.98364403362 25 28 21
70.8777278628361 264.475883546395 1862.73150633769 21 24 17
60.1464336690643 263.79433922604 1861.12448210316 16 19 12
41.8298628584703 262.986494377532 1870.07444884485 17 20 13
29.4229816598142 262.281812680351 1870.9577485239 19 22 15
62.3509550266497 262.320357537067 1808.36938631118 24 27 20
27.8574608853686 261.253492834639 1840.17472002196 25 28 21
-7.00807822356642 260.194013002447 1872.94542443088 24 27 20
-17.5525884971446 259.527434100215 1871.47387964906 24 27 20
-9.20231497186275 259.152142921432 1842.94159429662 24 27 20
-75.72179833113 257.142973960085 1905.87156636105 25 28 21
-51.5931732637802 256.99424686927 1854.19511092617 25 28 21
-72.7537586364699 256.181071126632 1868.49417254473 26 29 22
-70.8149697143832 255.699362668638 1848.90010698036 24 27 20
-70.0683027126501 255.196160102636 1830.91181118128 24 27 20
-72.7260866285933 254.642474381175 1817.86640375652 19 22 15
-46.6078070007478 254.466970084346 1761.45638364201 21 24 17
-39.5251179568958 254.026273402 1733.24019906184 17 20 13
-76.6339955936095 252.48382447478 1754.50133117544 21 24 17
-88.7871934582554 251.799223474266 1755.56863302987 22 27 20
-69.4071696005232 251.490801784537 1707.85981508259 21 26 19
-97.3011482525665 250.620140686572 1733.33405912824 17 22 15
-118.567076487152 249.835721441217 1748.79223222163 16 21 14
-88.0166082537826 246.221151420681 1570.8302468092 39 26 18
-97.6767098158777 245.550411984252 1567.52914549017 34 15 9
-115.103031946353 244.813905959996 1577.12512832116 81 52 48
-127.283809840304 244.126719674613 1578.17242372879 112 83 79
353.726597787347 266.469857569724 1723.18453821793 112 83 75
348.410308942462 265.83787975284 1713.1519682638 69 36 27
338.756653676422 265.13666582181 1708.62034901384 74 40 31
325.426092901891 264.379435643305 1708.83408196464 76 46 38
182.363969543171 260.610372744213 1844.72068480727 34 36 31
175.604302594319 259.982281968739 1837.34690883858 37 42 35
156.773350290959 259.182460357961 1845.92432457503 43 44 36
129.609869170129 258.271914155601 1865.75214774469 18 21 14
132.521119809257 257.782285585726 1845.62796368623 12 15 8
122.82706169137 257.117962321136 1842.30257351144 11 14 7
122.059614246233 256.572136632449 1826.92185230712 25 28 21
88.0864288204899 255.593578590231 1856.63444846496 24 27 20
65.5142698339488 254.772744663276 1871.14552256237 22 25 18
42.4654774030437 253.953590592479 1886.54612004211 19 22 15
33.5804240307311 253.314421771124 1882.57228545542 19 22 15
25.287495441964 252.682891750287 1877.7924023467 17 20 13
38.4928292014184 252.301505048481 1842.89874090747 26 29 22
0.61330534179449 251.328877752219 1879.66075547425 28 31 24
-16.2822018232547 250.605040625187 1887.17123383687 25 28 21
-3.81934613434032 250.203764727636 1852.97427008554 25 28 21
-6.38463868619454 249.633067449051 1839.99553098056 25 28 21
-6.71040407690349 249.082546552901 1823.69993411211 25 28 21
-16.74295554536 248.430919558597 1821.36455829902 25 28 21
-72.5533918212253 247.335808740333 1885.88631044423 25 28 21
-62.6593207830446 246.887598073377 1854.76767761598 24 27 20
-57.3899658296098 246.387188672964 1830.17710699233 23 26 19
-58.9270833435343 245.819082456912 1815.47365378053 24 27 20
-56.6033890163349 244.717004894388 1777.62845024369 23 26 19
-71.5575509453559 244.029348946064 1782.84103009846 22 23 17
-75.456393660837 243.431088529753 1771.36580014319 23 24 18
-71.1710652093118 242.891168607494 1747.29672420875 22 25 18
-86.0726499541438 242.207730923574 1752.54743975273 17 22 15
-96.0271050111134 241.562259689676 1750.2684143981 16 21 14
-101.094366953572 240.94990786631 1740.41646876956 14 19 12
-71.7015135529673 240.549331595302 1676.49823504424 17 22 15
-86.9379580188716 236.208397781404 1570.32613570665 10 0 0
-90.8693797807272 235.566977844991 1557.59203326471 101 84 77
-107.287305181729 234.881463302625 1565.44891495164 66 42 38
-121.566792363724 234.207923585635 1569.91532132407 93 69 65
346.230509897584 255.984192194897 1733.75400625756 123 96 89
342.80014892213 255.361829158661 1721.38322999981 58 28 20
336.251109429821 254.702123587559 1712.92694560501 71 36 30
329.073988287328 254.034593780705 1705.25034841598 60 29 24
304.135917324813 253.177038789152 1720.51620968991 48 35 29
237.843527907962 251.89756777942 1789.78998068663 35 30 24
226.056516247313 251.201083966063 1788.65260528795 30 32 27
205.819258572814 250.422904811513 1798.68074313052 24 29 22
168.176124360543 249.483464901266 1831.9088853335 33 34 26
162.003914696759 248.854272046222 1823.72592747628 20 22 11
139.051298340847 248.07142945232 1837.96139234086 11 14 7
134.703996296691 247.460882625632 1827.39603904375 10 13 6
108.932323225205 246.664967403754 1845.76332094115 24 27 20
101.650525011534 246.032006657656 1839.24634731463 24 27 20
59.5578612828374 245.119646827183 1880.36498639627 22 25 18
43.5820811445722 244.428312920381 1886.07228588538 22 25 18
28.8396127874804 243.750750406194 1890.20304694721 21 24 17
27.5658151725175 243.173873673889 1875.6904355253 17 20 13
51.2290769003911 242.765493534643 1826.14568081583 26 29 22
7.50672130846564 241.893348276329 1871.02356617503 28 31 24
-7.10915325041617 241.226044162011 1875.24644422067 25 28 21
-7.885691381458 240.646374151047 1859.85896155597 25 28 21
-7.57100344847905 240.068985255029 1842.79247024889 24 27 20
-10.7380722418857 239.46790923105 1830.61266793576 24 27 20
-18.4823695819309 238.840519610315 1824.99548367035 24 27 20
-43.1924686052829 238.130580154545 1844.13275873456 24 27 20
-49.179671318835 237.516343303511 1836.08399211891 22 25 18
-41.7134856490748 236.958484001577 1808.14521897531 21 24 17
-42.1910009056659 236.359965393061 1791.73937227271 23 26 19
-83.9188857957895 235.606319735701 1836.8286556024 21 24 17
-64.9412426437876 235.076703828906 1791.2973906374 24 27 20
-76.5485357957463 234.437791676961 1791.52562526207 21 22 16
-69.4239300313346 233.852250324817 1763.33909334037 22 23 17
-42.1500682642282 233.305702337988 1704.0594956059 21 24 17
-42.438377647237 232.679439897007 1686.55563112173 18 23 16
-106.361219401181 231.936373561044 1767.43073677099 17 22 15
-75.6679751134473 231.36540088639 1701.98424780168 19 24 17
-61.9955200856082 230.750484419478 1662.48758867065 13 18 11
-84.8119093697652 226.188822987955 1568.11119825825 140 127 119
-87.7063396041486 225.523661696246 1553.65834511501 158 141 134
-103.099897389149 224.879439683606 1559.78794864427 50 29 24
-121.014146782042 224.246310136597 1570.26548836426 109 90 84
349.289780237179 245.646335548891 1730.978932339 145 124 119
345.851776966446 245.00111913391 1718.60250026144 100 75 70
339.294346059703 244.332275230634 1710.14008646379 77 48 44
330.879624229568 243.650429290736 1704.03662134596 64 39 34
230.868686169303 241.183309920542 1783.44446260226 28 29 24
200.317306777456 240.403369146421 1806.9927596562 29 32 25
186.825044717904 239.722593417322 1808.32469578068 23 24 16
157.140494939626 238.967089397833 1831.26646326834 26 27 19
158.162848822637 238.362604055648 1813.47750575572 11 14 7
