ply
format ascii 1.0
comment KinectMotionCapture
element vertex 759
property float x
property float y
property float z
property uchar red
property uchar green
property uchar blue
end_header
208.291947841644 342.380493879318 1881.99996948242 170 172 169
216.691628098488 347.641706466675 1911.00001335144 176 178 175
260.89134812355 351.152211427689 1930.99999427795 202 204 201
265.440732240677 350.225865840912 1925.99999904633 157 159 156
269.540667533875 348.753869533539 1917.99998283386 176 176 174
273.883014917374 347.645461559296 1911.99994087219 171 169 170
278.630018234253 347.082406282425 1909.00003910065 183 181 182
283.062666654587 346.155554056168 1904.00004386902 190 190 190
287.316143512726 345.046758651733 1898.00000190735 190 190 190
291.53636097908 343.937933444977 1891.99995994568 190 192 191
295.880198478699 343.010812997818 1886.99996471405 183 185 184
300.355672836304 342.26530790329 1883.00001621246 192 192 192
304.808765649796 341.519713401794 1878.99994850159 195 195 195
310.064136981964 341.682761907578 1879.99999523163 196 196 196
314.821302890778 341.300457715988 1878.00002098083 196 196 196
319.566935300827 340.918034315109 1876.00004673004 199 199 199
324.127912521362 340.353697538376 1873.00002574921 195 197 196
329.023540019989 340.152770280838 1871.99997901917 195 197 196
334.269881248474 340.315073728561 1873.00002574921 193 195 194
340.064495801926 341.022282838821 1876.99997425079 192 194 193
346.983313560486 342.819333076477 1886.99996471405 200 202 201
-241.692364215851 329.4637799263 1838.99998664856 209 211 208
-237.087890505791 330.016911029816 1842.00000762939 203 205 202
-231.458440423012 329.136520624161 1837.00001239777 191 193 190
-225.855499505997 328.255742788315 1832.00001716614 193 195 192
-220.399647951126 327.55383849144 1827.99994945526 189 191 188
-215.554162859917 327.747583389282 1828.9999961853 190 190 188
-210.472345352173 327.582687139511 1827.99994945526 189 189 187
-205.732688307762 327.95512676239 1830.00004291534 189 189 187
-200.652375817299 327.789694070816 1828.9999961853 193 193 191
-196.004942059517 328.340858221054 1832.00001716614 194 194 192
-191.34059548378 328.891783952713 1835.00003814697 194 194 192
-186.964049935341 329.980194568634 1840.99996089935 188 188 186
-182.455524802208 330.889135599136 1845.99995613098 186 186 184
-178.015381097794 331.977128982544 1851.99999809265 182 182 180
-173.728913068771 333.423405885696 1860.00001430511 180 180 178
-169.126346707344 334.331661462784 1865.00000953674 177 177 175
-164.40811753273 335.060447454453 1868.99995803833 173 173 171
-159.156173467636 334.713250398636 1866.99998378754 173 173 171
-154.492318630219 335.620731115341 1871.99997901917 174 174 172
-109.822258353233 339.292049407959 1891.99995994568 210 212 209
-104.341603815556 338.223844766617 1886.0000371933 209 209 207
-98.9984720945358 337.513864040375 1881.99996948242 191 191 189
-93.3276116847992 335.548162460327 1871.00005149841 188 188 186
-87.5276848673821 332.864582538605 1855.99994659424 193 193 191
-81.7202553153038 329.821884632111 1838.99998664856 191 191 189
-76.380543410778 328.392893075943 1830.9999704361 176 176 174
-71.2011158466339 327.501505613327 1825.99997520447 176 176 174
-66.0486817359924 326.609790325165 1820.99997997284 180 180 178
-61.0238872468472 326.255798339844 1819.00000572205 183 183 181
-55.9173040091991 325.363248586655 1814.00001049042 190 190 188
-50.8939661085606 324.8291015625 1810.99998950958 192 192 190
-45.8360277116299 323.935836553574 1805.99999427795 190 190 188
-40.8051759004593 323.042243719101 1800.99999904633 193 193 191
-35.8213447034359 322.327613830566 1797.00005054474 193 193 191
-30.8591742068529 321.612566709518 1792.99998283386 192 192 190
-25.9186923503876 320.897161960602 1789.00003433228 192 192 190
-21.0116691887379 320.36080956459 1786.00001335144 191 191 189
-16.1028299480677 319.465339183807 1781.00001811981 190 190 188
-11.2464418634772 319.286942481995 1779.99997138977 189 189 187
-6.38827215880156 318.749487400055 1776.99995040894 189 189 187
-1.54642097186297 318.211674690247 1774.00004863739 189 189 187
3.27724451199174 317.494064569473 1769.99998092651 190 190 188
8.08368809521198 316.955536603928 1766.99995994568 190 190 188
12.8737650811672 316.416621208191 1764.00005817413 191 191 189
17.6574774086475 316.05675816536 1761.99996471405 193 193 191
22.4174987524748 315.517157316208 1758.99994373322 194 194 192
27.1920375525951 315.335988998413 1758.00001621246 195 195 193
31.9428443908691 314.975023269653 1756.00004196167 195 195 193
36.7453955113888 315.15184044838 1756.99996948242 194 194 192
41.5296331048012 315.148949623108 1756.99996948242 195 195 193
46.2873727083206 314.966320991516 1756.00004196167 195 195 193
51.0395094752312 314.783364534378 1754.99999523163 193 193 191
55.8178275823593 314.779430627823 1754.99999523163 193 193 191
60.5959706008434 314.775139093399 1754.99999523163 192 194 191
65.4111504554749 314.949870109558 1756.00004196167 191 193 190
70.1916068792343 314.944863319397 1756.00004196167 190 192 189
75.0145018100739 315.118879079819 1756.99996948242 190 192 189
79.8426046967506 315.292596817017 1758.00001621246 190 192 189
84.6277475357056 315.286606550217 1758.00001621246 190 192 189
89.463472366333 315.459549427032 1758.99994373322 189 191 188
94.3043455481529 315.632224082947 1759.99999046326 188 190 187
99.0940555930138 315.625220537186 1759.99999046326 188 190 187
104.001477360725 315.976470708847 1761.99996471405 189 191 188
108.857728540897 316.1481320858 1763.00001144409 190 192 189
113.78351598978 316.498726606369 1764.99998569489 191 193 190
118.585452437401 316.4903819561 1764.99998569489 192 192 190
123.526819050312 316.840291023254 1766.99995994568 192 192 190
128.406047821045 317.010581493378 1768.00000667572 193 193 191
133.365660905838 317.359894514084 1769.99998092651 193 193 191
138.648003339767 318.426012992859 1776.00002288818 189 189 187
144.043326377869 319.670975208282 1782.99999237061 190 192 189
149.643301963806 321.274191141129 1792.00005531311 190 192 189
155.205503106117 322.697699069977 1799.99995231628 187 189 186
161.16651892662 324.83783364296 1812.00003623962 185 187 184
167.100638151169 326.798319816589 1822.99995422363 184 186 183
172.81086742878 328.220516443253 1830.9999704361 185 187 184
178.272798657417 329.104632139206 1835.99996566772 185 185 183
184.460118412971 331.243097782135 1848.00004959106 183 183 181
190.40447473526 332.843333482742 1856.99999332428 186 188 185
196.186631917953 334.084719419479 1863.9999628067 185 187 184
201.574429869652 334.608823060989 1866.99998378754 172 174 171
208.416804671288 337.462395429611 1883.00001621246 171 173 170
216.139301657677 341.569900512695 1906.00001811981 177 179 176
265.182197093964 344.65229511261 1924.00002479553 173 175 172
269.83904838562 343.918591737747 1919.99995708466 165 165 163
274.330258369446 343.005657196045 1914.99996185303 177 175 176
278.939634561539 342.271715402603 1911.00001335144 192 190 191
283.377796411514 341.358453035355 1906.00001811981 196 196 196
287.636876106262 340.266048908234 1899.99997615814 186 186 186
291.862696409225 339.173585176468 1894.00005340576 187 189 188
296.212047338486 338.260054588318 1889.00005817413 191 193 192
300.693094730377 337.525516748428 1884.99999046326 196 196 196
304.665118455887 336.253732442856 1878.00002098083 197 197 197
309.753000736237 336.235195398331 1878.00002098083 194 194 194
314.672499895096 336.037456989288 1876.99997425079 193 193 193
319.756269454956 336.018592119217 1876.99997425079 192 192 192
324.320077896118 335.462510585785 1873.99995326996 196 198 197
329.394280910492 335.443407297134 1873.99995326996 195 197 196
334.289282560349 335.245132446289 1873.00002574921 192 194 193
340.265274047852 336.120665073395 1878.00002098083 192 194 193
347.003161907196 337.711751461029 1886.99996471405 200 202 201
-239.999428391457 322.189152240753 1825.99997520447 208 210 207
-237.232089042664 325.204312801361 1843.00005435944 205 207 204
-231.47363960743 324.160844087601 1837.00001239777 192 194 191
-226.116985082626 323.646456003189 1833.99999141693 193 195 192
-220.534861087799 322.778820991516 1828.9999961853 188 190 187
-215.804263949394 323.146253824234 1830.9999704361 188 188 186
-210.716769099236 322.983980178833 1830.00004291534 181 181 179
-205.971390008926 323.350876569748 1832.00001716614 189 189 187
-200.885385274887 323.188036680222 1830.9999704361 196 196 194
-196.232229471207 323.731005191803 1833.99999141693 190 190 188
-191.666513681412 324.45028424263 1838.00005912781 187 187 185
-187.180012464523 325.345784425735 1843.00005435944 191 191 189
-182.665780186653 326.241105794907 1848.00004959106 190 190 188
-178.219929337502 327.312737703323 1853.99997234344 186 186 184
-173.927783966064 328.737258911133 1861.99998855591 182 182 180
-169.319495558739 329.631894826889 1866.99998378754 178 178 176
-164.507582783699 330.173194408417 1870.00000476837 171 171 169
-159.33783352375 330.007910728455 1868.99995803833 171 171 169
-154.750794172287 331.078320741653 1875 173 173 171
-109.772138297558 333.988428115845 1891.00003242493 210 212 209
-104.459799826145 333.46626162529 1888.00001144409 209 209 207
-98.9530384540558 332.237243652344 1881.00004196167 193 193 191
-93.0350720882416 329.418063163757 1865.00000953674 187 187 185
-87.2039124369621 326.598465442657 1848.99997711182 190 190 188
-81.59289509058 324.308335781097 1835.99996566772 186 186 184
-76.3444155454636 323.254227638245 1830.00004291534 175 175 173
-71.2843164801598 322.906315326691 1827.99994945526 179 179 177
-66.1260634660721 322.028070688248 1822.99995422363 185 185 183
-61.0283613204956 321.32613658905 1819.00000572205 189 189 187
-55.8905825018883 320.270508527756 1812.99996376038 194 194 192
-50.8977025747299 319.92107629776 1810.99998950958 194 194 192
-45.8394102752209 319.04137134552 1805.99999427795 194 194 192
-40.7855175435543 317.98455119133 1799.99995231628 195 195 193
-35.7841141521931 317.10410118103 1794.99995708466 193 193 191
-30.8442451059818 316.576600074768 1792.00005531311 191 191 189
-25.9350948035717 316.225320100784 1789.99996185303 191 191 189
-21.0249852389097 315.69704413414 1786.99994087219 191 191 189
-16.1130614578724 314.815133810043 1781.99994564056 189 189 187
-11.2409554421902 314.286142587662 1779.00004386902 189 189 187
-6.38514943420887 313.756793737412 1776.00002288818 189 189 187
-1.54740700963885 313.580423593521 1774.99997615814 190 190 188
3.28304199501872 313.227027654648 1773.00000190735 190 190 188
8.09801090508699 312.696605920792 1769.99998092651 193 193 191
12.8966113552451 312.165826559067 1766.99995994568 193 193 191
17.6788289099932 311.634749174118 1764.00005817413 194 194 192
22.4318988621235 310.926616191864 1759.99999046326 193 193 191
27.1940417587757 310.571432113647 1758.00001621246 193 193 191
31.9452024996281 310.215979814529 1756.00004196167 192 192 190
36.7481037974358 310.390084981918 1756.99996948242 193 193 191
41.5090546011925 310.210555791855 1756.00004196167 193 193 191
46.2907776236534 310.207366943359 1756.00004196167 193 193 191
51.0432571172714 310.027122497559 1754.99999523163 192 192 190
55.8219291269779 310.023218393326 1754.99999523163 191 191 189
60.6004148721695 310.018986463547 1754.99999523163 191 193 190
65.3786957263947 310.014337301254 1754.99999523163 190 192 189
70.1567530632019 310.00941991806 1754.99999523163 189 191 188
74.9772861599922 310.18078327179 1756.00004196167 188 190 187
79.8484310507774 310.528457164764 1758.00001621246 188 190 187
84.6820399165154 310.699105262756 1758.99994373322 188 190 187
89.5208343863487 310.869455337524 1759.99999046326 188 190 187
94.3647623062134 311.039447784424 1761.0000371933 187 189 186
99.2138311266899 311.209112405777 1761.99996471405 188 190 187
104.127041995525 311.555057764053 1764.00005817413 189 191 188
108.989052474499 311.724007129669 1764.99998569489 189 191 188
113.920621573925 312.069267034531 1766.99995994568 190 192 189
118.661135435104 311.884373426437 1766.00003242493 190 190 188
123.605541884899 312.228918075562 1768.00000667572 191 191 189
128.560453653336 312.573164701462 1769.99998092651 193 193 191
133.525818586349 312.917083501816 1771.99995517731 193 193 191
138.735875487328 313.790410757065 1776.99995040894 191 191 189
143.97269487381 314.663380384445 1781.99994564056 191 193 190
149.486765265465 316.065698862076 1789.99996185303 190 192 189
155.216366052628 317.820727825165 1799.99995231628 186 188 185
161.177784204483 319.928526878357 1812.00003623962 184 186 183
167.112246155739 321.859240531921 1822.99995422363 183 185 182
172.728478908539 323.083400726318 1830.00004291534 186 188 185
178.285107016563 324.130564928055 1835.99996566772 182 182 180
184.173315763474 325.706958770752 1845.00002861023 183 183 181
190.520048141479 327.989101409912 1858.00004005432 186 188 185
196.515783667564 329.564660787582 1866.99998378754 187 189 186
201.912015676498 330.080717802048 1870.00000476837 177 179 176
208.320200443268 332.185000181198 1881.99996948242 174 176 173
215.3599858284 335.171341896057 1899.00004863739 176 178 175
260.654896497726 340.34052491188 1929.00002002716 204 206 203
265.474885702133 339.794397354126 1925.99999904633 179 181 178
270.137369632721 339.071661233902 1922.00005054474 174 174 172
274.777412414551 338.348746299744 1917.99998283386 187 185 186
279.103130102158 337.272942066193 1911.99994087219 189 187 188
283.395528793335 336.19698882103 1906.00001811981 200 200 200
287.503331899643 334.944605827332 1899.00004863739 200 200 200
291.572451591492 333.692103624344 1891.99995994568 196 198 197
295.916587114334 332.792311906815 1886.99996471405 199 201 200
300.551861524582 332.245111465454 1883.99994373322 195 195 195
304.6835064888 331.1687707901 1878.00002098083 194 194 194
309.441685676575 330.797702074051 1876.00004673004 199 199 199
314.188241958618 330.426424741745 1873.99995326996 201 201 201
319.434404373169 330.584079027176 1875 199 199 199
324.339091777802 330.388873815537 1873.99995326996 195 197 196
329.413414001465 330.369889736176 1873.99995326996 189 191 190
334.665507078171 330.527067184448 1875 189 191 190
340.284675359726 331.036567687988 1878.00002098083 192 194 193
346.838891506195 332.427233457565 1886.0000371933 199 201 200
-237.118735909462 320.037990808487 1842.00000762939 201 203 200
-231.362670660019 319.010615348816 1835.99996566772 190 192 189
-226.008489727974 318.504244089127 1832.99994468689 192 194 191
-220.669955015182 317.997604608536 1830.00004291534 189 191 188
-215.818554162979 318.185716867447 1830.9999704361 191 191 189
-210.845902562141 318.199753761292 1830.9999704361 183 183 181
-206.097558140755 318.561166524887 1832.99994468689 183 183 181
-201.228052377701 318.748593330383 1833.99999141693 191 191 189
-196.459472179413 319.109469652176 1835.99996566772 195 195 193
-191.679492592812 319.470196962357 1838.00005912781 193 193 191
-187.091156840324 320.178240537643 1842.00000762939 178 178 176
-182.678252458572 321.233749389648 1848.00004959106 179 179 177
-178.328290581703 322.462826967239 1855.00001907349 183 183 181
-174.220010638237 324.213266372681 1865.00000953674 182 182 180
-169.603303074837 325.094282627106 1870.00000476837 177 177 175
-164.694964885712 325.453519821167 1871.99997901917 171 171 169
-159.60468351841 325.464695692062 1871.99997901917 170 170 168
-155.091747641563 326.692640781403 1878.99994850159 170 170 168
-109.779991209507 328.863233327866 1891.00003242493 210 212 209
-104.5226380229 328.523069620132 1889.00005817413 209 209 207
-98.8549217581749 326.791137456894 1878.99994850159 203 203 201
-92.8422212600708 323.667466640472 1860.99994182587 192 192 190
-86.9743824005127 320.717215538025 1843.99998188019 185 185 183
-81.5099105238914 318.984031677246 1833.99999141693 179 179 177
-76.3499438762665 318.294018507004 1830.00004291534 177 177 175
-71.289487183094 317.95147061348 1827.99994945526 182 182 180
-66.1308616399765 317.086756229401 1822.99995422363 190 190 188
-60.9992370009422 316.221654415131 1817.999958992 194 194 192
-55.8946505188942 315.356194972992 1812.99996376038 196 196 194
-50.9014204144478 315.012186765671 1810.99998950958 194 194 192
-45.8427481353283 314.14595246315 1805.99999427795 195 195 193
-40.7658442854881 312.931507825851 1799.00002479553 194 194 192
-35.8066707849503 312.412440776825 1796.0000038147 192 192 190
-30.8464989066124 311.719059944153 1792.00005531311 190 190 188
-25.9514842182398 311.547189950943 1791.00000858307 189 189 187
-21.0265256464481 310.853064060211 1786.99994087219 190 190 188
-16.1232855170965 310.158610343933 1782.99999237061 187 187 185
-11.2480977550149 309.637755155563 1779.99997138977 187 187 185
-6.3892132602632 309.116572141647 1776.99995040894 188 188 186
-1.54839223250747 308.942854404449 1776.00002288818 190 190 188
3.2832829747349 308.420956134796 1773.00000190735 191 191 189
8.09860415756702 307.898640632629 1769.99998092651 193 193 191
12.8975566476583 307.376027107239 1766.99995994568 193 193 191
17.6901463419199 307.027041912079 1764.99998569489 194 194 192
22.4590338766575 306.503713130951 1761.99996471405 193 193 191
27.2115021944046 305.980026721954 1758.99994373322 193 193 191
31.9657288491726 305.629998445511 1756.99996948242 192 192 190
36.7717072367668 305.801421403885 1758.00001621246 193 193 191
41.5357276797295 305.624663829803 1756.99996948242 193 193 191
46.320516616106 305.621445178986 1756.99996948242 193 193 191
51.0469786822796 305.27001619339 1754.99999523163 192 192 190
55.8896139264107 305.614054203033 1756.99996948242 191 191 189
60.6738813221455 305.609792470932 1756.99996948242 190 192 189
65.4579475522041 305.605262517929 1756.99996948242 189 191 188
70.2418014407158 305.600315332413 1756.99996948242 188 190 187
75.0681161880493 305.769056081772 1758.00001621246 187 189 186
79.8996165394783 305.937379598618 1758.99994373322 187 189 186
84.7844406962395 306.279331445694 1761.0000371933 186 188 185
89.5781442523003 306.27304315567 1761.0000371933 187 189 186
94.4787189364433 306.614309549332 1763.00001144409 186 188 185
99.2772430181503 306.607395410538 1763.00001144409 186 188 185
104.075461626053 306.600153446198 1763.00001144409 187 189 186
108.935080468655 306.766480207443 1764.00005817413 188 190 187
113.864243030548 307.106375694275 1766.00003242493 189 191 188
118.669554591179 307.098150253296 1766.00003242493 191 191 189
123.614296317101 307.437419891357 1768.00000667572 191 191 189
128.496900200844 307.602435350418 1769.00005340576 193 193 191
133.535221219063 308.114856481552 1771.99995517731 193 193 191
138.667538762093 308.800846338272 1776.00002288818 190 190 188
143.901973962784 309.660345315933 1781.00001811981 190 192 189
149.4971960783 311.214953660965 1789.99996185303 190 192 189
155.227154493332 312.943011522293 1799.99995231628 186 188 185
161.188930273056 315.018326044083 1812.00003623962 184 186 183
167.032122612 316.745519638062 1822.00002670288 183 185 182
172.834724187851 318.29845905304 1830.9999704361 185 187 184
178.394436836243 319.329470396042 1837.00001239777 183 183 181
184.285700321198 320.881605148315 1845.99995613098 183 183 181
190.327852964401 322.607100009918 1855.99994659424 185 187 184
196.739599108696 324.85368847847 1868.99995803833 187 189 186
202.357545495033 325.709313154221 1873.99995326996 180 182 179
208.555564284325 327.433556318283 1883.99994373322 175 177 174
215.260908007622 329.852551221848 1898.00000190735 176 178 175
261.076927185059 335.63643693924 1932.000041008 209 211 208
265.905290842056 335.098564624786 1929.00002002716 165 167 164
270.716667175293 334.560483694077 1925.99999904633 173 173 171
275.224506855011 333.674848079681 1921.0000038147 160 158 159
279.412537813187 332.441717386246 1914.00003433228 166 164 165
283.413141965866 331.034779548645 1906.00001811981 187 187 187
287.369638681412 329.6277821064 1898.00000190735 190 190 190
291.436195373535 328.394412994385 1891.00003242493 189 191 190
295.934557914734 327.681928873062 1886.99996471405 193 195 194
300.410509109497 326.969355344772 1883.00001621246 185 185 185
304.864019155502 326.256662607193 1878.99994850159 186 186 186
309.295117855072 325.543910264969 1875 195 195 195
314.039140939713 325.178235769272 1873.00002574921 198 198 198
319.282740354538 325.333267450333 1873.99995326996 199 199 199
324.184864759445 325.140982866287 1873.00002574921 191 193 192
329.608231782913 325.469315052032 1875 187 189 188
334.863156080246 325.623840093613 1876.00004673004 189 191 190
340.66641330719 326.298981904984 1879.99999523163 193 195 194
346.674472093582 327.147394418716 1884.99999046326 200 202 201
-243.973761796951 317.426323890686 1855.99994659424 208 210 207
-237.520188093185 315.560400485992 1845.00002861023 201 203 200
-231.75573348999 314.549207687378 1838.99998664856 189 191 188
-226.146474480629 313.7087225914 1833.99999141693 191 193 190
-221.046134829521 313.55220079422 1832.99994468689 189 191 188
-216.186329722404 313.737511634827 1833.99999141693 191 191 189
-211.090117692947 313.580393791199 1832.99994468689 185 185 183
-206.448569893837 314.10738825798 1835.99996566772 183 183 181
-201.460883021355 314.1208589077 1835.99996566772 190 190 188
-196.793630719185 314.647376537323 1838.99998664856 197 197 195
-192.005231976509 315.002530813217 1840.99996089935 196 196 194
-187.306925654411 315.52854180336 1843.99998188019 180 180 178
-182.888314127922 316.567689180374 1850.00002384186 176 176 174
-178.532689809799 317.777723073959 1856.99999332428 180 180 178
-174.512147903442 319.672107696533 1868.00003051758 178 178 176
-169.887021183968 320.539504289627 1873.00002574921 174 174 172
-164.970234036446 320.893198251724 1875 170 170 168
-159.786239266396 320.733189582825 1873.99995326996 171 171 169
-155.26756644249 321.942061185837 1881.00004196167 170 170 168
-109.903894364834 324.079483747482 1893.00000667572 210 212 209
-104.640744626522 323.744654655457 1891.00003242493 209 209 207
-98.7567454576492 321.354985237122 1876.99997425079 214 214 212
-92.6991850137711 318.108826875687 1858.00004005432 192 192 190
-86.9806036353111 315.718233585358 1843.99998188019 184 184 182
-81.5601944923401 314.183294773102 1835.00003814697 180 180 178
-76.4388740062714 313.675284385681 1832.00001716614 186 186 184
-71.2946057319641 312.995672225952 1827.99994945526 189 189 187
-66.1719143390656 312.315732240677 1824.00000095367 193 193 191
-61.0371977090836 311.464160680771 1819.00000572205 195 195 193
-55.8986850082874 310.440927743912 1812.99996376038 195 195 193
-50.848875194788 309.759855270386 1809.00001525879 193 193 191
-45.7952991127968 308.907181024551 1804.00002002716 190 190 188
-40.7914556562901 308.225333690643 1799.99995231628 190 190 188
-35.809263586998 307.543158531189 1796.0000038147 190 190 188
-30.8659505099058 307.031840085983 1792.99998283386 190 190 188
-25.9533673524857 306.691408157349 1791.00000858307 189 189 187
-21.0398212075233 306.179374456406 1787.99998760223 188 188 186
-16.1425434052944 305.667012929916 1784.9999666214 189 189 187
-11.2552344799042 304.983049631119 1781.00001811981 189 189 187
-6.39686919748783 304.641216993332 1779.00004386902 189 189 187
-1.54937675688416 304.298996925354 1776.99995040894 189 189 187
3.28722549602389 303.95644903183 1774.99997615814 190 190 188
8.09919275343418 303.099781274796 1769.99998092651 190 190 188
12.8984935581684 302.585303783417 1766.99995994568 191 191 189
17.6713839173317 301.899284124374 1763.00001144409 193 193 191
22.4606636911631 301.726549863815 1761.99996471405 194 194 192
27.2289495915174 301.382273435593 1759.99999046326 195 195 193
32.0044346153736 301.208883523941 1758.99994373322 195 195 193
36.7952883243561 301.206409931183 1758.99994373322 193 193 191
41.5623709559441 301.032364368439 1758.00001621246 193 193 191
46.3502332568169 301.029205322266 1758.00001621246 193 193 191
51.0797575116158 300.683230161667 1756.00004196167 192 192 190
55.893637239933 300.850600004196 1756.99996948242 192 192 190
60.6782585382462 300.846457481384 1756.99996948242 189 191 188
65.4626563191414 300.841897726059 1756.99996948242 188 190 187
70.286825299263 301.008284091949 1758.00001621246 186 188 185
75.1588940620422 301.345497369766 1759.99999046326 185 187 184
79.9961984157562 301.511228084564 1761.0000371933 184 186 183
84.8868042230606 301.847755908966 1763.00001144409 184 186 183
89.6862745285034 301.841557025909 1763.00001144409 184 186 183
94.4318547844887 301.663815975189 1761.99996471405 184 186 183
99.2842987179756 301.828175783157 1763.00001144409 184 186 183
104.200907051563 302.163392305374 1764.99998569489 185 187 184
109.189808368683 302.66946554184 1768.00000667572 185 187 184
114.065729081631 302.832812070847 1769.00005340576 186 188 185
118.812300264835 302.653461694717 1768.00000667572 188 188 186
123.692892491817 302.816152572632 1769.00005340576 188 188 186
128.578528761864 302.978545427322 1769.99998092651 192 192 190
133.619904518127 303.482919931412 1773.00000190735 192 192 190
138.75524699688 304.158121347427 1776.99995040894 190 190 188
143.992736935616 305.004149675369 1781.99994564056 187 189 186
149.507522583008 306.36328458786 1789.99996185303 188 190 187
155.237853527069 308.064371347427 1799.99995231628 188 190 187
161.111041903496 309.936106204987 1810.99998950958 185 187 184
166.951850056648 311.636298894882 1820.99997997284 183 185 182
172.752112150192 313.164949417114 1830.00004291534 184 186 183
178.406536579132 314.350932836533 1837.00001239777 184 184 182
184.098482131958 315.536558628082 1843.99998188019 183 185 182
190.238133072853 317.406207323074 1855.00001907349 184 186 183
196.752786636353 319.788753986359 1868.99995803833 186 188 185
202.58703827858 320.97315788269 1876.00004673004 183 185 182
208.458706736565 322.157144546509 1883.00001621246 177 179 176
215.161725878716 324.538320302963 1896.99995517731 176 178 175
261.093497276306 330.402255058289 1932.000041008 207 209 206
265.922069549561 329.872608184814 1929.00002002716 150 152 149
270.733624696732 329.342782497406 1925.99999904633 149 149 147
275.384932756424 328.641831874847 1922.00005054474 135 133 134
279.575794935226 327.427744865417 1914.99996185303 140 138 139
282.835751771927 325.187772512436 1901.99995040894 167 167 167
286.781549453735 323.802649974823 1894.00005340576 183 183 183
290.837407112122 322.588413953781 1886.99996471405 186 188 187
295.638740062714 322.228848934174 1884.99999046326 182 184 183
299.949824810028 321.356326341629 1879.99999523163 186 186 186
304.719895124435 320.996522903442 1878.00002098083 187 187 187
309.313386678696 320.465624332428 1875 193 193 193
314.225226640701 320.276468992233 1873.99995326996 195 195 195
319.130957126617 320.087134838104 1873.00002574921 194 194 194
324.030488729477 319.897711277008 1871.99997901917 189 191 190
329.45129275322 320.220738649368 1873.99995326996 189 191 190
334.703683853149 320.37279009819 1875 191 193 192
340.504348278046 321.037173271179 1878.99994850159 195 197 196
346.877753734589 322.21394777298 1886.0000371933 200 202 201
-243.857800960541 312.228739261627 1855.00001907349 208 210 207
-237.406581640244 310.392439365387 1843.99998188019 199 201 198
-231.518507003784 309.229016304016 1837.00001239777 192 194 191
-225.914403796196 308.401942253113 1832.00001716614 191 193 190
-220.939829945564 308.416306972504 1832.00001716614 192 194 191
-216.082483530045 308.598756790161 1832.99994468689 192 192 190
-211.103916168213 308.612614870071 1832.99994468689 186 186 184
-206.349670886993 308.962970972061 1835.00003814697 180 180 178
-201.583907008171 309.313088655472 1837.00001239777 190 190 188
-197.020724415779 309.999734163284 1840.99996089935 196 196 194
-192.122310400009 310.181021690369 1842.00000762939 194 194 192
-187.319442629814 310.530364513397 1843.99998188019 189 189 187
-182.801738381386 311.384707689285 1848.99997711182 180 180 178
-178.544715046883 312.744110822678 1856.99999332428 167 167 165
-174.523949623108 314.608544111252 1868.00003051758 176 176 174
-169.989243149757 315.630704164505 1873.99995326996 171 171 169
-165.157437324524 316.147297620773 1876.99997425079 169 169 167
-160.052955150604 316.158324480057 1876.99997425079 171 171 169
-155.525863170624 317.348152399063 1883.99994373322 170 170 168
-114.760175347328 318.096667528152 1888.00001144409 209 211 208
-109.795495867729 318.609952926636 1891.00003242493 210 210 208
-104.371406137943 317.775011062622 1886.0000371933 209 209 207
-98.4480008482933 315.254718065262 1871.00005149841 195 195 193
-92.6059409976006 312.733948230743 1855.99994659424 185 185 183
-86.9867652654648 310.718297958374 1843.99998188019 187 187 185
-81.654891371727 309.544742107391 1837.00001239777 187 187 185
-76.4443054795265 308.707803487778 1832.00001716614 194 194 192
-71.2996870279312 308.038949966431 1827.99994945526 193 193 191
-66.10406935215 307.0327937603 1822.00002670288 193 193 191
-60.9408803284168 306.026190519333 1815.99998474121 193 193 191
-55.8410137891769 305.1877617836 1810.99998950958 193 193 191
-50.8244037628174 304.685980081558 1807.99996852875 193 193 191
-45.7985773682594 304.015338420868 1804.00002002716 189 189 187
-40.7943800091743 303.344339132309 1799.99995231628 190 190 188
-35.8118340373039 302.672982215881 1796.0000038147 190 190 188
-30.8681651949883 302.169770002365 1792.99998283386 191 191 189
-25.9697251021862 302.003294229507 1792.00005531311 190 190 188
-21.0648700594902 301.667898893356 1789.99996185303 188 188 186
-16.1617919802666 301.163643598557 1786.99994087219 192 192 190
-11.2686837092042 300.490498542786 1782.99999237061 190 190 188
-6.40092510730028 299.985557794571 1779.99997138977 190 190 188
-1.54948816634715 299.480229616165 1776.99995040894 189 189 187
3.28375794924796 298.806041479111 1773.00000190735 189 189 187
8.09062365442514 297.962993383408 1768.00000667572 193 193 191
12.8848226740956 297.456651926041 1764.99998569489 193 193 191
17.6626313477755 296.949952840805 1761.99996471405 194 194 192
22.4622786045074 296.94852232933 1761.99996471405 193 193 191
27.2309072315693 296.609699726105 1759.99999046326 193 193 191
32.0067331194878 296.43902182579 1758.99994373322 192 192 190
36.7770120501518 296.268075704575 1758.00001621246 194 194 192
41.5653549134731 296.265244483948 1758.00001621246 194 194 192
46.3535524904728 296.262115240097 1758.00001621246 194 194 192
51.0543249547482 295.753091573715 1754.99999523163 193 193 191
55.865827947855 295.917838811874 1756.00004196167 192 192 190
60.6135167181492 295.74516415596 1754.99999523163 188 190 187
65.4673278331757 296.077698469162 1756.99996948242 188 190 187
70.3318119049072 296.409904956818 1758.99994373322 185 187 184
75.249657034874 296.910285949707 1761.99996471405 184 186 183
80.09272813797 297.073304653168 1763.00001144409 184 186 183
84.9891230463982 297.40446805954 1764.99998569489 183 185 182
89.8452475667 297.566831111908 1766.00003242493 183 185 182
94.5992991328239 297.391831874847 1764.99998569489 183 185 182
99.3476137518883 297.216564416885 1764.00005817413 183 185 182
104.20823097229 297.377943992615 1764.99998569489 184 186 183
109.197460114956 297.875910997391 1768.00000667572 185 187 184
114.073701202869 298.03666472435 1769.00005340576 185 187 184
118.887789547443 298.028558492661 1769.00005340576 185 185 183
123.701497912407 298.020124435425 1769.00005340576 186 186 184
128.514796495438 298.011422157288 1769.00005340576 191 191 189
133.553758263588 298.507750034332 1771.99995517731 192 192 190
138.68673145771 299.172252416611 1776.00002288818 190 190 188
144.083440303802 300.341695547104 1782.99999237061 187 189 186
149.684831500053 301.847696304321 1792.00005531311 188 190 187
155.420944094658 303.521722555161 1802.00004577637 188 190 187
161.210969090462 305.195301771164 1812.00003623962 186 188 185
167.05484688282 306.868463754654 1822.00002670288 184 186 183
172.952577471733 308.541238307953 1832.00001716614 182 184 181
178.515657782555 309.539943933487 1838.00005912781 187 187 185
184.210643172264 310.706675052643 1845.00002861023 183 185 182
190.045699477196 312.041461467743 1853.00004482269 181 183 180
196.55530154705 314.386159181595 1866.99998378754 184 186 183
202.708408236504 316.056847572327 1876.99997425079 185 187 184
208.693847060204 317.390382289886 1884.99999046326 179 181 178
215.402707457542 319.733768701553 1899.00004863739 173 175 172
260.839611291885 324.830532073975 1929.99994754791 171 173 170
266.076564788818 324.814110994339 1929.99994754791 144 146 143
271.031588315964 324.460834264755 1927.99997329712 131 131 129
275.545239448547 323.602557182312 1922.99997806549 189 187 188
279.300957918167 321.90278172493 1912.99998760223 194 192 193
282.55558013916 319.698214530945 1899.99997615814 177 177 177
286.647498607636 318.503171205521 1893.00000667572 172 172 172
291.009068489075 317.644566297531 1888.00001144409 192 194 193
295.656383037567 317.122340202332 1884.99999046326 197 199 198
300.127238035202 316.431760787964 1881.00004196167 202 202 202
304.737865924835 315.90923666954 1878.00002098083 204 204 204
309.496462345123 315.554827451706 1876.00004673004 198 198 198
314.411163330078 315.36853313446 1875 193 193 193
319.319725036621 315.182060003281 1873.99995326996 189 189 189
324.222147464752 314.995497465134 1873.00002574921 191 193 192
329.470008611679 315.14510512352 1873.99995326996 198 200 199
334.722518920898 315.294563770294 1875 199 201 200
340.342193841934 315.780162811279 1878.00002098083 199 201 200
346.713036298752 316.938132047653 1884.99999046326 199 201 200
-243.873104453087 307.20129609108 1855.00001907349 208 210 207
-237.292811274529 305.229038000107 1843.00005435944 198 200 197
-231.533199548721 304.250091314316 1837.00001239777 192 194 191
-226.052165031433 303.602069616318 1832.99994468689 192 194 191
-221.074610948563 303.616315126419 1832.99994468689 194 196 193
-216.214329004288 303.79593372345 1833.99999141693 194 194 192
-211.117580533028 303.644001483917 1832.99994468689 185 185 183
-206.363096833229 303.988844156265 1835.00003814697 181 181 179
-201.706826686859 304.499059915543 1838.00005912781 191 191 189
-197.247713804245 305.340439081192 1843.00005435944 197 197 195
-192.552179098129 305.850178003311 1845.99995613098 191 191 189
-187.636613845825 306.02839589119 1847.00000286102 172 172 170
-182.91275203228 306.537717580795 1850.00002384186 190 190 188
-178.65277826786 307.875275611877 1858.00004005432 168 168 166
-174.629062414169 309.709757566452 1868.99995803833 168 168 166
-170.272812247276 311.046987771988 1876.99997425079 168 168 166
-165.168568491936 311.058193445206 1876.99997425079 172 172 170
-160.149082541466 311.234891414642 1878.00002098083 167 167 165
-155.371308326721 311.908423900604 1881.99996948242 167 167 165
-115.315236151218 314.468741416931 1896.99995517731 207 209 206
-109.803147614002 313.48192691803 1891.00003242493 205 205 203
-104.267992079258 312.32887506485 1883.99994373322 188 188 186
-98.4549000859261 310.180813074112 1871.00005149841 173 173 171
-92.6124304533005 307.700663805008 1855.99994659424 177 177 175
-87.0400443673134 305.883228778839 1845.00002861023 191 191 189
-81.6161707043648 304.397016763687 1835.99996566772 193 193 191
-76.4496922492981 303.739368915558 1832.00001716614 190 190 188
-71.2267011404037 302.749752998352 1825.99997520447 188 188 186
-66.0724490880966 301.92556977272 1820.99997997284 194 194 192
-60.8780719339848 300.76938867569 1814.00001049042 193 193 191
-55.8141320943832 300.110280513763 1809.99994277954 193 193 191
-50.8280135691166 299.782454967499 1807.99996852875 191 191 189
-45.80182954669 299.122601747513 1804.00002002716 188 188 186
-40.7972782850266 298.462390899658 1799.99995231628 188 188 186
-35.8143821358681 297.80188202858 1796.0000038147 187 187 185
-30.8875851333141 297.472655773163 1794.0000295639 189 189 187
-25.9860660880804 297.308802604675 1792.99998283386 190 190 188
-21.0781395435333 296.978861093521 1791.00000858307 191 191 189
-16.1719880998135 296.482712030411 1787.99998760223 190 190 188
-11.2694883719087 295.654594898224 1782.99999237061 190 190 188
-6.4049786888063 295.323610305786 1781.00001811981 190 190 188
-1.5487268101424 294.494807720184 1776.00002288818 191 191 189
3.28399217687547 293.997257947922 1773.00000190735 191 191 189
8.09120014309883 293.167740106583 1768.00000667572 190 190 188
12.9003413021564 293.001174926758 1766.99995994568 191 191 189
17.6839400082827 292.502641677856 1764.00005817413 192 192 190
22.4766284227371 292.335420846939 1763.00001144409 192 192 190
27.2328425198793 291.836202144623 1759.99999046326 192 192 190
32.0090129971504 291.668266057968 1758.99994373322 191 191 189
36.779623478651 291.500002145767 1758.00001621246 192 192 190
41.5919497609138 291.663080453873 1758.99994373322 192 192 190
46.3568419218063 291.494160890579 1758.00001621246 191 191 189
51.1161275207996 291.32491350174 1756.99996948242 191 191 189
55.869784206152 291.155338287354 1756.00004196167 191 191 189
60.6868788599968 291.317015886307 1756.99996948242 188 190 187
65.509207546711 291.478395462036 1758.00001621246 188 190 187
70.3767612576485 291.805237531662 1759.99999046326 186 188 185
75.2549543976784 292.131721973419 1761.99996471405 185 187 184
80.0983533263206 292.292058467865 1763.00001144409 184 186 183
84.9950835108757 292.617917060852 1764.99998569489 183 185 182
89.8515358567238 292.777597904205 1766.00003242493 181 183 180
94.6595221757889 292.771190404892 1766.00003242493 182 184 181
99.5234996080399 292.93018579483 1766.99995994568 183 185 182
104.392617940903 293.08894276619 1768.00000667572 185 187 184
109.328575432301 293.413072824478 1769.99998092651 185 187 184
114.146083593369 293.405383825302 1769.99998092651 186 188 185
118.963211774826 293.397337198257 1769.99998092651 187 187 185
123.849876224995 293.554782867432 1771.00002765656 187 187 185
128.741577267647 293.71190071106 1771.99995517731 187 187 185
133.638292551041 293.868660926819 1773.00000190735 188 188 186
138.696193695068 294.356644153595 1776.00002288818 188 188 186
144.093260169029 295.507252216339 1782.99999237061 187 189 186
149.611443281174 296.823173761368 1791.00000858307 188 190 187
155.345186591148 298.470169305801 1800.99999904633 188 190 187
161.132842302322 300.116777420044 1810.99998950958 187 189 186
167.066067457199 301.928669214249 1822.00002670288 184 186 183
172.775328159332 303.243041038513 1830.00004291534 182 184 181
178.430423140526 304.391294717789 1837.00001239777 184 184 182
184.123024344444 305.539160966873 1843.99998188019 183 185 182
189.955681562424 306.852340698242 1851.99999809265 181 183 180
196.147099137306 308.662205934525 1863.00003528595 183 185 182
202.505707740784 310.637325048447 1875 187 189 186
208.818197250366 312.446266412735 1886.0000371933 183 185 182
215.53011238575 314.751803874969 1899.99997615814 178 180 177
261.261373758316 320.096850395203 1932.99996852875 145 147 144
266.644537448883 320.246070623398 1934.00001525879 142 144 141
271.470069885254 319.732815027237 1930.99999427795 162 162 160
275.418817996979 318.225920200348 1922.00005054474 152 150 151
278.733938932419 316.05675816536 1909.00003910065 188 186 187
282.275229692459 314.218670129776 1898.00000190735 151 151 151
286.664754152298 313.373863697052 1893.00000667572 160 160 160
291.180551052094 312.694489955902 1889.00005817413 170 172 171
295.987635850906 312.346041202545 1886.99996471405 184 186 185
300.304442644119 311.500906944275 1881.99996948242 189 189 189
304.755687713623 310.821175575256 1878.00002098083 199 199 199
309.349447488785 310.306876897812 1875 198 198 198
314.093917608261 309.957981109619 1873.00002574921 194 194 194
318.997174501419 309.774369001389 1871.99997901917 195 195 195
324.067413806915 309.756129980087 1871.99997901917 197 199 198
329.136878252029 309.737771749496 1871.99997901917 202 204 203
334.562689065933 310.050159692764 1873.99995326996 199 201 200
340.361028909683 310.693264007568 1878.00002098083 201 203 202
346.548140048981 311.666965484619 1883.99994373322 195 197 196
-243.49382519722 301.684349775314 1851.99999809265 208 210 207
-236.792609095573 299.581557512283 1838.99998664856 192 194 191
-231.16959631443 298.781603574753 1833.99999141693 190 192 189
-225.819751620293 298.307180404663 1830.9999704361 191 193 190
-221.088662743568 298.64713549614 1832.99994468689 195 197 194
-216.228112578392 298.823922872543 1833.99999141693 196 196 194
-211.131140589714 298.674583435059 1832.99994468689 190 190 188
-206.151440739632 298.687905073166 1832.99994468689 182 182 180
-201.390638947487 299.026936292648 1835.00003814697 184 184 182
-197.153493762016 300.180524587631 1842.00000762939 192 192 190
-192.564755678177 300.844997167587 1845.99995613098 194 194 192
-187.648892402649 301.020324230194 1847.00000286102 180 180 178
-183.023661375046 301.684379577637 1850.99995136261 181 181 179
-178.76073718071 303.000152111053 1858.99996757507 171 171 169
-174.734085798264 304.804742336273 1870.00000476837 166 166 164
-170.284152030945 305.957138538361 1876.99997425079 165 165 163
-165.09160399437 305.805265903473 1876.00004673004 182 182 180
-160.245090723038 306.305110454559 1878.99994850159 177 177 175
-155.464321374893 306.967735290527 1883.00001621246 164 164 162
-115.140788257122 308.834433555603 1894.00005340576 208 210 207
-109.8687723279 308.515995740891 1891.99995994568 195 195 193
-104.33054715395 307.381898164749 1884.99999046326 176 176 174
-98.4617099165916 305.105924606323 1871.00005149841 168 168 166
-92.5689563155174 302.503317594528 1855.00001907349 178 178 176
-86.9517400860786 300.552606582642 1843.00005435944 188 188 186
-81.6218554973602 299.416869878769 1835.99996566772 193 193 191
-76.4967426657677 298.933088779449 1832.99994468689 189 189 187
-71.3097006082535 298.122823238373 1827.99994945526 187 187 185
-66.0770684480667 296.985983848572 1820.99997997284 196 196 194
-60.8487725257874 295.685648918152 1812.99996376038 195 195 193
-55.7872094213963 295.037358999252 1809.00001525879 193 193 191
-50.80346763134 294.714897871017 1807.000041008 192 192 190
-45.8304360508919 294.392049312592 1804.99994754791 190 190 188
-40.8454835414886 293.905824422836 1802.00004577637 188 188 186
-35.8567871153355 293.256103992462 1797.99997806549 186 186 184
-30.9069771319628 292.769134044647 1794.99995708466 189 189 187
-25.9734038263559 292.281806468964 1792.00005531311 191 191 189
-21.0560876876116 291.794151067734 1789.00003433228 191 191 189
-16.1550398916006 291.306138038635 1786.00001335144 190 190 188
-11.2702827900648 290.817767381668 1782.99999237061 190 190 188
-6.40543038025498 290.492206811905 1781.00001811981 190 190 188
-1.54796394053847 289.513826370239 1774.99997615814 191 191 189
3.28237120993435 289.024412631989 1771.99995517731 191 191 189
8.10092501342297 288.697838783264 1769.99998092651 189 189 187
12.9158552736044 288.533985614777 1769.00005340576 189 189 187
17.7152622491121 288.206696510315 1766.99995994568 191 191 189
22.4782135337591 287.552893161774 1763.00001144409 191 191 189
27.2502396255732 287.224948406219 1761.0000371933 192 192 190
31.993068754673 286.733567714691 1758.00001621246 192 192 190
36.8031337857246 286.894202232361 1758.99994373322 193 193 191
41.5712296962738 286.728382110596 1758.00001621246 192 192 190
46.3601015508175 286.725342273712 1758.00001621246 191 191 189
51.1197149753571 286.558836698532 1756.99996948242 190 190 188
55.9055134654045 286.555081605911 1756.99996948242 190 190 188
60.691125690937 286.551028490067 1756.99996948242 187 189 186
65.5510574579239 286.872804164886 1758.99994373322 186 188 185
70.4216659069061 287.19425201416 1761.0000371933 184 186 183
75.3029137849808 287.515372037888 1763.00001144409 182 184 181
80.1493600010872 287.673056125641 1764.00005817413 180 182 179
85.049144923687 287.993520498276 1766.00003242493 179 181 178
89.9086371064186 288.150548934937 1766.99995994568 179 181 178
94.7732776403427 288.307279348373 1768.00000667572 180 182 179
99.6430367231369 288.463652133942 1769.00005340576 181 183 180
104.51789945364 288.619726896286 1769.99998092651 183 185 182
109.274320304394 288.449376821518 1769.00005340576 183 185 182
114.089399576187 288.441717624664 1769.00005340576 184 186 183
118.971347808838 288.596838712692 1769.99998092651 187 187 185
123.928248882294 288.914680480957 1771.99995517731 187 187 185
128.82299721241 289.069175720215 1773.00000190735 187 187 185
133.798107504845 289.386361837387 1774.99997615814 188 188 186
138.70558142662 289.540231227875 1776.00002288818 188 188 186
144.102960824966 290.671914815903 1782.99999237061 190 192 189
149.454414844513 291.640222072601 1789.00003433228 187 189 186
155.269339680672 293.423235416412 1799.99995231628 184 186 183
161.143600940704 295.20583152771 1810.99998950958 186 188 185
167.077168822289 296.987980604172 1822.00002670288 187 189 186
172.786772251129 298.280775547028 1830.00004291534 180 182 179
178.539335727692 299.57315325737 1838.00005912781 182 182 180
184.434697031975 301.02813243866 1847.00000286102 184 186 183
190.070703625679 301.993787288666 1853.00004482269 183 185 182
195.949286222458 303.285002708435 1860.99994182587 182 184 181
202.410832047462 305.390685796738 1873.99995326996 185 187 184
209.163874387741 307.821810245514 1889.00005817413 184 186 183
216.338098049164 310.741275548935 1906.99994564056 180 182 179
261.818170547485 315.508931875229 1937.00003623962 212 214 211
267.350286245346 315.818458795547 1939.00001049042 168 170 167
271.627247333527 314.661979675293 1932.000041008 126 126 124
275.148898363113 312.691032886505 1919.99995708466 151 149 150
278.750717639923 310.882955789566 1909.00003910065 163 161 162
282.738327980042 309.563398361206 1901.00002288818 188 188 188
287.136137485504 308.732271194458 1896.00002765656 204 204 204
291.351944208145 307.738214731216 1889.99998569489 193 195 194
296.005040407181 307.232528924942 1886.99996471405 195 197 196
300.321966409683 306.40110373497 1881.99996948242 193 193 193
304.773300886154 305.732399225235 1878.00002098083 186 186 186
309.36723947525 305.226385593414 1875 180 180 180
314.111828804016 304.883033037186 1873.00002574921 183 183 183
319.185674190521 304.865092039108 1873.00002574921 187 187 187
324.085652828217 304.684281349182 1871.99997901917 189 191 190
329.33109998703 304.828822612762 1873.00002574921 195 197 196
334.581226110458 304.973214864731 1873.99995326996 196 198 197
340.198457241058 305.442839860916 1876.99997425079 199 201 200
346.199125051498 306.237816810608 1881.99996948242 193 195 194
-236.678510904312 294.435560703278 1838.00005912781 193 195 192
-231.310054659843 293.969422578812 1835.00003814697 190 192 189
-226.08058154583 293.663173913956 1832.99994468689 190 192 189
-221.343815326691 293.997585773468 1835.00003814697 193 195 192
-216.477587819099 294.171512126923 1835.99996566772 195 195 193
-211.259722709656 293.864518404007 1833.99999141693 189 189 187
-206.164613366127 293.717533349991 1832.99994468689 185 185 183
-201.293781399727 293.890714645386 1833.99999141693 180 180 178
-197.059124708176 295.025169849396 1840.99996089935 188 188 186
-192.472890019417 295.678704977036 1845.00002861023 193 193 191
-187.864273786545 296.331971883774 1848.99997711182 176 176 174
-183.134481310844 296.824783086777 1851.99999809265 181 181 179
-179.157093167305 298.599600791931 1863.00003528595 179 179 177
-175.119325518608 300.374209880829 1873.99995326996 179 179 177
-170.567542314529 301.347255706787 1879.99999523163 170 170 168
-165.278539061546 301.037698984146 1878.00002098083 172 172 170
-160.511583089828 301.689624786377 1881.99996948242 174 174 172
-114.966243505478 303.215444087982 1891.00003242493 206 208 205
-109.87626761198 303.383409976959 1891.99995994568 200 200 198
-104.448385536671 302.588909864426 1886.99996471405 197 197 195
-98.5737144947052 300.350844860077 1873.00002574921 184 184 182
-92.575304210186 297.470897436142 1855.00001907349 181 181 179
-86.9105383753777 295.392274856567 1842.00000762939 188 188 186
