ply
format ascii 1.0
comment KinectMotionCapture
element vertex 760
property float x
property float y
property float z
property uchar red
property uchar green
property uchar blue
end_header
325.235510531133 595.681590725084 2610.04376215789 170 170 172
319.261175263838 596.421440550158 2614.45010659646 142 142 144
309.499691614234 597.641543701646 2615.46094185851 158 158 160
298.956678210323 598.96030592545 2615.81635663421 148 148 150
287.626206898552 600.378428628602 2615.521796158 146 146 148
280.077875561017 601.315985893533 2618.62776441156 117 117 119
278.634484878577 601.478142104049 2627.12232835194 164 162 165
281.809498736416 601.053950773912 2639.61920397001 171 169 172
281.954267761789 601.01397343372 2649.40039572917 163 161 164
279.81594952395 601.263281445061 2657.15524268916 167 165 168
277.693485237341 601.510250038892 2664.89435436411 176 174 177
279.4582813577 601.26375490662 2675.93151498646 186 186 188
281.258414915204 601.012464153858 2686.93395595996 187 187 189
279.98186290462 601.151111008116 2695.26632130545 185 185 187
273.264856332168 601.979427024081 2698.97982690465 180 180 182
265.75868763772 602.907423262407 2702.0453401459 179 179 181
259.809423937759 603.637448940655 2706.42824015209 179 179 181
255.428460126535 604.168316464562 2712.11704930871 179 179 181
251.83987249359 604.598377919416 2718.45116345951 180 180 182
246.680102718466 605.227266294445 2723.48194169444 179 179 181
243.104404783846 605.654936203272 2729.80360965373 178 178 180
237.949722270743 606.282475622173 2734.82953553739 175 175 177
233.591202413594 606.808744664255 2740.49673716944 175 175 177
226.844635673769 607.637308048246 2744.23955989093 174 174 176
218.492170699925 608.668884923017 2746.71323935763 171 171 173
213.330294453368 609.295915974488 2751.74638386144 171 171 173
208.972360424972 609.820813849364 2757.41320641478 190 190 192
203.813827698606 610.446774739897 2762.44318892294 214 214 216
197.041530526186 611.276799751053 2766.2116841585 189 189 191
188.64377860275 612.312434638258 2768.72973446315 182 182 184
180.231067400047 613.349496667607 2771.26209078026 170 170 172
170.990671621191 614.491023280024 2773.18433882144 165 165 167
162.546479399922 615.531451265801 2775.74779661046 176 176 178
154.904380439112 616.469920196653 2778.94674275625 199 199 201
148.070006646172 617.305896987645 2782.77566348119 193 193 195
139.587175486359 618.350193555522 2785.37691853264 163 163 165
129.444005866026 619.604320738833 2786.76174486894 165 165 167
120.103074788224 620.756575451848 2788.78224033957 190 190 192
114.049584657885 621.492559368815 2793.26742026481 167 167 169
108.821524562175 622.123924065889 2798.36564579828 162 160 163
102.763804755087 622.860074349947 2802.85533910806 186 184 187
94.2056477377267 623.912274780732 2805.53022566208 169 167 170
84.798191611712 625.071631756842 2807.61539393563 173 171 174
75.3722827438494 626.233066081048 2809.71891686547 149 147 150
66.7656656222451 627.290622121138 2812.44079562068 151 149 152
55.6240227499916 628.668398798669 2813.38193599731 166 164 167
40.2456453985085 630.581560046362 2811.36620230603 151 149 152
25.6653448103492 632.393399557978 2809.98951337509 140 138 141
6.81349034769552 634.744777302481 2805.68991264091 148 146 149
-7.01227432942986 636.460581111986 2804.99539959076 136 134 137
-19.1763798217162 637.96609296364 2805.5160719432 117 117 119
-25.4086328036034 638.721946143367 2810.17616719626 111 111 113
-29.0832823489406 639.154614471948 2816.59501896151 162 161 166
-32.7493458800814 639.586187359103 2823.00584443549 195 194 199
-37.2647526525536 640.125099261687 2828.8269684844 149 148 153
-44.3538752474959 640.989050331199 2832.90506179146 182 181 186
-51.4503928378103 641.853887726463 2836.99002959769 180 180 182
-58.5539682757235 642.719614875561 2841.08187444569 196 196 196
-64.7993149255832 643.476941813707 2845.75475408375 200 200 200
353.794512725101 584.931732702715 2557.76701819178 196 198 197
354.450085529664 584.854940949476 2568.46332471903 199 201 200
350.690423448941 585.322431671056 2574.96178629615 193 193 195
348.424919790318 585.605005360822 2582.83767576439 189 189 191
343.940221727936 586.160920907133 2588.6257924791 195 195 197
338.712857025954 586.808001584275 2593.72100466133 179 179 181
332.736979575669 587.546984387142 2598.12900865591 171 171 173
328.25923697842 588.100430928239 2603.91058340883 189 189 191
323.033001814429 588.745894988508 2609.0049128784 150 150 152
313.278653325713 589.949648807056 2610.01107924448 163 163 165
301.988098167266 591.342323192968 2609.68098053013 127 127 129
292.94261801396 592.457698473298 2611.41320178722 161 161 163
283.878338121837 593.57478206442 2613.16417681728 136 136 138
279.370126482609 594.129180239894 2618.97586712814 134 134 136
277.924358534221 594.305198972646 2627.47074285402 166 164 167
281.863243633217 593.816358903832 2640.63554741059 166 164 167
282.007542716042 593.79531083184 2650.41440809208 166 164 167
279.868827772704 594.055519118285 2658.16803793059 168 166 169
276.973790004931 594.408627152558 2665.2417298124 178 176 179
277.187677565248 594.377803877212 2674.95293287782 186 186 188
278.205421489177 594.247275970487 2685.29754030969 186 186 188
276.920709879674 594.40051430193 2693.63585164357 185 185 187
270.975630928502 595.128315368042 2698.01458708706 180 180 182
265.027428285097 595.856084405498 2702.39676697893 179 179 181
259.075934331795 596.583855583078 2706.78221487387 179 179 181
254.692712521605 597.117838267304 2712.4728058375 180 180 182
249.52624252514 597.747984093481 2717.51005164054 180 180 182
245.150086101656 598.280250509878 2723.19388023437 178 178 180
241.570170866198 598.713995146174 2729.51883819366 176 176 178
237.99867725832 599.146324289541 2735.83564256151 173 173 175
232.844358295059 599.773582001902 2740.86124907091 176 176 178
225.298262016389 600.695407669612 2743.96732300117 175 175 177
216.94149482241 601.717043494386 2746.44640607692 172 172 174
211.775536390543 602.344648139006 2751.48351947427 170 170 172
206.610239667103 602.971874520631 2756.52003169248 184 184 186
203.056217121782 603.400055187685 2762.82010017993 206 206 208
196.281610086935 604.225195174881 2766.59127330544 191 191 193
189.500179828931 605.050828486904 2770.36948692121 183 183 185
178.656199089643 606.377163479869 2771.02264745808 172 172 174
169.411654490485 607.505899200132 2772.95056798543 165 165 167
160.963478092309 608.536156097121 2775.5194854035 171 171 173
155.767971058506 609.165068090637 2780.58574777379 203 203 205
149.754393750623 609.894592072398 2785.0325862939 197 197 199
138.813022366277 611.231435638852 2785.78090401843 170 170 172
129.490473328857 612.368412899683 2787.78506601 165 165 167
119.324748714813 613.609049133399 2789.19428374493 179 179 181
113.269366017415 614.342722941066 2793.68202229237 174 174 176
104.725269585554 615.382890235828 2796.34472496939 164 162 165
97.8271830667041 616.219999675576 2800.23674596802 191 189 192
89.2573457290169 617.263058207564 2802.92458242145 169 167 170
82.3412144477595 618.102029694547 2806.83424692613 180 178 181
72.9094754195594 619.25081307949 2808.94542909467 154 152 155
64.2972124240648 620.298512413843 2811.6747089449 146 144 147
53.9898411154951 621.554764648672 2813.22227590328 162 160 163
36.0813568204899 623.747630620304 2809.42623193558 151 149 152
18.1157318658469 625.947156322663 2805.68628302429 138 136 139
-0.75329014787906 628.257769004082 2801.40975498063 145 143 146
-14.5963699271903 629.948983810121 2800.73607032689 132 130 133
-23.3788535404553 631.01644509998 2803.63112311651 117 117 119
-29.6208192563165 631.770928095789 2808.30106577056 109 109 111
-31.5977712751887 631.999847400309 2815.89834928966 198 197 202
-34.4141813122292 632.332251864534 2822.89702265113 180 179 184
-36.3608627328285 632.557531985641 2830.46478488838 174 173 178
-44.3074210766143 633.521809461428 2833.96258705252 181 180 185
-52.2652440153122 634.4875200563 2837.47102546956 191 191 193
-59.3706837209624 635.348116062759 2841.56547994362 200 200 200
-64.7527831846353 635.99654111669 2846.81414733331 198 198 198
339.259765680327 579.390236352826 2534.75967545437 229 231 228
350.904801617801 578.019897875513 2555.98979725317 196 198 197
352.291331869985 577.877109551478 2567.38725365345 198 200 199
349.266464525061 578.262093468223 2574.5851569831 195 195 197
347.739807052465 578.467002728777 2583.15608719489 188 188 190
343.252766495315 579.025985118618 2588.94607676341 199 199 201
338.770003758734 579.583897501766 2594.73197653939 189 189 191
332.793799774774 580.3202678722 2599.1406909031 166 166 168
329.066457606173 580.786704603375 2605.60687626704 190 190 192
321.583605554242 581.702608202412 2608.65136086638 168 168 170
310.315617053865 583.071693713494 2608.30200171038 163 163 165
295.9902316554 584.806833573329 2605.26660508505 141 141 143
288.446456970417 585.728766311142 2608.37069565554 149 149 151
279.370088179443 586.834059983173 2610.13507984376 154 154 156
274.849861392867 587.392744393729 2615.95806786988 135 135 137
272.627575958754 587.675458740192 2623.79135805529 166 164 167
278.085150701893 587.036866819717 2638.30437108058 163 161 164
278.987558783507 586.943876670854 2648.75796064462 168 166 169
277.610895137042 587.123626130713 2657.1836633773 170 168 171
276.254008726297 587.300423643061 2665.58982547711 182 180 183
276.465534330704 587.288768154261 2675.30054100918 186 186 188
277.481037886455 587.180092234125 2685.64448128768 185 185 187
274.637784628804 587.533807236079 2692.66666067587 183 183 185
269.466749141607 588.1662976797 2697.70809354526 179 179 181
263.514214635188 588.892031226865 2702.09453804373 179 179 181
256.774732934887 589.711786568389 2705.83196488306 179 179 181
251.599627648056 590.343492760738 2710.87755503565 181 181 183
247.212834115182 590.88028447042 2716.57127759997 179 179 181
243.620387859715 591.321328817067 2722.90760015337 176 176 178
240.036130761418 591.761117952936 2729.23563843026 175 175 177
236.460441649787 592.199460107077 2735.55572027499 173 173 175
232.09749190603 592.731830676443 2741.22641904685 175 175 177
222.954399451893 593.837503128101 2743.05734267747 175 175 177
215.391222892582 594.753226400873 2746.18127951021 172 172 174
208.61837765205 595.573780592742 2749.95138092647 170 170 172
204.248485211291 596.105775016114 2755.6293673353 171 171 173
200.688186811121 596.540185024337 2761.93440930349 183 183 185
196.32916533929 597.070232338988 2767.60155061929 200 200 202
189.547527905548 597.890643543248 2771.38074178888 188 188 190
179.514495635098 599.100988968569 2772.66267103332 178 178 180
169.458804952502 600.313837033811 2773.9667305269 166 166 168
160.195653491245 601.431283607866 2775.91513431624 161 161 163
153.364243306556 602.25662621314 2779.74268386239 189 189 191
147.34469477427 602.984308334251 2784.19572412281 199 199 201
136.397456660971 604.303198377113 2784.95252111886 186 186 188
126.246459212381 605.526233340949 2786.34971602079 170 170 172
116.89748260744 606.652920417666 2788.3816418623 159 159 161
110.836149405706 607.384808721415 2792.87555324521 178 178 180
103.114597548942 608.315721241966 2796.15451412534 171 169 172
97.0430432796836 609.048426323072 2800.65845446006 184 182 185
90.1358225982345 609.881262137114 2804.56017745719 180 178 181
82.3873425863719 610.814861753568 2807.86548124182 174 172 175
71.2830681842465 612.151130993955 2808.77564895629 172 170 173
59.314278106863 613.591036899723 2809.11206674459 141 139 142
48.1552464566875 614.933678441845 2810.07566739243 151 149 152
31.9175325529311 616.885796336526 2807.49026266575 148 146 149
12.2542380322783 619.249040742815 2802.57743285731 135 133 136
-7.4739788642475 621.620043826463 2797.72826304071 139 137 140
-23.0280340550055 623.489837690983 2795.89338972112 118 116 119
-31.8298505378474 624.549062838646 2798.80885763423 107 107 109
-35.5359792793624 624.996536846251 2805.25711827573 145 145 147
-37.5266358730002 625.238034094249 2812.86615162561 147 146 151
-39.5010934308848 625.477489196399 2820.45940092178 141 140 145
-41.4592704466759 625.714996777274 2828.03710908377 176 175 180
-47.6989130139023 626.466487375175 2832.70484925 177 176 181
-55.6643152648011 627.425074733553 2836.22186684734 192 192 194
-61.9140357715118 628.177704840295 2840.89978397954 195 195 195
-67.3018761280182 628.82697156264 2846.15402776245 190 190 190
342.996486473326 571.624432049205 2539.28206122521 226 228 225
349.48996175589 570.913993505773 2555.61118507835 197 199 196
353.828590011645 570.452745288781 2569.79220786702 197 199 198
350.065972556342 570.931412915441 2576.29161439111 200 200 202
347.797791651696 571.236011604844 2584.16724496089 187 187 189
341.075401183203 572.057458336661 2587.88711212564 199 199 201
336.586406170752 572.618868963228 2593.67868360484 198 198 200
331.352836656795 573.266437011378 2598.77998522386 170 170 172
328.372156714083 573.651511411306 2605.93399643653 176 176 178
319.38149607862 574.734783093549 2607.61686384179 182 182 184
307.352798736774 576.171008145076 2606.59606729823 149 149 151
291.506345692611 578.050938377987 2602.21589474124 153 153 155
281.674600822931 579.231190821998 2603.30239035065 129 129 131
269.538351236172 580.679205478137 2602.38665227779 161 161 163
267.279975704017 580.977627701021 2610.25312100479 129 129 131
268.85992917419 580.828853580852 2621.45938998834 163 161 164
276.606330772661 579.961685221342 2637.98441340422 168 166 169
277.504542697004 579.890793617359 2648.43924150117 165 163 166
275.353206395463 580.174306592606 2656.20162227014 171 169 172
272.445753800572 580.545255109209 2663.28500544331 183 181 184
272.647115551271 580.55375096014 2673.00283547315 186 186 188
273.652241336465 580.468008435693 2683.35335364337 184 184 186
273.133076075171 580.559187873857 2692.35754773166 181 181 183
268.737781509783 581.101444451335 2698.05890424187 178 178 180
262.783227692603 581.824795414018 2702.44804393271 178 178 180
255.257574162358 582.730952868989 2705.53613366658 181 181 183
250.078279320314 583.363364127821 2710.58577990091 180 180 182
244.899626005138 583.995281730213 2715.63486205178 179 179 181
242.090694015892 584.35056687359 2722.62272784686 176 176 178
238.502430020829 584.79636168983 2728.95419523653 176 176 178
235.71610182263 585.148148609095 2735.92013216895 175 175 177
228.168934624833 586.054688935052 2739.02952870458 172 172 174
219.015805801552 587.148194775985 2740.87187897589 174 174 176
213.840934640801 587.777512699962 2745.91758962284 172 172 174
208.666746447055 588.406449680964 2750.96267837666 172 172 174
205.099844103413 588.847576065932 2757.27362332278 168 168 170
200.736075494319 589.381258727227 2762.94494131341 175 175 177
196.37679432977 589.914169283943 2768.611917322 203 203 205
189.594991968189 590.729382538834 2772.39204052202 192 192 194
177.939729963037 592.11302914053 2772.42509755837 180 180 182
170.319036360115 593.025742774749 2775.60659448894 170 170 172
159.427784284098 594.319943208913 2776.31144563573 162 162 164
153.411296730139 595.044939660836 2780.76184324014 175 175 177
145.75391943926 595.961334355579 2783.979223556 194 194 196
135.623451132148 597.166213524746 2785.35871613549 188 188 190
124.647815429213 598.469636604048 2786.14599836831 175 175 177
116.944145573526 599.39092371092 2789.40862478897 158 158 160
111.709192852265 600.023688052402 2794.51348793467 166 166 168
104.818084823279 600.849703097728 2798.40055677835 172 170 173
96.2589008652248 601.870438737621 2801.08077574002 168 166 169
89.3498761638019 602.69824071358 2804.98537199672 185 183 186
79.9307315327993 603.819090347112 2807.08783849693 160 158 161
69.6570202254332 605.039714750356 2808.60758419647 175 173 176
56.0077842626914 606.654671902699 2807.75234277326 143 141 144
44.0009688960066 608.077729941062 2808.1290103434 148 146 149
27.7537937663332 609.996248965979 2805.5579666522 147 145 148
7.23730331771888 612.4137483098 2800.06778268098 134 132 135
-11.6564879769623 614.641683910122 2795.82807053595 137 135 138
-28.9159325714881 616.678823283977 2792.82744619196 110 108 111
-35.1817875179812 617.431069671334 2797.52144177493 120 120 122
-38.8957894970878 617.8850203265 2803.97656341207 153 153 155
-39.1869408647878 617.938757088479 2812.75987034455 137 136 141
-42.8765780635807 618.389649213856 2819.19091160203 171 170 175
-44.8427163103515 618.638905798724 2826.77445104442 169 168 173
-51.9491685970985 619.489178936922 2830.87177458389 149 148 153
-57.3401552230162 620.138842296519 2836.12908403603 189 189 191
-62.7305046301285 620.788484293387 2841.38576387787 168 168 168
-65.5245727977376 621.134465543734 2848.36024478967 179 179 179
351.14427998822 563.388286166562 2547.99549660386 219 221 218
352.498225355811 563.298579295374 2559.41746486068 197 199 196
355.365648597865 563.037736295711 2572.19563969534 189 191 190
352.347701370953 563.438093733319 2579.38439904584 204 204 206
348.598799812454 563.920120018832 2585.87002691532 186 186 188
339.643130346452 564.987671531402 2587.52013316426 189 189 191
334.403009151939 565.636507789187 2592.6277532581 195 195 197
329.912236046362 566.200517772208 2598.42104406829 183 183 185
324.674834205807 566.84803822658 2603.52615827862 155 155 157
315.673987314144 567.919280131394 2605.22058094073 170 170 172
303.635423565625 569.332571781397 2604.21297143157 143 143 145
288.535769154724 571.090859816168 2600.52610477353 135 135 137
276.420458555758 572.51275214934 2599.59377268617 111 111 113
265.03089545179 573.852583638126 2599.36946264045 117 117 119
260.473179778765 574.421465181445 2605.22850839523 97 97 99
262.799473280494 574.212964976146 2617.11938750153 167 165 168
271.295972989055 573.307061418832 2634.32218676864 169 167 170
272.180095339438 573.259528620013 2644.78755359961 168 166 169
272.325506697798 573.294626072892 2654.557011491 173 171 174
270.954193641085 573.500308984548 2662.97323021412 186 184 187
271.925463784394 573.440816836073 2673.35382558509 187 187 189
271.376005260305 573.552369015089 2682.38475240697 183 183 185
270.850569169929 573.660584902593 2691.39265554147 179 179 181
266.449336959292 574.206348511535 2697.09972772545 176 176 178
259.706633725989 575.016409862651 2700.84144852024 178 178 180
252.956770391009 575.826931592154 2704.59021135811 179 179 181
248.557334671003 576.371289348378 2710.29570738476 179 179 181
244.162177876248 576.914737418622 2715.99675098458 180 180 182
241.350981670243 577.278475184966 2722.98561588639 180 180 182
236.96873448612 577.819676620987 2728.67417210357 179 179 181
232.591040407052 578.359891283984 2734.35835286474 177 177 179
225.036077783316 579.259440517761 2737.47686149592 170 170 172
218.267361064715 580.069685418646 2741.24438693758 173 173 175
213.889654343193 580.608958174201 2746.92871946641 171 171 173
208.715209969507 581.238045388408 2751.9740404063 174 174 176
203.541491349235 581.86671678132 2757.01870212052 166 166 168
199.173761334799 582.403745790877 2762.6937970984 166 166 168
195.617488282422 582.84846911971 2768.99331753245 204 204 206
190.451600357632 583.475327765461 2774.03047117354 205 205 207
179.609364467398 584.745392922908 2774.69021570661 182 182 184
168.740621285545 586.018563870342 2775.37582333771 176 176 178
155.400774673465 587.571831027347 2774.22280931204 163 163 165
148.557470236407 588.388206125424 2778.06349542027 166 166 168
140.069624431026 589.390972158121 2780.67586828385 176 176 178
134.029142687341 590.115927079935 2785.1500986115 187 187 189
123.872165291178 591.307813776053 2786.55783539014 181 181 183
116.991009290691 592.127869741847 2790.43556462976 170 170 172
108.449858013341 593.136146915332 2793.10005607081 156 156 158
100.722328275692 594.051979912843 2796.38718182196 168 166 169
92.1535879425766 595.063233890154 2799.07862963292 155 153 156
86.8992726963818 595.697996919364 2804.20242464694 179 177 180
78.3086828540656 596.711533623873 2806.91523195745 153 151 154
68.0309107349757 597.916702442892 2808.44095658966 168 166 169
52.7017477034235 599.695828065675 2806.395824916 143 141 144
39.0070505239963 601.289436597466 2805.58922031179 145 143 146
22.7483733450042 603.174614030836 2803.03452619826 147 145 148
-0.311293041030059 605.833058968885 2795.7830760792 131 129 132
-18.376491148056 607.924146455226 2792.15769405917 133 131 134
-35.6510719467598 609.925676776571 2789.17770103408 103 101 104
-38.5335204036918 610.29070158944 2796.23713024946 117 117 119
-40.552096352712 610.55741904395 2803.87016039644 132 132 134
-40.8472218154037 610.627814262203 2812.65495155143 151 150 155
-45.3963183791499 611.182059437665 2818.50726381007 169 168 173
-49.083159460781 611.638070130998 2824.93510980176 154 153 158
-55.3398904264113 612.386394760749 2829.62062477093 161 160 165
-59.8773367513972 612.939112269674 2835.4615939587 174 174 176
-65.2734695684969 613.589601294918 2840.72389162173 158 158 158
-68.9385004270346 614.042980400734 2847.13046868696 181 181 181
358.556499170352 555.289851737685 2556.00210515828 216 218 215
355.50634676474 555.703409317892 2563.22089375199 196 198 195
356.163807862281 555.712637870551 2573.90294925475 186 188 187
352.406202932336 556.20164179047 2580.39585056742 204 204 206
347.170833427447 556.850999429979 2585.49867510323 187 187 189
339.700970646959 557.743401128245 2588.53339689269 184 184 186
332.219814856324 558.636577832788 2591.57921826258 188 188 190
327.722819296405 559.204173274307 2597.37815813273 186 186 188
318.725236607344 560.262089501518 2599.07130892273 156 156 158
308.955940585639 561.404011877093 2600.1014570703 151 151 153
296.145082249428 562.877736452475 2598.43490622564 146 146 148
283.295771455299 564.35583682055 2596.80589249988 130 130 132
270.407988290942 565.838168069516 2595.21445708412 119 119 121
260.523799224741 566.992363207932 2596.35688181433 119 119 121
258.241413195185 567.315529310173 2604.24387402762 88 88 90
263.618880841198 566.800462699874 2618.81817759765 171 169 172
270.584065895568 566.110519373254 2634.67585749014 165 163 166
272.234011494169 566.000833804683 2645.80684598463 172 170 173
271.60859799991 566.13920969631 2654.90923268169 174 172 175
270.235095476475 566.358836354869 2663.32590253992 187 185 188
271.203790285532 566.321235012185 2673.70548196235 187 187 189
269.099970561073 566.619308403911 2681.41852604466 182 182 184
268.56828463094 566.744587579131 2690.43011341596 179 179 181
264.160926168066 567.293865549942 2696.14274963783 176 176 178
258.193985115149 568.013690354933 2700.54437335944 178 178 180
250.65621024449 568.90551328314 2703.64661840033 180 180 182
246.250647733739 569.453444437946 2709.35767027401 180 180 182
242.637046711095 569.914004317001 2715.71177759479 181 181 183
240.611435122581 570.199846539546 2723.34930544542 181 181 183
233.852194907754 571.004768958701 2727.10820723922 179 179 181
228.672953891526 571.635935086577 2732.15798405353 176 176 178
221.903324425335 572.441489094441 2735.92710917898 170 170 172
216.721516775609 573.072359614574 2740.97947838898 173 173 175
213.139181181109 573.52701898044 2747.30374861269 171 171 173
209.565288203512 573.980289691753 2753.61984043554 172 172 174
204.393247395308 574.608926476274 2758.66284117268 165 165 167
200.027045590329 575.148635856741 2764.33568461634 164 164 166
194.051256927817 575.865081374783 2768.7469314442 203 203 205
188.881286548462 576.492543132039 2773.78804988341 209 209 211
177.223969148019 577.833814387425 2773.82941101535 183 183 185
167.975293374366 578.910015410546 2775.76953630733 177 177 179
156.263114856273 580.257406702361 2775.86447080138 162 162 164
148.60483859966 581.158287987002 2779.08503667874 165 165 167
142.573178639443 581.879860483017 2783.55100676604 167 167 169
135.71753322569 582.692012412301 2787.40457182907 186 186 188
125.564588826014 583.867485548485 2788.81106754156 181 181 183
116.213467740188 584.954580044391 2790.85097465043 178 178 180
104.364315348056 586.317162122618 2791.08001887665 168 168 170
96.6270153184947 587.226295513506 2794.37783687103 153 151 154
87.2180367326627 588.319769849795 2796.47425439508 154 152 155
81.9520072027222 588.956098103843 2801.60945052648 152 150 153
73.3497588371637 589.96043119286 2804.33519521326 163 161 164
63.0603126155411 591.151120650434 2805.87465244517 144 142 145
48.5579599104264 592.806995802923 2804.44394942024 135 133 136
31.4932760284541 594.746225274198 2801.26439585044 139 137 138
13.5334084318441 596.784806868549 2797.54251726639 151 149 152
-11.2351570177149 599.576058212299 2789.13424397338 123 121 124
-25.9417481304429 601.256147671793 2787.90277384241 122 120 121
-40.6903399710212 602.941132246521 2786.7119497172 96 94 97
-40.1856674540277 602.940049805621 2796.1300033397 113 113 115
-42.2080014146817 603.218078243372 2803.7654313314 140 140 142
-41.653627421435 603.210848079318 2813.13503928406 144 143 148
-46.2046625669834 603.768109178663 2818.98883083086 173 172 177
-50.7511483770311 604.324796761983 2824.83818958567 150 149 154
-57.0117252478628 605.071070569654 2829.52782670615 186 185 190
-62.4142786937556 605.722427986004 2834.79637180066 148 148 150
-66.9530263817379 606.278140056083 2840.6381906663 165 165 167
-71.4871001722175 606.833308838034 2846.47578642237 194 194 194
356.410862518029 548.248626371165 2554.92237831135 208 210 207
355.565872657109 548.438464236309 2564.23553937123 194 196 195
354.744547631314 548.624876506768 2573.52570720139 188 190 189
350.982819151684 549.119871328598 2580.02215564917 193 193 195
345.000098683659 549.848112981676 2584.43820455678 203 203 205
339.014021486814 550.576263530822 2588.85793805284 168 168 170
331.530620671309 551.461821433673 2591.90711482118 181 181 183
326.282370763592 552.111387600784 2597.02269896711 196 196 198
314.277677024521 553.473293305565 2595.98905085815 157 157 159
302.991160621065 554.759580014292 2595.67066565261 146 146 148
290.164602565275 556.208541425976 2594.02336484635 147 147 149
278.812675842635 557.501937290556 2593.76854448258 128 128 130
265.913105075394 558.958953222527 2592.19255592354 103 103 105
256.777623839054 560.018201194028 2594.02278302028 108 108 110
255.247309118326 560.272823516841 2602.58965952264 80 80 82
262.909702646718 559.55383642808 2619.17654090886 162 162 164
269.872104643724 558.907392684542 2635.03021735707 171 171 173
272.287991834752 558.740922036764 2646.82625449721 172 172 174
271.66216398015 558.895625561204 2655.92663944322 180 180 182
271.060380087092 559.046960595794 2665.0039840833 183 183 185
272.030724039819 559.030809358168 2675.37909340752 186 186 188
270.704449962373 559.257291393938 2683.74751365697 180 180 182
267.064354225465 559.728608386936 2690.12667856592 177 177 179
261.872736935331 560.364076791221 2695.1881093286 175 175 177
255.89969656804 561.082134852165 2699.59605088355 177 177 179
249.139828273849 561.883467345552 2703.35644480089 181 181 183
243.944204152051 562.518232013691 2708.42195841854 180 180 182
240.324472825884 562.985078300188 2714.78122409306 179 179 181
237.502922528471 563.366544182448 2721.77775055291 181 181 183
231.527387891868 564.083075614141 2726.18873243129 180 180 182
227.135526690117 564.630707790988 2731.88588504941 175 175 177
221.157405507708 565.346798703134 2736.29950051461 173 173 175
217.568320149157 565.80814689783 2742.62948474782 173 173 175
210.790156337841 566.60885042844 2746.40780150256 174 174 176
207.210133056721 567.068407547194 2752.72905167915 171 171 173
200.425555347957 567.869241509985 2756.51371825105 167 167 169
196.854677563054 568.327173943013 2762.82612694255 164 164 166
189.256662140109 569.214266665284 2765.98889086475 179 179 181
184.074892442699 569.843304367304 2771.04149327727 211 211 213
175.64975123287 570.818394486022 2773.59535219653 188 188 190
165.584224869648 571.968576733688 2774.91877848883 176 176 178
154.681153862731 573.208305715556 2775.64341686558 161 161 163
146.201962322973 574.189089329483 2778.25010706537 157 157 159
141.801864356031 574.733884385415 2783.95619608031 161 161 163
134.123554761335 575.628829164037 2787.19753277153 199 199 201
124.789027544463 576.70085859727 2789.22318853291 173 173 175
114.611425464387 577.863177867664 2790.65577598018 179 179 181
104.411417085631 579.028013925986 2792.11057907509 171 171 173
95.8454857171978 580.017933924349 2794.80205285338 162 162 162
87.2649919265269 581.009440834207 2797.50809062939 155 155 155
80.3343836638479 581.824337021993 2801.43602715133 150 150 150
70.0596864047629 582.997363492992 2802.96344902711 166 166 166
58.0901027102576 584.352290468106 2803.31287689578 147 147 147
42.7380964414308 586.070095238377 2801.29982993163 140 140 140
23.9801190737712 588.153654607659 2796.94659129326 131 131 129
4.31903531370637 590.334776898086 2792.05882157806 141 141 141
-22.1584167637903 593.24815972224 2782.49529051168 129 129 129
-37.7359581987582 594.992670241339 2780.70191836152 102 102 100
-48.2724370917902 596.196474077932 2782.48508223045 94 94 94
-46.0860361937416 596.033944523885 2793.09083515831 116 114 115
-47.2704956273549 596.233100520311 2801.3228079887 119 117 118
-48.4350535048308 596.42964270962 2809.5350667572 171 169 172
-50.4350780981913 596.715780967951 2817.14680474745 163 162 167
-54.133669581018 597.184300156614 2823.58447031109 164 163 168
-56.9645674220856 597.559278497836 2830.5912378757 190 189 194
-64.0898353193355 598.396103550705 2834.7088953737 158 157 162
-69.4956216844713 599.048045434374 2839.9805644208 176 175 180
-75.7658693106307 599.793002734878 2844.67999932347 199 199 201
-81.1722928945717 600.444965981276 2849.95229798085 199 201 200
347.808407885612 541.722971840503 2537.50626557212 148 150 149
357.206224030957 540.891536245709 2556.63719443868 205 207 206
355.62544201526 541.172245845404 2565.25033002286 195 197 196
353.325439503821 541.525095811736 2573.15009055895 189 191 190
348.818469864254 542.1013492322 2578.95765519212 180 180 182
344.315545844097 542.676663409766 2584.76100344311 207 207 209
339.816889015218 543.25090892063 2590.56027225855 167 167 169
331.588358651738 544.204325428042 2592.92243489323 164 164 166
324.842294829105 545.006571245637 2596.66898577733 172 172 174
312.082672260786 546.421455973955 2594.95991571945 154 154 156
298.53209129286 547.917334827173 2592.60773667289 151 151 153
284.939137005808 549.417936337874 2590.29693695189 140 140 140
272.816884549621 550.76892229412 2589.38164032092 127 127 127
260.660081930683 552.123644674682 2588.50010027043 103 103 103
253.031591658086 553.015817581333 2591.6923753198 108 108 108
255.303241704686 552.895494579105 2603.62448363272 91 91 91
262.964972338947 552.222409836858 2620.20523893584 164 164 166
270.693173058014 551.540663678031 2636.72093077374 172 172 174
271.573718401528 551.558490049216 2647.17985172664 172 172 174
270.175571524034 551.808614540088 2655.61648622646 179 179 181
268.025117357234 552.135093035977 2663.3716407374 184 184 186
270.535284881862 551.982784628897 2675.07162509757 185 185 187
269.980871473341 552.143745115829 2684.10050750859 178 178 180
265.560429025868 552.700700389005 2689.82466377666 175 175 177
259.584769530341 553.416952717016 2694.2358108932 175 175 177
255.16943587272 553.972526835725 2699.95509819145 178 178 180
249.974848305377 554.607721033556 2705.01951901089 181 181 183
243.209357849538 555.404143804732 2708.78588363067 180 180 182
239.587554157122 555.876751893289 2715.14669344567 180 180 182
235.184436116197 556.429341303166 2720.85429159462 180 180 182
232.369021163264 556.817935550517 2727.84367199747 179 179 181
227.185398187614 557.449948938138 2732.89767493764 176 176 178
221.207087036759 558.163587108113 2737.31184155853 174 174 176
216.02287501379 558.794996613003 2742.366518685 174 174 176
208.441309728148 559.673469994346 2745.51422131251 175 175 177
204.053813792079 560.222085049581 2751.20689388828 173 173 175
199.671101008191 560.769818714853 2756.89528483427 170 170 172
194.487708389067 561.399857091099 2761.94935093282 168 168 170
186.883748679581 562.279826846804 2765.11907039078 160 160 162
180.077777879085 563.077136537537 2768.92550150489 179 179 181
171.642994721378 564.042814750314 2771.49066393851 185 185 187
164.00624272056 564.925857056512 2774.6924925049 176 176 178
154.729007672957 565.978709676202 2776.66442846193 163 163 165
145.432943746545 567.033536231368 2778.65443218516 153 153 155
139.39320878303 567.751114359605 2783.12901123593 154 154 156
130.888393691983 568.723970083199 2785.76265558165 181 181 183
124.013862108026 569.52780007232 2789.63620487 187 187 189
113.834236780915 570.674482306414 2791.07311257861 175 175 177
106.111534480567 571.566237135809 2794.35900335589 174 174 176
98.3778858977877 572.459165527141 2797.65559050149 169 169 169
88.9728663634526 573.52570968991 2799.75239473876 154 154 154
78.7167857816682 574.680733009497 2801.26399083669 146 146 146
66.7696515261369 576.011836973894 2801.59464711118 158 158 158
52.2841168214816 577.607124358742 2800.15619840878 149 149 149
35.2424326682663 579.468904714176 2796.96559055581 143 143 141
17.3071929182411 581.42437391752 2793.23120228914 126 126 124
-3.21111074364122 583.649568627226 2787.77124140644 137 137 135
-27.1739764907575 586.234473710064 2780.01030360344 107 107 105
-40.225515657351 587.683976872746 2780.0032416132 89 89 87
-49.072301041305 588.695815567592 2782.97070584891 97 97 95
-51.1364122294062 589.000794770317 2790.64329809176 114 112 113
-54.8874769060799 589.481354170865 2797.13129077452 152 150 151
-55.2158701499379 589.604622087797 2805.94130276623 146 144 147
-57.2314695343419 589.903515091258 2813.56662160847 130 129 134
-59.2308701522466 590.200395467228 2821.17615230157 184 183 188
-62.93274302001 590.674812427463 2827.61620464089 147 146 151
-66.6263648396508 591.148172765475 2834.04788189376 172 171 176
-70.3114011836021 591.620496698777 2840.47152466451 187 186 191
-76.5836239601772 592.363167338835 2845.17325888816 214 213 218
-81.991962431581 593.015548893703 2850.4473972313 211 212 214
353.001692066927 533.886318160731 2543.42655250869 190 192 191
355.795990142345 533.754105623856 2556.25833018858 203 205 204
352.736766181073 534.193190427545 2563.48235405868 190 192 191
348.950550181517 534.702653273863 2570.00098060804 189 190 192
345.172281288777 535.210626063978 2576.51159795051 180 180 182
342.145187185558 535.644186167874 2583.70453294482 177 177 179
336.895470025901 536.295146166349 2588.82136808595 178 178 180
330.152617619636 537.092181174525 2592.56550014148 157 157 159
322.653455002821 537.963273800288 2595.63246657315 190 190 192
310.638721284548 539.278208703915 2594.61573057585 161 161 163
297.084114799395 540.745169593129 2592.27182298985 145 145 145
281.223163764626 542.43977351078 2587.93310045833 137 137 137
269.091211980923 543.767850933435 2587.03115911622 124 124 124
256.924531787515 545.099700289177 2586.16280826627 124 124 124
250.806813622072 545.835112753017 2590.71185204035 135 135 135
255.359292969608 545.516794397042 2604.65939256255 136 136 136
262.255883166774 544.965141507117 2620.56474889611 162 162 164
269.215241197615 544.405369343525 2636.40897586805 171 171 173
269.323275936978 544.521277983692 2646.20360543644 178 178 180
268.688985350812 544.709556639807 2655.30776945219 181 181 183
266.534265148227 545.047452685778 2663.06547269081 185 185 187
268.266058305157 544.999390900281 2674.10607738173 185 185 187
266.929435700578 545.254349123425 2682.48090294553 177 177 179
262.500910134758 545.815183390188 2688.21251255605 175 175 177
256.517238591426 546.529851135767 2692.63184995509 177 177 179
252.09382262322 547.089215692992 2698.35860288207 179 179 181
250.02623918663 547.414033371723 2706.03171100091 181 181 183
244.831993372043 548.049007579709 2711.09582496922 181 181 183
241.213795265911 548.526733680927 2717.45229794371 181 181 183
235.234990361358 549.238913944822 2721.86683250521 180 180 182
232.419287431573 549.635800131938 2728.85527332825 179 179 181
227.235428996053 550.268020109497 2733.90947954965 176 176 178
220.461475751515 551.058449936982 2737.68547144016 174 174 176
215.275093468904 551.690339428477 2742.74223272473 174 174 176
206.092770249763 552.720714006485 2744.62290423579 175 175 177
200.096826070304 553.432978001477 2749.05478381721 175 175 177
194.097695796819 554.145348810114 2753.4898114501 173 173 175
189.705566286225 554.696788816448 2759.18666770733 171 171 173
184.511014260391 555.32808659116 2764.25162912317 159 159 161
177.699096199083 556.120927287473 2768.0646264706 163 163 165
170.069258119827 556.995579458625 2771.26082946897 194 194 196
161.615654990932 557.952662026081 2773.84595084482 174 174 176
151.517560420688 559.074648134727 2775.20554738317 160 160 162
140.580245545998 560.281042504534 2775.96911726794 154 154 156
132.072611730229 561.243992997359 2778.60702463777 154 154 156
123.55022796225 562.208419658655 2781.25936075113 172 172 174
119.948386370656 562.678760120434 2787.60034521718 192 192 194
113.057235154008 563.479247108385 2791.49122998258 171 171 173
107.811815135196 564.11421555144 2796.60616154423 172 172 174
100.08200094209 564.998817703106 2799.9001716988 162 162 162
89.8503182935642 566.135226989761 2801.39029143427 154 154 154
79.5961685600859 567.274114796503 2802.90235499304 146 146 146
65.1486534956547 568.835655507791 2801.43113996948 152 152 152
52.3314574299132 570.233591142363 2801.198993474 149 149 149
33.6136713385971 572.226903292797 2796.81918280362 146 146 144
13.9947833789167 574.312188983475 2791.90367664245 124 124 122
-9.8988832337561 576.829902824431 2784.08395391221 134 134 132
-32.189104409404 579.187415874626 2777.52982024406 103 103 101
-44.4062429478618 580.528898631749 2778.12739862385 93 93 91
-51.5673874649907 581.360074380042 2782.28151710049 105 105 103
-53.6372132615806 581.676699679371 2789.95840058805 127 125 126
-56.5428326375588 582.077415775777 2797.03522587045 151 149 150
-56.8752438398326 582.217495100732 2805.8467430355 128 126 129
-59.7502110678336 582.614363453346 2812.89403681868 159 158 163
-61.7554936426372 582.922894576342 2820.50768640662 161 160 165
-65.4631991938444 583.403560424279 2826.95260710395 147 146 151
-67.440081117399 583.708599647156 2834.53857052666 179 178 183
-69.4008498472707 584.011695999182 2842.10882046532 193 192 197
-75.6710089138664 584.751600300682 2846.80891425808 220 219 224
354.528785111964 526.430727100085 2545.84587827858 197 199 198
355.856234912303 526.466219496069 2557.27565262836 199 201 200
351.322363950348 527.0523933489 2563.10812659477 188 190 189
347.531857321949 527.567822229195 2569.63013202477 190 191 193
343.008374745642 528.151713475314 2575.45262753895 182 182 184
342.203769469575 528.38375322069 2584.7194486896 171 171 173
336.953722263466 529.03481379559 2589.83659670659 196 196 198
330.210556388577 529.826640095911 2593.58180988584 162 162 164
320.464859878383 530.902461249332 2594.59829310139 175 175 177
310.696219042267 531.980703148994 2595.63720258652 167 167 169
295.636166116655 533.560925281582 2591.93732913074 139 139 139
280.525980222022 535.146877783231 2588.28639150826 134 134 134
264.609199360794 536.810354068964 2584.00804731212 127 127 127
250.913649378693 538.263842685343 2581.80575205616 133 133 133
251.624110095523 538.347648836751 2592.42415561697 139 139 139
256.940257641852 537.99159712369 2607.03584862009 143 143 143
262.31140328118 537.628376151817 2621.59398731717 161 161 163
266.205096746037 537.404063832478 2634.76490859063 171 171 173
265.536757499504 537.613264072311 2643.89979122852 179 179 181
265.662415768719 537.745555651268 2653.67449898005 183 183 185
265.815840701424 537.874022472552 2663.42219932177 184 184 186
269.093137434285 537.702620808519 2675.78014433067 184 184 186
265.430140737415 538.193719400188 2682.17912651975 177 177 179
260.219553257397 538.832404861902 2687.25891948173 176 176 178
253.449790415978 539.619990191756 2691.03083281352 181 181 183
251.363925859293 539.958333019684 2698.7204331857 182 182 184
249.294053434588 540.294319010223 2706.39416363197 181 181 183
244.883244867142 540.854305535252 2712.10830529705 182 182 184
242.052303526472 541.261987574574 2719.11028246512 182 182 184
236.075432329483 541.971404850869 2723.52364303678 179 179 181
231.678238944522 542.528613526933 2729.22467518925 177 177 179
224.905161393076 543.314110553529 2733.0001887274 176 176 178
219.715883635918 543.94683681621 2738.05970158658 173 173 175
214.527331632172 544.579147257595 2743.1185552201 173 173 175
207.740974712223 545.365243882805 2746.90750458906 175 175 177
200.947332051579 546.151888731932 2750.70326993698 178 178 180
193.343574783562 547.016648493854 2753.87503639801 177 177 179
188.144213741987 547.649053756437 2758.94460955134 176 176 178
182.945557195248 548.281045877707 2764.013544193 164 164 166
176.938677785244 548.990943911782 2768.456632308 151 151 153
168.495881871791 549.936491935444 2771.03272675969 201 201 203
160.851110628179 550.804771033534 2774.24470054843 183 183 185
149.936241679684 551.990055401483 2774.98910134573 156 156 158
138.178140788656 553.257524748794 2775.14144986346 149 149 151
127.208516476888 554.44897478998 2775.93931226211 150 150 152
119.494985314261 555.324654338642 2779.21847188353 158 158 160
115.883396471577 555.801783112491 2785.56847004643 182 182 184
112.28025215824 556.277594997429 2791.90993946048 172 172 174
104.553651251087 557.154172046818 2795.20228272319 171 171 173
95.1591416963784 558.193163169783 2797.29238488058 164 164 164
84.9158705181354 559.315023338354 2798.79616255067 157 157 157
73.8178425283618 560.52053782565 2799.71945298075 153 153 153
61.8593606976474 561.810395348336 2800.06781161321 145 145 145
49.0344758831172 563.185270475071 2799.84670849193 150 150 150
32.8232980200629 564.8913568748 2797.27131643207 140 140 138
10.6827065624944 567.177494981531 2790.57914742741 122 122 120
-14.0602703152233 569.719502535138 2782.18230242763 128 128 126
-33.828351257974 571.777069967818 2777.41904385056 110 110 108
-43.5121208737801 572.849607960727 2779.79142731194 107 107 105
-49.8234580610024 573.592403634392 2784.53198424366 113 113 111
-53.5889525273481 574.085897763 2791.03239417372 124 122 123
-56.4946472944063 574.494878999356 2798.1080727365 127 125 126
-55.9735786610558 574.567638893649 2807.49926875019 174 172 175
-58.8469184122693 574.972600234985 2814.54341244267 168 167 172
-63.4223366973039 575.544244193269 2820.41962886915 151 150 155
-67.1341715255793 576.030927740965 2826.86742274426 161 160 165
-68.2536130311209 576.262782075629 2835.02999901082 199 198 203
-71.9428300796272 576.746761714869 2841.45573273276 219 218 223
-79.0838163525511 577.569899057407 2845.59135968976 224 223 228
318.200341226326 522.221736882249 2501.7730725823 179 181 180
353.85654374068 519.183513203853 2546.16764962897 197 199 198
352.976162506393 519.443120689283 2555.50564292637 197 199 198
350.645289135267 519.832825992 2563.43061147985 193 194 196
345.374373533072 520.488021064887 2568.56787104565 189 190 192
341.585755931288 521.0081946692 2575.08729937616 180 179 184
340.033761586425 521.324459910765 2583.66659326931 175 174 179
334.777527057363 521.976418433689 2588.78975267312 191 191 193
328.02822340223 522.763711304351 2592.54173079782 182 182 184
317.527619590619 523.892479282971 2592.8827754459 153 153 153
308.501785522918 524.88719129587 2594.61365966979 166 166 166
294.188380166679 526.364660298796 2591.60445032555 149 149 149
279.074239556106 527.916260778777 2587.96251700826 131 131 129
263.153527942532 529.542757909072 2583.69354161033 132 132 130
260.830940197221 529.926170451445 2591.61121248213 137 137 135
251.680948384215 530.933880923733 2593.46346601587 136 136 134
256.234189973661 530.685639378566 2607.39989229856 146 146 146
260.838540144257 530.430630456117 2621.28656722004 162 162 164
265.493987728207 530.168914533091 2635.12349294646 170 170 172
266.359506139382 530.253500996994 2645.58746875276 178 178 180
264.946520422084 530.546273102914 2654.03253514099 182 182 184
265.869581634283 530.622897756512 2664.44054684732 184 184 186
268.37243981048 530.552592945353 2676.13566940287 181 181 183
265.483049167556 530.977992476993 2683.19306895449 176 176 178
259.494317569321 531.688698554427 2687.61801659567 176 176 178
252.722348707408 532.471372731486 2691.39284640466 182 182 184
249.852292611972 532.893184944085 2698.43157666899 182 182 184
246.994505677318 533.313126105473 2705.45840001585 181 181 183
244.934613156026 533.658438874965 2713.12084177664 182 182 184
242.103384107759 534.074383335695 2720.12188346033 183 183 185
235.336554987414 534.854611017454 2723.8919710209 179 179 181
228.562817878857 535.635313225609 2727.66918602307 177 177 179
221.781752512452 536.416569017644 2731.45325843217 176 176 178
217.379820067843 536.976527489644 2737.15859012229 172 172 174
212.982671044668 537.535575053324 2742.85964427806 173 173 175
206.192048742451 538.317003694509 2746.65318131867 175 175 177
200.195682378198 539.024338046765 2751.08620873488 178 178 180
192.589807367519 539.881492445464 2754.26120221504 178 178 180
187.388297324879 540.51437501467 2759.33283881249 177 177 179
181.380503000775 541.222147572798 2763.77714959513 166 166 168
175.369397482135 541.930055753388 2768.22439055596 154 154 156
168.544478617767 542.713907980824 2772.05196422679 182 182 184
159.273813787291 543.726495213243 2774.02298922575 192 192 194
146.725536777288 545.046230701294 2773.53569792206 154 154 156
134.959637331808 546.293365949535 2773.69879589061 146 146 148
125.619634534259 547.313590373238 2775.73788358433 149 149 151
118.722645364101 548.104890118638 2779.6355855523 155 155 157
113.463782385451 548.74237882395 2784.76349367814 170 170 172
108.20572992527 549.379470506399 2789.89065562696 173 173 175
102.948402141488 550.01626444098 2795.01714196841 167 167 169
93.5499953414336 551.042537856515 2797.11299381965 162 162 162
83.3029765204576 552.148965338353 2798.62311174073 155 155 155
69.7044588388933 553.571527928844 2797.74627998877 153 153 153
57.7361406197845 554.841262322892 2798.10704264794 141 141 141
44.0655197682691 556.272266006536 2797.30056281975 150 150 150
28.6808440884303 557.865886146649 2795.33797365578 135 135 133
4.85100089775026 560.258310966198 2787.47372882865 124 124 122
-21.5891021944059 562.899532244797 2777.91333502529 128 128 126
-41.3743695110438 564.913742358942 2773.17355096429 111 111 109
-47.6923178340134 565.655012718256 2777.92089829234 108 108 106
-51.4704883331856 566.155690454227 2784.43249613436 112 112 110
-53.5405567025453 566.494253252745 2792.10637814747 123 121 122
-56.4463693778374 566.911504989015 2799.18095141859 141 139 140
-57.6325152573727 567.165183877935 2807.40654045501 175 173 176
-60.5096326507963 567.578952502133 2814.45347153149 155 154 159
-64.2318497672698 568.072487971913 2820.91056246117 161 160 165
-67.0862624618391 568.483335339231 2827.93537919653 167 166 171
-69.06696085007 568.81074956925 2835.5221632508 216 215 220
-74.4843175354815 569.464769248312 2840.80501469972 229 228 233
-82.4963352010117 570.365871216339 2844.37681840848 204 203 208
347.510200926368 512.219893401643 2530.82664353191 187 187 187
354.650577424356 511.802337838186 2547.88700625636 199 199 201
355.976898174481 511.886533397496 2559.31070346342 195 195 197
353.653371534566 512.286162792081 2567.22690982776 202 202 204
348.389905986631 512.940536604906 2572.35689276142 190 190 192
343.126763894667 513.594368405941 2577.48663460763 178 177 182
338.60695226823 514.182914120493 2583.3051347279 180 179 184
334.091240215407 514.770425337123 2589.11937896732 168 167 172
328.833117442536 515.422209121397 2594.24443925145 191 191 193
317.585603321342 516.597566060622 2593.90338173256 165 165 165
307.808940878822 517.644727131714 2594.95518836632 136 136 136
292.740989150621 519.156243880976 2591.27331316393 154 154 152
281.395530315094 520.342326664991 2591.02793091908 128 128 126
265.480603388165 521.930590369978 2586.75886212537 121 121 119
263.922001446186 522.257464391435 2595.34348732908 143 144 139
