ply
format ascii 1.0
comment KinectMotionCapture
element vertex 795
property float x
property float y
property float z
property uchar red
property uchar green
property uchar blue
end_header
19.1250517964363 -125.41951239109 1904.00004386902 27 30 23
24.4498196989298 -126.077502965927 1914.00003433228 26 29 22
29.8755895346403 -126.932933926582 1927.00004577637 25 28 21
35.1716391742229 -127.063617110252 1929.00002002716 23 26 19
40.5623130500317 -127.457588911057 1934.99994277954 22 25 18
45.6301979720593 -126.863360404968 1925.99999904633 21 24 17
50.992239266634 -127.12524831295 1929.99994754791 19 22 15
56.3759170472622 -127.386972308159 1934.00001525879 19 22 15
61.9405843317509 -127.977833151817 1942.999958992 19 22 15
68.523146212101 -130.412742495537 1980.00001907349 16 19 12
74.8219639062881 -131.991133093834 2003.99994850159 15 18 9
80.9710174798965 -133.108288049698 2020.99990844727 15 18 9
90.5075967311859 -139.296531677246 2115.00000953674 13 16 9
98.2351154088974 -142.125472426414 2157.99999237061 8 11 4
102.915912866592 -140.475735068321 2132.99989700317 8 10 5
109.193131327629 -141.065016388893 2141.99995994568 9 11 8
113.531932234764 -139.217466115952 2114.00008201599 9 11 8
118.451163172722 -138.225913047791 2098.99997711182 9 11 8
124.885417521 -139.01224732399 2111.00006103516 8 10 7
132.43667781353 -140.917778015137 2140.00010490417 8 10 5
137.237995862961 -139.85987007618 2124.00007247925 9 11 6
142.018899321556 -138.867720961571 2108.99996757507 9 11 6
147.628292441368 -138.731434941292 2107.00011253357 9 12 5
154.390871524811 -139.648407697678 2121.00005149841 9 12 5
159.718811511993 -139.248386025429 2115.00000953674 9 12 5
164.700493216515 -138.58488202095 2105.00001907349 10 13 6
171.408340334892 -139.369606971741 2117.00010299683 10 13 6
178.431957960129 -140.351593494415 2131.99996948242 11 14 7
181.647926568985 -138.371050357819 2101.99999809265 11 14 7
186.21514737606 -137.509554624557 2088.99998664856 11 14 7
190.619006752968 -136.582180857658 2075.00004768372 11 14 7
200.242802500725 -139.340609312057 2117.00010299683 11 14 7
207.077965140343 -140.058308839798 2128.00002098084 11 14 7
212.471768260002 -139.788582921028 2124.00007247925 13 14 8
216.918185353279 -138.926416635513 2111.00006103516 13 16 9
223.086163401604 -139.182910323143 2115.00000953674 13 16 9
228.950560092926 -139.241844415665 2115.9999370575 16 19 10
233.26663672924 -138.379380106926 2102.9999256134 17 20 11
238.19300532341 -137.911647558212 2095.99995613098 14 17 10
244.127720594406 -138.035982847214 2098.00004959106 13 16 9
250.667870044708 -138.489112257957 2105.00001907349 15 20 14
257.488816976547 -139.073640108109 2114.00008201599 9 14 10
-76.5222162008286 -134.299263358116 1957.99994468689 19 22 15
-71.3616162538528 -134.644716978073 1963.00005912781 18 21 12
-65.9716874361038 -134.578451514244 1962.00001239777 21 24 15
-59.8763488233089 -132.934346795082 1937.99996376038 22 25 16
-54.1089214384556 -131.770178675652 1921.0000038147 23 26 17
-49.0191355347633 -132.183507084846 1927.00004577637 26 29 20
-43.623898178339 -131.773501634598 1921.0000038147 22 25 14
-38.7807004153728 -133.146822452545 1940.99998474121 23 26 17
-33.5004217922688 -133.216664195061 1942.00003147125 24 27 18
-28.0257761478424 -132.394522428513 1929.99994754791 22 25 16
-22.6872693747282 -131.983801722527 1924.00002479553 21 24 15
-17.3723623156548 -131.504312157631 1917.00005531311 20 23 14
-12.0829306542873 -130.887418985367 1907.99999237061 22 25 16
-6.84978626668453 -130.40754199028 1901.00002288818 28 31 24
-1.66094489395618 -130.407691001892 1901.00002288818 30 33 26
3.52419214323163 -130.270451307297 1899.00004863739 30 33 26
8.7075661867857 -130.27024269104 1899.00004863739 29 32 25
13.8982199132442 -130.338460206985 1899.99997615814 26 29 22
19.1947221755981 -131.092473864555 1911.00001335144 26 29 22
24.4745500385761 -131.434738636017 1916.00000858307 27 30 23
29.7505669295788 -131.639614701271 1919.0000295639 26 29 22
35.0246019661427 -131.775692105293 1921.0000038147 24 27 20
40.4561497271061 -132.391780614853 1929.99994754791 21 24 17
45.7471311092377 -132.458910346031 1930.99999427795 20 23 16
50.9377047419548 -132.251486182213 1927.99997329712 18 21 14
56.5489307045937 -133.072793483734 1940.00005722046 19 22 15
62.3848140239716 -134.236887097359 1957.00001716614 18 21 14
68.6246827244759 -136.018067598343 1983.00004005432 16 19 12
74.5208039879799 -136.907339096069 1996.00005149841 16 19 10
81.489160656929 -139.511108398438 2033.99991989136 17 20 11
89.7343307733536 -143.829330801964 2096.99988365173 14 17 10
97.184918820858 -146.432504057884 2134.99999046326 9 12 5
103.009007871151 -146.429136395454 2134.99999046326 8 10 5
108.883686363697 -146.494165062904 2135.99991798401 10 12 9
114.709660410881 -146.490409970284 2135.99991798401 9 11 8
119.801588356495 -145.594924688339 2122.99990653992 8 10 7
125.413730740547 -145.385086536407 2119.99988555908 8 10 7
131.504088640213 -145.723715424538 2125 8 10 5
138.138085603714 -146.610707044601 2138.00001144409 8 10 5
142.014279961586 -144.617453217506 2108.99996757507 9 11 6
148.464247584343 -145.298331975937 2118.99995803833 9 12 5
154.749795794487 -145.77329158783 2125.99992752075 9 12 5
159.03402864933 -144.39682662487 2105.99994659424 9 12 5
165.399372577667 -144.94001865387 2114.00008201599 10 13 6
171.64571583271 -145.345836877823 2119.99988555908 10 13 6
177.170932292938 -145.134508609772 2117.00010299683 11 14 7
183.71607363224 -145.74559032917 2125.99992752075 11 14 7
188.794240355492 -145.191133022308 2118.00003051758 11 14 7
193.920001387596 -144.70511674881 2111.00006103516 11 14 7
199.668943881989 -144.698768854141 2111.00006103516 11 14 7
206.001028418541 -145.103514194489 2117.00010299683 11 14 7
212.665125727654 -145.713657140732 2125.99992752075 14 15 9
217.52792596817 -145.089954137802 2117.00010299683 13 16 9
223.60660135746 -145.288541913033 2119.99988555908 14 17 10
227.645099163055 -144.184917211533 2104.00009155273 16 19 10
232.483014464378 -143.629431724548 2095.99995613098 17 20 11
237.503856420517 -143.210902810097 2089.99991416931 18 21 14
244.236573576927 -143.82004737854 2098.99997711182 17 20 13
250.660210847855 -144.22345161438 2105.00001907349 15 20 14
256.993770599365 -144.558116793633 2109.99989509583 5 10 6
-77.3793458938599 -141.207113862038 1980.00001907349 18 21 14
-71.9407796859741 -141.138404607773 1978.99997234344 17 20 11
-65.9021586179733 -139.785781502724 1960.00003814697 20 23 14
-59.4108588993549 -137.149155139923 1922.99997806549 22 25 16
-53.7408925592899 -136.081323027611 1907.99999237061 23 26 17
-48.7630665302277 -136.725038290024 1917.00005531311 25 28 19
-43.6678007245064 -137.154594063759 1922.99997806549 23 26 15
-38.6395007371902 -137.940600514412 1934.00001525879 24 27 18
-33.2577601075172 -137.513935565948 1927.99997329712 24 27 18
-27.8505552560091 -136.801764369011 1917.99998283386 23 26 17
-22.6864833384752 -137.23061978817 1924.00002479553 22 25 16
-17.3536334186792 -136.589378118515 1914.99996185303 22 25 16
-12.0128514245152 -135.306030511856 1896.99995517731 23 26 19
-6.80270791053772 -134.664431214333 1888.00001144409 26 29 22
-1.65127648506314 -134.807229042053 1889.99998569489 31 34 27
3.51479090750217 -135.092511773109 1894.00005340576 29 32 25
8.66599753499031 -134.806990623474 1889.99998569489 27 30 23
13.8684809207916 -135.234534740448 1896.00002765656 28 31 22
19.2141439765692 -136.446505784988 1912.99998760223 27 30 21
24.4992449879646 -136.802360415459 1917.99998283386 27 30 21
29.749533161521 -136.872708797455 1919.0000295639 26 29 20
34.859299659729 -136.372298002243 1911.99994087219 22 25 16
40.412824600935 -137.512162327766 1927.99997329712 21 24 15
45.8639934659004 -138.081222772598 1935.99998950958 20 23 14
50.9623624384403 -137.580260634422 1929.00002002716 18 21 12
56.2554970383644 -137.649685144424 1929.99994754791 18 21 12
62.4464079737663 -139.715909957886 1958.99999141693 18 21 12
68.1378394365311 -140.426799654961 1968.99998188019 15 18 9
74.5929032564163 -142.492532730103 1998.00002574921 16 19 10
81.0056105256081 -144.201412796974 2022.0000743866 18 21 12
90.0735780596733 -150.117605924606 2105.00001907349 16 19 12
97.136065363884 -152.182444930077 2134.0000629425 10 13 6
103.294961154461 -152.678117156029 2141.00003242493 7 9 4
109.134830534458 -152.674436569214 2141.00003242493 9 11 8
114.276140928268 -151.743531227112 2128.00002098084 8 10 7
119.741082191467 -151.311606168747 2121.99997901917 8 10 7
124.403834342957 -149.952590465546 2102.9999256134 9 11 8
130.695149302483 -150.589913129807 2111.99998855591 9 11 6
136.647418141365 -150.799214839935 2115.00000953674 8 10 5
141.740128397942 -150.081440806389 2105.00001907349 8 10 5
149.510189890862 -152.14404463768 2134.0000629425 9 12 5
155.909195542336 -152.709126472473 2141.99995994568 9 12 5
160.614475607872 -151.634380221367 2127.00009346008 9 12 5
164.533227682114 -149.917900562286 2102.9999256134 10 13 6
170.263648033142 -149.912193417549 2102.9999256134 10 13 6
178.252980113029 -151.830986142159 2130.00011444092 11 14 7
185.697436332703 -153.179153800011 2148.9999294281 11 14 7
191.729471087456 -153.315350413322 2151.00002288818 11 14 7
196.669355034828 -152.596086263657 2141.00003242493 11 14 7
201.932370662689 -152.161791920662 2134.99999046326 11 14 7
206.675440073013 -151.371031999588 2124.00007247925 11 14 7
214.958816766739 -153.145641088486 2148.9999294281 13 14 8
219.062119722366 -151.927024126053 2131.99996948242 13 16 7
223.072022199631 -150.708347558975 2115.00000953674 13 16 7
228.395104408264 -150.415897369385 2111.00006103516 15 18 9
233.141049742699 -149.767085909843 2101.99999809265 17 20 11
238.178059458733 -149.331912398338 2095.99995613098 18 21 14
244.577884674072 -149.751543998718 2101.99999809265 20 23 16
252.319306135178 -150.954619050026 2118.99995803833 22 27 21
260.152339935303 -152.15739607811 2135.99991798401 25 29 28
-78.9397433400154 -149.567157030106 2019.99998092651 11 14 7
-72.665236890316 -148.015007376671 1998.99995326996 18 21 12
-66.7403638362885 -146.98089659214 1985.00001430511 16 19 10
-59.3469403684139 -142.244234681129 1921.0000038147 20 23 14
-53.5418093204498 -140.765324234962 1901.00002288818 22 25 16
-48.5832653939724 -141.433641314507 1909.9999666214 25 28 19
-43.7570661306381 -142.694175243378 1927.00004577637 24 27 16
-38.5382249951363 -142.843768000603 1929.00002002716 26 29 20
-33.1013239920139 -142.104551196098 1919.0000295639 25 28 19
-27.6753138750792 -141.143009066582 1906.00001811981 24 27 18
-22.4380567669868 -140.921771526337 1902.99999713898 22 25 16
-17.3077005892992 -141.440868377686 1909.9999666214 25 28 19
-11.9870901107788 -140.182510018349 1893.00000667572 24 27 20
-6.79885968565941 -139.738515019417 1886.99996471405 25 28 21
-1.65645906236023 -140.405163168907 1896.00002765656 30 33 26
3.52765410207212 -140.77539741993 1901.00002288818 28 31 24
8.70236475020647 -140.552997589111 1898.00000190735 25 28 21
13.8752963393927 -140.478551387787 1896.99995517731 29 32 23
19.2636698484421 -142.033040523529 1917.99998283386 29 32 23
24.6260911226273 -142.772749066353 1927.99997329712 28 31 22
29.7639667987823 -142.179355025291 1919.99995708466 25 28 19
34.9492095410824 -141.956031322479 1917.00005531311 21 24 15
40.2646474540234 -142.250835895538 1921.0000038147 21 24 15
45.5543920397758 -142.397373914719 1922.99997806549 20 23 14
50.8284419775009 -142.46965944767 1924.00002479553 18 21 12
56.2243312597275 -142.837941646576 1929.00002002716 18 21 12
61.7747865617275 -143.502220511436 1937.99996376038 17 20 11
67.927785217762 -145.351022481918 1963.00005912781 15 18 9
74.2169171571732 -147.199556231499 1988.00003528595 15 18 9
98.2250049710274 -159.77731347084 2157.99999237061 10 13 6
104.400910437107 -160.217881202698 2164.00003433228 6 8 3
109.997481107712 -159.769788384438 2157.99999237061 8 10 7
114.057309925556 -157.248586416245 2124.00007247925 8 10 7
118.721194565296 -155.763730406761 2104.00009155273 8 10 7
124.221988022327 -155.463233590126 2099.99990463257 9 11 8
130.133628845215 -155.680760741234 2102.9999256134 9 11 6
137.353271245956 -157.378599047661 2125.99992752075 8 10 5
142.812520265579 -157.00352191925 2121.00005149841 8 10 5
148.944467306137 -157.368406653404 2125.99992752075 9 12 5
156.340479850769 -158.991441130638 2148.00000190735 9 12 5
162.270098924637 -159.059822559357 2148.9999294281 9 12 5
165.231645107269 -156.315505504608 2111.99998855591 10 13 6
171.553105115891 -156.827658414841 2118.99995803833 10 13 6
176.322117447853 -155.933484435081 2107.00011253357 11 14 7
184.135735034943 -157.703310251236 2131.00004196167 11 14 7
190.92071056366 -158.510789275169 2141.99995994568 11 14 7
197.121918201447 -158.800050616264 2145.99990844727 11 14 7
201.641753315926 -157.757177948952 2131.99996948242 11 14 7
208.517149090767 -158.564031124115 2142.99988746643 11 14 7
214.851573109627 -158.926710486412 2148.00000190735 13 14 8
219.671204686165 -158.179402351379 2138.00001144409 12 15 6
223.802819848061 -156.988099217415 2121.99997901917 13 16 7
228.820249438286 -156.462535262108 2115.00000953674 15 18 9
233.9096814394 -156.010866165161 2108.99996757507 16 19 10
238.738358020782 -155.411094427109 2101.0000705719 18 21 14
245.733335614204 -156.216606497765 2111.99998855591 22 24 19
254.21616435051 -157.90943801403 2134.99999046326 19 24 20
-77.4518921971321 -152.156740427017 1981.99999332428 20 23 16
-72.2626969218254 -152.620151638985 1988.00003528595 18 21 12
-67.1077221632004 -153.236955404282 1996.00005149841 16 19 10
-61.1365176737309 -151.934221386909 1978.99997234344 20 23 14
-53.9059601724148 -146.946117281914 1914.00003433228 22 25 16
-48.8103777170181 -147.331908345222 1919.0000295639 25 28 19
-43.7554381787777 -147.947877645493 1927.00004577637 25 28 17
-38.416925817728 -147.642314434052 1922.99997806549 27 30 21
-33.0310985445976 -147.02944457531 1914.99996185303 26 29 20
-27.6307221502066 -146.109253168106 1902.99999713898 24 27 18
-22.4372204393148 -146.110191941261 1902.99999713898 23 26 17
-17.153013497591 -145.343154668808 1893.00000667572 23 26 17
-12.0056392624974 -145.574063062668 1896.00002765656 24 27 20
-6.83823833242059 -145.727977156639 1898.00000190735 26 29 22
-1.66251265909523 -146.112024784088 1902.99999713898 28 31 24
3.54051170870662 -146.495893597603 1907.99999237061 28 31 24
8.74788872897625 -146.495655179024 1907.99999237061 27 30 23
13.947919011116 -146.418452262878 1906.99994564056 27 30 21
19.2328225821257 -147.032052278519 1914.99996185303 27 30 21
24.5613157749176 -147.645458579063 1922.99997806549 25 28 19
29.8248641192913 -147.721201181412 1924.00002479553 24 27 18
35.0390560925007 -147.566422820091 1922.00005054474 23 26 17
40.2631536126137 -147.488221526146 1921.0000038147 22 25 16
45.4816296696663 -147.409826517105 1919.99995708466 22 25 16
50.7208853960037 -147.408008575439 1919.99995708466 19 22 13
56.1931058764458 -148.020192980766 1927.99997329712 18 21 12
62.3462460935116 -150.167614221573 1955.9999704361 19 22 13
67.7868574857712 -150.395482778549 1958.99999141693 22 25 16
74.0648508071899 -152.312085032463 1983.99996757507 20 23 14
91.4790332317352 -164.12827372551 2138.00001144409 15 18 11
99.0861877799034 -167.118608951569 2177.00004577637 9 12 5
104.686543345451 -166.577443480492 2170.00007629395 9 11 6
109.177939593792 -164.42409157753 2141.99995994568 8 10 7
114.751189947128 -164.036110043526 2137.00008392334 8 10 7
119.901776313782 -163.110643625259 2125 8 10 7
125.341325998306 -162.645548582077 2118.99995803833 8 10 7
131.737738847733 -163.40833902359 2128.99994850159 8 10 5
138.188138604164 -164.170861244202 2138.99993896484 9 11 6
143.278643488884 -163.321450352669 2128.00002098084 9 11 6
149.079218506813 -163.316071033478 2128.00002098084 9 12 5
155.09757399559 -163.540735840797 2131.00004196167 10 13 6
159.999057650566 -162.614047527313 2118.99995803833 10 13 6
167.181521654129 -163.989394903183 2137.00008392334 11 14 7
172.194644808769 -163.21587562561 2127.00009346008 10 13 6
177.403658628464 -162.672370672226 2119.99988555908 11 14 7
182.660326361656 -162.205502390862 2114.00008201599 10 13 6
190.02266228199 -163.579851388931 2131.99996948242 10 13 6
196.104601025581 -163.803100585938 2134.99999046326 10 13 6
203.526183962822 -165.100201964378 2151.99995040894 10 13 6
209.774732589722 -165.399685502052 2155.99989891052 11 14 7
215.844288468361 -165.54556787014 2157.99999237061 12 13 7
219.663575291634 -164.003625512123 2138.00001144409 12 15 6
224.427863955498 -163.228720426559 2128.00002098084 13 16 7
228.704169392586 -162.146896123886 2114.00008201599 14 17 8
233.901634812355 -161.755308508873 2108.99996757507 16 19 12
239.184662699699 -161.440253257751 2105.00001907349 22 24 19
247.237488627434 -162.965655326843 2125 27 29 24
255.993574857712 -164.874136447906 2150.00009536743 14 19 15
-77.3316994309425 -157.320812344551 1978.99997234344 20 23 16
-71.7510655522347 -156.92625939846 1973.99997711182 17 20 11
-67.206010222435 -158.916369080544 1998.99995326996 17 20 11
-60.7634820044041 -156.374916434288 1967.00000762939 19 22 13
-54.4108264148235 -153.59465777874 1932.000041008 22 25 16
-48.8339364528656 -152.642652392387 1919.99995708466 26 29 20
-43.7310487031937 -153.121471405029 1925.99999904633 26 29 18
-38.3155643939972 -152.487054467201 1917.99998283386 27 30 21
-33.1160686910152 -152.647465467453 1919.99995708466 26 29 20
-27.8619676828384 -152.569144964218 1919.0000295639 25 28 19
-22.5542578846216 -152.093097567558 1912.99998760223 24 27 18
-17.2610841691494 -151.457846164703 1904.99997138977 23 26 17
-12.0748272165656 -151.617422699928 1906.99994564056 25 28 21
-6.89201522618532 -152.094826102257 1912.99998760223 27 30 23
-1.66943727526814 -151.935964822769 1911.00001335144 29 32 25
3.55150853283703 -152.174457907677 1914.00003433228 29 32 25
8.78422986716032 -152.333229780197 1916.00000858307 28 31 24
14.0132065862417 -152.332797646523 1916.00000858307 26 29 20
19.1818680614233 -151.855111122131 1909.9999666214 26 29 20
24.4454238563776 -152.172282338142 1914.00003433228 26 29 20
29.7152083367109 -152.409732341766 1917.00005531311 25 28 19
35.0377112627029 -152.805998921394 1922.00005054474 24 27 18
40.2406491339207 -152.645513415337 1919.99995708466 23 26 17
45.5509498715401 -152.882352471352 1922.99997806549 21 24 15
50.639696419239 -152.403473854065 1917.00005531311 18 21 12
55.8703653514385 -152.401402592659 1917.00005531311 19 22 13
62.0251148939133 -154.704570770264 1945.99997997284 21 24 15
68.0610835552216 -156.371518969536 1967.00000762939 23 26 17
92.3740416765213 -171.625301241875 2158.99991989136 13 16 9
98.4907373785973 -172.019064426422 2164.00003433228 9 12 5
105.068482458591 -173.127993941307 2177.99997329712 8 10 5
111.212529242039 -173.44181239605 2181.99992179871 8 10 7
115.069016814232 -170.337468385696 2142.99988746643 8 10 7
120.856419205666 -170.253470540047 2141.99995994568 8 10 7
127.111092209816 -170.805081725121 2148.9999294281 8 10 7
132.784649729729 -170.561656355858 2145.99990844727 8 10 5
138.312190771103 -170.159116387367 2141.00003242493 9 11 6
144.283175468445 -170.312687754631 2142.99988746643 9 11 6
149.634078145027 -169.750794768333 2135.99991798401 9 12 5
155.31013906002 -169.586092233658 2134.0000629425 10 13 6
160.672649741173 -169.1033244133 2128.00002098084 10 13 6
166.94064438343 -169.573932886124 2134.0000629425 10 13 6
172.997832298279 -169.805929064751 2137.00008392334 10 13 6
177.648156881332 -168.68694126606 2122.99990653992 10 13 6
182.39438533783 -167.726755142212 2111.00006103516 10 13 6
188.946202397346 -168.434903025627 2119.99988555908 9 12 5
195.638209581375 -169.22228038311 2130.00011444092 9 12 5
202.951356768608 -170.486032962799 2145.99990844727 10 13 6
209.86445248127 -171.352282166481 2157.00006484985 11 14 7
215.33639729023 -171.026721596718 2153.00011634827 12 13 5
220.3748524189 -170.383259654045 2144.99998092651 12 15 6
224.314376711845 -168.945416808128 2127.00009346008 12 15 6
229.561433196068 -168.540015816689 2121.99997901917 14 17 8
235.113233327866 -168.372765183449 2119.99988555908 16 19 12
239.630699157715 -167.490601539612 2108.99996757507 21 23 18
247.228771448135 -168.752521276474 2125 19 21 16
-76.6253173351288 -161.234676837921 1960.99996566772 19 22 15
-71.4938119053841 -161.730974912643 1967.00000762939 18 21 12
-65.8250004053116 -160.993725061417 1957.99994468689 19 22 13
-60.6992989778519 -161.571830511093 1965.0000333786 18 21 12
-54.5494817197323 -159.271821379662 1937.00003623962 21 24 15
-49.0354746580124 -158.533871173859 1927.99997329712 25 28 19
-43.5703881084919 -157.795682549477 1919.0000295639 27 30 19
-38.2341407239437 -157.386168837547 1914.00003433228 28 31 22
-33.0802574753761 -157.716542482376 1917.99998283386 28 31 22
-27.9189310967922 -158.128902316093 1922.99997806549 27 30 21
-22.7066241204739 -158.37661921978 1925.99999904633 28 31 22
-17.3510033637285 -157.472893595695 1914.99996185303 27 30 21
-12.1376635506749 -157.63795375824 1917.00005531311 27 30 21
-6.87372870743275 -156.898260116577 1907.99999237061 28 31 24
-1.66500324849039 -156.733959913254 1906.00001811981 29 32 25
3.54394572786987 -157.062858343124 1909.9999666214 26 29 22
8.78846552222967 -157.638221979141 1917.00005531311 24 27 20
14.071156270802 -158.213391900063 1924.00002479553 24 27 18
19.2112307995558 -157.308161258698 1912.99998760223 25 28 19
24.3805944919586 -156.978368759155 1909.00003910065 26 29 20
29.5590255409479 -156.81280195713 1906.99994564056 26 29 20
34.9269472062588 -157.551601529121 1916.00000858307 25 28 19
40.2600131928921 -157.961219549179 1921.0000038147 23 26 17
45.4070270061493 -157.630577683449 1917.00005531311 22 25 16
50.7169328629971 -157.875329256058 1919.99995708466 21 24 15
56.0430139303207 -158.11987221241 1922.99997806549 22 25 16
61.289619654417 -158.117517828941 1922.99997806549 19 22 13
67.1587884426117 -159.594967961311 1940.99998474121 16 19 10
92.4987643957138 -177.75622010231 2161.99994087219 10 13 6
98.8054573535919 -178.492367267609 2171.0000038147 9 12 5
105.016142129898 -178.981631994247 2177.00004577637 9 11 6
110.494635999203 -178.237393498421 2167.99998283386 9 11 8
114.903457462788 -175.930991768837 2140.00010490417 8 10 7
120.908133685589 -176.172971725464 2142.99988746643 8 10 7
127.342730760574 -176.990121603012 2153.00011634827 8 10 7
133.1507563591 -176.902800798416 2151.99995040894 8 10 5
138.565227389336 -176.322028040886 2144.99998092651 9 11 6
143.537044525146 -175.247877836227 2131.99996948242 9 11 6
150.679081678391 -176.803886890411 2151.00002288818 8 11 4
155.886352062225 -176.058128476143 2141.99995994568 9 12 5
160.893008112907 -175.147861242294 2131.00004196167 10 13 6
168.498769402504 -177.031800150871 2154.00004386902 10 13 6
173.153132200241 -175.792381167412 2138.99993896484 10 13 6
176.804661750793 -173.648878931999 2112.99991607666 9 12 5
183.597058057785 -174.628093838692 2125 9 12 5
190.18679857254 -175.360515713692 2134.0000629425 9 12 5
197.651445865631 -176.83219909668 2151.99995040894 9 12 5
204.078584909439 -177.317574620247 2157.99999237061 10 13 6
209.467455744743 -176.898881793022 2153.00011634827 11 14 7
214.32825922966 -176.069214940071 2142.99988746643 11 12 4
218.825653195381 -174.992993474007 2130.00011444092 12 15 6
227.258831262589 -177.038460969925 2154.99997138977 12 15 6
231.608375906944 -175.879761576653 2141.00003242493 14 17 8
236.435398459435 -175.131723284721 2131.99996948242 17 20 13
240.758135914803 -174.054995179176 2118.99995803833 20 22 17
246.289074420929 -173.881724476814 2117.00010299683 22 24 21
-76.6612812876701 -166.663765907288 1962.00001239777 20 23 16
-70.7640051841736 -165.392622351646 1947.00002670288 19 22 13
-66.4274320006371 -167.85891354084 1975.99995136261 19 22 13
-61.12926825881 -168.116420507431 1978.99997234344 17 20 11
-55.2512779831886 -166.67465865612 1962.00001239777 19 22 13
-49.2623634636402 -164.553016424179 1937.00003623962 24 27 18
-43.6594225466251 -163.365617394447 1922.99997806549 27 30 19
-38.1327010691166 -162.177950143814 1909.00003910065 28 31 22
-32.9926759004593 -162.519246339798 1912.99998760223 29 32 23
-27.8742369264364 -163.115203380585 1919.99995708466 29 32 23
-22.7056965231895 -163.625985383987 1925.99999904633 31 34 25
-17.3593554645777 -162.777245044708 1916.00000858307 30 33 24
-12.0801841840148 -162.098184227943 1907.99999237061 28 31 24
-6.85903755947948 -161.758780479431 1904.00004386902 27 30 23
-1.66318798437715 -161.758944392204 1904.00004386902 27 30 23
3.54194524697959 -162.183687090874 1909.00003910065 24 27 20
8.75601451843977 -162.268370389938 1909.9999666214 22 25 18
14.0047613531351 -162.692695856094 1914.99996185303 23 26 17
19.1803183406591 -162.267223000526 1909.9999666214 24 27 18
24.2902003228664 -161.586672067642 1901.99995040894 25 28 19
29.4183231890202 -161.245748400688 1898.00000190735 25 28 19
34.7614586353302 -162.009000778198 1906.99994564056 24 27 18
40.1326231658459 -162.687078118324 1914.99996185303 22 25 16
45.5236025154591 -163.279995322227 1922.00005054474 22 25 16
50.8469343185425 -163.532838225365 1924.99995231628 23 26 17
56.1864338815212 -163.785472512245 1927.99997329712 22 25 16
61.6376958787441 -164.292752742767 1934.00001525879 16 19 10
66.740870475769 -163.865342736244 1929.00002002716 13 16 7
93.1367576122284 -184.922143816948 2177.00004577637 9 12 5
99.8936966061592 -186.447143554688 2194.9999332428 10 13 6
105.542503297329 -185.848340392113 2187.99996376038 9 11 6
110.082492232323 -183.465644717216 2160.00008583069 9 11 8
115.328371524811 -182.44181573391 2148.00000190735 8 10 7
120.734035968781 -181.757539510727 2140.00010490417 8 10 7
127.57420539856 -183.196306228638 2157.00006484985 8 10 7
133.578523993492 -183.36084485054 2158.99991989136 8 10 5
140.239208936691 -184.374451637268 2171.0000038147 9 11 6
143.665984272957 -181.226491928101 2134.0000629425 9 11 6
150.32285451889 -182.23962187767 2145.99990844727 8 11 4
155.952960252762 -181.978687644005 2142.99988746643 9 12 5
161.792621016502 -181.972324848175 2142.99988746643 9 12 5
167.866334319115 -182.220444083214 2145.99990844727 10 13 6
174.765273928642 -183.317452669144 2158.99991989136 9 12 5
178.889527916908 -181.527376174927 2138.00001144409 9 12 5
182.639583945274 -179.48254942894 2114.00008201599 9 12 5
191.070586442947 -182.022139430046 2144.00005340576 9 12 5
199.572458863258 -184.476435184479 2173.00009727478 10 13 6
205.867424607277 -184.808045625687 2177.00004577637 11 14 7
208.48648250103 -181.913688778877 2142.99988746643 12 15 8
213.919967412949 -181.565910577774 2138.99993896484 12 13 5
218.303620815277 -180.369168519974 2125 13 16 7
225.141137838364 -181.209355592728 2134.99999046326 14 17 8
231.058701872826 -181.285426020622 2135.99991798401 16 19 10
235.539317131042 -180.25803565979 2124.00007247925 19 22 15
239.953771233559 -179.230555891991 2111.99998855591 29 31 26
248.257517814636 -181.088209152222 2134.0000629425 11 13 10
-76.6189992427826 -171.922296285629 1960.99996566772 21 24 17
-71.9967260956764 -173.678860068321 1980.99994659424 20 23 14
-66.7271986603737 -174.032539129257 1985.00001430511 19 22 13
-61.0649324953556 -173.333838582039 1976.99999809265 16 19 10
-55.0518371164799 -171.407431364059 1955.00004291534 17 20 11
-49.1840057075024 -169.568464159966 1934.00001525879 22 25 16
-43.7029898166656 -168.781325221062 1924.99995231628 26 29 20
-38.0911491811275 -167.204841971397 1906.99994564056 28 31 22
-32.8705608844757 -167.118668556213 1906.00001811981 30 33 24
-27.640787884593 -166.944622993469 1904.00004386902 32 35 26
-22.5161202251911 -167.471766471863 1909.9999666214 35 38 29
-17.2499045729637 -166.946545243263 1904.00004386902 32 35 26
-12.0416870340705 -166.771784424782 1901.99995040894 27 30 23
-6.83353142812848 -166.333764791489 1896.99995517731 25 28 21
-1.66224432177842 -166.860073804855 1902.99999713898 24 27 20
3.53622995316982 -167.123079299927 1906.00001811981 23 26 19
8.76022968441248 -167.561218142509 1911.00001335144 22 25 18
13.9968581497669 -167.823776602745 1914.00003433228 22 25 14
19.2498005926609 -168.086111545563 1917.00005531311 22 25 14
24.340258911252 -167.120695114136 1906.00001811981 23 26 15
29.4945761561394 -166.856497526169 1902.99999713898 23 26 15
34.5959477126598 -166.416719555855 1898.00000190735 22 25 14
40.0680676102638 -167.642638087273 1911.99994087219 21 24 13
45.4032644629478 -168.07921230793 1917.00005531311 22 25 14
51.003273576498 -169.304639101028 1930.99999427795 21 24 13
56.3589259982109 -169.56539452076 1934.00001525879 18 21 10
62.3681098222733 -171.579405665398 1957.00001716614 15 18 9
68.2257637381554 -172.89175093174 1972.00000286102 16 19 10
94.5018455386162 -193.659454584122 2209.00011062622 11 14 7
100.572153925896 -193.742990493774 2210.00003814697 12 14 9
105.682827532291 -192.073002457619 2190.99998474121 8 10 5
111.148126423359 -191.191792488098 2180.99999427795 6 8 5
115.699402987957 -188.907831907272 2154.99997138977 8 10 7
121.349595487118 -188.55220079422 2151.00002288818 8 10 7
127.568960189819 -189.072951674461 2157.00006484985 8 10 7
134.624779224396 -190.732896327972 2176.00011825562 8 10 5
140.814796090126 -191.077768802643 2180.0000667572 9 11 6
146.756798028946 -191.071778535843 2180.0000667572 9 11 6
151.437431573868 -189.487963914871 2161.99994087219 8 11 4
156.747102737427 -188.780441880226 2154.00004386902 9 12 5
162.541016936302 -188.686206936836 2153.00011634827 9 12 5
168.328866362572 -188.591733574867 2151.99995040894 9 12 5
175.648614764214 -190.162107348442 2170.00007629395 9 12 5
180.723041296005 -189.27851319313 2160.00008583069 9 12 5
183.49614739418 -186.116486787796 2124.00007247925 9 12 5
189.637094736099 -186.459392309189 2128.00002098084 10 13 6
198.646128177643 -189.518228173256 2163.00010681152 10 13 6
204.819038510323 -189.77290391922 2165.99988937378 11 14 7
209.74288880825 -188.888415694237 2155.99989891052 13 16 9
213.611498475075 -187.127739191055 2135.99991798401 13 14 6
219.527751207352 -187.206700444221 2137.00008392334 14 17 8
225.343227386475 -187.197849154472 2137.00008392334 15 18 9
230.617016553879 -186.750814318657 2131.99996948242 17 20 11
235.641062259674 -186.128452420235 2125 20 23 16
240.966975688934 -185.768708586693 2121.00005149841 9 11 6
-77.1626979112625 -178.530693054199 1975.00002384186 20 22 17
-71.9209462404251 -178.895503282547 1978.99997234344 20 23 16
-66.4890184998512 -178.808122873306 1978.00004482269 19 22 15
-60.8460977673531 -178.08772623539 1970.00002861023 19 22 13
-54.9931414425373 -176.553443074226 1952.99994945526 17 20 9
-48.9530004560947 -174.024477601051 1924.99995231628 17 20 11
-43.5194857418537 -173.30327630043 1917.00005531311 22 25 18
-38.1494238972664 -172.672241926193 1909.9999666214 26 29 22
-32.7484235167503 -171.679332852364 1899.00004863739 28 31 24
-27.4653881788254 -171.047806739807 1891.99995994568 31 34 27
-22.4208403378725 -171.952977776527 1901.99995040894 29 32 25
-17.1766802668571 -171.411409974098 1896.00002765656 28 31 24
-12.0095117017627 -171.502456068993 1896.99995517731 25 28 21
-6.82963291183114 -171.412467956543 1896.00002765656 22 25 18
-1.66479242034256 -172.316715121269 1906.00001811981 20 23 16
3.54164186865091 -172.587901353836 1909.00003910065 23 26 19
8.76901764422655 -172.949269413948 1912.99998760223 25 28 21
14.0328146517277 -173.491224646568 1919.0000295639 23 26 17
19.2891303449869 -173.671290278435 1921.0000038147 23 26 17
24.4413614273071 -173.037484288216 1914.00003433228 22 25 14
29.493298381567 -172.041833400726 1902.99999713898 22 25 14
34.5762223005295 -171.497985720634 1896.99995517731 22 25 14
39.898693561554 -172.129213809967 1904.00004386902 25 28 17
45.4013012349606 -173.302575945854 1917.00005531311 22 25 14
51.2123666703701 -175.289317965508 1939.00001049042 9 12 3
56.9684356451035 -176.733359694481 1955.00004291534 21 24 15
62.970906496048 -178.629130125046 1975.99995136261 14 17 10
68.7071606516838 -179.530248045921 1985.99994182587 14 17 10
95.3105837106705 -201.395273208618 2227.9999256134 6 8 3
100.522354245186 -199.673607945442 2209.00011062622 16 18 15
105.437152087688 -197.590172290802 2186.00010871887 13 15 12
111.856803297997 -198.398917913437 2194.9999332428 8 10 7
116.768203675747 -196.586281061172 2174.99995231628 7 9 6
122.19063937664 -195.767685770988 2165.99988937378 7 9 6
128.33234667778 -196.12380862236 2170.00007629395 7 9 6
135.423332452774 -197.835326194763 2188.99989128113 8 10 7
141.777709126472 -198.371648788452 2194.9999332428 8 10 7
147.019878029823 -197.371363639832 2184.00001525879 9 11 8
153.462290763855 -197.997555136681 2190.99998474121 9 11 8
158.850774168968 -197.267979383469 2183.00008773804 9 11 8
163.968548178673 -196.267113089561 2171.99993133545 8 10 5
169.416889548302 -195.71790099144 2165.99988937378 8 10 5
176.369741559029 -196.885228157043 2178.99990081787 7 9 6
180.548220872879 -194.980323314667 2157.99999237061 9 11 6
184.957161545753 -193.436682224274 2141.00003242493 9 11 6
191.322416067123 -193.970903754234 2147.0000743866 10 12 7
197.168603539467 -193.962797522545 2147.0000743866 11 13 8
203.675985336304 -194.586843252182 2154.00004386902 12 14 9
208.761528134346 -193.855598568916 2145.99990844727 12 14 9
214.502841234207 -193.756550550461 2144.99998092651 14 16 11
219.416126608849 -192.934677004814 2135.99991798401 10 13 6
225.650474429131 -193.286880850792 2140.00010490417 20 23 16
231.148570775986 -193.006604909897 2137.00008392334 22 25 18
236.29692196846 -192.45520234108 2131.00004196167 19 22 15
243.002280592918 -193.167999386787 2138.99993896484 24 27 20
-76.4951258897781 -182.327955961227 1957.99994468689 22 24 19
-70.9365680813789 -181.772530078888 1952.00002193451 22 24 19
-66.5196850895882 -184.289887547493 1978.99997234344 20 23 16
-60.9669387340546 -183.827146887779 1973.99997711182 19 22 13
-55.3567446768284 -183.084741234779 1965.99996089935 18 21 10
-49.1796918213367 -180.107071995735 1934.00001525879 17 20 9
-43.4948541224003 -178.432866930962 1916.00000858307 20 23 16
-37.9479974508286 -176.944628357887 1899.99997615814 22 25 18
-32.5400345027447 -175.735548138618 1886.99996471405 26 29 22
-27.3190066218376 -175.271242856979 1881.99996948242 29 32 25
-22.3019681870937 -176.203683018684 1891.99995994568 22 25 18
-17.2030925750732 -176.856473088264 1899.00004863739 18 21 14
-12.0659517124295 -177.509069442749 1906.00001811981 19 22 15
-6.85814488679171 -177.323237061501 1904.00004386902 19 22 15
-1.66471814736724 -177.509680390358 1906.00001811981 19 22 15
3.53962881490588 -177.695900201797 1907.99999237061 21 24 17
8.75945948064327 -177.975028753281 1911.00001335144 22 25 18
14.0321888029575 -178.719580173492 1919.0000295639 22 25 16
19.2882716655731 -178.905084729195 1921.0000038147 21 24 15
24.4785808026791 -178.53157222271 1917.00005531311 23 26 15
29.600465670228 -177.878424525261 1909.9999666214 24 27 16
34.6658155322075 -177.131950855255 1901.99995040894 22 25 14
40.0435961782932 -177.968412637711 1911.00001335144 21 24 13
45.4703308641911 -178.804650902748 1919.99995708466 19 22 11
51.5270195901394 -181.689396500587 1950.99997520447 12 15 6
57.0824630558491 -182.431980967522 1958.99999141693 15 18 11
63.0318522453308 -184.198632836342 1978.00004482269 14 17 10
68.4273764491081 -184.195697307587 1978.00004482269 8 10 5
94.5364013314247 -205.788567662239 2210.00003814697 16 18 15
100.745432078838 -206.15665614605 2213.99998664856 7 9 6
106.300666928291 -205.220907926559 2203.9999961853 7 9 6
111.444242298603 -203.633174300194 2187.00003623962 6 8 5
116.8167963624 -202.603921294212 2176.00011825562 7 9 6
122.975058853626 -202.971041202545 2180.0000667572 7 9 6
128.858983516693 -202.87236571312 2178.99990081787 7 9 6
135.726764798164 -204.263061285019 2194.00000572205 8 10 7
141.90074801445 -204.536244273186 2197.00002670288 8 10 7
148.157864809036 -204.90226149559 2200.99997520447 8 10 7
153.735816478729 -204.337075352669 2194.9999332428 9 11 8
158.84393453598 -203.213185071945 2183.00008773804 8 10 7
164.716392755508 -203.1130194664 2181.99992179871 8 10 7
172.303527593613 -205.060482025146 2203.00006866455 8 10 7
176.847860217094 -203.377470374107 2184.99994277954 8 10 7
181.544467806816 -201.97357237339 2170.00007629395 8 10 7
188.577443361282 -203.17554473877 2183.00008773804 9 11 6
192.740023136139 -201.305970549583 2163.00010681152 10 12 7
196.976631879807 -199.622437357903 2144.99998092651 11 13 8
202.816441655159 -199.6139138937 2144.99998092651 12 14 9
208.266451954842 -199.232950806618 2141.00003242493 12 14 9
213.093936443329 -198.293462395668 2131.00004196167 10 12 7
219.30430829525 -198.656544089317 2134.99999046326 13 16 9
226.695507764816 -200.042858719826 2150.00009536743 18 21 14
231.679856777191 -199.288919568062 2141.99995994568 22 25 18
236.952513456345 -198.813959956169 2137.00008392334 25 28 21
-76.2963220477104 -187.182024121284 1952.99994945526 23 25 20
-70.7880035042763 -186.706185340881 1947.99995422363 22 24 19
-66.0797208547592 -188.434556126595 1965.99996089935 21 24 17
-61.025932431221 -189.395949244499 1975.99995136261 20 23 14
-55.2697591483593 -188.152596354485 1963.00005912781 18 21 10
-49.304585903883 -185.854613780975 1939.00001049042 18 21 10
-43.3566682040691 -183.077067136765 1909.9999666214 18 21 14
-37.766519933939 -181.257739663124 1891.00003242493 19 22 15
-32.5730331242085 -181.067660450935 1889.00005817413 26 29 22
-27.3903366178274 -180.877342820168 1886.99996471405 29 32 25
-22.3598815500736 -181.837037205696 1896.99995517731 21 24 17
-17.1841867268085 -181.837946176529 1896.99995517731 20 23 16
-12.0590692386031 -182.605490088463 1904.99997138977 23 26 19
-6.86863576993346 -182.797640562057 1906.99994564056 24 27 20
-1.67250237427652 -183.564677834511 1914.99996185303 24 27 20
3.5543073900044 -183.660492300987 1916.00000858307 25 28 21
8.75447504222393 -183.085069060326 1909.9999666214 25 28 21
13.958428055048 -182.988703250885 1909.00003910065 24 27 18
19.1568657755852 -182.892039418221 1907.99999237061 24 27 18
24.4008488953114 -183.178618550301 1911.00001335144 30 33 22
29.5526254922152 -182.793959975243 1906.99994564056 30 33 22
34.7918123006821 -182.984173297882 1909.00003910065 25 28 17
40.2093976736069 -183.940961956978 1919.0000295639 17 20 9
45.7050688564777 -184.993356466293 1929.99994754791 17 20 9
51.445446908474 -186.716437339783 1947.99995422363 21 24 15
57.1672804653645 -188.055843114853 1962.00001239777 18 21 14
62.7103373408318 -188.628152012825 1968.00005435944 24 27 20
101.059399545193 -212.857887148857 2220.99995613098 11 13 10
106.729924678802 -212.08643913269 2213.00005912781 13 15 12
112.356424331665 -211.314752697945 2204.99992370605 15 17 14
117.777816951275 -210.255369544029 2194.00000572205 0 1 0
123.364396393299 -209.579065442085 2187.00003623962 8 10 7
130.095034837723 -210.819110274315 2200.00004768372 8 10 7
134.545370936394 -208.41746032238 2174.99995231628 7 9 6
140.344381332397 -208.219632506371 2173.00009727478 7 9 6
148.083984851837 -210.800275206566 2200.00004768372 7 9 6
153.168722987175 -209.547877311707 2187.00003623962 7 9 6
156.363040208817 -205.900028347969 2148.9999294281 8 10 7
162.746518850327 -206.563547253609 2155.99989891052 8 10 7
171.279221773148 -209.813565015793 2190.00005722046 8 10 7
176.921054720879 -209.422618150711 2186.00010871887 9 11 6
181.20189011097 -207.498654723167 2165.99988937378 9 11 6
189.346641302109 -209.98115837574 2191.99991226196 9 11 6
193.711787462234 -208.248481154442 2174.00002479553 10 12 7
197.427242994308 -205.94097673893 2150.00009536743 11 13 8
202.240392565727 -204.878583550453 2138.99993896484 12 14 9
206.798404455185 -203.62451672554 2125.99992752075 12 15 8
210.684984922409 -201.795727014542 2107.00011253357 14 16 11
218.370497226715 -203.606083989143 2125.99992752075 20 23 16
224.682599306107 -204.075381159782 2131.00004196167 17 20 13
230.804800987244 -204.352885484695 2134.0000629425 22 25 18
234.614118933678 -202.619284391403 2115.9999370575 8 10 5
-76.4099732041359 -192.796692252159 1955.9999704361 21 23 18
-71.6931447386742 -194.475844502449 1973.00004959106 21 23 18
-66.110260784626 -193.887665867805 1967.00000762939 20 23 16
-60.5907328426838 -193.397790193558 1962.00001239777 20 23 14
-55.2953295409679 -193.597674369812 1963.99998664856 19 22 11
-49.5565533638 -192.121550440788 1949.00000095367 18 21 10
-43.7859147787094 -190.152257680893 1929.00002002716 16 19 12
-38.1441973149776 -188.281238079071 1909.9999666214 17 20 13
-32.7611789107323 -187.297165393829 1899.99997615814 22 25 18
-27.5632254779339 -187.200009822845 1899.00004863739 28 31 24
-22.3234761506319 -186.708316206932 1894.00005340576 24 27 20
-17.1652678400278 -186.807826161385 1894.99998092651 25 28 21
-12.0268538594246 -187.301427125931 1899.99997615814 29 32 25
-6.86471210792661 -187.893345952034 1906.00001811981 30 33 26
-1.67067721486092 -188.583597540855 1912.99998760223 29 32 25
3.55970556847751 -189.1750395298 1919.0000295639 28 31 24
8.73573124408722 -187.893211841583 1906.00001811981 28 31 24
13.9212151989341 -187.695518136024 1904.00004386902 28 31 24
19.0856903791428 -187.398999929428 1901.00002288818 30 33 24
24.3614017963409 -188.08801472187 1907.99999237061 33 36 25
29.5667387545109 -188.086733222008 1907.99999237061 31 34 23
34.8995290696621 -188.775256276131 1914.99996185303 23 26 15
40.3122790157795 -189.660638570786 1924.00002479553 18 21 10
45.8450131118298 -190.841510891914 1935.99998950958 17 20 9
51.7335347831249 -193.106442689896 1958.99999141693 13 16 7
56.7858442664146 -192.118138074875 1949.00000095367 17 20 13
62.8985911607742 -194.579601287842 1973.99997711182 28 30 25
100.690722465515 -218.117997050285 2213.00005912781 0 1 0
107.400164008141 -219.492986798286 2226.99999809265 9 11 8
112.198382616043 -217.023894190788 2201.99990272522 0 1 0
117.7723929286 -216.23007953167 2194.00000572205 21 23 20
125.784173607826 -219.77236866951 2230.00001907349 8 10 7
128.492534160614 -214.14902806282 2173.00009727478 8 10 7
132.992789149284 -211.876347661018 2150.00009536743 7 9 6
138.400480151176 -211.180210113525 2142.99988746643 7 9 6
145.721450448036 -213.341608643532 2164.99996185303 7 9 6
151.691064238548 -213.433295488358 2165.99988937378 7 9 6
155.046328902245 -209.977507591248 2131.00004196167 8 10 7
161.908850073814 -211.349681019783 2144.99998092651 8 10 7
170.176610350609 -214.39653635025 2176.00011825562 9 11 6
176.265642046928 -214.585691690445 2177.99997329712 9 11 6
184.205278754234 -216.942027211189 2201.99990272522 9 11 6
190.633863210678 -217.426136136055 2207.00001716614 9 11 6
195.485159754753 -216.136738657951 2194.00000572205 10 12 7
197.234824299812 -211.59639954567 2148.00000190735 11 14 7
202.042385935783 -210.503906011581 2137.00008392334 12 15 8
206.497490406036 -209.115713834763 2122.99990653992 12 15 8
211.775600910187 -208.61391723156 2118.00003051758 14 16 11
218.360960483551 -209.392324090004 2125.99992752075 17 19 14
224.35650229454 -209.579527378082 2128.00002098084 20 22 17
230.254009366035 -209.66799557209 2128.99994850159 25 27 22
239.149689674377 -212.415128946304 2157.00006484985 8 10 5
-77.7344703674316 -201.567009091377 1990.00000953674 20 22 17
-72.0167383551598 -200.760260224342 1981.99999332428 20 22 17
-65.9726709127426 -198.839038610458 1963.00005912781 19 22 15
-60.3099130094051 -197.829127311707 1952.99994945526 19 22 13
-55.3489960730076 -199.148803949356 1965.99996089935 19 22 11
-49.9609857797623 -199.050039052963 1965.0000333786 19 22 11
-44.3512611091137 -197.938039898872 1953.9999961853 17 20 13
-38.3820123970509 -194.698482751846 1922.00005054474 17 20 13
-33.0527201294899 -194.193691015244 1917.00005531311 19 22 15
-27.7070421725512 -193.384766578674 1909.00003910065 24 27 20
-22.4166885018349 -192.676842212677 1901.99995040894 28 31 24
-17.1916149556637 -192.27260351181 1898.00000190735 26 29 22
-12.0389340445399 -192.678540945053 1901.99995040894 29 32 25
-6.8823890760541 -193.590730428696 1911.00001335144 30 33 26
-1.67409004643559 -194.198757410049 1917.00005531311 29 32 25
3.56324389576912 -194.60391998291 1921.0000038147 29 32 25
8.76739248633385 -193.793192505836 1912.99998760223 29 32 25
13.9205455780029 -192.880913615227 1904.00004386902 31 34 27
19.1249288618565 -192.981407046318 1904.99997138977 31 34 25
24.4496036320925 -193.993389606476 1914.99996185303 22 25 16
29.627300798893 -193.688169121742 1911.99994087219 18 21 12
34.9889695644379 -194.497004151344 1919.99995708466 17 20 9
40.582712739706 -196.217283606529 1937.00003623962 13 16 7
46.3874377310276 -198.443740606308 1958.99999141693 21 24 15
51.9423149526119 -199.251756072044 1967.00000762939 22 25 18
57.744562625885 -200.768545269966 1981.99999332428 19 21 16
63.9151781797409 -203.196689486504 2006.00004196167 10 12 7
100.094482302666 -222.827330231667 2200.00004768372 11 13 10
106.575280427933 -223.835214972496 2210.00003814697 4 6 3
117.605805397034 -221.900165081024 2190.99998474121 6 8 5
125.665426254272 -225.641578435898 2227.9999256134 7 9 6
132.684618234634 -227.255821228027 2243.99995803833 7 9 6
134.409204125404 -220.059245824814 2173.00009727478 8 10 7
137.360751628876 -215.394482016563 2127.00009346008 8 10 7
145.176216959953 -218.425750732422 2157.00006484985 8 10 7
150.143355131149 -217.102363705635 2144.00005340576 9 11 8
156.930729746819 -218.411520123482 2157.00006484985 8 10 5
163.259968161583 -219.011530280113 2163.00010681152 8 10 5
167.509868741035 -216.877490282059 2141.99995994568 8 10 5
174.9626994133 -218.894466757774 2161.99994087219 8 10 5
182.440206408501 -220.809817314148 2180.99999427795 8 10 5
190.10691344738 -222.825989127159 2200.99997520447 9 11 6
194.585293531418 -221.096068620682 2184.00001525879 10 13 6
198.144048452377 -218.454986810684 2157.99999237061 11 14 7
202.978625893593 -217.332288622856 2147.0000743866 12 15 8
208.822503685951 -217.32285618782 2147.0000743866 12 15 8
211.366146802902 -213.97303044796 2114.00008201599 17 19 14
220.097154378891 -216.898441314697 2142.99988746643 14 16 11
224.030211567879 -215.066626667976 2125 17 19 14
230.568200349808 -215.764820575714 2131.99996948242 7 9 6
-77.1447718143463 -205.425083637238 1975.00002384186 19 21 16
-72.0495656132698 -206.260859966278 1983.00004005432 19 21 16
-66.1038756370544 -204.600006341934 1967.00000762939 19 22 15
-60.7083961367607 -204.499140381813 1965.99996089935 19 22 13
-55.7122603058815 -205.854266881943 1978.99997234344 19 22 11
-50.0856637954712 -204.920709133148 1970.00002861023 19 22 11
-44.0540313720703 -201.906397938728 1940.99998474121 18 21 14
-38.4000949561596 -200.036063790321 1922.99997806549 17 20 13
-32.9648889601231 -198.893561959267 1911.99994087219 16 19 12
-27.5460388511419 -197.43874669075 1898.00000190735 22 25 18
-22.3095212131739 -196.919858455658 1893.00000667572 28 31 24
-17.136424779892 -196.81678712368 1891.99995994568 24 27 20
-11.9687207043171 -196.713507175446 1891.00003242493 28 31 24
-6.87484815716743 -198.586449027061 1909.00003910065 28 31 24
-1.6696413513273 -198.898732662201 1911.99994087219 28 31 24
3.55379492975771 -199.314802885056 1916.00000858307 28 31 24
8.74863006174564 -198.58630001545 1909.00003910065 29 32 25
13.9710363000631 -198.793783783913 1911.00001335144 30 33 26
19.2745737731457 -199.729189276695 1919.99995708466 28 31 22
24.6016047894955 -200.456291437149 1927.00004577637 17 20 11
29.7807939350605 -199.934810400009 1922.00005054474 15 18 9
34.9690318107605 -199.621140956879 1919.0000295639 22 25 14
40.7064221799374 -202.115789055824 1942.999958992 20 23 14
46.4798808097839 -204.194083809853 1963.00005912781 25 28 19
51.9925765693188 -204.81576025486 1968.99998188019 14 17 10
57.4795417487621 -205.229133367538 1973.00004959106 13 15 10
62.9243776202202 -205.434203147888 1975.00002384186 8 10 5
100.590065121651 -229.961201548576 2210.99996566772 0 1 0
107.100553810596 -230.996176600456 2220.99995613098 7 9 6
111.881971359253 -228.390738368034 2196.00009918213 7 9 6
118.458911776543 -229.529112577438 2207.00001716614 7 9 6
125.095367431641 -230.667144060135 2217.99993515015 7 9 6
