ply
format ascii 1.0
comment KinectMotionCapture
element vertex 762
property float x
property float y
property float z
property uchar red
property uchar green
property uchar blue
end_header
314.59097068457 550.012367269526 2956.1107873551 140 140 142
307.351902616379 550.845304681493 2958.92511537902 149 149 151
305.095550852423 551.160530658227 2965.37018156909 170 170 172
303.685588930952 551.387525582701 2972.40471996234 188 188 190
303.127907093346 551.525369989919 2980.02301735854 182 182 184
296.72385819376 552.270936561979 2983.43831953588 153 153 153
289.472616499997 553.104583089309 2986.26463134302 143 143 143
281.368460196102 554.027106313056 2988.50785471178 145 145 145
274.093347812789 554.863467275962 2991.35746927411 151 151 151
269.344775449686 555.436655225414 2995.98815489887 156 156 156
264.596799134504 556.009679580315 3000.61827281843 155 155 157
258.999630103372 556.671212918882 3004.66132290946 156 156 158
249.992968583293 557.688245350223 3006.36986956204 157 157 159
240.113923124422 558.796503996469 3007.5139760076 155 155 157
232.778783789223 559.639636231291 3010.4221974295 153 153 155
226.29022317275 560.394500565093 3013.9200467859 153 153 155
217.216221777927 561.419504576103 3015.69394689158 158 158 160
205.539854490999 562.716578961541 3015.76109496247 161 161 163
193.832963684571 564.017366937454 3015.85766663041 156 156 158
183.826076412852 565.140945996376 3017.12645753569 147 147 149
177.265070604417 565.904500931532 3020.69496157156 150 150 152
167.220727335364 567.032625007589 3022.00027508434 157 157 159
155.411756880492 568.345839478969 3022.19637672159 152 152 150
142.699785503148 569.754084362299 3021.85855469456 147 147 145
129.953421814526 571.166501074367 3021.55393030458 146 146 144
118.049723920172 572.491290593783 3021.84272474451 142 142 140
101.722192117702 574.280183735362 3019.37063506624 144 144 142
71.2553610643303 577.552068661208 3008.04765472983 148 148 146
21.2614756065017 582.873300667427 2984.6380655927 134 134 132
-8.58606508766879 586.084656984623 2974.12631403645 129 129 127
-25.2455592522765 587.914131426845 2971.97786999257 128 128 126
-33.959915817297 588.910602163453 2974.81610183094 140 140 138
-37.347992698018 589.348274210677 2980.94964315647 155 155 153
-26.452989994906 588.285936047885 2995.79415230196 168 170 167
431.991588536582 529.11131548716 2839.78524817612 196 198 193
438.951111896903 528.529986266218 2854.21558777939 197 199 196
445.185550934647 528.019102472069 2867.93828787066 198 198 200
445.189322282275 528.126176688299 2876.42084893462 197 197 199
446.792165751296 528.073231180228 2886.17297722421 191 191 193
446.847600018602 528.173291229517 2894.60527293602 194 194 196
446.135243097453 528.349003678149 2902.3715680967 207 207 209
440.68218967744 528.99633631191 2906.27394595543 199 199 201
434.43024457843 529.723153602773 2909.54064010388 189 189 191
428.171369694125 530.450507136727 2912.81447421706 187 187 189
422.704613108003 531.098623771086 2916.73034364736 180 180 182
415.631990568859 531.906922012164 2919.38303045912 171 171 173
402.926050785405 533.278141133593 2917.62744420191 166 166 168
384.545939646683 535.217179123393 2911.50309184938 169 167 168
360.451283828392 537.728922698301 2901.05001813876 127 125 126
342.736148257098 539.603943032866 2895.69204415882 109 107 108
334.691008493214 540.51174363394 2897.87883922812 108 106 107
337.19849539414 540.362384681571 2908.16414024142 156 154 155
336.482109318212 540.535184877248 2915.93486684208 158 156 157
334.152392539237 540.869153660911 2922.45001539791 155 155 157
331.834964564098 541.201425823523 2928.95321174973 162 162 164
330.350426683997 541.449557029016 2936.05868123924 183 183 185
329.704770289709 541.612896867126 2943.76090829916 186 186 188
325.780969386743 542.105060735727 2949.00146831312 164 164 166
318.555957583513 542.928766575601 2951.80320268047 153 153 155
312.148505721023 543.670280514394 2955.22248302771 142 142 144
305.733809019469 544.412514427284 2958.64851335339 155 155 157
305.138010181329 544.568890786733 2966.30226032213 175 175 177
302.893764729481 544.890787237345 2972.73431887219 187 187 189
300.661640463804 545.211021235687 2979.15424877292 177 177 179
293.413719156642 546.036540705762 2981.97880240458 149 149 149
284.474604842201 547.032746291726 2983.62301404009 143 143 143
278.042591554939 547.776160765343 2987.066065505 146 146 146
272.447523607451 548.43520486003 2991.10773494006 152 152 152
266.849268488921 549.094473841789 2995.15253604487 154 154 154
262.095401932357 549.668417661687 2999.78836716467 156 156 158
254.793197017094 550.499879464194 3002.66560910551 157 157 159
248.331512141272 551.246444824746 3006.13765919678 156 156 158
238.448700501297 552.339256674814 3007.28778854559 154 154 156
230.254280341407 553.261512748612 3009.62068474234 152 152 154
222.902377719445 554.098709017274 3012.546429689 152 152 154
213.82092725371 555.111341593753 3014.32989316682 158 158 160
202.998198006864 556.30075496494 3014.98218761344 161 161 163
189.559318232896 557.755940275923 3013.94201143551 157 157 159
179.54292604127 558.864678060223 3015.22243440067 145 145 147
172.972106631197 559.62423496815 3018.80093655273 149 149 151
163.787344596561 560.64933140559 3020.68514779249 156 156 156
153.712748305602 561.765200350543 3022.02231430627 154 154 152
142.742703312265 562.972507070822 3022.8182508377 146 146 144
130.871259935168 564.271985171797 3023.07841923979 145 145 143
116.339532120198 565.842638533302 3021.68948187668 143 143 141
95.6150940189762 568.044122081614 3016.43738219678 142 142 140
60.7325720899836 571.687905227342 3002.3593973507 148 148 146
11.5991158966988 576.785205046227 2979.54573347359 129 129 127
-14.731378664889 579.563656632337 2971.27346135926 125 125 123
-30.517767512253 581.269659461502 2969.69316919669 133 133 131
-39.2435062390133 582.256891742859 2972.54406912958 140 140 138
-37.3017178764705 582.156764698948 2981.96659353977 160 160 158
437.498445764968 521.984890086621 2845.28918101199 198 200 195
441.343597301364 521.742373052373 2857.0937486272 196 198 195
446.799673230161 521.343813189692 2870.15586404625 198 198 200
446.02130267024 521.54216409333 2877.98470361433 196 196 198
446.838128414378 521.586379528649 2887.08608946148 190 190 192
446.893222726361 521.702757830817 2895.5163109233 184 184 186
446.180550621244 521.892072843487 2903.28090861331 213 213 215
441.520673312446 522.460595427364 2907.82420827697 200 200 202
435.270686692356 523.181934041787 2911.09010521488 196 196 198
427.418837488041 524.057553927058 2913.08971619691 185 185 187
421.949725278814 524.703474387923 2917.00791154726 181 181 183
414.073838816634 525.58144640998 2919.0310442369 174 174 176
402.970455222564 526.771230129255 2918.54506854414 156 156 158
383.785403894648 528.742560593137 2911.79835156739 158 156 157
358.882047103612 531.268230208589 2900.72936229707 142 140 141
341.972020379501 533.022630989399 2896.00664016528 127 125 126
334.7357125009 533.841628121106 2898.82028764747 132 130 131
335.617069078434 533.874170289935 2907.85931872681 162 160 161
335.71148101286 533.9821128203 2916.25174401171 154 152 153
333.379627299333 534.324547665399 2922.76776329497 156 156 158
331.060019603235 534.665320767766 2929.27186770674 167 167 169
328.75278574528 535.004386529157 2935.76393705856 184 184 186
327.280287965793 535.261791183904 2942.85607993842 182 182 184
321.701725559516 535.917781507221 2946.88181047314 156 156 158
315.293301778686 536.65438917501 2950.30244325238 150 150 152
308.049486403798 537.472357290226 2953.12369787755 148 148 150
304.946429625867 537.887087613039 2958.97793864648 169 169 171
303.516072539039 538.138501622384 2966.02912061035 182 182 184
302.101915295726 538.387784930809 2973.0645308068 187 187 189
298.195802835035 538.879622339155 2978.28791202877 169 169 171
291.779819886133 539.616209974552 2981.71605413442 142 142 142
283.67691821984 540.517582129067 2983.96115774829 142 142 142
277.242953745755 541.256082808469 2987.4068730272 150 150 150
271.645910917105 541.912810724354 2991.45084587867 155 155 155
266.045427726932 542.56986745273 2995.49784861965 155 155 155
258.746650298916 543.393100243003 2998.37324110139 157 157 159
251.436694925821 544.217578322294 3001.25921155266 157 157 159
244.115771203955 545.043321198575 3004.15588679997 154 154 156
236.783878864065 545.870358390202 3007.06326274788 151 151 153
226.874641284569 546.950373675794 3008.24152477192 151 151 153
220.37236062905 547.696513709729 3011.75394993563 152 152 154
211.285207015933 548.696538303769 3013.54494017741 154 154 156
202.17913679716 549.698842736782 3015.35404008705 161 161 163
187.012235125088 551.297192944279 3013.17483685418 163 163 165
175.259860073632 552.560815110728 3013.32206814022 142 142 144
168.679604814406 553.316300293904 3016.9108798711 148 148 150
160.353997257502 554.243815131217 3019.37293200745 151 151 151
153.755673015499 555.001489743537 3022.97936290867 157 157 155
142.785797921346 556.190170380569 3023.77788365466 146 146 144
131.789435717137 557.382072201034 3024.60223040299 145 145 143
113.752897937658 559.268934650007 3020.97857262536 143 143 141
88.629925083703 561.856399528007 3012.95235067466 140 140 138
47.568746692972 566.019339706601 2995.01409094166 149 149 147
5.46712700200747 570.288618611705 2976.67604082329 124 124 122
-18.2233177566022 572.742189574068 2970.08090539495 122 122 120
-33.1305730580791 574.329343445883 2969.06243360905 138 138 136
-41.8619549385229 575.306702232075 2971.92039657523 138 138 136
-37.2553093106216 574.96456018512 2982.983513834 167 167 165
438.32597920154 515.327373254475 2846.86831547433 197 199 194
439.827419262288 515.331159479482 2856.71309176397 194 196 193
446.846453317744 514.823216773259 2871.07315203042 198 198 200
447.63918488892 514.889709945858 2880.19550894965 195 195 197
448.45953622599 514.952468886296 2889.29065310895 194 194 196
446.938961150891 515.231177889716 2896.42738868064 185 185 187
446.225994581874 515.434151823157 2904.19025999512 205 205 207
441.565861093137 516.002824640238 2908.73379184485 205 205 207
436.111049159764 516.645071768166 2912.63866756888 193 193 195
427.463722620172 517.584076616922 2914.00192171652 182 182 184
421.195212305417 518.301866592649 2917.28639960231 178 178 180
412.515921778906 519.244206421835 2918.68056371083 170 170 172
402.211686697292 520.338269716696 2918.83207848626 156 156 158
380.609743140944 522.486936372603 2910.20843305569 151 149 150
354.084753406529 525.0972017832 2897.90308957127 150 148 149
338.781224900631 526.661679930498 2894.4473179201 120 118 119
333.969758883822 527.246305269515 2899.13876743154 136 134 135
334.848879710639 527.298146736786 2908.17716621651 161 159 160
333.311416734151 527.575269692446 2915.33090614109 157 157 159
331.79019665684 527.85019755051 2922.46884106114 159 159 161
329.466517495673 528.199680592623 2928.97570117262 171 171 173
327.155190914073 528.547458973741 2935.47054693814 183 183 185
324.856110349901 528.893575612128 2941.95347783217 178 178 180
318.44694550562 529.625293836902 2945.37556915591 151 151 153
311.204516256071 530.435349254816 2948.19695467333 149 149 151
306.436050968144 531.012814088322 2952.84676214491 154 154 156
304.989372886043 531.277312789003 2959.91221718669 178 178 180
303.558895185965 531.53962175205 2966.96190865189 189 189 191
301.310460360816 531.878498642321 2973.39561761 183 183 185
295.729973668145 532.531281876165 2977.42373299598 162 162 164
287.632016993502 533.421576707119 2979.66522554163 140 140 140
280.359308031195 534.234224056505 2982.5159583331 142 142 142
273.917756665656 534.968478889486 2985.97017288362 152 152 152
270.000464631883 535.464067967211 2991.20376324984 156 156 156
264.396260367765 536.119074583048 2995.25510191999 156 156 156
256.245757309423 537.015184603528 2997.54825216095 156 156 158
247.230659874321 537.993578049274 2999.27054878505 156 156 158
240.751763381649 538.731862687415 3002.76125199543 153 153 155
235.11907965248 539.389971395226 3006.84007486555 151 151 153
227.772336490005 540.210919977435 3009.76309779363 151 151 153
219.557405146554 541.114444581058 3012.11913040198 153 153 155
210.468331335762 542.101502229395 3013.91394393735 153 153 155
200.499251487571 543.172697734463 3015.15293377855 162 162 164
186.191651844345 544.657290282214 3013.55381573637 166 166 168
173.572596709249 545.98220395707 3013.13604282345 140 140 142
166.121395630232 546.815584009096 3016.16095664102 146 146 148
159.52805267924 547.56751340054 3019.76295234577 147 147 147
152.056741255536 548.40339919664 3022.80746568502 160 160 158
141.083210862957 549.573788555299 3023.61231963934 150 150 148
129.208497631469 550.831060858334 3023.88231089568 145 145 143
112.043066593733 552.594733130861 3020.82874801817 142 142 140
82.5237600664015 555.54104155706 3010.03022904459 136 136 134
35.2858443675119 560.185287755333 2988.23504519803 140 140 138
-4.19457765510645 564.091744416998 2971.59879781085 126 126 124
-26.1366979487994 566.322138876717 2966.13503005291 128 128 126
-36.6294849854971 567.45726260092 2967.88462031124 138 138 136
-42.70356945164 568.169382204559 2972.39411569345 143 143 141
-38.0989812213568 567.857249298224 2983.45484064058 172 172 170
436.814317040874 508.882007636676 2846.4882219344 194 196 193
439.093166456273 508.838455875228 2856.98492509409 194 196 193
446.109747485627 508.371304511301 2871.34139230914 197 197 199
447.685780819342 508.386974815372 2881.11033991434 196 196 198
447.718000755343 508.539124954764 2889.55765106575 194 194 196
445.405666611362 508.89959071517 2896.05162216648 191 191 193
444.688661887178 509.116652998827 2903.81675901873 183 183 185
440.02446639469 509.686014802503 2908.36422266631 208 208 210
435.360868565646 510.255035901487 2912.91114318127 194 194 196
426.711285219114 511.181011339742 2914.27822627075 161 161 163
422.039253658544 511.750446987499 2918.83346033566 166 166 168
410.958364556185 512.895173238911 2918.33180675417 169 169 171
398.240784920601 514.187632660223 2916.59941969148 157 157 159
374.214149237813 516.49838593545 2906.1085072593 153 151 152
350.094792285489 518.820163096387 2895.70770125096 130 128 129
338.017353881448 520.059473579282 2894.76440918992 123 121 122
334.825615938114 520.498297745079 2900.70315060758 144 142 143
335.706391333824 520.568948074191 2909.73712643962 161 159 160
333.355933046943 520.930387014856 2916.26881154222 158 158 160
331.017784283967 521.290185691203 2922.78851553596 164 164 166
327.873375203119 521.722247222701 2928.68125820791 176 176 178
325.557955628621 522.078767741903 2935.17887629169 183 183 185
322.432195194131 522.508225993404 2941.05314750379 170 170 172
316.017314482435 523.235433015034 2944.48191936421 152 152 154
308.768794587258 524.03839695518 2947.3100632581 150 150 152
304.822640381423 524.541516510842 2952.57120118649 171 171 173
303.3719083108 524.817464998503 2959.63898962528 190 190 192
302.769698850916 525.015514915434 2967.29294310259 186 186 188
298.016712230406 525.590763057248 2971.92770765467 170 170 172
293.264449478532 526.165802006264 2976.5617843131 152 152 154
285.998783335517 526.96989554893 2979.4067877298 145 145 145
280.401978173392 527.621800581725 2983.45089955292 142 142 142
273.118561898589 528.427764959672 2986.31359044624 153 153 153
267.511511987077 529.080755115016 2990.3677150763 157 157 157
261.901463242256 529.733992345385 2994.42511891658 156 156 156
253.745103905953 530.620314707228 2996.7255311398 156 156 158
246.423557849109 531.43047981529 2999.62512676228 156 156 158
237.387877608919 532.397993673814 3001.36947041435 152 152 154
233.454681157535 532.897962955652 3006.6185445521 150 150 152
226.10409884616 533.711464216419 3009.54648052265 152 152 154
217.027860471902 534.683737259225 3011.33039559605 153 153 155
207.933083244474 535.658216443481 3013.13273179995 153 153 155
195.374535826591 536.951868697645 3012.6591564117 163 163 165
183.645040613772 538.170089972996 3012.79037791163 168 168 170
171.020294497628 539.471750258475 3012.38169306781 138 138 140
164.430315811851 540.218007305276 3015.98118637753 144 144 146
156.964348406049 541.045347064672 3019.0216561285 144 144 144
150.358338302183 541.793612088542 3022.63710993723 161 161 159
139.380855826528 542.945937527636 3023.44822036589 152 152 150
124.878205641869 544.424914218293 3022.04395825796 145 145 143
104.197047518527 546.476602396983 3016.77135845243 142 142 140
72.9035794474844 549.512582753624 3004.88719816909 134 134 132
25.6453692250744 554.030540513193 2983.13083246048 135 135 133
-10.3257267719736 557.507748767533 2968.74119029255 129 129 127
-26.9748519258841 559.196808569533 2966.60320289027 133 133 131
-33.9239227154047 559.987201436136 2970.55309455446 135 135 133
-37.3276323017033 560.448633215676 2976.69864770967 147 147 145
-30.0406814688876 559.916560598999 2989.37965757016 171 171 169
443.880678817801 501.6916444321 2853.2871501568 193 195 192
443.831132255332 501.871056075453 2861.81162741153 193 195 192
447.724256090073 501.711580229652 2873.55662221593 199 199 201
448.518025659252 501.815872539446 2882.67202384984 202 202 204
448.55202850818 501.984119241359 2891.11552331944 190 190 192
446.241405232104 502.352565986562 2897.60661591699 183 183 185
443.942818915651 502.719272444349 2904.08567500742 178 178 180
437.68976199317 503.425695708702 2907.35682528321 191 191 193
432.224813513028 504.064149390336 2911.27232741773 201 201 203
425.959243932424 504.771484970468 2914.55543026614 158 158 160
421.285020584382 505.341432803169 2919.1127651077 171 171 173
410.202179844036 506.464999405547 2918.61617691847 156 156 158
392.66393457264 508.148037108941 2913.11092320486 165 165 167
366.20856828728 510.605300665852 2900.75871837147 163 161 162
345.298188085144 512.585184509901 2892.89019565058 121 119 120
338.062731482165 513.38069318509 2895.70646938712 125 123 124
334.870793839811 513.825115080224 2901.6445817669 144 142 143
334.125738770871 514.056151037826 2909.43550772324 157 155 156
331.771165694006 514.42639383327 2915.96997766723 161 161 163
329.428777848297 514.794936618143 2922.49226091537 166 166 168
326.280299738145 515.233113153955 2928.38814039861 177 177 179
324.781310904362 515.526762032197 2935.50123240659 180 180 182
320.008499981329 516.105747687695 2940.15513038124 167 167 169
315.236478048933 516.684368518667 2944.80829879744 149 149 151
307.985946703979 517.479713695683 2947.63956614055 146 146 148
306.522887261119 517.768289345957 2954.71806739508 175 175 177
304.245433072278 518.127555288338 2961.17724167533 189 189 191
302.812796268777 518.412118775045 2968.22612579527 183 183 185
297.225490741302 519.060821287849 2972.26127767181 165 165 167
291.635164583434 519.709832592372 2976.29972128168 150 150 152
283.527661546033 520.580236500661 2978.55397121835 145 145 145
279.604915444397 521.082469001776 2983.79199565951 149 149 149
272.319298843576 521.880851465354 2986.65765427073 156 156 156
265.866724827331 522.606028911899 2990.12415611009 157 157 157
259.406906241277 523.331896814183 2993.59741202332 156 156 156
252.939988098233 524.058571275194 2997.07759869257 154 154 154
245.616682705077 524.861131768135 2999.9804031628 154 154 154
236.579082267214 525.815678680954 3001.72857010845 149 149 149
230.936832444889 526.470026927473 3005.81778588701 147 147 147
221.869642760236 527.428009190872 3007.59482764883 149 149 149
214.498512596865 528.236110558887 3010.54396604195 151 151 151
205.397989166392 529.198046157382 3012.35386224692 153 153 153
193.695004588535 530.391843990493 3012.46236806852 156 156 156
182.824955494608 531.512538761548 3013.17180840189 161 161 161
171.928504863441 532.636384959397 3013.90700007253 138 138 138
163.606628462226 533.531691158693 3016.37044538074 141 141 141
156.13877715811 534.351396075071 3019.41391429705 148 148 146
147.789095076551 535.250148653362 3021.90446168358 145 145 143
135.933268599172 536.462418557308 3022.16201160683 163 163 161
117.924271517379 538.225617557457 3018.52962075499 142 142 140
98.1045509959744 540.152621942391 3013.83693820433 144 144 142
64.1624587762966 543.34569017416 3000.30861753996 136 136 134
17.7662522272524 547.658282391877 2979.14353169606 132 132 130
-13.8092090860873 550.648140652722 2967.54621169657 132 132 130
-28.6968667363725 552.144665533622 2966.5216740786 132 132 130
-34.7636314680226 552.850745118428 2971.0244557264 140 140 138
-38.1689680674659 553.318000493846 2977.17110164678 154 154 152
-24.6533027322271 552.263716556252 2993.66279160024 177 177 175
418.333382158312 497.027967744562 2824.08176528086 147 149 144
446.267851582285 494.932416309384 2856.16639123057 193 195 192
447.005849544586 495.063215675642 2865.33359500519 193 195 192
447.771423678613 495.190404243129 2874.47361106613 198 198 200
446.993493904417 495.443140843474 2882.29363690325 194 194 196
445.44808486702 495.758003105266 2889.44968953081 183 183 185
443.129371716296 496.135725343419 2895.94744457967 184 184 186
440.822948715676 496.511603368736 2902.43326790165 176 176 178
434.561946226136 497.213809556923 2905.712931525 169 169 171
429.088881587001 497.850734303316 2909.63638125935 185 185 187
423.612734157265 498.487798771232 2913.56320944155 188 188 190
419.731693038412 498.992233253152 2918.75949476649 158 158 160
408.644922535392 500.095007518197 2918.26988198807 168 168 170
389.496620514566 501.869230898366 2911.51580474701 144 144 146
361.424042049811 504.38913066746 2897.92677711631 140 138 139
341.309120108614 506.249523114251 2890.70292267732 131 129 130
336.490609963677 506.835862041116 2895.40111384458 122 120 121
334.916151503265 507.150848314667 2902.58599464975 144 142 143
332.54515330475 507.53162378428 2909.1352182577 156 154 155
330.186486965733 507.910638236165 2915.67245642452 163 163 165
327.840195003367 508.28788631036 2922.19766772225 169 169 171
326.324735287257 508.594756713236 2929.3251614243 179 179 181
324.005040228133 508.96838646545 2935.82449639035 177 177 179
318.407731845567 509.616980676158 2939.86993509885 164 164 166
312.807133257788 510.265737347702 2943.91827917614 146 146 148
308.029796142609 510.845087210745 2948.57661789678 141 141 143
305.738105091623 511.214478986851 2955.04877083979 182 182 184
303.458723026034 511.582289535352 2961.50893448309 188 188 190
300.359587394653 512.018756782921 2967.35606878755 179 179 181
294.766309296505 512.665765026859 2971.39740192725 159 159 161
290.00615638148 513.24215246927 2976.03911432759 148 148 150
284.408669057398 513.88941295539 2980.08492785158 145 145 145
280.487724268007 514.394366813798 2985.32076134763 150 150 150
273.204238650485 515.184654225653 2988.18583814803 157 157 157
265.909639132867 515.976149368225 2991.06143487146 158 158 158
258.604135311463 516.768871749485 2993.9476783444 157 157 157
251.287641882713 517.562861607715 2996.84464732735 156 156 156
245.659528757387 518.213127914722 3000.92042846569 155 155 155
236.622006428097 519.154455963583 3002.6704715907 150 150 150
230.12612094703 519.879239148134 3006.17970278465 148 148 148
219.34637273413 520.970535081825 3006.8038181436 149 149 149
211.96949014992 521.771430326727 3009.7597338375 151 151 151
202.863176922232 522.720945772852 3011.57721508979 154 154 154
192.876974757616 523.746417130865 3012.83996565327 151 151 151
182.005140043033 524.848702858609 3013.55389998291 159 159 159
170.241680849199 526.028512403061 3013.72452545512 137 137 137
161.049105700701 526.988312846684 3015.62614595182 138 138 138
153.575501706492 527.800841158306 3018.67638807347 144 144 142
146.961680640254 528.539725402543 3022.30064691644 144 144 142
134.231551980627 529.80619845672 3022.00180915356 161 161 159
115.344136246892 531.605216636033 3017.81915978977 142 142 140
92.0123649757421 533.790226675919 3010.90754947327 141 141 139
58.9360903353664 536.8204532834 2997.96077423419 134 134 132
15.1706343017617 540.779810264759 2978.48658804763 138 138 136
-17.2923613698384 543.766318653583 2966.35418857796 134 134 132
-30.4189880189445 545.081197459022 2966.44158698906 137 137 135
-37.3754884903867 545.862030503971 2970.4002693747 137 137 135
-37.2339665120567 546.027055293759 2978.73713911459 153 153 151
435.494558168828 489.011688327667 2839.39929845234 150 152 147
445.536205002563 488.43333984418 2856.43657844553 194 196 193
447.835176749042 488.460461141245 2866.90285438581 194 196 193
449.385934659146 488.544668311722 2876.68643329938 197 197 199
448.611746561241 488.810600944151 2884.50113107085 189 189 191
446.282432869739 489.198151059918 2891.00796005738 174 174 176
442.386343345879 489.708846325558 2896.21826332985 175 175 177
436.120477541376 490.406754752769 2899.50305366206 183 183 185
430.640925520734 491.042272967779 2903.43349118886 170 170 172
427.544101100762 491.488414582101 2909.27690055904 172 172 174
424.455508624367 491.933266107327 2915.11198832017 197 197 199
418.977877145519 492.567746128369 2919.0406721652 171 171 173
407.087857154838 493.713286123206 2917.92513008634 157 157 159
387.132995313825 495.503865145725 2910.55298983735 139 139 141
360.664687098173 497.817932800753 2898.23480082383 139 137 138
341.355055585592 499.563124381103 2891.64555488231 133 131 132
334.918470238461 500.279340918242 2895.09716631339 128 126 127
333.339894013795 500.605785018718 2902.28444265751 144 142 143
331.777707047393 500.9300025328 2909.45611115639 155 153 154
328.602042951958 501.383118253098 2915.37644087796 162 162 164
327.068430474976 501.703409170212 2922.52031483575 173 173 175
325.550807975944 502.021579396793 2929.6482861042 184 184 186
322.408312376615 502.469953497279 2935.53637982815 175 175 177
315.984599480371 503.183059998877 2938.9760062291 160 160 162
310.378071646835 503.830028486522 2943.03050242787 141 141 143
308.073824535232 504.209465180176 2949.51363909026 141 141 143
307.438585484025 504.452898211622 2957.19368383551 189 189 191
303.502408232288 504.963339977946 2962.44383228145 185 185 187
297.906618914313 505.608351978902 2966.4882919854 168 168 170
291.473437644535 506.321515265223 2969.93697438649 152 152 154
286.705395643373 506.899133127599 2974.58633891045 145 145 147
281.100108049495 507.544870786543 2978.64012329084 147 147 147
276.33149475929 508.122265824848 2983.29008804657 152 152 152
270.721851849644 508.768257696415 2987.34815974739 159 159 159
264.265102087712 509.483596086502 2990.81992453021 159 159 159
257.801338610858 510.19964176032 2994.2985494994 157 157 157
251.330642656169 510.916518860798 2997.78427347905 154 154 154
245.702551878913 511.564335144176 3001.86039453785 152 152 152
237.516448226041 512.422488668111 3004.19416880707 148 148 148
228.462421210501 513.352527917814 3005.96260765109 147 147 147
217.678888801443 514.425696244804 3006.59316002511 146 146 146
211.155373926443 515.148566905851 3010.13011028581 146 146 146
201.187895270522 516.155962675832 3011.3769396924 149 149 149
192.059128213708 517.094863891457 3013.21828670757 148 148 148
179.459189925247 518.321615247745 3012.79570098916 157 157 157
167.690267900236 519.480812684599 3012.97513543597 142 142 142
158.491821717436 520.428068832921 3014.8841021559 135 135 135
150.143692701319 521.30554426717 3017.37625207809 140 140 138
141.780640433329 522.184871530025 3019.88294731053 143 143 141
129.911597269174 523.356232114625 3020.15966797866 151 151 149
114.513560054489 524.822394958519 3018.22918514903 144 144 142
91.1804287754521 526.951366119463 3011.3275457043 141 141 139
51.9527958036794 530.408897679333 2994.50662598671 134 134 132
8.17298195384142 534.251966578628 2975.06422249366 123 123 121
-24.3051111387032 537.157274714235 2962.95847850614 116 116 114
-34.7935342035361 538.228060466696 2964.71358224202 124 124 122
-39.9872751599162 538.856572911611 2969.77814992443 139 139 137
-36.2985863936909 538.740884775658 2980.30243280986 164 164 162
442.543669027778 481.871176171617 2846.20798912811 153 155 150
440.905916645474 482.220530199572 2853.45064219427 194 196 193
445.537870747515 482.097155835558 2865.8735411558 195 197 194
447.866170589498 482.144816047864 2876.307658221 194 194 196
447.873321708738 482.365568869419 2884.77006147356 190 190 192
443.966659120472 482.880751870043 2889.99020067001 167 167 169
438.485678748834 483.514563148944 2893.92230885488 161 161 163
433.001259631197 484.148526130195 2897.85747150183 183 183 185
429.100533812606 484.662063136364 2903.07229651749 175 175 177
426.794605353915 485.053842922285 2909.55494063675 174 174 176
422.109469355219 485.62593306274 2914.12279526958 188 188 190
415.826716172644 486.319588741117 2917.42532141426 195 195 197
403.928922129611 487.442108466399 2916.32090147009 142 142 144
386.375461249846 488.998423844027 2910.84948658492 155 155 157
361.515738359805 491.116956035786 2899.79734293931 141 139 140
342.20805915646 492.813678034385 2893.21298426687 114 112 113
332.537787036276 493.773021293766 2894.17178533003 129 127 128
330.953346316066 494.111248324144 2901.36348153502 147 145 146
328.571996207842 494.509794156958 2907.92002044843 155 153 154
327.018022798176 494.843767516951 2915.08209085428 163 163 165
325.480124400769 495.175609466484 2922.22817571487 175 175 177
323.958405665314 495.505205321651 2929.35852590373 185 185 187
320.812008115836 495.959719294386 2935.24992469342 170 170 172
314.384157927296 496.668082695356 2938.69402267299 157 157 159
308.773779852829 497.313194260492 2942.75295451225 141 141 143
306.465503254805 497.701394570643 2949.23879725553 151 151 153
304.997766239455 498.023507030752 2956.31664884085 188 188 190
301.055652447152 498.537616149252 2961.57215032628 184 184 186
295.453954603489 499.180896323042 2965.62273324688 162 162 164
289.849090578107 499.82442822228 2969.67642302782 151 151 153
283.404967628168 500.533604718032 2973.13655992495 143 143 145
279.467642400789 501.046520473571 2978.38748267315 148 148 148
272.175437112112 501.822293437418 2981.263025623 153 153 153
268.239748498249 502.334753958603 2986.51272831522 160 160 160
260.933493444136 503.112062243318 2989.40199597008 160 160 160
256.998957129166 503.624184145936 2994.65026661815 157 157 157
249.678632128057 504.402912358074 2997.55329607372 154 154 154
244.046524569221 505.048787814295 3001.63369270941 152 152 152
235.856772810199 505.896891750952 3003.97291276857 148 148 148
228.505626103336 506.679151715878 3006.90602664207 147 147 147
216.86669826325 507.80151217532 3006.96148158876 145 145 145
209.48404849915 508.587507725867 3009.92532634587 145 145 145
199.51301433545 509.579358134212 3011.1783218639 146 146 146
188.657846572625 510.642552827153 3011.88114545994 147 147 147
176.050557221657 511.846188066974 3011.46961384918 154 154 154
164.273838823892 512.985093652042 3011.65945149423 146 146 146
153.333936768349 514.058426691605 3012.44525689433 135 135 135
144.974340017676 514.926733427242 3014.95014957611 139 139 137
136.59982001513 515.796891991486 3017.46958756814 142 142 140
126.464849156358 516.808655668257 3018.88209363343 145 145 143
111.934147966941 518.173643762601 3017.52253405264 145 145 143
86.8423548134096 520.38776773045 3009.52052982198 142 142 140
42.3346211010407 524.165185656929 2989.39341753845 135 135 133
-3.22663164635939 528.034420469821 2968.88198541715 116 116 114
-30.4348141929256 530.433370131252 2960.12011350553 112 112 110
-38.2838155045055 531.27606331104 2963.53867235839 118 118 116
-44.3713474329366 531.977229367691 2968.0631401989 142 142 140
-38.027858880084 531.674573703446 2980.22986716524 167 167 165
438.70366032745 475.556940225408 2843.869531418 153 155 150
441.734239740479 475.583245025659 2855.02634012585 193 195 192
446.367493969005 475.492211621344 2867.44283022085 194 196 195
447.913771439674 475.620371640784 2877.22469990712 180 180 182
447.134851173135 475.914186958417 2885.0396379013 178 178 180
443.226204496453 476.432437550674 2890.26163178017 189 189 191
439.321856388076 476.949952887111 2895.47912794566 171 171 173
433.047858560844 477.638478487126 2898.77338027441 158 158 160
427.56016749192 478.270039892658 2902.7124848112 170 170 172
424.455056741805 478.728371238765 2908.56232099267 170 170 172
420.561072599886 479.24337117161 2913.76989736181 151 151 153
412.675888461178 480.048863249253 2915.81297528582 166 166 168
399.96923940724 481.206852055703 2914.08960869212 178 178 180
383.209172721837 482.662776784522 2909.2620886552 154 154 154
359.951841377786 484.597253770761 2899.47976843115 156 154 155
341.447423576913 486.187050454306 2893.53080998626 130 128 129
331.775170996101 487.130721799067 2894.49389397824 133 131 132
328.566873279233 487.599496357954 2900.44465284079 143 141 142
327.80501640521 487.887298105701 2908.24353543697 155 153 154
325.434090730551 488.292713401998 2914.78904527204 169 169 171
325.525355245655 488.515245847058 2923.16765965151 179 179 181
324.821899183236 488.795301947179 2930.90969418178 182 182 184
322.497682641282 489.194386548923 2937.40975683147 157 157 159
314.428879311706 490.019341191509 2939.6322947678 147 147 149
308.818375313777 490.661962456173 2943.69171971624 142 142 144
304.030955709465 491.243232034267 2948.3597867646 174 174 176
302.557251433655 491.577035479685 2955.44183600525 185 185 187
300.26962817275 491.970710837751 2961.90636046976 184 184 186
295.497943954303 492.549554454233 2966.55916060341 151 151 153
289.892995984106 493.19064972975 2970.61329387471 149 149 151
280.940836734668 494.082886668819 2972.28582584412 138 138 140
276.997553438892 494.599501974874 2977.54211825036 150 150 150
268.019927194178 495.494582582484 2979.23985687157 155 155 155
264.916158990423 495.947732329038 2985.08912572281 161 161 161
258.445791685108 496.654467882209 2988.57568442305 160 160 160
255.351230060762 497.106280086663 2994.41600869298 156 156 156
248.874529853501 497.813578127444 2997.90877292305 153 153 153
242.390815662065 498.521612970312 3001.40839324406 151 151 151
233.345829333379 499.424271370003 3003.17190143006 147 147 147
221.72176296651 500.523617980314 3003.216000151 146 146 146
212.633667205249 501.431386680416 3005.02156134066 144 144 144
205.241353172869 502.210698742791 3007.99599067566 142 142 142
197.838070253211 502.991334638869 3010.98111661584 149 149 149
186.979456249764 504.036316598121 3011.69039205585 145 145 145
175.231247331717 505.150487785981 3011.85557509919 144 144 144
163.452892646653 506.268298866793 3012.05049320223 149 149 149
152.511204162692 507.323311418115 3012.84078031232 136 136 136
144.149704960145 508.181361536927 3015.34907808042 137 137 135
133.160994926914 509.242036541956 3016.18522137585 139 139 137
123.891150744761 510.171639632996 3018.16769647875 133 133 131
106.730913085842 511.710208806109 3015.14258448108 144 144 142
78.1216401328963 514.134743824501 3004.93441591489 142 142 140
27.4459471150723 518.268896887795 2980.96041219543 136 136 134
-12.8645610434899 521.609894243432 2963.81511793294 123 123 121
-33.0346036053832 523.3976527911 2959.49055297914 122 122 120
-40.0049075373694 524.164658211388 2963.46498612204 123 123 121
-46.9825647553344 524.932633152535 2967.44624004986 143 143 141
-43.3095064460884 524.873048866751 2977.97775208559 165 165 163
441.086006596936 468.79114280875 2846.75487405343 172 174 169
443.342154593867 468.897091946764 2857.25168604761 191 193 192
447.197415296459 468.891550996974 2869.01152799155 193 195 194
445.610700068167 469.255935633557 2876.20127889192 185 184 189
442.469027786716 469.725788532235 2882.08538049206 176 175 180
440.123310144798 470.140173533721 2888.60453265946 186 185 190
438.579435499018 470.498377801516 2895.7529935259 188 187 192
434.677444926191 471.018161077089 2900.96781342332 155 155 157
427.606734148537 471.756546641768 2903.6289348907 158 158 160
420.525036456075 472.495904499848 2906.30082282236 164 164 166
415.026829404562 473.125695748688 2910.2506315137 141 141 143
407.127756773714 473.922307856174 2912.30847552943 133 133 135
396.810785810621 474.887832511217 2912.49163517826 182 182 182
380.043216916729 476.304620657119 2907.67768715713 207 207 207
358.388179110265 478.065787119774 2899.16369961914 222 220 221
339.073193363894 479.667003155013 2892.60105003361 124 123 121
330.203821525702 480.538778724955 2894.19439706125 132 131 129
327.80211930507 480.956742311384 2900.76861382963 142 140 141
325.41274921319 481.372915361728 2907.3308492523 153 151 152
323.035752959454 481.787381071096 2913.88104961504 173 173 173
323.120979412811 482.02703855913 2922.26312880521 179 179 179
322.411677408408 482.321499362959 2930.00917727536 181 181 181
319.260821985111 482.787792436463 2935.90292401171 151 151 153
312.006520545021 483.544840890465 2938.74359535396 151 151 153
308.038879175323 484.068435307823 2944.02338202008 154 154 156
304.075642128307 484.591340106168 2949.29855921206 182 182 184
301.773528545523 484.995274741736 2955.77595646368 188 188 190
297.823389205288 485.516263006309 2961.03841070206 182 182 184
293.877843063976 486.036524803108 2966.29641119764 149 149 151
288.268942626438 486.67561217481 2970.35476609474 142 142 144
279.313074469389 487.555153594401 2972.03319529846 143 143 145
275.365810691394 488.075160175984 2977.29293915335 153 153 155
266.384141111502 488.957525046604 2978.99623440454 156 156 158
264.118089883848 489.356058401317 2985.43861951136 161 161 163
257.645938201613 490.057934546564 2988.92800618462 163 163 165
254.549095450137 490.515678884177 2994.76938103883 156 156 158
247.222918234828 491.279518121884 2997.68042241353 152 154 153
238.186979787984 492.167974297239 2999.43704500167 151 153 152
229.132125543246 493.058621756495 3001.21178954394 149 151 150
218.352034630603 494.075748624808 3001.84720736426 146 148 147
209.256236877204 494.971220297441 3003.66223424125 141 143 142
200.14165060812 495.868896692444 3005.49525469307 139 141 140
193.585965131213 496.580225714427 3009.06585668625 142 144 143
186.16234395587 497.355481225724 3012.07231187549 143 145 144
177.001459467646 498.258669918352 3013.95049242814 140 142 141
164.36200079414 499.418314056756 3013.5770694538 157 159 158
150.821659963416 500.645844756119 3012.67129285728 130 132 131
142.456344767801 501.49390897479 3015.18485587459 132 134 133
131.463892786313 502.536480531513 3016.02739066171 139 141 140
121.317648055763 503.517822292657 3017.45558819418 138 140 139
101.527978422794 505.213860881598 3012.76720131086 155 157 156
66.7717766585252 508.022111644165 2998.68726999519 137 139 138
16.0718905130892 512.019735423328 2974.75746937765 141 143 142
-17.2196928913966 514.733064541449 2962.07099839271 131 133 132
-33.8694240096529 516.213863870928 2959.96439352887 122 124 123
-41.7259357044459 517.041877114837 2963.3925799914 128 130 129
-48.7071627505542 517.805188248144 2967.37840596209 141 143 142
-45.0380503395102 517.773138612467 2977.9097667238 152 154 153
448.224325101846 461.455955115183 2845.00128374516 126 127 121
441.1351457338 462.191171800362 2847.68155099682 192 194 191
441.831607722081 462.422573066452 2856.8747938488 190 192 191
448.027236257325 462.295191303235 2870.5793519101 190 192 191
444.874966140112 462.772247625739 2876.47291265491 185 184 189
441.731220146143 463.248009918262 2882.3585379184 177 176 181
438.59591703833 463.722354037874 2888.23598887646 168 167 172
439.41590159123 463.937062914298 2897.30903912368 181 180 185
435.51558504844 464.459554108697 2902.52179645532 182 182 184
428.446711161973 465.189776796893 2905.18230033217 161 161 163
418.981102870496 466.078266745259 2905.94833927637 151 151 153
412.681716413338 466.758716901718 2909.26933427897 160 160 162
402.37949577153 467.704101708182 2909.44082330155 151 151 153
393.652811295992 468.546272410037 2910.89685525533 127 127 127
378.48346383629 469.817153170566 2907.35123340727 140 140 140
356.824940702736 471.522489715708 2898.84929633002 155 154 152
336.699225880252 473.129792290414 2891.67356595427 122 121 119
327.824147366708 473.989065222419 2893.27476552131 123 122 120
326.227099894004 474.361799177347 2900.47354246751 138 136 137
324.646295858984 474.732278997966 2907.65652260004 155 153 154
323.081691936732 475.100598599308 2914.82373506058 173 173 173
323.166662661312 475.356652175365 2923.20364485855 179 179 179
320.819971677208 475.775317184366 2929.72313098589 159 159 159
316.024272793265 476.358691936086 2934.39910833757 154 154 156
308.762135053271 477.108855941869 2937.24857875991 140 140 142
306.435155616712 477.524505277661 2943.74893674434 173 173 175
303.294263682107 477.994659545095 2949.63255674834 186 186 188
300.989865459415 478.407239322682 2956.11060709095 181 181 183
297.037847515887 478.93137033405 2961.37480015557 171 171 173
292.258208012288 479.511718075655 2966.03527769594 144 144 146
285.811205817898 480.205984619861 2969.5004774097 142 142 144
276.013401075637 481.130456326585 2970.59107425212 147 147 149
270.382672399952 481.769494475283 2974.67111218752 155 155 157
263.06906146443 482.524496368097 2977.57098121635 162 162 164
260.795153937222 482.93230525432 2984.01979682526 162 162 164
256.002491003474 483.513410273831 2988.69309489895 161 161 163
251.210551669109 484.094335618903 2993.36570098355 154 154 156
246.419293686227 484.675057131142 2998.03766060246 154 156 155
236.531810854334 485.609536871808 2999.21582993052 152 154 153
227.473333005548 486.487448573303 3000.99639294661 145 147 146
214.129312848347 487.664873336974 2999.90307265454 144 146 145
207.589658517562 488.369286965666 3003.45877757474 139 141 140
197.614129390652 489.314129230485 3004.72284659878 138 140 139
192.771006403221 489.900740493557 3009.44543843131 141 143 142
185.345248139084 490.668465087254 3012.45479100566 144 146 145
177.045715108554 491.4980348118 3014.90576483875 140 142 141
164.406432552025 492.63371540431 3014.53570877927 154 156 155
151.733219663247 493.773571963181 3014.19906667727 136 138 137
141.632228876363 494.733523037826 3015.58548790883 134 136 135
130.637990466458 495.757774106308 3016.43250440594 138 140 139
116.999213957351 496.970706464482 3015.62663352166 135 137 136
92.8270992089879 498.93259650714 3008.16556442102 155 157 156
51.0397402594536 502.15014639909 2989.67089382962 140 142 141
2.94153513192574 505.824794554697 2967.45638695265 138 140 139
-22.4547253264711 507.891284300979 2959.77854353004 124 126 125
-34.7039760926022 509.023937851048 2960.43887469223 119 121 120
-43.4465211762372 509.907528250439 2963.32178181082 126 128 127
-51.3178002748305 510.729619275146 2966.76550782503 139 141 140
-47.654590358845 510.725439402939 2977.29861071272 151 153 152
440.406567435179 455.637676638012 2847.95639658096 199 201 198
438.761696962025 456.031771336909 2855.19950536493 189 191 190
444.167494202603 455.991298951729 2868.25862309184 188 190 189
442.572582704244 456.378669708343 2875.45345351305 178 177 182
440.208027480052 456.812278124261 2881.98813262387 171 170 175
436.281168076467 457.341493137624 2887.22659147313 171 170 175
435.516121640296 457.67401205346 2895.02203217376 169 168 173
433.188624665644 458.102169055538 2901.52105545354 188 188 190
428.493590504409 458.676922268492 2906.09834550714 180 180 182
419.823244254709 459.499741572397 2907.50163073999 143 143 145
411.931036102533 460.274760760767 2909.55584965094 150 150 152
402.42607878302 461.15156903237 2910.36302715038 151 151 153
392.097309240023 462.081342271961 2910.56318700707 128 128 128
376.92415506666 463.317940806023 2907.02641218004 132 132 132
355.261790650619 464.967459414479 2898.53620157776 139 138 136
335.939373529967 466.473168776816 2891.9950473013 129 128 126
325.444568588681 467.422192805 2892.35723750479 122 121 119
325.462827684603 467.70347559531 2900.79932622736 138 136 137
323.880027676564 468.085309625924 2907.98294808532 154 152 153
323.942422540346 468.360704072861 2916.38207963253 175 175 175
323.212524056045 468.68535880104 2924.14411806287 179 179 179
319.228585156306 469.217418936599 2929.43849934579 153 153 153
312.788120100051 469.907074327868 2932.89822695314 154 154 156
305.518103273747 470.650388763752 2935.7565337881 135 135 137
304.007445492658 471.022109203813 2942.86967429051 182 182 184
303.339331164768 471.338237947035 2950.57162027704 188 188 190
301.034772247434 471.759123102855 2957.04860266053 179 179 181
293.762144358033 472.502075525316 2959.90989366717 167 167 169
285.646234647233 473.300371952611 2962.182811167 142 142 144
280.017799487069 473.937057058308 2966.26091938632 142 142 144
275.222110834772 474.519310112464 2970.93705236423 147 147 149
270.427167848197 475.101292257128 2975.61248492536 158 158 160
263.953239408441 475.7933807283 2979.10474471707 165 165 167
261.681126167923 476.209336989536 2985.5505743943 163 163 165
256.04676632684 476.846061369485 2989.63456010463 160 160 162
250.409175989798 477.483104551541 2993.7217066264 154 154 156
242.225612344501 478.28860303366 2996.06074102274 154 156 155
233.178095380242 479.152100830846 2997.83255008722 152 154 153
224.963303126766 479.961228293186 3000.20239643342 143 145 144
215.026946105693 480.885652974695 3001.43058468718 140 142 141
207.633952192876 481.641728575928 3004.40912349232 139 141 140
196.801354948458 482.627970528011 3005.10124565342 140 142 141
190.237896959856 483.330077791612 3008.68092883747 135 137 136
183.667591796983 484.032976243591 3012.26763227149 142 144 143
176.227195026778 484.794614946413 3015.29242059077 141 143 142
164.450998323465 485.848392231408 3015.49432211109 152 154 153
149.177330798484 487.139529492702 3013.46654488773 152 154 153
136.464205224504 488.260224014369 3013.1720309709 134 136 135
124.587586503253 489.326277792993 3013.47183857915 134 136 135
110.062972891366 490.573268424418 3012.12367391737 131 133 132
84.1267175763085 492.596782209006 3003.57149588067 153 155 154
33.5555646394776 496.299785291923 2979.5574060942 148 150 149
-10.1879108371983 499.548496443843 2960.16676387491 134 136 135
-28.5696273595657 501.076500370532 2956.93891282452 123 125 124
-37.3030204349809 501.948440562753 2959.8144537592 122 124 123
-45.1670422437336 502.761744352428 2963.25227192681 127 129 128
-53.0420765339339 503.576495409196 2966.70081174586 128 130 129
-50.2707640484563 503.660858411769 2976.68958605076 141 143 142
441.233877989233 448.988017719761 2849.53492881468 195 197 194
435.692265283958 449.61842905067 2853.527410472 187 189 188
439.526748343463 449.704845225051 2865.29429369988 182 184 183
438.703151941529 450.059133688053 2873.14465785247 177 176 181
437.114225915786 450.456377307414 2880.33174756409 167 166 171
433.179346631078 450.989522311134 2885.577589423 148 147 152
430.827412232906 451.429264587665 2892.0988292851 153 152 157
429.279433968552 451.820654911656 2899.24646022083 164 164 166
426.954287503895 452.256505870589 2905.74201224598 181 181 183
420.665347701796 452.925656882009 2909.05396573239 188 188 190
412.775147032742 453.68982505297 2911.10813280055 172 172 174
400.075592455433 454.740480756116 2909.39358507248 157 157 159
389.740934386398 455.652362188811 2909.60223672381 138 138 138
373.758911891881 456.902891413839 2905.44937398722 126 126 126
352.894024109577 458.448808597622 2897.5998167038 133 132 130
333.565945468845 459.907083637702 2891.07129517258 129 128 126
323.874036310961 460.789546673734 2892.06294499746 118 117 115
322.266796712894 461.185531395875 2899.26840642158 142 140 141
321.488620463633 461.530188946478 2907.07542897778 157 155 156
322.359646403743 461.773431759133 2916.09357706965 180 180 180
323.258585663351 462.013067201102 2925.08453999045 179 179 179
318.456056583318 462.597981149071 2929.76707233528 150 150 150
313.65425191043 463.18262686753 2934.44892497731 144 144 146
306.386091887621 463.917923338735 2937.30657303063 142 142 144
304.052944145312 464.351008980957 2943.81047915537 187 187 189
301.732084668331 464.782457038842 2950.30242488524 189 189 191
299.423663074478 465.21216019745 2956.78227750864 176 176 178
292.146899790035 465.947833620566 2959.64841301462 164 164 166
282.363093854617 466.839110170741 2960.73001506454 141 141 143
275.892694902123 467.526036187845 2964.21953303167 143 143 145
272.759189593778 468.00581467361 2970.09439555134 148 148 150
