ply
format ascii 1.0
comment KinectMotionCapture
element vertex 776
property float x
property float y
property float z
property uchar red
property uchar green
property uchar blue
end_header
-35.5450101196766 183.878391981125 1779.99997138977 2 7 1
-30.6722354143858 183.776751160622 1779.00004386902 27 32 26
-25.8047934621572 183.674827218056 1777.99999713898 133 138 132
-20.9544897079468 183.675989508629 1777.99999713898 125 130 124
-16.1131620407104 183.78022313118 1779.00004386902 130 135 129
-11.2536558881402 183.677569031715 1777.99999713898 136 141 135
-6.39596162363887 183.471396565437 1776.00002288818 136 141 135
-1.55090074986219 183.471590280533 1776.00002288818 131 136 130
3.29602067358792 183.574840426445 1776.99995040894 128 133 127
8.14380310475826 183.574587106705 1776.99995040894 109 114 110
12.9915541037917 183.574065566063 1776.99995040894 109 114 110
17.8091358393431 183.263391256332 1774.00004863739 112 117 113
22.6358156651258 183.159068226814 1773.00000190735 117 122 118
27.4724420160055 183.157831430435 1773.00000190735 133 138 134
32.2907455265522 183.053061366081 1771.99995517731 139 144 140
37.1663123369217 183.257952332497 1774.00004863739 142 147 143
41.9579334557056 183.049395680428 1771.99995517731 148 153 149
46.8176975846291 183.150500059128 1773.00000190735 151 156 152
51.6244694590569 183.044776320457 1771.99995517731 152 157 153
56.5211623907089 183.248728513718 1774.00004863739 149 154 150
61.3939724862576 183.349132537842 1774.99997615814 144 149 145
66.1973506212235 183.242708444595 1774.00004863739 145 150 146
71.0350796580315 183.239340782166 1774.00004863739 135 140 136
75.8297443389893 183.132439851761 1773.00000190735 131 136 132
80.7096883654594 183.231920003891 1774.00004863739 160 165 161
85.5465233325958 183.227851986885 1774.00004863739 177 182 178
90.4339924454689 183.326870203018 1774.99997615814 171 176 172
95.27288377285 183.322340250015 1774.99997615814 156 161 157
100.280627608299 183.627441525459 1777.99999713898 150 155 151
105.422608554363 184.138849377632 1782.99999237061 141 146 142
110.405869781971 184.340178966522 1784.9999666214 138 143 139
115.464217960835 184.644564986229 1787.99998760223 141 143 140
120.538473129272 184.948682785034 1791.00000858307 137 139 136
125.768676400185 185.459107160568 1796.0000038147 134 136 133
130.807429552078 185.659483075142 1797.99997806549 137 139 136
135.932043194771 185.962900519371 1800.99999904633 136 138 135
141.150712966919 186.369314789772 1804.99994754791 139 141 138
146.471574902534 186.878740787506 1809.99994277954 159 161 158
151.735499501228 187.284663319588 1814.00001049042 173 175 172
157.107025384903 187.793612480164 1819.00000572205 192 194 191
162.505224347115 188.302278518677 1824.00000095367 185 187 184
168.021887540817 188.913941383362 1830.00004291534 187 189 186
173.476055264473 189.422115683556 1835.00003814697 194 196 193
179.054096341133 190.033257007599 1840.99996089935 186 188 183
184.364259243011 190.334498882294 1843.99998188019 181 183 178
189.792782068253 190.73873758316 1848.00004959106 169 171 166
195.347815752029 191.245928406715 1853.00004482269 190 192 187
201.253816485405 192.062482237816 1860.99994182587 69 74 68
207.202658057213 192.878767848015 1868.99995803833 10 15 9
213.08071911335 193.591594696045 1876.00004673004 29 34 28
219.461351633072 194.716885685921 1886.99996471405 30 35 29
226.258128881454 196.151450276375 1901.00002288818 16 21 15
262.002199888229 195.766419172287 1898.00000190735 187 192 188
266.734063625336 195.4455524683 1894.99998092651 109 114 110
270.874857902527 194.71201300621 1888.00001144409 115 120 116
275.269240140915 194.184675812721 1883.00001621246 144 149 145
279.337793588638 193.451002240181 1876.00004673004 166 171 167
283.822357654572 193.026572465897 1871.99997901917 199 204 200
288.593053817749 192.808330059052 1870.00000476837 189 194 190
293.823152780533 192.899242043495 1871.00005149841 189 194 190
298.738330602646 192.783802747726 1870.00000476837 186 191 187
303.809702396393 192.771375179291 1870.00000476837 177 182 178
308.549851179123 192.552611231804 1868.00003051758 173 178 174
313.781917095184 192.643001675606 1868.99995803833 171 176 172
319.700956344604 193.145513534546 1873.99995326996 171 176 172
326.166152954102 193.957015872002 1881.99996948242 179 184 180
-229.735493659973 178.98990213871 1781.99994564056 211 213 210
-224.766746163368 178.899317979813 1781.00001811981 191 193 190
-219.55569088459 178.607612848282 1777.99999713898 193 195 192
-214.360252022743 178.315728902817 1774.99997615814 194 196 193
-209.416523575783 178.224578499794 1774.00004863739 189 189 187
-204.246833920479 177.932322025299 1771.00002765656 186 188 185
-199.205413460732 177.740305662155 1769.00005340576 190 192 189
-194.39397752285 177.749082446098 1769.00005340576 213 215 212
-189.796179533005 177.958607673645 1771.00002765656 209 211 208
-185.082420706749 178.06750535965 1771.99995517731 211 213 210
-180.566012859344 178.377196192741 1774.99997615814 216 218 215
-176.329702138901 178.988263010979 1781.00001811981 200 202 199
-172.252640128136 179.800167679787 1789.00003433228 156 158 155
-168.131455779076 180.611982941628 1797.00005054474 160 162 159
-164.147764444351 181.624665856361 1807.000041008 189 191 188
-138.71756196022 187.19545006752 1861.99998855591 209 210 205
-132.855072617531 186.095878481865 1850.99995136261 34 36 31
-125.809147953987 183.186292648315 1822.00002670288 32 35 28
-119.849346578121 181.683912873268 1807.000041008 38 41 34
-114.988438785076 181.789964437485 1807.99996852875 33 36 29
-110.365144908428 182.298019528389 1812.99996376038 18 21 14
-105.597883462906 182.604789733887 1815.99998474121 16 21 14
-99.7054204344749 180.900201201439 1799.00002479553 22 25 16
-93.2728946208954 177.988618612289 1769.99998092651 19 22 13
-88.1474614143372 177.389577031136 1764.00005817413 18 21 12
-83.7630555033684 178.298726677895 1773.00000190735 18 21 12
-80.0415128469467 180.816739797592 1797.99997806549 17 20 11
-75.3475353121758 181.323289871216 1802.99997329712 16 19 10
-70.0009688735008 180.220499634743 1792.00005531311 20 23 14
-64.5324662327766 178.614601492882 1776.00002288818 23 26 17
-59.8567575216293 179.120436310768 1781.00001811981 25 28 19
-55.0300218164921 179.223760962486 1781.99994564056 22 25 16
-50.2257756888866 179.427459836006 1784.00003910065 19 22 13
-45.3595593571663 179.42975461483 1784.00003910065 12 17 10
-40.5385680496693 179.632976651192 1786.00001335144 25 30 24
-35.5866849422455 179.232493042946 1781.99994564056 10 15 9
-30.7254586368799 179.234102368355 1781.99994564056 16 21 15
-25.8495956659317 179.134890437126 1781.00001811981 79 84 78
-21.0026558488607 179.236590862274 1781.99994564056 97 102 96
-16.1411222070456 179.237484931946 1781.99994564056 81 86 80
-11.2858545035124 179.338738322258 1782.99999237061 75 80 74
-6.42148498445749 179.339155554771 1782.99999237061 87 92 86
-1.55621627345681 179.238766431808 1781.99994564056 86 91 85
3.30545660108328 179.238736629486 1781.99994564056 92 97 91
8.16711597144604 179.238453507423 1781.99994564056 95 100 96
13.0360564216971 179.33851480484 1782.99999237061 99 104 100
17.8802814334631 179.136618971825 1781.00001811981 113 118 114
22.7390602231026 179.135635495186 1781.00001811981 118 123 119
27.5822542607784 179.033830761909 1779.99997138977 120 125 121
32.4381031095982 179.032385349274 1779.99997138977 120 125 121
37.293829023838 179.030701518059 1779.99997138977 123 128 124
42.1020574867725 178.82764339447 1777.99999713898 121 126 122
46.9520129263401 178.825482726097 1777.99999713898 117 122 118
51.7726577818394 178.72254550457 1776.99995040894 113 118 114
56.6194988787174 178.7199229002 1776.99995040894 113 118 114
61.5353100001812 178.91825735569 1779.00004386902 112 117 113
66.3498342037201 178.814619779587 1777.99999713898 107 112 108
71.238748729229 178.91189455986 1779.00004386902 104 109 105
75.9617313742638 178.606674075127 1776.00002288818 115 120 116
80.8500573039055 178.703486919403 1776.99995040894 150 155 151
85.5506509542465 178.397849202156 1774.00004863739 161 166 162
90.4383435845375 178.494215011597 1774.99997615814 161 166 162
95.331147313118 178.590372204781 1776.00002288818 155 160 156
100.454650819302 179.088518023491 1781.00001811981 153 158 154
105.545908212662 179.485857486725 1784.9999666214 141 146 142
110.5967015028 179.782405495644 1787.99998760223 138 143 139
115.72802066803 180.179268121719 1792.00005531311 139 144 140
120.813421905041 180.475354194641 1794.99995708466 136 141 137
126.054763793945 180.972278118134 1799.99995231628 135 140 136
131.177365779877 181.267872452736 1802.99997329712 136 141 137
136.391326785088 181.663781404495 1807.000041008 131 136 132
141.470164060593 181.858390569687 1809.00001525879 115 120 116
146.640285849571 182.153284549713 1812.00003623962 114 119 115
151.826247572899 182.447984814644 1815.00005722046 136 141 137
157.287091016769 183.043956756592 1820.99997997284 165 170 166
162.512764334679 183.338165283203 1824.00000095367 180 185 181
167.846009135246 183.732643723488 1827.99994945526 194 199 195
173.294976353645 184.227406978607 1832.99994468689 199 204 200
178.770557045937 184.721931815147 1838.00005912781 202 204 199
184.172704815865 185.115694999695 1842.00000762939 205 207 202
189.596012234688 185.509249567986 1845.99995613098 194 196 191
195.145800709724 186.003029346466 1850.99995136261 18 20 15
201.046615839005 186.798050999641 1858.99996757507 28 33 27
205.770701169968 186.487525701523 1855.99994659424 34 39 33
213.658213615417 188.990101218224 1881.00004196167 14 19 13
219.238549470901 189.382418990135 1884.99999046326 15 20 14
226.387217640877 191.080495715141 1901.99995040894 9 14 8
232.288390398026 191.673219203949 1907.99999237061 12 19 12
261.461287736893 190.203189849854 1894.00005340576 213 218 214
266.604691743851 190.191999077797 1894.00005340576 108 113 109
270.599454641342 189.37736749649 1886.0000371933 189 194 190
274.9884724617 188.86387348175 1881.00004196167 192 197 193
279.200613498688 188.24990093708 1875 180 185 181
283.98585319519 188.037469983101 1873.00002574921 159 164 160
288.759380578995 187.824890017509 1871.00005149841 163 168 164
293.678224086761 187.712579965591 1870.00000476837 172 177 173
298.750579357147 187.700539827347 1870.00000476837 164 169 165
303.984522819519 187.788724899292 1871.00005149841 145 150 146
309.057891368866 187.776431441307 1871.00005149841 143 148 144
314.466089010239 187.964707612991 1873.00002574921 152 157 153
320.225536823273 188.353553414345 1876.99997425079 155 160 156
326.525688171387 189.04322385788 1883.99994373322 193 198 194
333.391040563583 190.033733844757 1894.00005340576 188 193 189
-229.48744893074 173.946976661682 1779.99997138977 206 208 205
-224.776357412338 174.0542948246 1781.00001811981 203 205 202
-219.688668847084 173.868298530579 1779.00004386902 200 202 199
-214.369535446167 173.486605286598 1774.99997615814 188 190 187
-209.307566285133 173.300221562386 1773.00000190735 205 205 203
-204.025089740753 172.918140888214 1769.00005340576 198 200 197
-198.988914489746 172.731339931488 1766.99995994568 196 198 195
-194.292634725571 172.837644815445 1768.00000667572 197 199 196
-189.697399735451 173.041552305222 1769.99998092651 200 202 199
-185.090631246567 173.245280981064 1771.99995517731 201 203 200
-180.47234416008 173.448875546455 1774.00004863739 197 199 196
-176.238566637039 174.043387174606 1779.99997138977 193 195 192
-172.067806124687 174.735561013222 1786.99994087219 181 183 180
-167.951881885529 175.52538216114 1794.99995708466 162 164 161
-163.428440690041 175.923943519592 1799.00002479553 164 166 163
-137.829929590225 180.952593684196 1850.00002384186 212 213 208
-132.286995649338 180.274054408073 1843.00005435944 22 23 18
-126.712664961815 179.497450590134 1835.00003814697 40 43 36
-120.982483029366 178.427085280418 1824.00000095367 30 33 26
-116.011433303356 178.432524204254 1824.00000095367 32 35 28
-110.248550772667 177.166000008583 1810.99998950958 30 35 28
-104.55609112978 175.899147987366 1797.99997806549 24 29 22
-99.5992347598076 175.806045532227 1797.00005054474 16 19 10
-94.1204503178597 174.734339118004 1786.00001335144 16 19 10
-89.1010835766792 174.44509267807 1782.99999237061 17 20 11
-84.6646800637245 175.329685211182 1792.00005531311 19 22 13
-80.8911547064781 177.779570221901 1817.00003147125 17 20 11
-75.0167518854141 175.630658864975 1794.99995708466 16 19 10
-69.183923304081 173.285737633705 1771.00002765656 15 18 9
-64.7172182798386 174.267321825027 1781.00001811981 14 17 8
-60.0276477634907 174.759477376938 1786.00001335144 14 17 8
-55.1561675965786 174.762189388275 1786.00001335144 17 20 11
-50.2281598746777 174.568966031075 1784.00003910065 21 24 15
-45.3362911939621 174.473360180855 1782.99999237061 30 33 26
-40.6085997819901 175.062492489815 1789.00003433228 21 24 17
-35.6882363557816 174.868568778038 1786.99994087219 9 12 5
-30.8131370693445 174.870133399963 1786.99994087219 7 10 3
-25.9233992546797 174.773618578911 1786.00001335144 10 13 6
-21.0625920444727 174.87259209156 1786.99994087219 13 16 9
-16.1781255155802 174.77560043335 1786.00001335144 120 123 116
-11.3053834065795 174.776256084442 1786.00001335144 118 121 114
-6.42899516969919 174.678802490234 1784.9999666214 109 112 105
-1.55978417024016 174.77685213089 1786.00001335144 122 125 118
3.31303477287292 174.776822328568 1786.00001335144 95 98 91
8.181257173419 174.678683280945 1784.9999666214 110 115 109
13.0513021722436 174.678176641464 1784.9999666214 108 113 109
17.9112553596497 174.579620361328 1784.00003910065 105 110 106
22.7912198752165 174.676507711411 1784.9999666214 106 111 107
27.6300609111786 174.479603767395 1782.99999237061 110 115 111
32.5125493109226 174.57602918148 1784.00003910065 110 115 111
37.3584628105164 174.476534128189 1782.99999237061 115 120 116
42.1987771987915 174.376800656319 1781.99994564056 122 127 123
47.0334701240063 174.276858568192 1781.00001811981 125 130 126
51.8916584551334 174.274533987045 1781.00001811981 121 126 122
56.7177757620811 174.174144864082 1779.99997138977 118 123 119
61.6074092686176 174.26922917366 1781.00001811981 103 108 104
66.464938223362 174.266219139099 1781.00001811981 111 116 112
71.2821483612061 174.16512966156 1779.99997138977 143 148 144
76.0508626699448 173.966035246849 1777.99999713898 157 162 158
80.8993726968765 173.962354660034 1777.99999713898 166 171 167
85.6993421912193 173.860654234886 1776.99995040894 165 170 166
90.6464010477066 174.052223563194 1779.00004386902 155 160 156
95.5503284931183 174.145743250847 1779.99997138977 156 161 157
100.628569722176 174.532562494278 1784.00003910065 155 160 156
105.609968304634 174.723461270332 1786.00001335144 145 150 146
110.663712024689 175.011947751045 1789.00003433228 146 151 147
115.86257815361 175.495877861977 1794.0000295639 151 156 152
121.088251471519 175.979554653168 1799.00002479553 139 144 140
126.410752534866 176.560789346695 1804.99994754791 134 139 135
131.474450230598 176.750555634499 1807.000041008 133 138 134
136.775016784668 177.233517169952 1812.00003623962 132 137 133
141.867697238922 177.422806620598 1814.00001049042 121 126 122
146.970734000206 177.611872553825 1815.99998474121 123 128 124
152.08412706852 177.800744771957 1817.999958992 124 129 125
157.466992735863 178.282752633095 1822.99995422363 122 127 123
162.698328495026 178.568959236145 1825.99997520447 129 134 130
167.853608727455 178.757160902023 1827.99994945526 153 158 154
173.019140958786 178.945139050484 1830.00004291534 164 169 165
178.389489650726 179.328456521034 1833.99999141693 192 194 189
184.180945158005 180.102676153183 1842.00000762939 86 89 82
189.912587404251 180.778831243515 1848.99997711182 17 20 13
195.681631565094 181.454733014107 1855.99994659424 32 35 28
200.190305709839 180.957272648811 1850.99995136261 29 34 27
206.112369894981 181.73049390316 1858.99996757507 27 32 25
212.645247578621 182.992219924927 1871.99997901917 17 22 15
220.411241054535 185.231119394302 1894.99998092651 32 37 30
225.920930504799 185.514733195305 1898.00000190735 24 29 22
266.756594181061 185.138627886772 1894.99998092651 140 145 141
270.467191934586 184.150636196136 1884.99999046326 151 156 152
274.853646755219 183.65104496479 1879.99999523163 198 203 199
279.361009597778 183.249026536942 1876.00004673004 201 206 202
284.149050712585 183.042258024216 1873.99995326996 209 214 210
288.771063089371 182.737722992897 1871.00005149841 214 219 215
293.375968933105 182.433098554611 1868.00003051758 208 213 209
298.602759838104 182.519003748894 1868.99995803833 209 214 210
303.996652364731 182.702407240868 1871.00005149841 210 215 211
309.400498867035 182.885691523552 1873.00002574921 202 207 203
314.814269542694 183.068811893463 1875 159 164 160
320.57923078537 183.447033166885 1878.99994850159 141 146 142
326.885014772415 184.117987751961 1886.0000371933 131 136 132
-230.399534106255 169.769361615181 1786.99994087219 219 221 218
-225.164443254471 169.493764638901 1784.00003910065 198 200 197
-219.821408390999 169.122919440269 1779.99997138977 191 193 190
-214.378610253334 168.656900525093 1774.99997615814 197 199 196
-209.316462278366 168.475717306137 1773.00000190735 191 191 189
-204.149156808853 168.199330568314 1769.99998092651 197 199 196
-198.99745285511 167.922735214233 1766.99995994568 203 205 202
-194.191083312035 167.931064963341 1766.99995994568 200 202 199
-189.598426222801 168.129339814186 1769.00005340576 192 194 191
-184.994220733643 168.327435851097 1771.00002765656 195 197 194
-180.378466844559 168.525367975235 1773.00000190735 196 198 195
-175.949215888977 168.913245201111 1776.99995040894 196 198 195
-171.786472201347 169.586166739464 1784.00003910065 189 191 188
-167.678564786911 170.354023575783 1792.00005531311 154 156 153
-163.072258234024 170.646414160728 1794.99995708466 152 154 151
-137.240082025528 175.154790282249 1842.00000762939 228 229 224
-132.221177220345 175.160780549049 1842.00000762939 8 9 4
-126.856505870819 174.691081047058 1837.00001239777 37 40 33
-121.319614350796 173.93584549427 1828.9999961853 23 26 19
-115.507863461971 172.704830765724 1815.99998474121 27 30 23
-108.97508263588 170.237198472023 1789.99996185303 32 37 30
-103.630393743515 169.481113553047 1781.99994564056 24 29 22
-99.1603657603264 170.151457190514 1789.00003433228 20 23 14
-94.5990830659866 170.726493000984 1794.99995708466 18 21 12
-89.6548926830292 170.635566115379 1794.0000295639 15 18 9
-84.9520415067673 171.019971370697 1797.99997806549 15 18 9
-80.4496556520462 171.879798173904 1807.000041008 15 18 9
-76.1068537831306 173.21503162384 1820.99997997284 14 17 8
-69.4996491074562 169.223219156265 1779.00004386902 16 19 10
-65.3016343712807 170.938521623611 1797.00005054474 13 16 7
-60.3329315781593 170.751139521599 1794.99995708466 12 15 6
-55.0660714507103 169.612273573875 1782.99999237061 14 17 8
-50.2023324370384 169.614672660828 1782.99999237061 16 19 10
-45.3129671514034 169.521734118462 1781.99994564056 16 17 9
-40.5196845531464 169.809088110924 1784.9999666214 21 22 14
-35.6499515473843 169.810831546783 1784.9999666214 19 20 12
-30.831815674901 170.097768306732 1787.99998760223 24 25 17
-25.9391218423843 170.003935694695 1786.99994087219 18 19 11
-21.0635736584663 170.005023479462 1786.99994087219 9 10 2
-16.1969978362322 170.101016759872 1787.99998760223 9 10 2
-11.3122398033738 170.00649869442 1786.99994087219 80 81 73
-6.43649790436029 170.006901025772 1786.99994087219 155 156 148
-1.55985669698566 169.911950826645 1786.00001335144 124 125 117
3.31133371219039 169.8167771101 1784.9999666214 120 121 113
8.1862211227417 169.911652803421 1786.00001335144 109 114 108
13.0519103258848 169.816017150879 1784.9999666214 110 115 111
17.9221294820309 169.815316796303 1784.9999666214 115 120 116
22.7922797203064 169.814378023148 1784.9999666214 119 124 120
27.646841481328 169.718086719513 1784.00003910065 119 124 120
32.5140655040741 169.716715812683 1784.00003910065 117 122 118
37.360206246376 169.619977474213 1782.99999237061 117 122 118
42.2244220972061 169.618144631386 1782.99999237061 112 117 113
47.062061727047 169.520974159241 1781.99994564056 118 123 119
51.9232042133808 169.518694281578 1781.99994564056 147 152 148
56.7204020917416 169.325947761536 1779.99997138977 168 173 169
61.5756586194038 169.32325065136 1779.99997138977 196 201 197
66.4306730031967 169.320315122604 1779.99997138977 188 193 189
71.2854415178299 169.317200779915 1779.99997138977 180 185 181
76.0971382260323 169.218719005585 1779.00004386902 181 186 182
80.9940993785858 169.31027173996 1779.99997138977 159 164 160
85.7997536659241 169.211372733116 1779.00004386902 144 149 145
90.6505584716797 169.207379221916 1779.00004386902 152 157 153
95.5010205507278 169.203162193298 1779.00004386902 151 156 152
100.689567625523 169.769391417503 1784.9999666214 145 150 146
105.673901736736 169.95495557785 1786.99994087219 162 167 163
110.792465507984 170.33052444458 1791.00000858307 169 174 170
115.932412445545 170.705854892731 1794.99995708466 169 174 170
121.228352189064 171.271130442619 1800.99999904633 172 177 173
126.486495137215 171.74106836319 1805.99999427795 161 166 162
131.625920534134 172.020629048347 1809.00001525879 145 150 146
136.932119727135 172.490119934082 1814.00001049042 146 151 147
142.030447721481 172.674089670181 1815.99998474121 143 148 144
147.30104804039 173.048049211502 1820.00005245209 146 151 147
152.509182691574 173.326686024666 1822.99995422363 138 143 139
157.733142375946 173.605099320412 1825.99997520447 129 134 130
162.705540657043 173.598095774651 1825.99997520447 118 123 119
167.677327990532 173.590883612633 1825.99997520447 176 181 177
172.743082046509 173.678547143936 1827.00002193451 175 180 174
177.813664078712 173.766016960144 1827.99994945526 15 18 11
183.389022946358 174.328550696373 1833.99999141693 43 46 39
189.201831817627 175.080955028534 1842.00000762939 23 26 19
194.214001297951 175.072759389877 1842.00000762939 19 22 15
199.874460697174 175.634607672691 1848.00004959106 0 4 0
205.345079302788 176.006138324738 1851.99999809265 22 27 20
213.335931301117 178.468152880669 1878.00002098083 26 31 24
219.373792409897 179.219260811806 1886.0000371933 28 33 26
261.897146701813 180.184885859489 1896.99995517731 207 212 208
266.485899686813 179.794311523438 1893.00000667572 178 183 179
270.334661006927 178.92874777317 1883.99994373322 145 150 146
274.864703416824 178.537994623184 1879.99999523163 163 168 164
279.074341058731 177.957206964493 1873.99995326996 187 192 188
283.857107162476 177.756175398827 1871.99997901917 183 188 184
288.473844528198 177.460089325905 1868.99995803833 183 188 184
293.387562036514 177.35381424427 1868.00003051758 197 202 198
298.614472150803 177.437260746956 1868.99995803833 197 202 198
303.845942020416 177.520588040352 1870.00000476837 194 199 195
309.412449598312 177.79366672039 1873.00002574921 191 196 192
314.658403396606 177.876695990562 1873.99995326996 182 187 183
320.93271613121 178.529128432274 1881.00004196167 179 184 180
327.76403427124 179.466038942337 1891.00003242493 172 177 173
-231.578424572945 162.314027547836 1758.99994373322 234 236 233
-230.537816882133 164.99936580658 1787.99998760223 225 227 224
-225.047424435616 164.547130465508 1782.99999237061 192 194 191
-219.459921121597 164.002373814583 1776.99995040894 194 194 192
-214.266657829285 163.734287023544 1774.00004863739 197 197 195
-209.207057952881 163.558334112167 1771.99995517731 196 196 194
-204.157620668411 163.382187485695 1769.99998092651 195 196 191
-199.118390679359 163.205862045288 1768.00000667572 199 200 195
-194.309145212173 163.214012980461 1768.00000667572 201 200 195
-189.713582396507 163.40659558773 1769.99998092651 209 208 203
-185.106486082077 163.59905898571 1771.99995517731 211 210 206
-180.28436601162 163.606688380241 1771.99995517731 208 207 203
-175.758674740791 163.891166448593 1774.99997615814 215 214 210
-171.408608555794 164.360150694847 1779.99997138977 195 194 192
-167.405024170876 165.198355913162 1789.00003433228 186 184 185
-162.988424301147 165.667071938515 1794.0000295639 141 141 141
-136.351987719536 169.0304428339 1830.00004291534 10 7 2
-131.580919027328 169.313341379166 1832.99994468689 24 23 18
-126.585856080055 169.318929314613 1832.99994468689 29 30 25
-121.39131128788 169.047221541405 1830.00004291534 20 23 16
-114.304415881634 166.003942489624 1797.00005054474 26 29 22
-108.310207724571 164.345949888229 1779.00004386902 23 26 19
-103.286057710648 164.073437452316 1776.00002288818 28 31 22
-98.9984944462776 165.001749992371 1786.00001335144 27 30 23
-94.3397879600525 165.375545620918 1789.99996185303 31 34 27
-89.3090516328812 165.102422237396 1786.99994087219 31 34 27
-84.2943489551544 164.829075336456 1784.00003910065 23 26 19
-79.9189880490303 165.849044919014 1794.99995708466 14 17 10
-74.6892169117928 165.113314986229 1786.99994087219 14 17 10
-70.7139000296593 167.24169254303 1809.99994277954 13 16 9
-65.4499307274818 166.413113474846 1800.99999904633 15 18 11
-60.2348186075687 165.584310889244 1792.00005531311 12 15 8
-54.1728809475899 162.075534462929 1753.99994850159 12 15 8
-49.6414564549923 162.909507751465 1763.00001144409 18 21 14
-45.2133044600487 164.297699928284 1777.99999713898 14 17 10
-40.2945056557655 164.022386074066 1774.99997615814 13 16 9
-35.5117581784725 164.301306009293 1777.99999713898 22 23 15
-30.626280233264 164.117977023125 1776.00002288818 15 16 8
-25.9257834404707 165.043324232101 1786.00001335144 11 12 4
-21.0881046950817 165.321618318558 1789.00003433228 17 18 10
-16.2520874291658 165.784507989883 1794.0000295639 11 12 4
-11.3317472860217 165.415480732918 1789.99996185303 9 10 2
-6.43679080531001 165.138646960258 1786.99994087219 51 52 44
-1.56080105807632 165.138810873032 1786.99994087219 215 216 208
3.30962939187884 164.861559867859 1784.00003910065 212 213 205
8.17742664366961 164.861306548119 1784.00003910065 215 217 214
13.0305662751198 164.675995707512 1781.99994564056 211 216 212
17.9028604179621 164.767697453499 1782.99999237061 209 214 210
22.7550063282251 164.674386382103 1781.99994564056 211 216 212
27.6016034185886 164.580836892128 1781.00001811981 212 217 213
32.4426330626011 164.487108588219 1779.99997138977 212 217 213
37.2780784964561 164.39314186573 1779.00004386902 210 215 211
42.1552807092667 164.483740925789 1779.99997138977 212 217 213
47.0113717019558 164.481773972511 1779.99997138977 216 221 217
51.8672727048397 164.479553699493 1779.99997138977 210 215 211
56.6911064088345 164.384752511978 1779.00004386902 210 215 211
61.543844640255 164.382115006447 1779.00004386902 208 213 209
66.3590282201767 164.286866784096 1777.99999713898 201 206 202
71.2485909461975 164.376199245453 1779.00004386902 176 181 177
76.0577842593193 164.28054869175 1777.99999713898 164 169 165
81.0887441039085 164.64664041996 1781.99994564056 154 159 155
85.9482735395432 164.642930030823 1781.99994564056 143 148 144
90.8074751496315 164.63902592659 1781.99994564056 145 150 146
95.6126525998116 164.54254090786 1781.00001811981 154 159 155
100.637644529343 164.81539607048 1784.00003910065 155 160 156
105.678595602512 165.087997913361 1786.99994087219 194 199 195
110.673651099205 165.268033742905 1789.00003433228 203 208 204
115.808360278606 165.632605552673 1792.99998283386 192 197 193
121.099077165127 166.181713342667 1799.00002479553 194 199 195
126.42203271389 166.730538010597 1804.99994754791 193 198 194
131.631687283516 167.094424366951 1809.00001525879 189 194 190
136.78714632988 167.365729808807 1812.00003623962 192 197 193
141.880229115486 167.544439435005 1814.00001049042 190 195 191
147.226512432098 168.000027537346 1819.00000572205 191 196 192
152.348473668098 168.178290128708 1820.99997997284 182 187 183
157.567203044891 168.448746204376 1824.00000095367 190 195 191
162.623450160027 168.534249067307 1825.00004768372 197 202 198
167.68454015255 168.619573116302 1825.99997520447 136 141 137
172.655925154686 168.612360954285 1825.99997520447 21 23 18
177.334874868393 168.3279722929 1822.99995422363 37 40 33
182.696849107742 168.689727783203 1827.00002193451 16 17 11
188.079923391342 169.051259756088 1830.9999704361 18 21 14
193.062350153923 169.043317437172 1830.9999704361 13 16 9
198.584914207458 169.496774673462 1835.99996566772 31 34 27
203.912228345871 169.765383005142 1838.99998664856 28 33 26
210.959181189537 171.418443322182 1856.99999332428 14 19 12
217.870712280273 172.886550426483 1873.00002574921 22 27 20
262.735992670059 175.577789545059 1902.99999713898 216 221 217
266.496479511261 174.644768238068 1893.00000667572 171 176 172
270.345330238342 173.803955316544 1883.99994373322 173 178 174
274.729281663895 173.332095146179 1878.99994850159 153 158 154
279.234170913696 172.95241355896 1875 198 203 199
284.019768238068 172.757104039192 1873.00002574921 203 208 204
288.639307022095 172.469452023506 1870.00000476837 202 207 203
293.555855751038 172.366172075272 1868.99995803833 194 199 195
298.625856637955 172.354951500893 1868.99995803833 194 199 195
303.85747551918 172.435864806175 1870.00000476837 186 191 187
309.093683958054 172.516673803329 1871.00005149841 180 185 181
314.50229883194 172.689497470856 1873.00002574921 180 185 181
320.944666862488 173.415392637253 1881.00004196167 182 187 183
328.122794628143 174.509793519974 1893.00000667572 186 191 187
-230.418011546135 160.044282674789 1786.99994087219 156 158 155
-224.803909659386 159.515827894211 1781.00001811981 189 190 185
-219.46869790554 159.166306257248 1776.99995040894 191 192 187
-214.275270700455 158.906176686287 1774.00004863739 203 202 198
-209.333583712578 158.824995160103 1773.00000190735 196 195 191
-204.396590590477 158.743664622307 1771.99995517731 206 206 198
-199.351742863655 158.57258439064 1769.99998092651 215 212 205
-194.426998496056 158.490926027298 1769.00005340576 214 210 201
-189.614191651344 158.49868953228 1769.00005340576 213 206 198
-185.009658336639 158.685475587845 1771.00002765656 215 208 202
-180.291831493378 158.782511949539 1771.99995517731 217 210 204
-175.765946507454 159.058600664139 1774.99997615814 212 205 199
-171.415761113167 159.513786435127 1779.99997138977 226 218 215
-167.224854230881 160.148054361343 1786.99994087219 217 212 209
-162.813544273376 160.603001713753 1792.00005531311 181 177 176
-134.718507528305 162.074387073517 1807.99996852875 4 0 0
-131.371200084686 164.052173495293 1830.00004291534 27 26 21
-126.176908612251 163.788676261902 1827.00002193451 25 26 21
-119.804441928864 161.911249160767 1805.99999427795 17 22 15
-113.418787717819 159.85418856144 1782.99999237061 25 28 21
-107.706032693386 158.603698015213 1769.00005340576 21 24 17
-102.88342833519 158.608198165894 1769.00005340576 24 27 18
-98.5038876533508 159.329786896706 1776.99995040894 21 24 17
-93.869537115097 159.692570567131 1781.00001811981 28 31 24
-88.9630913734436 159.60681438446 1779.99997138977 30 33 26
-83.9200094342232 159.251868724823 1776.00002288818 30 33 26
-79.3436542153358 159.79340672493 1781.99994564056 23 26 19
-74.6506825089455 160.155415534973 1786.00001335144 20 23 16
-70.1309442520142 160.965606570244 1794.99995708466 12 15 8
-65.4891580343246 161.596283316612 1802.00004577637 11 14 7
-60.1030066609383 160.343527793884 1787.99998760223 18 21 14
-53.8046285510063 156.220778822899 1741.99998378754 17 20 13
-49.7562773525715 158.465027809143 1766.99995994568 5 8 1
-45.1390072703362 159.184545278549 1774.99997615814 13 16 9
-40.2054786682129 158.827662467957 1771.00002765656 13 16 9
-35.3735126554966 158.829316496849 1771.00002765656 14 17 10
-30.5758975446224 159.010112285614 1773.00000190735 15 18 11
-25.796277448535 159.370064735413 1776.99995040894 18 21 14
-20.9593679755926 159.460783004761 1777.99999713898 18 21 14
-16.2437483668327 160.806894302368 1792.99998283386 14 17 10
-11.3322483375669 160.538420081139 1789.99996185303 15 18 11
-6.44428003579378 160.449117422104 1789.00003433228 13 16 9
-1.55824993271381 160.000875592232 1784.00003910065 0 2 0
3.30421049147844 159.731775522232 1781.00001811981 14 17 10
8.15486814826727 159.55214202404 1779.00004386902 4 6 3
13.0092054605484 159.551680088043 1779.00004386902 34 36 35
17.8835727274418 159.730389714241 1781.00001811981 147 149 148
22.7432418614626 159.729495644569 1781.00001811981 189 191 190
27.5873243808746 159.638702869415 1779.99997138977 220 222 221
32.444067299366 159.637421369553 1779.99997138977 227 229 228
37.2797250747681 159.546211361885 1779.00004386902 219 221 220
42.1334654092789 159.544482827187 1779.00004386902 218 220 219
47.0134429633617 159.632220864296 1779.99997138977 211 213 212
51.8986992537975 159.719750285149 1781.00001811981 190 192 191
56.7254610359669 159.627720713615 1779.99997138977 177 179 178
61.6157501935959 159.714832901955 1781.00001811981 164 166 165
66.4365887641907 159.622371196747 1779.99997138977 163 165 164
71.3318139314651 159.709066152573 1781.00001811981 148 150 149
76.1894509196281 159.705892205238 1781.00001811981 136 138 137
81.2288075685501 160.061180591583 1784.9999666214 128 130 129
86.048498749733 159.967914223671 1784.00003910065 132 134 133
90.8114388585091 159.784764051437 1781.99994564056 123 125 124
95.7241877913475 159.870445728302 1782.99999237061 166 168 167
100.698418915272 160.045549273491 1784.9999666214 199 201 200
105.801463127136 160.399794578552 1789.00003433228 214 216 215
110.740296542645 160.484820604324 1789.99996185303 212 214 213
115.748770534992 160.659313201904 1792.00005531311 214 218 217
120.902322232723 161.012887954712 1796.0000038147 209 213 212
126.077234745026 161.366254091263 1799.99995231628 205 209 208
131.419017910957 161.898702383041 1805.99999427795 214 219 215
136.64199411869 162.251636385918 1809.99994277954 217 222 218
141.808032989502 162.514701485634 1812.99996376038 206 211 207
147.151812911034 162.956833839417 1817.999958992 227 229 226
152.103945612907 162.950575351715 1817.999958992 152 154 151
157.228291034698 163.123399019241 1820.00005245209 8 10 5
162.095606327057 163.027137517929 1819.00000572205 13 15 10
167.324230074883 163.289189338684 1822.00002670288 9 11 6
172.474026679993 163.461416959763 1824.00000095367 26 29 22
177.925929427147 163.902297616005 1828.9999961853 13 13 3
182.404398918152 163.446858525276 1824.00000095367 12 12 4
187.368616461754 163.439303636551 1824.00000095367 9 9 1
192.121282219887 163.252383470535 1822.00002670288 17 18 10
196.970567107201 163.154914975166 1820.99997997284 27 28 22
202.922567725182 163.953185081482 1830.00004291534 14 16 11
210.286110639572 165.82627594471 1850.99995136261 18 20 15
216.83257818222 166.982337832451 1863.9999628067 26 28 25
263.574659824371 170.937493443489 1909.00003910065 201 206 202
266.225248575211 169.315606355667 1891.00003242493 144 146 141
270.355731248856 168.678626418114 1883.99994373322 188 190 185
274.593591690063 168.131113052368 1878.00002098083 187 189 184
278.946965932846 167.673081159592 1873.00002574921 187 189 186
283.727258443832 167.483508586884 1871.00005149841 199 201 198
288.495808839798 167.293801903725 1868.99995803833 204 206 203
293.566823005676 167.28301346302 1868.99995803833 198 200 199
298.636972904205 167.272135615349 1868.99995803833 182 186 185
303.706228733063 167.261123657227 1868.99995803833 203 207 206
309.105008840561 167.428955435753 1871.00005149841 198 204 202
314.681679010391 167.686149477959 1873.99995326996 202 208 206
321.297526359558 168.480053544044 1883.00001621246 195 201 199
-230.426877737045 155.180916190147 1786.99994087219 103 102 97
-225.443780422211 155.102774500847 1786.00001335144 220 217 210
-220.218300819397 154.850766062737 1782.99999237061 192 187 181
-214.887619018555 154.511734843254 1779.00004386902 138 134 125
-209.577932953835 154.172509908676 1774.99997615814 78 69 60
-204.520002007484 154.006808996201 1773.00000190735 88 76 62
-199.359640479088 153.754100203514 1769.99998092651 118 102 87
-194.434747099876 153.674945235252 1769.00005340576 127 111 95
-189.407363533974 153.508722782135 1766.99995994568 147 130 114
-184.808135032654 153.689876198769 1769.00005340576 160 141 126
-180.197343230247 153.870865702629 1771.00002765656 165 146 132
-175.872102379799 154.312372207642 1776.00002288818 180 161 147
-171.422705054283 154.666855931282 1779.99997138977 172 154 142
-167.138084769249 155.194997787476 1786.00001335144 163 146 136
-162.45673596859 155.37540614605 1787.99998760223 153 136 128
-159.174099564552 156.946107745171 1805.99999427795 79 64 57
-133.829936385155 156.106770038605 1796.0000038147 16 13 8
-130.945920944214 158.545985817909 1824.00000095367 17 18 12
-126.320317387581 158.985897898674 1828.9999961853 23 25 20
-120.472855865955 157.860934734344 1815.99998474121 18 23 16
-114.059679210186 155.866414308548 1792.99998283386 25 28 21
-108.745649456978 155.262500047684 1786.00001335144 23 26 19
-103.411212563515 154.571428894997 1777.99999713898 24 27 18
-98.6743569374084 154.749512672424 1779.99997138977 18 21 14
-94.0316319465637 155.101299285889 1784.00003910065 17 20 13
-89.066818356514 154.931232333183 1781.99994564056 25 28 21
-83.7345495820045 154.065400362015 1771.99995517731 31 34 27
-79.0798738598824 154.416605830193 1776.00002288818 31 34 27
-74.3194743990898 154.593721032143 1777.99999713898 28 31 24
-69.9385777115822 155.640125274658 1789.99996185303 18 21 14
-65.0558173656464 155.642971396446 1789.99996185303 10 13 6
-59.5340989530087 153.993517160416 1771.00002765656 10 13 6
-54.3011389672756 152.865514159203 1758.00001621246 13 16 9
-49.9836839735508 154.34592962265 1774.99997615814 12 15 8
-45.3189611434937 154.95665371418 1781.99994564056 11 14 7
-39.8666560649872 152.697563171387 1756.00004196167 12 15 8
-35.4749038815498 154.438316822052 1776.00002288818 11 14 7
-30.3530134260654 153.048381209373 1759.99999046326 11 14 7
-25.608666241169 153.397426009178 1764.00005817413 14 17 10
-20.7834392786026 153.311431407928 1763.00001144409 16 19 12
-16.1538477987051 155.051425099373 1782.99999237061 10 13 6
-11.2630948424339 154.704183340073 1779.00004386902 12 15 8
-6.43375096842647 155.313283205032 1786.00001335144 17 20 13
-1.55220238957554 154.53077852726 1776.99995040894 15 18 11
3.2876543700695 154.095932841301 1771.99995517731 16 19 12
8.10020882636309 153.660893440247 1766.99995994568 32 34 31
12.9439486190677 153.921335935593 1769.99998092651 27 29 26
17.8240910172462 154.355481266975 1774.99997615814 7 9 6
22.6931385695934 154.528543353081 1776.99995040894 5 7 4
27.5730118155479 154.701396822929 1779.00004386902 42 44 41
32.4272327125072 154.700130224228 1779.00004386902 61 63 60
37.2813269495964 154.69865500927 1779.00004386902 106 108 105
42.1352684497833 154.696971178055 1779.00004386902 115 117 114
46.9890497624874 154.695093631744 1779.00004386902 117 119 116
51.9009158015251 154.866904020309 1781.00001811981 110 112 109
56.7278899252415 154.777660965919 1779.99997138977 106 108 105
61.6875775158405 155.03603219986 1782.99999237061 82 84 81
66.5140673518181 154.946357011795 1781.99994564056 79 81 78
71.4550241827965 155.117362737656 1784.00003910065 71 73 70
76.2782469391823 155.027315020561 1782.99999237061 71 73 70
81.3232660293579 155.371785163879 1786.99994087219 76 78 75
86.2450897693634 155.455231666565 1787.99998760223 88 90 87
91.0191386938095 155.277639627457 1786.00001335144 77 79 76
95.8893001079559 155.273750424385 1786.00001335144 78 80 77
100.759081542492 155.269652605057 1786.00001335144 78 80 77
105.865053832531 155.613079667091 1789.99996185303 75 77 74
110.806822776794 155.695542693138 1791.00000858307 81 83 80
115.818202495575 155.864700675011 1792.99998283386 113 118 114
120.907381176949 156.120598316193 1796.0000038147 134 139 135
126.152545213699 156.550154089928 1800.99999904633 171 176 172
131.351694464684 156.892538070679 1804.99994754791 207 212 208
136.496677994728 157.147809863091 1807.99996852875 169 174 170
141.657471656799 157.402873039246 1810.99998950958 53 58 52
146.834090352058 157.657727599144 1814.00001049042 0 1 0
151.106163859367 156.956389546394 1805.99999427795 23 25 20
155.593261122704 156.515657901764 1800.99999904633 36 38 33
160.587266087532 156.596183776855 1802.00004577637 29 32 25
166.412651538849 157.458588480949 1812.00003623962 16 19 12
172.197341918945 158.233866095543 1820.99997997284 7 10 3
177.252143621445 158.313766121864 1822.00002670288 12 12 4
182.611763477325 158.654138445854 1825.99997520447 9 10 2
187.684342265129 158.733680844307 1827.00002193451 7 8 0
192.339882254601 158.465534448624 1824.00000095367 10 11 3
196.97842001915 158.197224140167 1820.99997997284 22 23 17
202.376186847687 158.53688120842 1825.00004768372 29 31 26
209.612771868706 160.266190767288 1845.00002861023 16 18 13
217.073783278465 162.082001566887 1866.00005626678 32 34 31
224.410161375999 163.723737001419 1884.99999046326 10 15 11
255.15028834343 163.668900728226 1884.99999046326 209 211 208
262.341946363449 164.961576461792 1899.99997615814 223 224 219
266.235291957855 164.170369505882 1891.00003242493 159 160 154
270.222365856171 163.465902209282 1883.00001621246 191 190 185
274.311393499374 162.848204374313 1876.00004673004 199 198 193
278.957307338715 162.577643990517 1873.00002574921 189 186 181
283.889353275299 162.480592727661 1871.99997901917 197 194 189
288.660734891891 162.296622991562 1870.00000476837 208 204 201
293.420493602753 162.112578749657 1868.00003051758 201 200 196
298.328191041946 162.015199661255 1866.99998378754 204 203 199
303.554683923721 162.091255187988 1868.00003051758 191 190 188
309.116065502167 162.340730428696 1871.00005149841 179 179 177
315.028697252274 162.763610482216 1876.00004673004 198 200 197
321.820765733719 163.620069622993 1886.0000371933 185 190 186
-230.822384357452 150.569349527359 1789.99996185303 88 85 78
-226.462140679359 150.914326310158 1794.0000295639 128 123 117
-221.708804368973 151.006773114204 1794.99995708466 89 80 71
-216.103732585907 150.510191917419 1789.00003433228 66 57 48
-210.412472486496 149.929255247116 1781.99994564056 107 93 80
-204.758569598198 149.348139762878 1774.99997615814 158 139 122
-199.479967355728 149.019211530685 1771.00002765656 173 150 132
-194.552153348923 148.942545056343 1769.99998092651 174 152 131
-189.629122614861 148.86574447155 1769.00005340576 178 153 133
-184.81533229351 148.872911930084 1769.00005340576 181 154 135
-180.204406380653 149.048268795013 1771.00002765656 174 147 130
-175.879001617432 149.475961923599 1776.00002288818 186 159 142
-171.429455280304 149.819359183311 1779.99997138977 172 146 131
-166.770353913307 149.994254112244 1781.99994564056 183 160 146
-161.82716190815 149.916529655457 1781.00001811981 164 140 128
-156.624376773834 149.586021900177 1776.99995040894 111 91 80
-133.537247776985 150.877520442009 1792.00005531311 22 21 16
-130.664050579071 153.240278363228 1820.00005245209 28 29 23
-125.980094075203 153.582200407982 1824.00000095367 26 29 22
-121.340222656727 154.00817990303 1828.9999961853 18 23 16
-115.336671471596 152.665644884109 1812.99996376038 19 24 17
-109.419904649258 151.322856545448 1797.00005054474 24 27 18
-103.880763053894 150.400847196579 1786.00001335144 29 30 22
-98.8447219133377 150.152295827866 1782.99999237061 24 27 20
-94.3517535924912 150.745719671249 1789.99996185303 21 24 17
-89.670293033123 151.086330413818 1794.0000295639 14 17 10
-84.3523368239403 150.331884622574 1784.9999666214 14 17 10
-79.3057903647423 149.998337030411 1781.00001811981 19 22 15
-74.3643566966057 149.833038449287 1779.00004386902 21 24 17
-69.7461068630219 150.341302156448 1784.9999666214 29 32 25
-64.6587237715721 149.838715791702 1779.00004386902 33 36 29
-59.5029629766941 149.083212018013 1769.99998092651 25 28 21
-54.6431802213192 149.001315236092 1769.00005340576 16 19 12
-50.0420890748501 149.677291512489 1776.99995040894 6 9 2
-44.9647977948189 148.921176791191 1768.00000667572 10 13 6
-40.3905175626278 149.849489331245 1779.00004386902 11 14 7
-34.577488899231 145.807832479477 1730.99994659424 13 16 9
-30.4750055074692 148.841589689255 1766.99995994568 12 15 8
-25.5806986242533 148.421585559845 1761.99996471405 9 12 5
-20.572105422616 146.990537643433 1745.00000476837 7 10 3
-15.9914400428534 148.676007986069 1764.99998569489 10 13 6
-11.2382397055626 149.518921971321 1774.99997615814 12 15 8
-6.41961069777608 150.108933448792 1781.99994564056 12 15 8
-1.54527928680182 149.014040827751 1769.00005340576 24 27 20
3.28037049621344 148.9297747612 1768.00000667572 33 36 29
8.08221194893122 148.508355021477 1763.00001144409 19 21 16
12.9225505515933 148.844838142395 1766.99995994568 26 28 23
17.7846681326628 149.18115735054 1771.00002765656 20 22 17
22.7068606764078 149.769991636276 1777.99999713898 17 19 14
27.5741647928953 149.85316991806 1779.00004386902 23 25 20
32.483272254467 150.104641914368 1781.99994564056 22 24 19
37.30383887887 149.934738874435 1779.99997138977 16 18 13
42.1843975782394 150.017336010933 1781.00001811981 10 12 7
47.0174178481102 149.931281805038 1779.99997138977 3 5 0
51.9322231411934 150.097697973251 1781.99994564056 6 8 3
56.7621178925037 150.011241436005 1781.00001811981 10 12 7
61.724741011858 150.261506438255 1784.00003910065 17 19 14
66.6661411523819 150.42732656002 1786.00001335144 18 20 15
71.7383623123169 150.845617055893 1791.00000858307 20 22 17
76.6236707568169 150.842592120171 1791.00000858307 18 20 15
81.3721418380737 150.58670938015 1787.99998760223 16 18 13
86.2004011869431 150.499075651169 1786.99994087219 14 16 11
91.0228788852692 150.411248207092 1786.00001335144 11 13 8
96.108004450798 150.744333863258 1789.99996185303 3 5 0
100.988887250423 150.740340352058 1789.99996185303 0 1 0
105.987682938576 150.904595851898 1792.00005531311 3 5 0
110.935091972351 150.984436273575 1792.99998283386 6 8 3
115.887522697449 151.064068078995 1794.0000295639 7 12 6
121.04693800211 151.396110653877 1797.99997806549 4 9 3
126.157656311989 151.64378285408 1800.99999904633 2 7 1
131.211474537849 151.807054877281 1802.99997329712 11 16 10
136.426672339439 152.138501405716 1807.000041008 16 21 14
141.976088285446 152.806520462036 1815.00005722046 15 18 11
147.001877427101 152.884975075722 1815.99998474121 13 16 9
150.610163807869 151.532113552094 1799.99995231628 26 29 22
154.476314783096 150.515928864479 1787.99998760223 38 41 32
159.345969557762 150.509774684906 1787.99998760223 17 18 10
166.051879525185 152.186915278435 1807.99996852875 11 12 4
171.825885772705 152.937889099121 1817.00003147125 19 20 12
177.16184258461 153.267785906792 1820.99997997284 15 16 8
182.718932628632 153.765797615051 1827.00002193451 13 14 6
188.513532280922 154.431939125061 1835.00003814697 13 14 6
193.085551261902 154.087975621223 1830.9999704361 10 11 3
197.526916861534 153.659716248512 1825.99997520447 19 20 14
202.938467264175 153.988689184189 1830.00004291534 20 22 17
210.984215140343 156.25274181366 1856.99999332428 24 26 21
217.780083417892 157.506734132767 1871.99997901917 16 18 15
225.252106785774 159.181118011475 1891.99995994568 18 23 19
261.799305677414 159.454613924026 1896.00002765656 191 191 183
266.104251146317 158.940464258194 1889.99998569489 184 181 174
270.232260227203 158.342152833939 1883.00001621246 200 196 187
274.467587471008 157.827869057655 1876.99997425079 212 205 197
279.116272926331 157.565757632256 1873.99995326996 218 209 202
283.899515867233 157.387629151344 1871.99997901917 216 207 200
288.825422525406 157.29346871376 1871.00005149841 226 217 210
293.745011091232 157.199189066887 1870.00000476837 220 213 207
298.818111419678 157.188892364502 1870.00000476837 211 204 198
304.052799940109 157.262533903122 1871.00005149841 201 196 192
309.457242488861 157.420068979263 1873.00002574921 204 201 196
315.375447273254 157.829627394676 1878.00002098083 181 182 177
322.002410888672 158.575177192688 1886.99996471405 190 192 187
-234.699472784996 148.138627409935 1820.00005245209 100 93 85
-227.985262870789 147.007390856743 1805.99999427795 98 90 79
-222.82862663269 146.852731704712 1804.00002002716 113 99 86
-216.594904661179 145.965233445168 1792.99998283386 120 104 89
