ply
format ascii 1.0
comment KinectMotionCapture
element vertex 760
property float x
property float y
property float z
property uchar red
property uchar green
property uchar blue
end_header
20.8821794163603 940.49484863401 2648.80160516067 145 114 94
16.7320719315271 940.765184402215 2642.08906861658 145 114 94
10.4534540536352 940.285880546225 2637.53513675603 142 111 90
2.76891930519163 939.307770902855 2634.42957246101 143 112 91
-4.20717526554104 938.57907051521 2630.60409272456 148 121 102
-12.5759433860462 937.352577453047 2628.23658605111 144 118 101
-17.4518326992177 937.370615861425 2622.23167346403 151 129 115
-23.0311097363869 937.139017853964 2616.95092675335 111 94 84
-22.3905658938115 939.142794849152 2605.07417045718 73 60 51
123.079432472776 940.900896983652 2720.41826387819 44 30 19
117.556108104698 940.674130485465 2715.17810292397 70 51 37
117.209407076862 942.193004616359 2705.05328888218 107 78 62
111.660751559858 941.964305500238 2699.79475504842 131 96 77
106.842957235723 941.984302035123 2693.83196667701 131 89 67
96.8804666573755 940.261124903326 2692.77698851483 138 92 68
88.4020523958422 939.036981118188 2690.33000891334 142 98 73
77.7486252674269 937.068033599251 2690.00794785444 159 117 92
71.4830860627256 936.591402344657 2685.46351054045 157 117 91
65.2168312772226 936.114593632407 2680.91855358781 147 111 85
63.2856771123302 937.126183287138 2672.11293389261 144 110 85
56.2845704546806 936.400166044533 2668.26904147419 137 106 85
53.5964219792779 937.160763742839 2660.14872023072 132 104 83
45.1576797988977 935.938867579289 2657.73021667512 129 102 83
38.1588253496559 935.212445710908 2653.88824935816 133 104 86
30.4523134458465 934.239067748713 2650.7667773211 141 110 92
26.300932532954 934.501414171439 2644.05327717422 138 107 87
25.6716963233683 935.996932209545 2633.72382352339 139 108 88
20.7765905918658 936.009172062852 2627.70495117374 136 105 85
11.6549068288894 934.540979034141 2626.02574673129 134 103 83
1.84977854459012 932.827432966349 2625.08459816056 132 106 89
-6.53730711057454 931.607700626092 2622.70384695971 125 102 86
-13.5193605345325 930.880837155295 2618.87376235071 114 95 81
-19.8037106263693 930.399814305929 2614.3156663789 80 66 57
131.726093213479 935.888237452898 2713.07473631701 45 31 20
123.95125514754 934.916433823584 2709.90374116117 81 62 48
120.626609444932 935.425455134629 2702.55577183937 98 71 54
112.116669269301 934.207300764434 2700.08596876752 120 87 68
104.3552267655 933.236473195791 2696.92498376152 138 98 73
95.8683503953255 932.020057405046 2694.47161446367 153 109 82
88.1254122788557 931.050430179068 2691.32404976292 156 112 85
78.9319458536983 929.589794210403 2689.59255233772 167 123 96
71.9368412748298 928.867260752253 2685.75332307738 167 123 96
67.1205193437792 928.88164116114 2679.79157362835 154 114 89
64.4631037629657 929.631275849855 2671.6931813092 150 112 89
58.9006128532672 929.398289490424 2666.42459618828 142 110 89
56.2064766427595 930.144780525546 2658.29986285482 131 103 82
51.341351653273 930.154908623357 2652.30271348842 123 96 75
47.1806504073351 930.408733299187 2645.58241366888 125 100 80
40.1590046067715 929.683322421924 2641.7236350588 119 91 70
35.9791657513786 929.935248633446 2634.98974683868 125 96 78
35.3225664187113 931.406972077758 2624.64004207464 124 95 77
30.39900830009 931.411649514662 2618.60050567723 116 89 72
24.0599130390726 930.927565803805 2614.0027082601 115 89 74
15.617796549837 929.712097949286 2611.58208563367 113 91 77
4.39373828539757 927.523088080465 2612.08057833343 99 82 72
-7.49630168796567 925.093007558247 2613.32980776144 85 71 62
127.378011443068 928.137948528748 2707.41309457222 101 83 69
121.823628227359 927.903527949418 2702.15037962709 102 76 61
113.31101451207 926.693461383007 2699.67867941561 132 104 83
104.074848300205 925.240598092673 2697.91626737391 144 108 82
95.589453312507 924.032437827672 2695.46430825472 156 117 88
88.5801622273385 923.311851424312 2691.61451027841 163 122 94
79.3860468662113 921.862036258962 2689.88259723517 183 139 112
72.390642701583 921.142286490338 2686.04316489866 178 134 107
66.1242335763621 920.665644506295 2681.49809690637 160 118 93
63.4719070325391 921.402010130082 2673.40332652832 156 116 91
57.913849621769 921.166694461825 2668.13794354698 143 108 86
58.0990810823403 922.869288717696 2657.16463266749 129 99 75
56.8113414006381 924.084503156631 2647.59143263277 115 89 66
56.206380354141 925.53902159217 2637.27907441762 116 89 68
49.1578390682719 924.814250198341 2633.4010964124 116 88 67
45.6617375849042 925.297791378868 2625.92870607419 123 94 76
41.439875512844 925.538237467755 2619.16400170138 121 94 77
37.2041092868223 925.777377933663 2612.3892112974 113 90 74
34.3607568344346 926.497551402692 2604.15588014507 111 89 75
27.2889276881911 925.769758299971 2600.26100496733 107 89 77
13.2335819049616 922.633896465554 2603.64238744697 78 65 57
122.952702447121 917.225118513496 2722.67683982794 179 169 160
121.148704723662 918.198138817245 2713.96320318941 160 146 135
118.577132177895 918.927723544681 2705.92693876135 186 167 153
112.290420775638 918.450034287932 2701.36714791053 190 168 154
100.11269557939 916.044513208651 2702.40824705639 190 169 148
93.842270569207 915.567904356031 2697.86026803122 195 169 146
88.3032519852556 915.331910165534 2692.60838878788 180 152 130
81.2994564854033 914.614348308303 2688.76288447558 170 134 112
74.2996044149735 913.897095554457 2684.91994592809 178 140 117
67.3034694532086 913.179964696422 2681.07970260941 177 135 111
62.4801972697524 913.182859297549 2675.11315107322 165 123 98
56.926671747322 912.945092445097 2669.85074646171 150 113 86
56.3988904259474 914.384126908751 2659.59455352405 145 110 80
58.7012646362175 916.778026076531 2646.45410183693 134 101 70
59.5214702897664 918.689057789967 2634.70711644856 122 92 64
56.7364447903973 919.401002343152 2626.51632054519 120 89 68
48.9595544054264 918.438292744463 2623.34388368255 116 89 72
44.7291829067371 918.669984059843 2616.57296630012 114 88 73
38.3684023526065 918.184502061294 2611.95944166861 104 86 74
34.1165921623388 918.413929267605 2605.17326593 89 72 64
28.4490069917887 918.165667691507 2599.82812388756 72 59 51
114.464308055227 906.63142459459 2731.29108541521 190 181 174
112.687656615558 907.590111215492 2722.59720007847 215 202 194
107.920468987074 907.592411322938 2716.67130242186 230 213 203
102.405339198409 907.355674277968 2711.43703139035 233 217 204
91.7301670952471 905.450792499535 2711.09923696378 191 180 162
86.9545091551802 905.452346673465 2705.16719521924 184 169 150
81.4375103914422 905.215208887032 2699.93127282096 198 179 162
75.9153164145969 904.977660588776 2694.69187669953 192 163 145
71.1155474689931 904.977082270918 2688.74234557102 186 153 134
64.8555898442962 904.500962930367 2684.20195705644 178 140 117
62.2111686315794 905.210785538224 2676.11278297601 180 140 115
58.8230083263444 905.681742615949 2668.71857776045 151 112 83
59.7296994120136 907.572477690357 2657.03418470104 142 106 74
59.8750671822379 909.223031845726 2646.03171218832 148 112 78
58.5511437051016 910.397019208158 2636.43207292481 131 98 67
55.7712749572796 911.095689823672 2628.24465354855 130 99 78
51.5485676277518 911.319996350991 2621.4792546805 119 92 75
48.0196387413163 911.778952165592 2613.98294252751 117 94 80
38.121539819334 910.113327058185 2612.97493476357 87 70 60
26.8378900227706 907.977550240669 2613.43020344883 89 76 68
131.617346316911 902.718995247157 2726.41418097223 251 250 246
112.680623409911 898.227680712615 2733.6608920952 255 254 250
101.99308608642 896.338296864806 2733.31450683362 255 253 250
94.2952010356524 895.394305163587 2730.19973191067 255 250 245
87.3443911323655 894.686581547026 2726.3923933437 255 254 248
79.6606193228961 893.743613688117 2723.28785459652 254 255 249
74.1884066112184 893.507296112056 2718.08440271769 252 252 244
70.1753448022577 893.740819568599 2711.47102704712 255 255 246
68.3385427198591 894.678382998888 2702.73343023266 255 252 243
68.657934785382 896.318251738022 2691.85735199874 250 232 220
65.3090361282089 896.781516072734 2684.49156942449 186 158 144
63.3887464021599 897.712375816622 2675.69341667994 184 153 133
61.4413573468964 898.640920724993 2666.87560732822 159 123 97
62.3429030249984 900.504115271907 2655.18734475486 163 126 97
58.8987824199436 900.95948633545 2647.75249377747 158 119 88
54.7218015991637 901.179431804883 2641.02022094185 155 118 89
52.6681411977323 902.099188317597 2632.12532870839 130 99 78
51.2974896205889 903.25027216194 2622.49169923713 114 91 77
49.8953366996213 904.398624814675 2612.83521993543 116 96 85
35.7570639611833 901.347034802597 2616.15691374889 130 119 113
154.085361970087 900.371229254827 2716.7522970375 246 246 244
132.819882154978 895.21878380319 2726.01289818584 255 255 253
112.387207043044 890.306385064101 2734.64310201413 250 246 243
93.5238756300789 885.866969411322 2741.94357355247 252 248 245
80.6640648006898 883.298353123948 2743.72413030924 252 247 244
70.7988479366155 881.664606555573 2742.7401209219 255 253 250
66.1124420034547 881.662148941795 2736.87246506438 251 253 250
60.6818521459744 881.426226448732 2731.69948295903 254 255 251
55.9787397151874 881.42241542233 2725.81970934954 248 245 238
53.4564493319727 882.114600448992 2717.81927565301 255 252 244
55.2793500035955 884.197901935792 2705.56500123298 255 253 244
55.6017345443922 885.813388288559 2694.69067432963 247 229 217
58.0545533011931 888.121196566421 2681.65884703761 197 174 160
60.4538790772278 890.424731060085 2668.58821989467 170 139 118
62.0804191852753 892.492543358066 2656.19152105577 150 118 93
57.9220381702199 892.705870460328 2649.47269809292 150 114 88
54.4645113085012 893.14922234939 2642.02806775449 142 106 80
53.1263824686867 894.283763133484 2632.41793091572 134 103 83
56.0189763593235 896.800625117375 2618.47092827252 121 97 85
53.1882678329905 897.46769498886 2610.24649399184 111 93 81
38.3331923993961 894.214730190019 2614.28287333748 255 250 245
145.542412845101 889.806333355376 2725.32714060214 248 248 248
124.30006879751 884.710188774566 2734.6047985371 251 251 251
102.399069578171 879.389718618436 2744.63917813462 254 255 255
81.3333312933104 874.306865429114 2754.04492867945 254 255 255
69.2507486834266 871.995968853117 2755.15518353136 251 255 255
60.8981670885926 870.839014517001 2752.79976304316 252 253 255
57.7165021953596 871.293601952384 2745.55516784312 254 253 251
49.3736077544509 870.137253152325 2743.2067728467 255 255 253
42.5082295032202 869.441289701372 2739.46142507507 254 255 253
35.6466099040875 868.745570999342 2735.71880327026 252 254 251
35.341780355048 870.114843634651 2725.62387947298 251 252 247
38.6307073119112 872.627668008748 2711.96416667636 252 249 244
41.8618048895958 875.13592704583 2698.2625090043 255 251 245
46.4779606428718 878.09750986684 2683.09713247827 217 200 192
53.1855605636413 881.740180210757 2665.74563946382 155 135 126
52.6417583592038 883.090571346401 2655.4773836502 144 120 110
54.9218760272607 885.351768786962 2642.32012556024 145 115 104
53.5846557846664 886.467324900517 2632.71055122189 149 123 110
56.4791382785708 888.948852056111 2618.76473868962 109 87 76
51.5240559239412 888.91853478668 2612.70217244569 83 66 56
46.5592418081551 888.887200519179 2606.63284076614 248 240 237
139.490413946632 878.638251410308 2741.88044398929 242 242 242
125.741570547965 875.879818404693 2744.25089171082 255 255 255
106.051378556213 871.298807078272 2752.18627378871 254 254 254
88.6774491001314 867.407895522286 2758.09856065995 254 255 255
70.6249116086726 863.294029177265 2764.75311188039 248 252 255
60.0567974923001 861.462712431384 2764.49359317159 250 255 255
49.5144478345906 859.633363406357 2764.25276163561 252 255 255
44.8944807336495 859.624996497865 2758.4332387737 255 254 253
38.7952111385865 859.161416729236 2754.00939995645 251 250 248
31.2298375257001 858.243573836615 2750.99081785162 254 255 255
22.9420804882037 857.099338989487 2748.68245449518 252 255 255
16.1234256953464 856.409371180899 2744.97100792477 248 253 249
14.3911596292829 857.305517108644 2736.30898171164 253 255 252
14.8032908093891 858.878637188031 2725.49979394592 249 248 244
18.0619791338543 861.353344838002 2711.81796745062 255 245 243
23.4212794121165 864.501767903324 2695.9569275267 215 200 197
33.7304253689781 869.225721145825 2675.04627138264 124 99 95
45.3679286573108 874.393256445051 2652.63044891187 142 117 110
49.7655611123315 877.296450903714 2637.30636443485 131 107 95
51.96448486647 879.518331121022 2624.09004799443 100 80 69
45.6078929731278 879.03318845071 2619.47956153129 206 189 181
151.47324422457 872.980392071764 2741.89254985263 243 245 244
128.654646492241 867.535948372133 2752.49615138432 248 250 249
105.181649310021 861.87318916218 2763.8592956073 253 255 254
87.7948196785354 858.02222716372 2769.76272769549 253 255 254
73.4574054069617 855.077576725865 2772.94060123172 253 255 254
62.1430654930077 853.03729352349 2773.3741056899 253 254 255
50.1171226418258 850.774180177998 2774.52566194313 252 255 255
39.6045504018434 848.963374285996 2774.30651061737 254 255 255
32.0665600713577 848.053186431819 2771.30781801262 255 254 255
25.2717266014177 847.367956375365 2767.6136640252 255 255 255
19.213538344474 846.907465678016 2763.21962159344 251 251 251
10.9625620606835 845.774096665733 2760.9379764279 252 255 255
2.72411351686985 844.641563308657 2758.66541712118 251 255 255
-3.32307445275259 844.181545550553 2754.27935142798 252 255 255
-7.92286228803318 844.168600030845 2748.47443375482 254 253 251
-10.3667205606468 844.825258518714 2740.53067722016 255 253 253
-7.07603617374475 847.266771661273 2726.87187721664 255 252 251
-5.27821876868217 849.257409756097 2714.59895004303 189 173 173
7.19929748647896 854.589233480176 2691.55786642274 124 106 104
18.848720367922 859.689267987163 2669.15034281456 124 107 99
28.2546896236182 864.112618419744 2648.81846862179 92 78 69
180.903453400332 872.425935034817 2726.17057895254 233 235 234
154.947920323402 866.139293949103 2739.43632420543 245 247 246
121.578106177804 857.629913469883 2759.66728999288 253 255 254
97.3728861386336 851.808252382436 2771.73386200031 253 255 254
80.0077849666527 847.999736169664 2777.65326050878 253 255 254
67.18512887121 845.532060301579 2779.46155728525 253 255 254
55.1454600002104 843.289701231765 2780.60326837828 253 255 254
42.3983224983777 840.827665261448 2782.46633876211 254 255 255
31.1692426452641 838.812690169928 2782.96177824851 254 255 255
24.3947673213936 838.131857565845 2779.28240458961 248 248 248
19.8294512035098 838.116577029956 2773.50275884976 251 251 251
11.589622447155 836.992355738214 2771.22924109976 255 255 255
4.09329168053851 836.09043140778 2768.26049578127 248 248 248
-4.85226706829733 834.746484474809 2766.70930297421 255 255 255
-12.3283009572828 833.845796569491 2763.75557203524 252 252 252
-20.5204260300433 832.724722882344 2761.51665164676 255 255 255
-24.367954834672 832.929238249527 2755.02312745199 255 255 255
-26.0699664542388 833.794378588338 2746.38287628338 255 255 255
-26.3640030028445 835.098150198369 2736.29544478684 255 255 255
-27.4093043432342 836.178746315871 2726.89731161129 253 253 253
-21.3539079383049 839.458101573694 2710.30621871615 202 204 203
-20.3513170513447 841.191593183949 2698.69054900016 252 254 253
229.462500288356 877.240951351797 2693.46443663463 233 234 236
191.965618728231 867.699969690594 2716.87415001398 245 246 248
138.035153343325 853.319674457747 2755.51886839593 247 248 250
111.48664423784 846.895687976777 2769.58909361868 254 255 255
88.8097524400084 841.581853205686 2780.29608236642 253 254 255
76.7086255263498 839.356740048268 2781.39332856669 253 254 255
61.6564314852193 836.254431944461 2785.28757553287 253 254 255
53.3536793295273 835.133776008833 2782.96846132707 253 254 255
40.6116432002435 832.696588526999 2784.83535566722 253 254 255
30.1278027557448 830.920551122508 2784.63720874241 254 255 255
21.8825002144261 829.804240168888 2782.35946851928 253 253 253
15.1201197140214 829.126906979006 2778.68917485827 251 251 251
5.42891291391934 827.574040393437 2777.8314242759 253 253 253
-4.24119173878967 826.022714444076 2776.98927337117 253 253 253
-11.7035234796239 825.128622638189 2774.04521434533 255 255 255
-16.9782528787277 824.890271139032 2768.98520650908 253 253 253
-23.7067519653209 824.214955437365 2765.33918994996 255 255 255
-29.7094587005655 823.757764485717 2760.98538397117 252 252 252
-33.5529559876602 823.954122829025 2754.49474099257 249 249 249
-35.9749826333198 824.584709304271 2746.56667861032 250 250 250
-39.8507756654223 824.778272100615 2740.05260959693 249 249 249
-43.0272356139245 825.187875895022 2732.8115597214 240 242 241
-46.9331271674958 825.378701656383 2726.27565778384 242 244 243
229.170990368488 869.056230792497 2694.4469887556 254 255 255
178.792627708236 855.919947628426 2729.49723127461 249 250 252
129.423330622291 843.020745027345 2764.04542567058 250 251 253
102.896862707091 836.671909533656 2778.13200967712 249 250 252
86.2501357260053 833.160186801559 2783.3383451787 252 253 255
71.910219907279 830.305139023099 2786.51515362216 252 253 255
56.8716288605469 827.236482934446 2790.41913766635 252 253 255
44.1178398685618 824.822838303891 2792.27763135469 253 254 255
33.6292432952474 823.062785405286 2792.07611757528 253 254 255
23.1663663361159 821.304636850819 2791.89325813895 253 254 255
17.1555282388498 820.847563837761 2787.53355815968 249 249 249
10.4084527026123 820.174088890154 2783.87408445956 255 255 255
2.19835982055105 819.068287878325 2781.62221618178 255 255 255
-7.46147334790015 817.531345521411 2780.7872896739 241 241 241
-14.9134027702444 816.643364233446 2777.85109693873 248 248 248
-18.723508706463 816.83454146496 2771.38463381962 245 245 245
-26.1703663433139 815.946672329107 2768.45211829806 246 246 246
-32.8866481442669 815.274736116436 2764.81497542781 239 239 239
-38.1591290292345 815.033340605979 2759.75658216894 233 233 233
-40.5649429229691 815.651429315255 2751.83991497588 232 232 232
-45.8565451494088 815.408186043815 2746.76765088923 232 232 232
-49.7261816587276 815.593644477776 2740.2580038204 229 231 230
-55.7437847631461 815.134290853053 2735.89338819133 231 233 232
252.085346055517 866.1104921078 2685.10534291018 235 236 238
215.201936031189 856.997198321523 2707.72690459217 254 255 255
164.098491258204 843.806008303975 2743.48627812881 247 248 250
120.807787228748 832.786146630637 2772.56931712267 251 252 254
95.8098376454082 826.942583868702 2785.29644273577 248 249 251
79.9339013969509 823.685191636624 2789.82779249385 252 253 255
65.6120735181243 820.861410988422 2793.01757716812 252 253 255
51.337831127201 818.041256678546 2796.24217042324 252 253 255
38.6003536106139 815.653418065261 2798.11232488374 253 254 255
29.6128172168761 814.339178906899 2796.5311465388 253 254 255
18.4220447646952 812.38424299795 2797.05465998795 253 254 255
9.47501076007384 811.072975907348 2795.50256326633 255 255 255
2.0160722091207 810.190162208057 2792.5613156391 255 255 255
-4.70113740504186 809.521436742005 2788.92351644032 233 233 233
-12.1459672184305 808.639636161793 2785.99220719267 230 230 230
-18.8538604360049 807.97131732325 2782.36145818527 246 246 246
-22.6504534870549 808.155165371221 2775.90475372124 237 237 237
-27.1856406162814 808.124989554638 2770.1465792037 246 246 246
-33.1753622290489 807.668671311279 2765.80219083775 244 244 244
-39.1659131843414 807.212046906666 2761.45719971294 240 240 240
-43.0028979963488 807.392144821015 2754.97119540423 234 234 234
-47.5698510325451 807.358868275745 2749.19027187402 231 231 231
-52.1461870469644 807.324642014773 2743.40224713514 212 214 213
-56.7321214917875 807.289518686264 2737.6072597454 217 219 218
-56.362786245564 808.734904682131 2726.76640129557 221 223 222
270.511157995548 861.778224728478 2679.91393607738 226 230 231
240.361448308754 854.680904824924 2696.3106045726 254 255 255
204.267009078333 845.891631404953 2718.27041814138 243 244 246
149.397796768481 831.799863600494 2757.4714113981 245 246 248
112.188243297006 822.615877312136 2781.09092881573 244 245 247
90.2264900447345 817.691117068097 2791.08297638991 248 249 251
76.6197003158844 815.106695171289 2793.55728324884 251 252 254
60.0598900495593 811.677659690823 2798.82733983609 252 253 255
45.0548177619905 808.676899497849 2802.75596625022 252 253 255
32.3354104724469 806.314731378009 2804.63964470708 252 253 255
22.6246079677397 804.801331681244 2803.76818316484 252 253 255
12.1950802708826 803.078315322215 2803.60938279492 255 255 255
5.48104535363469 802.412605615894 2799.97419475412 243 243 243
-1.22904283314407 801.747145536564 2796.34157456985 225 225 225
-6.46836303575182 801.503417930721 2791.30720838478 241 241 241
-14.6385514343303 800.416681738107 2789.08436428575 255 255 255
-21.3377389258869 799.751746273767 2785.45964890537 222 222 222
-26.5793470064324 799.507415117589 2780.42362113165 244 244 244
-30.3763412294147 799.682806788217 2773.96658301631 243 243 243
-35.6324390150173 799.437171958328 2768.91975026578 240 240 240
-43.0552379951452 798.561527778192 2766.00473729973 242 242 242
-47.5969250823742 798.524731523372 2760.24181729009 241 241 241
-51.4322603777124 798.696549547402 2753.75726128896 239 239 239
-52.4259260720181 799.704129360488 2744.39589557621 233 235 234
-55.5863203346583 800.081757349557 2737.16633009546 217 219 218
-53.0896405711729 802.129181040967 2724.16527416098 206 208 207
242.696345694037 845.929591492378 2705.3697031183 249 253 254
227.870175370291 843.127146793167 2708.19398726184 251 252 254
188.76624288411 833.606190595661 2732.90888982005 244 245 247
133.932950390857 819.691545662038 2772.13681928065 245 246 248
107.343821995583 813.558506855421 2786.17907242071 244 245 247
89.1619284013454 809.739810581981 2792.74134573625 243 244 246
75.55792825032 807.182678620371 2795.21781304858 251 252 254
58.251092650119 803.582608978517 2801.18050533645 248 249 251
43.9976174722196 800.823870501314 2804.42016979376 253 254 255
32.770886045359 798.904257556113 2804.91779473254 249 250 252
22.3166744755319 797.195621691831 2804.74146781339 251 252 254
11.888086228836 795.488882371036 2804.58372539436 249 249 251
2.96162892644736 794.200730252448 2803.04666224521 220 220 222
-4.4759942973438 793.330337475291 2800.12092946795 212 212 214
-11.9055203722651 792.460351323857 2797.20077406933 255 255 255
-19.3271427760928 791.590956072488 2794.2866456806 230 230 232
-26.0112516242406 790.929691642848 2790.67287972513 246 246 248
-30.5100011862247 790.891295582134 2784.94107794054 248 248 250
-34.2936257579296 791.059416567868 2778.4939894203 242 242 244
-38.813738729405 791.019050857473 2772.74669086759 240 240 242
-43.3434085878512 790.977910932652 2766.99246040201 237 237 239
-47.8828791246968 790.935688682881 2761.23141421034 236 236 238
-50.2830592792036 791.512831323934 2753.31862363517 235 235 237
-51.9921161909793 792.294476500016 2744.67284226442 225 227 226
-53.0166108557866 793.280331672562 2735.28931241047 222 224 223
-52.6535762314242 794.675858856442 2724.44363396068 195 197 196
-53.0381549244543 795.862057845612 2714.28967652587 214 216 215
233.987452983717 835.473080309415 2713.82509410349 247 251 252
216.898404906792 832.079902654109 2718.71138205729 247 248 252
174.779296748972 821.848609832556 2746.17736242287 242 243 247
126.800745394376 809.975467418205 2779.26856754118 242 243 247
100.985180804324 804.124346428771 2792.63798493244 240 241 245
85.0817579540726 800.970951978821 2797.14993583555 239 240 244
69.2346818748248 797.821823526643 2801.70275532358 241 242 246
54.1934967112039 794.883557265604 2805.60551928726 248 249 253
41.4455218139027 792.568184267029 2807.4687255021 245 246 250
31.7162219623035 791.08046951479 2806.58398493765 246 247 251
19.780018336931 788.976315594163 2807.80140023163 237 238 242
9.3592498469226 787.286400334785 2807.6494117383 215 215 217
1.91752933342482 786.42099283102 2804.72073399968 247 247 249
-3.30752287192904 786.172794815071 2799.69639386978 252 252 254
-11.4736501659174 785.102637934952 2797.47657772963 217 217 219
-20.359128960135 783.82814121256 2795.96928994285 236 236 238
-27.7687033971268 782.964740461343 2793.06392574572 249 249 251
-32.9881846538047 782.716466418405 2788.04391820733 244 244 246
-37.4875769248146 782.672223141019 2782.31162089195 238 238 240
-41.9965020100321 782.627207599368 2776.57240912444 235 235 237
-44.352834776189 783.194291136391 2768.69164798251 232 232 234
-47.450494174285 783.555194856582 2761.50747563218 231 231 233
-49.1337345905354 784.322621395168 2752.88033716979 230 230 232
-50.130108532624 785.291517151373 2743.51710672507 223 225 224
-50.4459615441315 786.461536938467 2733.41288805262 217 219 218
-50.0883313351008 787.832011852574 2722.56316493214 200 202 201
-51.8935975531969 788.589134733634 2713.84751517177 199 201 200
240.866343324344 828.028618998527 2718.77404085002 243 247 248
226.804582178582 825.490920940418 2720.91876588471 245 249 250
208.209839582973 821.727678090651 2727.18203703105 245 246 250
161.546724598685 810.398038038748 2758.7592152582 241 242 246
124.973393270348 801.744191263019 2781.60759231698 241 242 246
99.9164710896476 796.16839198955 2794.29302923356 238 239 243
84.0152859817667 793.050487416467 2798.80678208709 238 239 243
66.6671447659151 789.528920585906 2804.73992868489 241 242 246
51.6325938038933 786.623702763025 2808.64796379676 247 248 252
39.6394195729468 784.536979055798 2809.82416817041 241 242 246
29.1708429504722 782.859739841328 2809.63758674824 233 234 238
18.7278382045553 781.184452746414 2809.469552813 225 226 230
9.0512524542552 779.714081961415 2808.62281919915 239 239 241
1.61130510421259 778.854195047032 2805.69545482744 249 249 251
-4.34782662868427 778.400474412721 2801.37325487563 226 226 228
-14.7125519807605 776.730752152107 2801.26199553053 233 233 235
-21.3918993417759 776.07519065558 2797.65171016517 255 255 255
-29.5272508686599 775.015174164163 2795.45425539845 243 243 245
-31.8297824310376 775.573043994273 2787.61215475105 241 241 243
-36.3313186228404 775.523081218957 2781.87856876837 236 236 238
-40.8422684677225 775.472285730565 2776.13785993279 233 233 235
-43.2001945219054 776.025379628364 2768.2558729221 230 230 232
-45.5807294044197 776.57663160055 2760.35719248251 228 228 230
-47.9841945243897 777.125916838524 2752.44217393956 227 227 229
-53.2676295337198 776.86874735347 2747.37546542684 220 222 221
-54.283591668606 777.816758995296 2737.99792930098 217 219 218
-52.4915527754988 779.565145746123 2725.71958610992 204 206 205
-51.4564569795455 781.10901501922 2714.12651942163 195 197 196
233.659805164894 818.071188051461 2725.85068091535 245 249 250
222.67849805929 816.371231251509 2725.2922951547 243 247 248
196.466183183764 810.631343862353 2738.37436874004 241 242 246
149.829624319576 799.448087080593 2769.97183400253 241 242 246
118.594201974817 792.317805571541 2788.05164700013 239 240 244
95.0654985993817 787.21433592266 2799.37724152671 235 236 240
79.177672850447 784.132822201419 2803.90086319149 235 236 240
62.5944124057898 780.854342852979 2809.15438836349 236 237 241
49.0705758710921 778.384717651702 2811.68941123106 236 237 241
37.0849193510887 776.320260095909 2812.87117813625 233 234 238
27.3692517238708 774.860534422713 2811.99646163239 227 228 232
16.931901836482 773.201866136414 2811.83261120231 229 230 234
9.48370392512121 772.346767035265 2808.89899559682 253 253 255
-0.172623655847026 770.89140048898 2808.0673180387 215 215 217
-6.12529068403411 770.437964592586 2803.74980593155 212 212 214
-15.7500244487752 768.984878292214 2802.94074847794 249 249 251
-20.9612049002497 768.731690660351 2797.9267334821 251 251 253
-27.6372692717997 768.078844619005 2794.31884178018 240 240 242
-32.1268007539204 768.024328056148 2788.59393520191 239 239 241
-37.3511851508661 767.769761679994 2783.57004692358 234 234 236
-41.1343135274873 767.912730486582 2777.12289622798 232 232 234
-44.2103427868363 768.253370893339 2769.95430138916 228 228 230
-48.0236725780714 768.393713817083 2763.48524374296 226 226 228
-52.5677921493155 768.334177572071 2757.72073966823 224 224 226
-56.4069114374153 768.47213253988 2751.23297456992 218 220 219
-58.8354080162672 769.005280051763 2743.29943397044 217 219 218
-57.0263918173683 770.724871527022 2731.03325213691 206 208 207
-56.6822753586922 772.044653951654 2720.17318136593 195 197 196
-57.7900482423113 772.965572183732 2710.72895243551 208 210 209
238.72831913315 811.362644794458 2722.08016603499 241 245 246
217.020253065469 806.884220932623 2731.0233410158 243 247 248
184.717273218896 799.621043695607 2749.56362228367 240 241 245
136.585915913218 788.185871174002 2782.54627351086 240 241 245
112.212338930068 782.93946608288 2794.49371376172 237 238 242
90.9689528348947 778.496446088007 2803.77392449893 232 233 237
77.3549022057494 776.047203797326 2806.24365248763 233 234 238
60.0238292089248 772.608480374872 2812.18959181985 237 238 242
48.0068752025278 770.563323738095 2813.34876827219 227 228 232
34.5287901125104 768.124270117378 2815.9174066665 221 222 226
24.8213702069222 766.678793961194 2815.04844681165 227 228 232
15.1349129637177 765.234757525654 2814.19498500763 226 227 231
6.95202116855853 764.18772713983 2811.96283858603 203 202 207
-4.17418514518375 762.351336312047 2812.53405233808 246 245 250
-12.3236396350785 761.306666616339 2810.32645176704 255 254 255
-20.460524393727 760.262855491128 2808.12767313424 247 246 251
-24.1918587225987 760.402024880349 2801.71834428142 244 243 248
-29.3970497157587 760.146265168453 2796.70836366661 239 238 243
-30.2404739209916 761.070197496502 2787.45578200163 236 235 240
-36.1949757111013 760.615836294333 2783.13693514955 232 231 236
-39.9799529264901 760.750291190235 2776.68840106664 229 228 233
-45.9426229508388 760.294969550923 2772.36362802244 225 224 229
-51.1871818925544 760.035403644468 2767.32538393947 222 221 226
-57.1537061749687 759.579381432469 2762.99781331281 220 220 222
-59.5477192225005 760.101611289373 2755.08921526102 211 213 212
-59.1150417292781 761.403874436258 2744.29355001239 219 221 220
-57.3020760931859 763.093604874926 2732.02978548112 200 202 201
-55.5385464573002 764.779251188906 2719.7304575284 198 200 199
-55.9416324104438 765.875858628106 2709.5626299869 197 199 198
238.425770420776 803.241662419519 2723.05474426913 237 241 242
215.185980360213 798.423864040065 2733.35618857548 243 247 248
174.489419151673 789.090140086395 2759.38787668812 238 239 243
130.184916534388 778.789054415635 2788.97466882149 239 240 244
108.862337157066 774.394403960252 2798.19771565966 235 236 240
89.8965033330859 770.594894505507 2805.42682778677 231 232 236
74.7764594405589 767.780969633987 2809.27334966561 232 233 237
58.9562012726188 764.775158495101 2813.84633596031 231 232 236
44.692353425059 762.164969125866 2817.07923347854 216 217 221
32.7194727882523 760.144801081292 2818.27048622921 208 209 213
23.0176283169983 758.713109826634 2817.40593242597 228 229 233
12.5935139677167 757.087835170548 2817.25184586525 222 223 227
2.19512088314122 755.464435120402 2817.11641469348 244 243 248
-10.3945513165395 753.258511668474 2819.09463781868 240 239 244
-16.3144048329453 752.80725608196 2814.8009239702 247 246 251
-21.5004252923954 752.550371283784 2809.80512926264 238 237 242
-23.7621001593231 753.070158856322 2801.99274808858 241 240 245
-29.6974898260149 752.617375821202 2797.68776401637 234 233 238
-32.7215924436381 752.940316398396 2790.55642777816 235 234 239
-37.9416751778607 752.680224097476 2785.53592435406 230 229 234
-40.2724318251002 753.194195813657 2777.67314038769 228 227 232
-46.9545873023181 752.545317597431 2774.06114768813 223 222 227
-51.4753469709672 752.476521185136 2768.31323632373 220 219 224
-56.722865368003 752.213638723313 2763.27283006943 218 218 220
-56.9718860437343 753.300950547531 2753.21664065132 209 211 210
-57.9696247594146 754.19248698881 2743.85202901292 219 221 220
-58.2887068418023 755.273954184673 2733.74531545877 195 197 196
-56.5191995023617 756.929884260726 2721.45017035232 198 200 199
-53.3869096647801 758.966377403489 2707.67449525354 193 195 194
-48.9050823003594 761.382450238298 2692.40868361907 242 244 243
257.610153556308 798.918492546546 2717.1779568591 231 235 236
242.728965636885 796.290952100097 2719.96353797494 238 242 243
219.474931088587 791.531912446539 2730.25465929565 239 243 244
172.653623957429 780.767877171698 2761.72032003627 235 236 241
129.109038147027 770.796702816771 2790.62433204 232 233 238
108.546474775983 766.650103173134 2799.16455049773 231 232 237
91.8503817191243 763.477131506115 2804.33681531839 229 230 235
76.7240114263181 760.695284376807 2808.17891353474 228 229 233
61.6495568655715 757.917374153608 2812.05866651441 220 219 224
45.1269816556672 754.757563210091 2817.35678478703 199 198 203
33.1527616034877 752.758913919034 2818.54717556365 200 199 204
21.958473345884 750.955422967696 2819.06920190601 208 208 210
11.5379839382452 749.346652059758 2818.91753226056 197 197 199
-1.08110767907865 747.16288050142 2820.8748353028 240 240 242
-12.9223422631912 745.174088845615 2822.16197449116 241 241 243
-16.6225745093866 745.299128839484 2815.77482615662 241 241 243
-21.8062213765644 745.039468651525 2810.78044358184 240 240 242
-24.0649688036152 745.545722429938 2802.97011602009 238 238 240
-29.9982766590139 745.092898941397 2798.66664089241 235 235 237
-33.0197851611724 745.404917807717 2791.53742434026 233 233 235
-38.9635481633095 744.950948616615 2787.22636425038 226 226 228
-41.2892075209421 745.451502576883 2779.36720745445 224 224 226
-46.5240404128588 745.187048926486 2774.33598923516 221 221 223
-50.3253610739676 745.303152833688 2767.87551448828 218 218 220
-54.1406854811364 745.418002793655 2761.40488177554 214 214 216
-55.1102362073781 746.29267488367 2752.06061879098 212 212 214
-56.824175538875 746.974510820824 2743.41079249651 214 214 216
-56.4336409134856 748.223881688067 2732.58401459677 198 198 198
-52.5419344051861 750.418582135477 2718.12462157133 193 193 193
-49.4187987605299 752.418726372667 2704.34212628836 195 195 195
-47.7617019161822 754.035319574492 2691.96529316604 208 210 209
252.686903619372 789.610144911833 2722.20768465503 234 238 239
240.122997961044 787.588199961016 2722.97077623114 236 240 241
215.342881074206 782.506642504029 2734.6243420156 240 244 245
167.762851655168 771.696057624075 2766.77478962407 234 235 240
129.554806631345 763.196420321208 2790.90898219825 230 231 236
111.266611758979 759.674015019572 2797.39569622088 228 229 233
98.3460313634343 757.491987298954 2799.13445244659 224 225 229
80.9360593199688 754.169526226406 2805.02378506783 223 224 228
65.096298514149 751.232782217818 2809.58298332276 214 213 218
47.0621344607327 747.72972113896 2816.25365321261 190 189 194
35.8301029772434 745.942290586262 2816.74840003413 193 192 197
23.8823815270317 743.96723600714 2817.95811972469 195 195 197
11.2251915409809 741.805052251725 2819.88791379286 208 208 210
-0.651540296140229 739.835330416255 2821.14912238034 237 237 239
-11.0154076168443 738.246869510599 2821.03889664528 237 237 239
-13.9825865717322 738.552446173692 2813.94903211036 237 237 239
-19.9077578331859 738.100281840002 2809.65145871203 236 236 238
-24.3682759579686 738.025701393581 2803.94718843112 234 234 236
-31.7605376221799 737.195427135904 2801.05454242467 231 231 233
-36.231490121984 737.119762413478 2795.34270255056 230 230 232
-41.438294906039 736.854831136898 2790.33180008553 225 225 227
-43.7544724301253 737.342262794395 2782.47945040604 223 223 225
-46.8153352920153 737.639682449983 2775.32163109078 220 220 222
-49.1751149550099 738.12335323108 2767.43794871773 217 217 219
-50.8403894377061 738.79276175835 2758.82333766343 214 214 216
-53.2479065927143 739.272495168018 2750.90473494306 210 210 212
-57.1042056463005 739.375362871459 2744.40433814219 213 213 215
-58.1317498406189 740.225770744323 2735.01791155195 198 198 198
-54.2313696668659 742.382698838381 2720.56461492728 193 193 193
-48.9808063313513 744.908445297565 2704.62159529323 195 195 195
-46.6179836923528 746.681574357603 2691.52181963915 197 199 198
255.463279356477 782.229079229776 2720.47784223723 238 242 243
239.819703990048 779.472803002352 2723.94484250264 233 237 238
211.974563456069 773.701674721064 2738.31374989311 238 242 243
167.451617708211 763.792556061358 2767.7441733295 230 231 236
130.761921222447 755.783626546037 2790.51146143538 225 226 230
110.950369807235 751.927931398826 2798.36254134671 222 223 227
98.7877623560625 749.958350538367 2799.41651331474 215 216 220
82.1303779352656 746.864329604041 2804.61723875278 216 217 221
66.2864000702452 743.962612305222 2809.17355738869 205 204 209
51.2490468438869 741.252529743358 2813.08054947791 179 179 181
38.5084901407251 739.108475653153 2814.95000106405 188 188 190
26.552874881471 737.154528336194 2816.15410527641 186 186 188
13.1437828813383 734.829010640867 2818.77303883878 223 223 225
1.26109416205322 732.880443850986 2820.03033078675 233 233 235
-7.62918304664573 731.681074585911 2818.51994506229 232 232 234
-12.8161753744154 731.415467715891 2813.52310717061 231 231 233
-20.2138923062087 730.590247951699 2810.62653212629 228 228 230
-26.1377471332205 730.137891544804 2806.32991206648 227 227 229
-32.7931297613588 729.499297028423 2802.73708518852 226 226 228
-37.2595738467105 729.418302361873 2797.02878104006 225 225 227
-40.2830718572578 729.707785997037 2789.89800810543 221 221 223
-43.3248182249601 729.995721209567 2782.75370422718 221 221 223
-46.3851617327506 730.282040717096 2775.59620517835 219 219 221
-50.183604906008 730.381589720836 2769.13773252998 216 216 218
-51.8436094792463 731.034906004642 2760.52686023512 213 213 215
-52.8156688212369 731.870690748468 2751.1805817294 208 208 210
-55.2456052681929 732.334459019637 2743.24594039629 210 210 212
-56.2765848312357 733.165291337014 2733.85692427989 197 197 197
-53.0871767512993 735.099350777583 2720.12213656706 193 193 193
-48.5429404633497 737.396959093291 2704.90096644698 194 194 194
-42.6571405077181 740.05714168254 2688.18408771178 186 188 187
-40.3573493655607 741.792215774308 2675.03842642456 197 199 198
266.991611861925 775.881111163649 2721.39201405826 223 227 228
246.685134822957 772.036451868774 2728.88407324444 237 241 242
227.99315056078 768.570084560844 2735.07835556459 233 237 238
204.008689334126 763.807214611462 2746.07528670309 236 240 241
167.903744568587 756.079454647745 2768.03286136019 227 228 233
131.969236336319 748.364605786759 2790.11405449483 221 222 226
111.393292197258 744.37195735211 2798.64535274149 217 218 222
97.714924918106 742.05333225934 2801.06911781988 208 209 213
81.0597259836436 738.997485440243 2806.27162092302 209 210 214
66.7236487393832 736.501021930458 2809.45273385403 204 203 208
53.1857599224814 734.193090105916 2811.97838893117 174 174 176
41.936272648956 732.442112660008 2812.46037184312 182 182 184
30.7165039215072 730.693403746602 2812.96420433093 193 193 195
15.0628784407325 727.84127021769 2817.65847014705 229 229 231
2.43271874630802 725.729698579561 2819.60811541083 232 232 234
-6.46046363600417 724.540847849758 2818.09567694247 230 230 232
-11.6497883245643 724.272045328212 2813.0974265631 228 228 230
-19.0500602386996 723.451905909601 2810.1990250905 225 225 227
-26.4421901594849 722.632236493431 2807.30623382626 224 224 226
-32.3648198915378 722.179590998092 2803.01050039965 223 223 225
-37.5596532567282 721.909834389875 2798.00825183039 223 223 225
-40.5804637139693 722.188363653388 2790.87937167446 220 220 222
-45.0680152102347 722.099823670799 2785.15543361783 221 221 223
-50.2873846380829 721.82775077689 2780.13538660068 220 220 222
-52.6325382350854 722.284815200005 2772.26187773153 216 216 218
-53.5653727084524 723.104420599514 2762.9439522186 213 213 215
-53.0991122577693 724.285645027309 2752.17201888756 207 207 209
-56.9525595467906 724.371985615323 2745.67360567859 209 209 211
-57.2648720401485 725.365808993792 2735.57106113376 197 197 197
-53.3603911573142 727.44623874468 2721.12034972143 193 193 193
-45.9852978062685 730.428677166274 2703.01435610556 193 193 193
-40.1036119615605 733.041866546991 2686.29425693367 186 188 187
-35.7020516121884 735.286902391376 2670.96939169094 192 194 193
241.755624637095 762.826084763427 2733.90975914302 233 237 238
223.076507597599 759.404103981956 2740.11359401399 235 239 240
200.636012901384 755.071196541527 2749.76188402677 233 237 238
168.355728362554 748.36544548693 2768.32144108107 222 223 227
129.367988012535 740.024701694601 2793.12655180695 214 215 219
106.519081447099 735.535884333817 2803.7130222545 205 206 210
94.3693478206984 733.61057104703 2804.77655095684 193 194 198
79.2331348933337 730.958138199768 2808.6121695462 192 193 197
68.6667089152708 729.403123997645 2808.35527413174 198 198 200
56.6244226190329 727.485887832829 2809.49673460897 152 152 154
46.8620312927519 726.116891734566 2808.58860666171 157 157 159
34.1354446872395 724.022530741444 2810.46814269808 202 202 204
16.9823049955014 720.841558460352 2816.54437524078 234 234 236
2.12032017261787 718.209757936729 2820.57889214219 229 229 231
-8.25085737306175 716.669266184698 2820.46331556523 227 227 229
-13.433563858255 716.397982748766 2815.46985029639 224 224 226
-20.8275735213266 715.583518482344 2812.57601720899 219 219 221
-26.7472614247055 715.131021692213 2808.28241712998 219 219 221
-32.6677611999386 714.678339643777 2803.98822756938 219 219 221
-37.1314176920492 714.586238992011 2798.28159347572 221 221 223
-40.1517552901938 714.853634468944 2791.15299971061 219 219 221
-44.6391102498216 714.759375001756 2785.42917515728 220 220 222
-50.5805974883904 714.304484912302 2781.11976015244 220 220 222
-53.6429720480027 714.568146335562 2773.96067398314 217 217 219
-55.2881818402564 715.189294240839 2765.36036380157 213 213 215
-52.667268588203 716.884406119261 2752.44758284544 207 207 209
-56.5203965167853 716.962378572997 2745.94935876142 209 209 211
-55.4092986980494 718.292308642368 2734.41030391715 197 197 197
-51.5070552657262 720.334101631358 2719.95748034937 193 193 193
-43.4267634619303 723.443022281834 2701.12830416979 191 191 191
-36.1400082495753 726.366297337893 2682.95797267784 184 186 185
-31.0451084862704 728.747678685687 2666.90167243754 190 192 191
241.4478201122 754.738024016314 2734.88098855806 232 236 237
221.231481441269 750.998079225173 2742.43892137048 233 237 238
196.495588485347 746.181035512644 2754.1258858405 232 236 237
164.222819160419 739.568267570851 2772.69165628856 221 222 226
129.81302167048 732.426331215808 2793.41067895862 203 204 208
109.999662144494 728.717269787011 2801.26089638354 198 199 203
100.112273012364 727.35230675666 2800.26217528751 182 183 187
85.7142386159699 724.910836688948 2803.39865270933 173 174 176
72.8698574931594 722.831976043186 2805.19316997559 189 189 191
60.8151146687073 720.935368380142 2806.32599941413 155 155 157
51.7897933100815 719.75809736267 2804.71782923538 142 142 144
37.5554616753684 717.328873399461 2807.97304031167 213 213 213
15.9250613478035 713.114694530652 2818.20889192715 236 236 236
-1.16098029342382 709.97954475902 2824.33399737866 225 225 227
-11.5223530100104 708.455928752157 2824.22590848755 222 222 224
-15.9560580647915 708.360937301291 2818.54097218754 219 219 221
-22.6062273470804 707.730452562694 2814.95226012989 219 219 221
-27.7859244450203 707.456266012016 2809.96066724823 219 219 221
-32.9710475805589 707.181471018711 2804.96543231125 220 220 222
-36.7033634361666 707.26155351744 2798.55479816498 219 219 221
-41.1765197636194 707.162858251085 2792.84124403492 219 219 221
-47.1085124303681 706.708558096389 2788.53871483596 220 220 222
-53.0413377406875 706.254011256833 2784.23558078639 220 220 222
-54.6542136834458 706.861239886085 2775.65893407551 218 218 220
-55.5761286744583 707.643035406728 2766.34843833686 216 216 218
-54.3826295407215 708.952188618499 2754.8690127255 206 206 208
-58.2290219975166 709.02217371337 2748.37592534819 207 207 209
-56.3984770967092 710.501476699855 2736.12383854453 199 199 199
-51.7808419488843 712.681371802708 2720.95557506079 193 193 193
-42.2813885270328 716.087838424292 2700.68631881814 189 189 189
-35.6987215952702 718.783156701968 2683.23946068877 177 179 178
-27.7912608688358 721.823410516808 2664.28464776176 183 185 184
-24.1748022577448 723.803676705232 2649.62463550976 227 229 228
261.435068694514 750.351725076547 2728.350564577 221 225 226
247.30643267713 748.079707327843 2730.44845079024 230 234 235
226.30342921244 744.209369097345 2738.67048966613 230 234 235
200.783926015032 739.278440074367 2751.0241526037 228 232 233
165.437958983972 732.04651354166 2772.29910680576 217 218 222
133.306179574394 725.537172830771 2790.96760773165 194 195 197
113.481212870094 721.876041531912 2798.80965364085 207 208 210
103.584218924641 720.523802506799 2797.80403426027 179 180 182
91.4421211637855 718.642153229126 2798.87331953131 163 164 166
77.0742814460448 716.232712814023 2802.0321424336 179 179 181
65.7584265971827 714.53341419787 2802.46627583729 155 155 157
53.7236782249133 712.659863979715 2803.6134219944 141 141 143
37.2430716085064 709.731136640019 2808.94313468012 218 218 218
12.6333347774321 704.869398180671 2821.95665713587 234 234 234
-2.95952068152516 702.127526405815 2826.69582941224 222 222 224
-14.0553708421822 700.444676515219 2827.28953222559 220 220 222
-18.4799948601997 700.344655451439 2821.61115348694 220 220 222
-26.5929527311006 699.366509808256 2819.43034705133 220 220 222
-30.2924509960167 699.440856891789 2813.04347402591 220 220 222
-35.4686930884522 699.163764299352 2808.05466550882 221 221 223
-36.2754489456472 699.935900819272 2798.82789663617 219 219 221
-41.4754409521727 699.656704987482 2793.82186064619 219 219 221
-45.231155036052 699.726169371758 2787.39421084205 220 220 222
-50.4460332282584 699.445498745745 2782.37737606826 219 219 221
-53.50508336986 699.687074938679 2775.22029349745 217 217 219
-55.1464340176919 700.275288044538 2766.62261407079 215 215 217
-56.0993092115989 701.035109318093 2757.28985779347 206 206 208
-57.7976256829336 701.618538683879 2748.65115287207 206 206 208
-56.6769377105349 702.894091762848 2737.11848022766 199 199 199
-51.345662791112 705.206529878917 2721.23318417146 192 192 192
-41.1358687824235 708.726124350188 2700.24440536529 189 189 189
-33.8478515497769 711.545188942639 2682.07446089224 176 178 177
-25.9418330451306 714.53039148336 2663.11832362232 181 183 182
-22.3277950113523 716.471926817227 2648.45636046276 212 214 213
261.126901050484 742.224024763261 2729.32132997702 221 225 226
246.999170781142 739.979163852063 2731.41971586405 230 234 235
228.301581504217 736.686107361918 2737.61081284285 229 233 234
201.240679509084 731.472393630348 2751.31572379497 226 230 231
165.888658046989 724.34345290912 2772.58681065421 213 214 218
138.324986258357 718.9748584246 2787.16179965806 193 194 196
118.484022880233 715.361451017126 2794.99249096793 201 202 204
106.299465675662 713.498149030006 2796.03138389176 196 197 199
95.6607243116672 711.986087172152 2795.72228307285 146 147 149
82.7872612828551 709.953611162493 2797.49565871511 148 148 150
70.7035488692505 708.097970905665 2798.60769498822 152 152 152
56.4070724518682 705.72363556864 2801.81813400703 137 137 137
39.9176243457502 702.832218908045 2807.14162629411 226 226 226
13.8078650824847 697.690789198364 2821.53670152079 225 225 225
-3.27411048502757 694.637389285781 2827.66487415804 218 218 220
-15.1093559517674 692.800354155343 2828.95712366212 221 221 223
-20.2674027295333 692.522096500069 2823.98120493864 222 222 224
-27.6384386291484 691.725026756648 2821.10411412934 222 222 224
-29.8657680761552 692.13652258041 2813.31578768708 222 222 224
-35.0419397568005 691.856418629446 2808.32701495987 220 220 222
-36.5768849001737 692.437061193917 2799.80643280791 219 219 221
-42.5016824267019 691.982955591023 2795.50912050508 219 219 221
-46.9776346020279 691.872424016132 2789.79377412902 219 219 221
