ply
format ascii 1.0
comment KinectMotionCapture
element vertex 777
property float x
property float y
property float z
property uchar red
property uchar green
property uchar blue
end_header
345.255091979717 473.344607635646 1810.72574442203 137 139 134
331.357804728063 472.092319702394 1811.7611743191 141 143 140
321.259715181586 471.235810076949 1808.14191967746 179 179 179
312.423269776739 470.510678568875 1802.96755551956 134 134 136
302.346166105264 469.655316403056 1799.36351979868 138 139 141
296.621854739885 469.255357196014 1790.27137746101 180 182 181
291.497189961706 468.91842935101 1780.37891989154 159 161 160
286.349700315004 468.579379012361 1770.47019981395 146 146 146
276.886241262148 467.787315919915 1766.075997689 151 151 149
257.041711587394 465.903581153573 1775.14819595349 157 157 155
226.320484592684 462.87325068655 1798.56196818795 168 168 166
204.863496116469 460.814014559426 1810.16977607131 187 187 185
189.548650806731 459.399370735377 1813.88216987991 158 158 158
170.673225580432 457.607596829242 1822.42202733446 208 208 210
153.077402087876 455.948651228132 1829.42009493701 210 209 214
136.748050151221 454.421459882833 1834.86655442413 230 229 234
124.054197673396 453.276885435871 1835.53988883216 219 220 222
110.80245546343 452.072103986727 1837.04323425925 209 210 212
97.5903752598848 450.87026217768 1838.5756408881 187 188 190
87.3630096853484 449.983573573049 1836.09755506156 180 181 183
75.9797798225708 448.973538504524 1835.25130150636 171 172 174
67.5458432525349 448.275816989055 1830.3688634298 164 165 167
56.2047320575227 447.268581628234 1829.55315677679 170 171 173
44.8902702759719 446.263251255892 1828.75677850148 181 182 184
31.2910260345567 445.013624572651 1831.24331624618 175 176 178
20.6144503697696 444.074135030003 1829.67465209766 175 176 178
11.6806467716413 443.319797160308 1825.66459960094 181 179 182
2.18455577461318 442.504886873224 1822.48195726393 182 180 183
-8.43608288365694 441.569122310425 1820.95386191294 182 180 183
-15.6334560371867 440.998805419891 1814.49811264069 182 180 183
-26.2225726189096 440.065071738454 1812.99287860252 179 177 180
-36.7890857361803 439.132875048219 1811.50374360626 157 155 158
-47.8933383440809 438.142154338747 1810.85982444783 145 143 146
-54.5073739743045 437.632746833486 1803.59251536113 158 156 159
-60.0183148352618 437.241892691774 1794.6548014976 143 141 144
-64.43983714927 436.968485190303 1784.0376464971 141 139 142
-69.9898528540239 436.573897984223 1775.07158753669 147 145 148
-73.9101026515221 436.355238792936 1763.58276188586 145 143 146
-78.4076704154788 436.074809054192 1752.91014986977 176 176 178
-81.2975943162531 435.968500262006 1739.69872526824 176 176 178
-83.6843544392696 435.917391712332 1725.61700332114 149 149 147
-82.8737616591426 436.213335201444 1706.44405988618 170 170 168
-84.8231917175049 436.211779974294 1691.44428772717 174 175 170
-125.324176475842 432.869599780296 1664.53769847587 162 162 160
-135.830314959671 431.937808744971 1663.09262687159 123 123 121
-148.925689105318 430.722518954858 1665.94460472496 141 141 141
-155.732985615807 430.19287440275 1658.53679972011 150 150 150
-163.584389582851 429.548981744324 1652.84188798389 124 124 126
-171.950670895052 428.848451604895 1648.00848042132 133 133 135
-181.338815605395 428.035460439998 1644.90410037196 140 140 142
-186.110237349975 427.72852898407 1634.03283152455 149 149 149
-190.907374345182 427.419270753219 1623.14320383463 148 148 148
344.562166053247 463.043064830377 1812.64161602037 136 141 134
333.183951409602 462.067186603866 1810.56384000947 181 186 182
322.45401103889 461.155526331174 1807.72130050128 148 150 149
312.365726581767 460.307517979476 1804.1091968388 201 202 204
302.290176958894 459.460317252069 1800.50632902021 193 197 198
295.328109231053 458.924895914791 1792.98659227339 122 126 127
289.592728625218 458.512543868977 1783.88606835789 127 131 132
284.454674317058 458.160337589035 1773.98412152113 165 167 166
277.453586940875 457.620968197108 1766.4357841238 138 140 139
260.662325243883 456.096560019905 1771.54770394233 158 158 156
226.269655650356 452.798526021293 1799.70942184252 165 163 164
199.956504147362 450.310418980908 1817.67560318402 190 188 189
185.868908429621 449.05204325452 1819.80808020597 203 203 205
165.801137311054 447.189096073181 1829.95358790604 212 211 216
151.223719160009 445.878487409723 1832.96575425183 229 230 234
134.302798137838 444.32979877565 1839.21859490237 226 227 231
122.810195931122 443.328453073224 1838.29309901429 150 152 151
110.15703111196 442.20883649096 1838.99576071389 127 129 128
99.3132423046808 441.271488148021 1837.30559655844 130 132 131
90.2587596583602 440.514777585078 1833.20834370313 129 131 130
77.6916762011868 439.401338370014 1833.97373338571 129 131 130
67.498881768596 438.52787570918 1831.52077590976 124 126 125
56.1588544111431 437.537277188098 1830.70593922261 124 126 125
45.425819744894 436.607541993951 1829.0961016697 125 127 126
34.1369083767127 435.620561679678 1828.31833838098 122 124 123
24.0263837718917 434.752718275627 1825.92504852155 125 127 126
12.7864985341382 433.769156994383 1825.18284263911 121 119 122
-0.140735251532131 432.612675364949 1826.92197027346 133 131 134
-11.3203812568243 431.633501246867 1826.22345531805 130 128 131
-16.2368082271795 431.293249577096 1816.48193694366 150 148 151
-26.2576471643201 430.431372284349 1814.15369235825 159 157 160
-36.26047248863 429.570715319874 1811.83851240641 196 194 197
-46.8056100461478 428.653867300654 1810.36524523065 201 199 202
-52.8636137904663 428.196131440432 1802.2659461452 188 186 189
-58.9345409650084 427.737064855113 1794.157271849 193 191 194
-63.3574638954426 427.447193596259 1783.53872364256 180 178 181
-67.8065691556664 427.15493242953 1772.90118320115 169 167 170
-72.8310815054998 426.803814091556 1763.08155086373 156 154 157
-79.5180792093395 426.281824050866 1755.76099180274 161 163 162
-83.4896775670229 426.039424018119 1744.23482223275 174 176 175
-86.4065680289827 425.906096720147 1731.00341766445 174 176 173
-85.0401934717477 426.215286677903 1710.99840276746 157 159 156
-86.9772358345806 426.184724083484 1696.00775826229 161 163 160
-121.099723201401 423.509764551798 1658.90684003969 156 157 152
-132.67191743107 422.48178687817 1659.15854792861 161 162 157
-144.212249365644 421.456136494568 1659.43336526339 113 115 114
-149.476134483582 421.082235831305 1649.44009110094 141 143 142
-157.352087577292 420.436697946777 1643.72737484549 120 121 123
-166.259001303482 419.683492939828 1639.73682112897 128 129 131
-177.724948680277 418.663002249646 1640.065587552 136 137 139
-183.532059079599 418.232169024208 1630.91326604462 146 148 147
-190.374626389115 417.693299850133 1623.48014023733 144 146 145
336.268793009609 452.150634834932 1807.80943723557 190 195 191
324.902279941094 451.188952757526 1805.7402158525 201 205 204
314.806702792116 450.348389159601 1802.1228632712 216 220 223
305.346313394995 449.568205273935 1797.73124105275 213 217 220
297.755227315522 448.966899761192 1790.99021839177 186 192 192
290.159310485846 448.364968506125 1784.24539617035 172 176 175
281.942459210411 447.703210199821 1778.28547338821 168 170 169
273.725186178902 447.041208623218 1772.32524363388 161 163 160
258.170055031627 445.673713320524 1775.86368792746 160 160 158
228.65546941539 442.962795128624 1797.68372487592 170 169 167
198.688790385133 440.205732469604 1820.41083255878 219 219 219
182.791729249927 438.80046453559 1824.93624981033 230 230 230
162.131475069036 436.935173173278 1835.88727864977 177 177 179
150.569413070101 435.945152760606 1834.91148724079 208 209 211
134.846774402351 434.553193514212 1839.56341447248 216 217 219
122.161292445584 433.453168646689 1840.24274802525 206 208 207
109.510996319865 432.355750671047 1840.94789621928 200 202 201
97.4876489067493 431.318064467132 1840.87250436181 183 185 184
88.4416643240722 430.567498542831 1836.78114858098 179 181 180
75.8820264043449 429.476618351418 1837.55204995845 184 186 185
64.5275667787044 428.501608795821 1836.72682997327 178 180 179
54.9477198906323 427.697796261764 1833.48323293869 175 177 176
46.5417824080201 427.007312079668 1828.62142313367 177 179 178
36.4059404433679 426.148724204149 1826.20982706088 171 173 172
24.560052511819 425.123651754776 1826.26314325992 172 174 173
11.0241118684309 423.933699472229 1828.7958733964 182 182 182
-2.46731570951764 422.747144141052 1831.3608892102 176 176 176
-13.0677300016659 421.840679363892 1829.84760334301 179 179 179
-18.5419132539675 421.432336164133 1820.93674174594 198 198 198
-27.9875223999606 420.637411902391 1817.79050153622 212 212 212
-35.7317123677101 420.007760948405 1812.17338365318 214 214 214
-44.596492058214 419.26861402572 1808.2137394823 213 213 213
-50.6609204593649 418.802247473732 1800.10973930985 175 175 175
-58.4062659587394 418.171741175154 1794.49177942479 200 200 200
-64.4898471002968 417.703330151121 1786.37388466642 170 170 170
-69.483268387714 417.341422601106 1776.57673625418 192 192 192
-75.0475410092895 416.923784317498 1767.60022539226 182 182 182
-81.1764157829025 416.450937692918 1759.44976832323 177 179 178
-84.0483951439872 416.297007641965 1746.25081641339 166 168 167
-86.4170726871774 416.192832815603 1732.18193412316 189 191 188
-84.5055325078661 416.508872553768 1711.33682500929 178 180 177
-90.7472328538346 416.025859796326 1703.10423230456 166 168 165
-117.400043718768 414.05898877538 1654.13013788 155 156 150
-127.41185443488 413.204578984385 1651.80847586905 165 166 161
-137.927961624999 412.299910606279 1650.35631511844 159 161 160
-145.297780769745 411.705163922048 1643.77572680228 139 141 140
-153.189421737498 411.058653863842 1638.05163314789 118 119 121
-162.628440170917 410.259021003537 1634.91014683639 130 131 133
-173.081188954041 409.358634013625 1633.50393763323 142 143 145
-181.975784443828 408.61187396676 1629.52264079118 143 145 144
-190.860406759742 407.865702396473 1625.54828221943 142 144 143
338.096149274888 442.096519424132 1806.61283297788 194 198 197
326.097028496159 441.090583795785 1805.32012771843 182 186 187
314.123848112789 440.086495717543 1804.04623656337 169 173 176
305.290203308304 439.368849962878 1798.87394053725 155 159 162
297.70127949523 438.764747363022 1792.13447118153 171 177 175
290.725756364877 438.216575585742 1784.60462126576 175 179 178
279.428492901938 437.272716531312 1782.58598515379 165 167 164
269.380640940753 436.442755321007 1779.00328328281 165 167 164
255.064471990537 435.221454233704 1780.97025048089 141 141 139
234.698447123917 433.444975782335 1790.89998565512 171 170 168
198.634481282788 430.228038189145 1821.55596037209 134 134 132
182.737455130942 428.858410274936 1826.08158350755 83 83 83
165.089595203662 427.327208294094 1833.04257583467 105 105 105
152.917091094995 426.297676951793 1832.85909841142 162 163 165
134.194222292255 424.665933592527 1841.51035785939 179 180 182
119.127354923056 423.369000141216 1845.40311239544 206 208 207
106.489091856597 422.29447259937 1846.11680507847 200 202 201
92.7028617145944 421.113742584878 1848.46814172857 198 200 199
82.4973046706185 420.261749914986 1846.00633559002 203 205 204
69.3736300253853 419.140678899984 1847.60294393773 196 198 197
58.6296187222581 418.238084683538 1845.98558113793 207 209 208
50.2389611007223 417.551859980839 1841.13457512837 214 216 215
45.3359466626409 417.186791354301 1831.40294855911 220 222 221
36.3626688573002 416.446372236645 1827.36435086838 221 223 222
25.0938032835895 415.493815209823 1826.6012935646 221 223 222
11.5561367726382 414.33130981942 1829.13291160677 221 221 221
-1.36536739521653 413.224954399307 1830.87644666248 213 213 213
-11.9688208917887 412.332093619442 1829.36073204106 217 217 217
-20.2810834556917 411.650527450343 1824.56687435522 194 194 194
-30.283591262031 410.812359882878 1822.25203849216 196 196 196
-38.0168957318092 410.183725199211 1816.64281688652 193 193 193
-44.6286459883765 409.658645429347 1809.37679065583 226 226 226
-49.015607020328 409.339480991363 1798.78445809836 203 203 203
-56.7656084661297 408.708776740645 1793.16312201571 157 157 157
-64.5151866455107 408.077852868014 1787.54209165549 174 174 174
-69.5056836888044 407.702595074006 1777.74670099158 169 169 169
-75.6169450519699 407.223383341797 1769.60868554212 194 194 194
-82.8356070504126 406.64124053506 1763.13773810829 185 187 184
-86.7877573904332 406.362344262402 1751.6254819607 174 176 173
-89.1418203864105 406.232080325715 1737.56706192115 140 142 139
-89.9177025629458 406.248806202592 1720.94803900542 163 165 162
-97.2114963129596 405.659625562619 1714.42229683645 156 158 153
-113.698233519267 404.574615419252 1649.35481014407 147 148 142
-124.249361953936 403.681403637555 1647.87731977582 146 147 142
-133.208593423162 402.936297407793 1643.84888083276 153 155 154
-141.637633919148 402.240386866958 1638.97029567472 117 119 118
-149.542777091067 401.593171314433 1633.23641041091 124 125 127
-158.995842584586 400.800999017413 1630.08507335201 133 134 136
-168.434669521422 400.009771098925 1626.94406291018 134 135 137
-178.371065299134 399.171582399713 1624.67715296054 140 142 141
-188.28874663674 398.334730547414 1622.42381627932 142 144 143
328.546492469935 431.095071542078 1803.33976282241 201 205 206
315.94057507155 430.052235382292 1802.84202746442 177 181 184
307.724956598783 429.39092047369 1796.88300061314 181 185 188
301.370660947529 428.891288392014 1788.56870098855 156 162 160
294.384035044725 428.33652199037 1781.03106351003 171 175 174
283.074884087565 427.405251404006 1779.00357918585 173 175 172
269.331449610643 426.26164467569 1780.15109073444 163 165 160
256.239210758756 425.174277788704 1780.5359161255 162 163 158
237.696345704584 423.611534076344 1788.08297699989 61 60 56
208.296890925083 421.101934093895 1809.98719998831 58 57 53
182.682827480644 418.921091943566 1827.22668491079 60 60 58
169.254702827859 417.801744335413 1828.60289415716 22 22 20
155.866255624217 416.685401939784 1830.00788165517 22 24 23
139.525347661346 415.310980328022 1835.44673774109 11 13 12
122.053838334818 413.837259490943 1842.53586153553 36 38 37
109.405301747578 412.783855531423 1843.2422137192 38 40 39
92.0577183322586 411.319696124692 1850.42122248192 47 49 48
79.4976815761563 410.272983687951 1851.19176397575 49 51 50
65.2108558593527 409.074989703321 1854.41545187125 22 24 23
52.7283613556051 408.034110975183 1855.24223494753 21 23 22
49.0250477245322 407.760183386043 1843.91039100806 34 36 35
44.1292590001341 407.381973981356 1834.18393595222 36 38 37
32.8482410912168 406.445225069501 1833.4118547555 34 36 35
23.8988243168254 405.712051583433 1829.3908856129 28 30 29
14.9584065847512 404.979383080847 1825.37644262597 46 48 45
5.45523889506327 404.197161871845 1822.18883582006 43 45 42
-8.59123619231061 403.016806423925 1825.58655388181 53 55 52
-22.0213454005218 401.889914027349 1828.19632289495 29 31 28
-35.4068422431446 400.766426626563 1830.83844961097 26 28 25
-41.4292828885874 400.287689183837 1822.76482459769 22 24 21
-44.1002567524564 400.102591294619 1809.71142799121 16 18 15
-45.6938366148407 400.011984776944 1794.96946264815 66 68 65
-55.1240299848612 399.234136898427 1791.8347786357 132 134 131
-64.540507555535 398.457176113312 1788.7100419922 192 194 191
-72.8394567716904 397.777992479412 1783.92555302726 200 202 199
-77.2859631587639 397.436727882627 1773.28964835242 158 160 157
-83.40088211898 396.948915453954 1765.14893786858 139 141 138
-84.6217126444497 396.890841454508 1749.44231462915 145 147 144
-88.067019969319 396.637452088397 1737.0622778911 152 154 149
-90.465721531511 396.476044967172 1722.97134065589 147 149 144
-117.933267629829 394.407733690097 1638.82243754767 145 146 141
-129.009710382821 393.4821163826 1638.19900810812 123 125 124
-141.100448886786 392.466711517213 1639.31020697629 124 126 125
-149.524407775412 391.774129731814 1634.43502796766 129 130 132
-157.943011782219 391.081787584162 1629.56373204094 130 131 133
-165.327888129371 390.480369475477 1622.97219464534 133 134 136
-172.716270022066 389.878503083016 1616.37811373431 141 143 142
-182.656894835187 389.051158814167 1614.10819299583 144 146 145
351.196518979296 422.73279990152 1792.5443211556 116 120 119
331.624096432617 421.134215907036 1800.57988892294 185 189 190
319.008076292012 420.109589717601 1800.07492210859 185 188 193
309.537399667206 419.344404562792 1795.67591843078 166 170 173
301.937498467477 418.733442868251 1788.92816211352 151 157 153
293.713961908522 418.070799452488 1782.96338854343 148 153 149
282.408182560063 417.153374208456 1780.93871297677 166 168 163
270.510012270998 416.186743223319 1779.71938796743 151 153 148
254.966716613168 414.918728856094 1783.26662147341 55 56 50
240.695535481219 413.75549889943 1785.26649544277 74 73 68
214.318813962642 411.591814157765 1803.18853126325 83 82 77
191.101315286211 409.688703986102 1817.22600842767 48 49 43
86.5213994772205 401.145279450085 1842.65088700209 73 75 72
68.0957963244722 399.635354227749 1851.51855217361 47 49 46
22.2416594136532 395.857143538975 1898.54174833057 40 42 39
20.9890491185099 395.766423292645 1884.04695852741 70 72 69
24.1240176742239 396.051056953469 1846.796888958 83 85 82
11.4720063276672 395.029451575099 1831.44452366992 74 79 73
16.283255548402 395.43965592163 1807.76151149153 72 77 70
0.485712501899549 394.144860241727 1813.59466772234 62 67 61
-23.1952083616438 392.19752014575 1831.00167506176 53 58 52
-51.6009905699253 389.870214174932 1838.80583287673 26 31 24
-45.8153749090398 390.360230667132 1813.35949073067 23 28 22
-33.9904001550098 391.34999348622 1778.70715936192 30 35 29
-45.6913624060378 390.39267145997 1778.86587844889 27 32 25
-62.9032223335169 388.978962303194 1787.37856823408 22 27 20
-70.6549805071266 388.347996250302 1781.75595733587 26 31 25
-77.8564623541755 387.762376106489 1775.29744654703 14 19 13
-69.1819109947935 388.490862870923 1744.53575471145 0 1 0
-78.6369984118349 387.718346786239 1741.38305147963 13 15 10
-86.9918509679524 387.036710455928 1736.55802456712 0 1 0
-93.7188547098482 386.489643115542 1729.2083372539 40 42 37
-114.766242344261 384.812038096458 1634.8942000519 152 153 148
-124.80837380815 383.988957114238 1632.5507165704 116 118 117
-137.436964070181 382.951377823821 1634.50693953219 121 123 122
-147.949613159661 382.088874582459 1633.05720473024 125 126 128
-157.922814987525 381.270865269477 1630.76400997896 128 129 131
-165.305400548919 380.667292372816 1624.17382783139 138 139 141
-171.155180796609 380.190539497144 1614.99034144822 138 140 139
-179.571206526174 379.500975202756 1610.12092864008 144 146 145
364.993563141384 413.538076125551 1776.56168927124 30 34 33
334.702748523918 411.150772404236 1797.82066042226 207 211 214
323.32741813325 410.242085715261 1795.74531560628 173 176 181
313.219865114373 409.432350583951 1792.11943761358 175 179 182
303.745947776018 408.671966183542 1787.71810899012 137 143 139
292.424358380925 407.767005804485 1785.68174104322 127 132 128
282.357318374271 406.95992536892 1782.08524524423 114 116 111
271.688770502553 406.105704001431 1779.28779588514 135 137 132
255.529258068984 404.822385087904 1783.62327980832 68 69 63
228.44965152542 402.686156239206 1802.27095497259 93 92 87
210.621590604603 401.272554095297 1809.10191142018 74 73 68
195.891246875519 400.100798222704 1812.00392206762 37 38 32
74.2337164775932 390.495108501439 1892.97551350492 56 58 55
72.1573481560389 390.264840685715 1847.00458554644 36 38 35
7.4342229390636 385.147271761766 1887.75327401184 43 45 42
7.29203463480133 385.112305700153 1871.59336747796 61 63 60
-21.7361931580335 382.825641683609 1896.23849225846 56 58 55
-4.11068904792411 384.124586333735 1821.32809657787 51 56 49
-32.8852088260769 381.857718339746 1846.15694550634 55 60 53
-42.2691985819388 381.101222958781 1843.05586363443 49 54 47
-42.0642246430969 381.091175336583 1825.912712007 54 59 52
-27.3101894651664 382.186336174478 1769.91708457063 24 29 22
-39.5933331250589 381.203024487798 1770.88867291639 29 34 27
-79.5272257174746 378.012829530851 1778.97733214745 19 24 17
-69.1962173305529 378.787840349056 1745.71127265056 21 23 18
-69.3758930741946 378.744944050062 1728.28911387444 23 25 20
-85.9161389908434 377.429889069493 1736.05413406269 14 16 11
-89.3986873512584 377.129705483596 1723.64686348126 0 1 0
-118.941804128288 374.650510204719 1661.45871650162 143 144 138
-115.276410591564 374.902866677438 1636.94454403053 142 143 138
-124.268120514347 374.172634268579 1632.8926361022 134 136 135
-134.292479333388 373.362195034147 1630.56210042318 118 120 119
-144.817217164763 372.512822368637 1629.10396322023 127 128 130
-153.768764403485 371.785331185089 1625.08147844055 127 128 130
-162.195961249522 371.098371854825 1620.20398064633 127 128 130
-167.543970594297 370.64985153834 1610.14905059627 136 138 137
-176.483742265708 369.922806484639 1606.13510443638 142 144 143
338.410273417338 401.191086473633 1794.28210446721 205 209 210
329.524851358268 400.479517542547 1789.0725992616 181 184 189
316.903588123323 399.492284439014 1788.56402101963 193 197 200
306.176041659014 398.644669301926 1785.72354130652 181 187 185
291.752498945579 397.524628234198 1787.61318387414 185 189 188
282.922651986226 396.816759542052 1782.44369050976 91 93 88
275.325536067508 396.199491896949 1775.69821583828 53 55 50
260.377131497269 395.040853665117 1778.44221597175 62 63 57
232.667185949215 392.943245073746 1797.86817718798 64 64 56
204.491077400331 390.812167979078 1818.19107400113 64 65 57
187.36096630299 389.494230473752 1824.2934371018 16 17 9
91.4594940807119 382.21496141461 1886.89388490524 33 35 30
74.7652072687961 380.931314891997 1893.31236002195 26 28 23
84.1963097228162 381.564869935492 1864.33366400179 27 29 24
74.0277020834013 380.759742053324 1861.89858617751 32 34 29
73.8695297815286 380.688471233943 1845.72690861189 27 29 24
47.8875021573861 378.724038125893 1865.17111233764 24 26 21
9.2088825483887 375.830361022702 1902.57915147535 30 32 27
10.8651713070325 375.891958982377 1884.01808409696 30 32 27
-8.39121172414559 374.422064712462 1894.75377522795 26 28 23
-7.95037505461815 374.393859397139 1877.78151355525 27 29 24
-0.677463160454028 374.864653513081 1850.94287908861 23 28 21
-3.24852380578999 374.614687574524 1837.96158313704 24 29 22
-18.9708000544024 373.403208225786 1843.84972388957 25 30 23
-35.1986955437933 372.155119144525 1850.60647613471 24 29 22
-34.9565425880651 372.109877267511 1833.49009810421 24 29 22
-44.9175396042691 371.319342704046 1831.20559556937 24 29 22
-39.7083207393987 371.63535983726 1806.5755663731 18 23 16
-35.1596953903908 371.902172363061 1782.70144623757 19 24 17
-12.8921604345336 373.459309537698 1732.15485513747 20 25 18
-7.49971573115182 373.784982529005 1706.42236806438 21 26 19
-135.952507929237 364.035465464975 1797.2888181493 18 21 14
-105.733388249621 365.805205209282 1641.34603540007 149 150 145
-110.529498319806 365.384552789237 1630.45629343946 106 107 102
-118.492441285864 364.734417251334 1624.68049308107 110 112 111
-128.018420217437 363.971138925028 1621.47644586854 93 95 94
-138.049317406626 363.171327167183 1619.14122421573 113 114 116
-148.061550777021 362.372892963221 1616.81953934106 118 119 121
-157.540512441292 361.612930673443 1613.64959274536 125 126 128
-164.955512800244 361.001828246257 1607.03616875775 137 139 138
-174.414789686527 360.243146987997 1603.88049856639 139 141 140
346.514176039612 391.508499528013 1785.28642923074 197 201 202
332.596730991944 390.450049993412 1786.30793366397 142 146 149
317.471476294065 389.308102327414 1788.92411038377 119 123 126
307.364394922107 388.514267387699 1785.29865483559 129 135 133
296.032113532213 387.635519722059 1783.25466880604 98 102 101
287.805432721528 386.971800109381 1777.28761044963 91 93 88
281.422033579321 386.435382946861 1768.95202675966 89 91 86
268.90124968564 385.474377230598 1768.51642098339 57 58 52
233.22556284625 382.913984825296 1798.22215633662 63 63 55
205.044282468315 380.873149994352 1818.54176107537 60 61 53
208.505932460422 381.017068139691 1797.58445118678 24 25 17
204.641068861702 380.654641570788 1786.13504796334 27 28 22
157.453230430966 377.306329855412 1832.19388742599 30 33 26
96.7752761384291 373.032348601589 1896.87666911912 27 29 24
89.009147202908 372.404236128287 1891.24365500285 30 32 27
79.4004285538814 371.554588808793 1871.92253643972 22 24 19
79.2840860605884 371.451069484644 1855.78101885 30 32 27
66.7628358578902 370.495232983899 1856.58013784867 19 21 16
71.263516743616 370.707204701374 1833.90631507525 25 27 22
28.4055120471463 367.671742983338 1876.92975596197 29 31 26
5.45070707407458 365.906182322132 1876.33703913205 27 29 24
-2.81048095608294 365.24367188731 1871.58000850974 28 30 25
1.00054510857905 365.406168273105 1849.64102626545 24 27 20
-12.4500135519081 364.388384276203 1852.23652368978 25 28 21
-7.60920629511097 364.619402185394 1828.57432562492 26 29 22
-8.54561680420063 364.454983789039 1813.07305139282 27 30 23
-24.2452928472967 363.28358628667 1818.97777853909 25 28 21
-37.0648483230127 362.308995249542 1820.79588579 19 22 15
-40.8626272038182 361.948627765381 1809.3951241399 25 28 21
-37.9815752780917 362.041791939834 1788.01666924355 23 26 19
-78.6232868160883 359.176761940772 1831.41257497994 21 24 17
-64.840840567824 359.693418632121 1741.3610524746 17 20 11
-148.966193531465 353.68487083632 1818.68046899721 17 20 13
-105.779974527128 355.821891935599 1623.97000584654 102 103 98
-114.808054610257 355.100407989965 1619.89177672548 100 102 101
-123.82654015204 354.379547372066 1615.8208005265 94 96 95
-133.873640443064 353.589789243111 1613.473883823 131 132 134
-142.351117411838 352.905149250391 1608.55994864268 124 125 127
-152.367697328247 352.117590187407 1606.23546242579 132 133 135
-159.8024550767 351.5025020163 1599.60740121928 137 139 138
-170.813436569083 350.648712539174 1599.03178986668 142 144 143
353.993727390396 381.718762162878 1777.07234784742 0 4 3
335.043749687709 380.357435176672 1784.32530429011 191 195 196
318.662937095243 379.16387959955 1788.50111215136 186 190 191
309.174376596965 378.418118646977 1784.08924245942 169 175 175
299.075034665757 377.632752064019 1780.4694402909 184 188 189
292.073287628063 377.047976208445 1772.92039469817 75 77 74
283.832712566556 376.382772543606 1766.9432565858 72 74 69
274.979063690126 375.677750558368 1761.75681759993 43 44 39
247.210417429248 373.751187308392 1781.14079731805 42 41 36
210.461964111265 371.247414948639 1812.53951588409 35 34 29
196.338648075754 370.20522604846 1814.64719351427 26 27 21
196.143172439363 370.060495284852 1798.44810187626 29 30 24
153.790054363566 367.202396497649 1838.13303986272 32 34 29
147.64194675185 366.675377011037 1829.96807162565 36 38 33
124.167641291468 365.035422213769 1845.05604811192 35 38 31
84.0826441799507 362.200673568288 1866.62354968728 32 35 28
57.9780041857609 360.39725405965 1885.97939017791 42 45 38
89.0579139484853 362.253517003168 1827.00097531321 30 33 26
89.9643076684073 362.176670081831 1809.13062839628 32 35 28
69.791591820203 360.75302074009 1820.43761565859 32 35 28
-13.0854324961578 355.332499089946 1919.66204580812 31 34 27
42.1463389356753 358.582596473712 1809.03183359532 30 33 26
-4.21846679002957 355.49776680509 1858.15871487714 34 35 29
-13.0678691236898 354.800095611357 1854.21042816315 31 32 26
-29.3228620118478 353.632725395708 1860.94765130559 27 28 22
-19.9444515192257 354.090463093492 1830.69483057939 28 29 23
-26.545027255823 353.534380809478 1823.43704243987 30 31 25
-33.7177284840955 352.941821567024 1816.99906571087 29 30 24
-40.3332292326628 352.384201599608 1809.73045032299 25 26 20
-46.9571224337584 351.82575696798 1802.45545241306 27 28 22
-98.1543880076878 348.45872468454 1861.6643318385 28 29 23
-90.1919148793513 348.820832501536 1832.85465677353 28 29 23
-50.8536189747597 351.152644453439 1756.39786819833 28 29 23
-59.7773328890394 350.447355045874 1752.39567284591 27 28 22
-96.1011593101331 348.023929675904 1790.27809710785 22 25 16
-101.027634867174 346.214939697917 1617.48524071428 146 147 142
-110.597758051922 345.465418369177 1614.24926207243 113 115 114
-120.153768408001 344.716928317295 1611.0235193449 132 134 133
-131.773084333847 343.841311061652 1611.24183944618 124 125 127
-139.740327931716 343.191110907731 1605.46292114072 127 128 130
-149.251441899436 342.445809885392 1602.2697409163 125 126 128
-156.184709848557 341.858974621632 1594.77062132202 131 133 132
-167.720512960274 340.989607544888 1595.04951330291 143 145 144
333.10958038817 369.982385873897 1787.81136748839 197 201 202
318.606809274596 368.938141379861 1789.64395962252 173 177 178
308.498565147536 368.160245990417 1786.01774190532 196 201 204
299.641759216637 367.457989888803 1780.82873383601 170 174 175
291.40595345065 366.793120314252 1774.85505477997 82 84 83
283.169675719908 366.128040741823 1768.88103252293 153 155 152
269.418920574422 365.131146802046 1770.02398029184 71 72 67
230.068889603908 362.597148291803 1804.47675311252 35 34 29
207.366953400769 361.066507039366 1817.65482251578 31 32 26
190.225147194414 359.871060289948 1823.74932802217 27 28 22
128.467908135601 355.841996345546 1872.82933625113 28 30 25
101.346354025128 353.724174560985 1860.56842441819 27 30 23
73.3568064414385 351.89183162361 1882.26311303302 28 31 24
44.9274280697693 350.03647560251 1904.8741734636 33 36 29
88.7488111701327 352.29607099116 1811.90484622701 34 37 30
51.6484738785312 349.92952688412 1846.75428156675 33 36 29
27.1005460054674 347.965491926074 1831.41938428399 30 33 26
21.6071468842824 347.468724519343 1822.49414480743 26 27 21
-22.8499346944202 344.684432404599 1869.30009395361 26 27 21
-47.0547803176256 343.093328318724 1887.56413808846 26 27 21
-48.3987154350844 342.842825674676 1873.00233564328 26 27 21
-44.1302479450156 342.919019172791 1850.15919420319 26 27 21
-49.5404687443792 342.428265744 1841.29428292922 23 24 18
-67.3244019335415 341.216183680293 1850.62861698557 28 29 23
-51.9305283939029 341.575870274678 1776.56607488729 22 23 17
-45.3440966831129 341.774958460369 1749.22842004142 21 22 16
-61.9959981558029 340.628289797688 1756.91335164414 20 21 15
-76.9314033191253 339.582208071995 1762.13771318143 23 26 17
-87.0469559198506 338.629689105246 1742.44865880517 18 21 12
-100.262466045351 337.684170932374 1745.21491396934 21 24 15
-106.796235483392 335.967059245104 1628.07316894321 146 147 142
-109.528840610189 335.613739153323 1613.73920581113 86 88 87
-117.000676802436 334.991497910003 1607.08452389472 102 104 103
-128.112641917568 334.16382516073 1606.43554516825 122 123 125
-138.162648171575 333.396455008793 1604.0869297467 124 125 127
-149.224047279907 332.572639694738 1603.47462693636 118 119 121
-156.154914999036 331.980898248154 1595.97722246924 132 134 133
336.809302904644 359.945438952785 1784.26676408164 227 227 225
322.917683387441 358.962449869623 1785.30766669213 210 209 207
312.795575942078 358.191444536001 1781.67143405912 214 210 209
301.447363236894 357.352054454414 1779.61609843305 211 205 205
293.824216337498 356.721065305492 1772.85168384603 121 117 116
283.73607418287 355.952400800482 1769.24008523389 101 97 94
269.371048956101 354.945863917339 1771.17272329749 72 68 65
210.476048656543 351.46584173974 1830.97625584946 25 22 17
199.402709656568 350.647960650509 1829.1205854627 31 32 26
190.776007919253 349.966003445642 1824.0984876519 38 39 33
147.728308786813 347.380888714441 1864.51662283158 38 41 34
124.794872029193 345.91244801676 1878.76222422971 40 43 36
64.2027871797199 342.371721238792 1943.51096859313 31 34 27
63.7303137347502 342.147825622846 1928.34571097588 28 31 24
77.4861783823546 342.703644267555 1893.85588825622 32 35 28
86.3392526434961 342.986445559484 1865.69172173263 33 36 29
87.9804368743464 342.871247747059 1847.11880925425 30 33 26
91.3158267942542 342.846593904266 1826.06911689445 32 35 28
48.8431927993216 340.322391254055 1868.13947422571 31 34 27
39.3353287022338 339.59874179332 1864.9487595713 32 35 28
44.384948401186 339.665932971755 1841.43680981032 33 36 29
37.7459885747506 339.096748995301 1834.15112986227 33 36 29
24.7476988768875 338.183105059559 1835.83997757025 31 34 27
1.43758377841641 336.713579558517 1852.28287904105 34 35 30
-1.12853750969011 336.365197492651 1839.30466523786 35 36 31
-15.7185885047877 335.368823307009 1843.5445965312 35 34 30
-29.118231465556 334.437692662325 1846.17744274917 31 30 26
-45.304355686294 333.358362977702 1852.96503620099 29 30 25
-54.6555382095906 332.646204127525 1849.88796156538 32 33 28
-69.6110830777856 331.63524824343 1855.09790132011 30 29 25
-78.9128306015194 330.926847736295 1852.05668220742 28 27 23
-63.1194989188839 331.552169452946 1811.63340614068 26 27 22
-43.6260562568775 332.36832492084 1765.2475407393 26 27 22
-42.5962394786865 332.201250004263 1746.23146665652 27 26 22
-44.3902577688573 331.882947082286 1731.3427514154 27 28 22
-65.9784683061144 330.520343582971 1746.56436657251 24 27 16
-76.5296088098655 329.740969772993 1745.08714958987 26 29 20
-97.0220347077144 328.215736441925 1741.34024021283 27 30 21
-107.507239263318 327.441348606595 1739.91114133812 20 23 14
-110.031545069333 325.675432009971 1615.79451839388 112 117 113
-115.933205942016 325.131371820288 1606.57308171365 83 85 84
-123.930371291496 324.479606488133 1600.77246456395 105 107 106
-135.031534410753 323.669577319533 1600.13170028006 106 108 107
-145.074586971132 322.914066652977 1597.78789133303 129 129 129
-153.559907926923 322.237964775862 1592.86860760338 138 140 139
339.257773857447 349.815766196058 1782.28499977413 232 222 220
324.109872780409 348.792121265165 1784.88535887706 229 214 211
313.98497466253 348.028917931114 1781.24714274466 81 56 52
304.492593397093 347.298534782855 1776.83228671165 45 21 17
295.008396765833 346.568690616036 1772.4236611017 45 27 23
282.456738158702 345.681670723059 1771.96604833954 29 14 11
271.161674067241 344.859729911256 1769.94932966179 38 27 23
218.356890164866 341.918486986026 1821.81956382883 37 32 26
197.519627044971 340.615839288798 1832.64512501192 33 33 25
187.688846537129 339.875544200094 1829.22023704659 29 30 22
158.53983296007 338.15529536749 1851.31030290355 33 36 27
96.4424195721327 334.771470603141 1917.43867048217 39 42 33
73.7222379054336 333.388861974047 1931.83929980314 41 44 37
72.0232688136786 333.069070719849 1918.25481132193 34 37 30
80.9937852468554 333.284376359682 1890.1754392564 31 34 27
75.0148100328882 332.745622554188 1882.13301926729 35 38 31
49.5263630457208 331.229691020363 1900.70197077298 36 39 32
44.7708620750746 330.753246459291 1891.0767157233 35 38 31
38.8205200039113 330.216446326822 1883.0550624062 36 39 32
34.0251825724982 329.736532702499 1873.40061700744 38 41 34
34.4448270738793 329.514384859831 1856.41201032266 37 40 33
27.2663396035067 328.914309987444 1849.97009543214 33 36 29
25.2808531252033 328.570224772952 1836.17778132914 32 35 28
11.1707112956152 327.627771853017 1839.53055103395 32 35 28
-0.59833488376948 326.801740138092 1839.64057963958 31 34 27
-7.76960940070914 326.201756708899 1833.20389403612 30 31 25
-20.6310023216674 325.323545653093 1834.9918661367 27 28 22
-34.5851857502035 324.39327444675 1838.45804959455 26 29 22
-47.9260215018487 323.49429291313 1841.133689255 27 30 23
-58.4123651562107 322.73499977271 1839.70354660387 23 24 18
-55.4427880408599 322.626780174321 1818.38853993521 23 24 18
-47.5392984965171 322.753513472519 1789.53491419309 21 24 17
-40.3149940558458 322.843377088948 1761.42407702881 21 24 17
-15.5114166278558 323.771953358339 1706.53696135364 22 23 17
-54.3181609049552 321.650534097171 1747.56143618797 21 24 17
-73.124841649562 320.490831824859 1758.62469728723 22 25 16
-44.8495517824254 321.572172917087 1697.60922847472 22 25 18
-93.4814845608121 318.466890193179 1719.1549812991 25 28 21
-108.96185099324 315.820216145296 1615.28500721758 126 133 126
-115.387268485164 315.241389784504 1606.91874871823 103 108 104
-122.34496267597 314.637624833006 1599.40183626786 102 102 100
-135.004300049967 313.773153802024 1601.33635234245 131 131 129
-142.984215131407 313.122965165407 1595.54824826646 138 137 135
-151.47645141634 312.449469491715 1590.62396466807 139 141 138
346.718358838375 339.906897001616 1774.05686031536 20 2 0
327.174969736757 338.704488801747 1782.11548175513 153 128 124
318.284581830738 338.007236964145 1776.90244921999 148 113 107
311.257573867324 337.397697106142 1769.33496600856 127 94 89
299.898137810734 336.584382498861 1767.27192088998 60 35 31
286.099182666548 335.657454158733 1768.37998736372 86 65 60
263.755870545666 334.332809889245 1780.58403780376 73 58 53
216.466907978558 331.849803565186 1825.33891653506 36 29 23
187.722263790395 330.237742495146 1846.48733527783 30 30 22
165.799247874399 328.946751102755 1858.99623786481 27 28 20
154.854440226048 328.166279222919 1857.23393208286 29 32 23
118.646226132751 326.222709849366 1889.02682465369 27 33 21
97.0418364650492 324.95716480564 1901.76683509865 32 35 28
90.4792839676913 324.38407854777 1894.53623021121 32 35 28
67.8323459698307 323.075910115184 1908.99062696211 39 42 35
50.0415652626764 321.99272600345 1917.08531889386 39 42 35
55.9637702768083 321.988922054183 1892.97052861623 36 39 32
65.3162115418646 322.136660547195 1863.93234866487 32 35 28
52.2526959256111 321.267805369751 1865.57413957651 24 27 20
-5.17663120544909 318.403638928822 1928.91365705348 28 31 24
16.3503520280806 319.09552881183 1882.76628255141 31 34 27
-1.77410650731669 318.005702463513 1891.85408728939 31 34 27
14.2614662408445 318.441855944148 1852.84078987254 28 31 24
8.82516689757562 317.916852267467 1843.95650574426 23 26 19
-9.23916455466434 316.831578650835 1853.0882154255 23 26 19
-17.5167537573386 316.181383531923 1848.31935762272 21 24 17
-20.6709769883207 315.756768468689 1836.14976114148 22 25 18
-35.7577025736873 314.807221588703 1841.2649162435 22 25 18
-43.4503041894758 314.183049294537 1835.68522360825 24 27 20
-42.7109901301721 313.926258128122 1817.6928456266 24 27 20
-54.9153656363837 313.104701690124 1818.72264848721 23 26 19
-40.8734321674371 313.4203584403 1780.73358232919 23 26 19
-38.2027343468678 312.939400793906 1741.90803849575 22 25 18
-67.5577391848494 311.380301975612 1768.79003414201 22 25 18
-91.8000759339603 310.045943546689 1788.26323725615 21 24 17
-106.842653228962 306.002063389993 1613.0661236589 90 97 90
-114.318812795111 305.372325051278 1606.40826966221 89 94 88
-122.318427921878 304.721130461463 1600.6058795076 130 126 123
-132.388213766438 303.98633598197 1598.24279596392 132 128 125
-138.830415113422 303.397965039057 1589.86432214467 133 129 126
-147.338401431571 302.726359859231 1584.9286305868 146 147 142
354.808767147984 329.9643589605 1765.04979158308 79 60 56
330.865279561236 328.621347066556 1778.56411537826 166 141 137
320.719381080896 327.872506087253 1774.91074838309 110 75 69
314.925720773581 327.309563633295 1765.76750797515 101 68 63
304.78999926034 326.561342576047 1762.12122714363 69 40 34
290.973935028446 325.657615679361 1763.21730287147 88 67 62
269.837982643823 324.446325717572 1773.82709505418 91 76 71
201.132238949981 321.237075894156 1846.28204031565 37 30 24
187.052157118567 320.335419354792 1848.42177116715 34 34 26
183.328674871905 319.868192255747 1837.07432746769 30 31 23
157.210882001179 318.46699109408 1855.18763384345 26 29 20
136.043499306031 317.276371788247 1867.00948837642 20 26 14
119.173095187582 316.267222062446 1873.30168267948 16 19 12
61.8103062668189 313.28662402955 1918.16182355303 28 31 24
56.5007743579349 312.761684094784 1909.36973064318 25 28 21
54.1289304084951 312.35569019089 1896.53206081355 21 24 17
77.0387158305601 312.974673914542 1848.91637210892 24 27 20
77.4247052053369 312.672961616971 1831.90296509498 21 24 17
32.7468740685499 310.552386765884 1877.31721340506 15 18 11
-12.2337065915696 308.430978952024 1923.74731901179 17 20 13
9.18992971138666 308.976779619102 1877.52428614354 26 29 22
10.169495574254 308.69896762537 1859.70596534688 28 31 24
-6.18441655013502 307.730591590474 1866.37278224571 26 29 22
-26.4848916112084 306.608961786865 1878.82342606878 26 29 22
-20.4158501049732 306.529048779396 1853.57965856134 26 29 22
-29.2447163644831 305.860725027059 1849.64640753634 26 29 22
-23.8971395577841 305.745958483799 1825.11449496056 25 28 21
-29.376200915342 305.206049666455 1816.19913623806 24 27 20
-46.1178926190502 304.229516252908 1823.81983875468 24 27 20
-57.7479114486144 303.452848921934 1824.03090129353 23 26 19
-67.1152599201661 302.764233876781 1820.94222687104 23 26 19
-48.1333049264188 303.158666053891 1775.41876813786 22 25 18
-38.7711959639208 303.178142051272 1743.91657909645 21 24 17
-63.1672528305807 301.914172846234 1763.27870375213 21 24 17
-62.1782786986318 301.61205410732 1744.23233793989 21 24 17
-71.1006743189497 300.935202110223 1740.23094781096 20 23 16
-97.4382739469994 299.608907175309 1763.12602646307 18 21 14
-100.52575836201 296.316721747478 1604.01003104007 13 12 7
-105.41437483124 295.775203920144 1593.05261700949 67 62 58
-117.090462817999 294.993168986719 1593.23025584515 152 141 139
-127.698906191503 294.249938517478 1591.71197633949 151 137 134
-136.736973097179 293.562438832214 1587.62667969462 151 137 136
-147.305808110054 292.822260254394 1586.1371285933 116 108 105
346.607398183036 319.32590837308 1776.34254353886 145 124 119
339.553173554176 318.702879548552 1768.75526206154 155 127 123
326.888759297295 317.864213676628 1768.2161552452 100 63 57
319.835626608024 317.24111648387 1760.6296649919 81 46 42
311.537300637279 316.570151494676 1754.61063283071 60 29 24
299.544580949367 315.759088524872 1753.32355492703 81 60 55
277.763157835045 314.579674146986 1764.70062968806 88 73 68
212.071637158378 311.75423428594 1833.16711599149 34 29 23
188.208491387777 310.512140060511 1847.97493460384 32 32 24
171.134683452491 309.527974564867 1854.11980368928 27 28 20
166.218386323775 308.997714475507 1844.37741700976 23 26 17
142.607073050547 307.77576300209 1859.36819087786 22 25 16
123.311678895206 306.717530297017 1868.84265053018 20 23 16
118.449997326495 306.191451124271 1859.14017148986 20 23 16
93.3129120069878 304.925247789316 1876.72976638321 23 26 19
51.6871397367709 303.066427729539 1916.94732888724 27 30 23
38.1028572403648 302.231627015059 1919.44681389551 24 27 20
45.7678718213259 302.162583135639 1892.88968864854 26 29 22
53.9042487078096 302.105114646205 1865.43928599866 22 25 18
52.5674871162978 301.70481506452 1850.88163056749 17 20 13
20.3161110796874 300.20684796095 1879.36969892905 19 22 15
13.777845954472 299.623917802029 1872.15694509171 25 28 21
10.1206670250087 299.141585662044 1860.85719509484 25 28 21
-3.35473569114741 298.315030389805 1863.43565114422 25 28 21
-12.1976897095255 297.651323182079 1859.49221098588 25 28 21
-15.8900382610268 297.165894623659 1848.16724457249 26 29 22
-21.3204352872038 296.619214503428 1839.28742384139 25 28 21
-26.7681769103414 296.071040505275 1830.39472759801 25 28 21
-10.2131621675206 296.270006804205 1789.28641563327 24 27 20
-38.2786676040794 294.951179854257 1813.39900957467 24 27 20
-59.4619860423309 293.871294899512 1827.68053505114 24 27 20
-73.8426128968253 293.023857602185 1832.07274229101 23 26 19
-78.1661501249285 292.513282359216 1821.525122992 22 25 18
-79.7482545799062 292.091967559383 1806.78980131403 21 24 17
-68.6983854211785 292.083324865449 1772.80585334314 21 24 17
-64.9369671094304 291.829233117963 1749.59346817284 22 25 18
-72.7527624687081 291.194670017949 1743.92441713236 20 23 16
-88.7380439491941 290.296431975712 1750.85881751469 19 22 15
-90.0099982971227 289.873260024644 1735.11298975519 18 21 14
-138.874977499827 287.93073547754 1793.54944102169 18 21 14
-85.2848432920772 286.842108329354 1580.42682893588 38 33 27
-93.3697218024139 286.184835400022 1574.56259874692 7 0 0
-106.656580424923 285.371590224148 1577.27780185177 51 37 34
-122.488662089499 284.48487812027 1584.32331843124 105 87 83
-135.674023959422 283.679747027615 1587.11213979752 125 107 105
-146.759536210982 282.938451457147 1586.48306931085 117 103 100
352.193286613188 309.236559732876 1770.45959226605 153 130 124
343.872175565806 308.563752632357 1764.42403338589 135 106 100
331.193337299403 307.742950393928 1763.87456078005 82 45 37
321.025902389948 307.008327524307 1760.20565358533 72 37 31
314.579372155776 306.399270592159 1751.82393688476 60 29 24
304.424246474591 305.665499281755 1748.16395722563 67 48 41
278.328818765835 304.402073857193 1765.05913781666 66 51 46
174.745422655098 300.201918767413 1866.57094927067 36 35 30
177.142020125516 299.898698449062 1847.30966297072 36 37 31
155.879212661175 298.821347724837 1859.06321025675 37 40 33
137.726255605853 297.849359413072 1866.89591605313 29 30 22
125.050834463563 297.0573701078 1867.58439764289 14 17 10
133.342791558088 296.93848734085 1840.24617285361 16 19 12
113.510411233921 295.918129389595 1850.5665882446 21 24 17
60.5239391014418 293.852482085428 1906.01495216528 31 34 27
51.0469236556217 293.172817164741 1902.84652866985 27 30 23
30.9776992027579 292.162353468008 1914.23063192001 20 23 16
35.0670971467992 291.907761280474 1892.49133475599 15 18 11
33.22032250122 291.465178818836 1878.79907691281 18 21 14
34.8243671514332 291.126297302807 1860.19810815777 21 24 17
25.9120442610414 290.462736564578 1856.20408728858 26 29 22
6.02486779053324 289.466680991723 1867.72023398623 27 30 23
-18.9517238354513 288.321930364611 1886.66212047125 23 26 19
-19.1281278200195 287.926431549981 1870.47558409105 22 25 18
-17.6477180377215 287.577183235921 1851.78493727188 21 24 17
-24.2071699851452 286.986719154115 1844.55678649418 21 24 17
-5.82739922779574 287.127442561939 1801.06557973025 22 25 18
-59.6884351696425 284.755036261058 1845.99692894493 25 28 21
-66.2200862754916 284.166555510294 1838.78894163654 24 27 20
-72.7601100937292 283.577330108249 1831.57458652144 23 26 19
-88.7590901678674 282.719829135709 1838.49926284217 22 25 18
-77.56030797477 282.629942264507 1804.62255911306 21 24 17
-94.0854124039297 281.758987347335 1812.4008051431 21 24 17
-104.49736524793 281.060926867822 1811.02519461049 20 23 16
-117.62171844585 280.289560814829 1813.85841349168 18 21 14
-87.6605947193583 280.693817639544 1750.35620769137 19 22 15
-89.4755741437387 280.22317633591 1735.4515256528 19 22 15
-111.333002009551 279.212944290977 1751.71480088314 16 19 12
-77.6596164612462 276.564961083895 1550.08404475611 27 14 8
-95.6961685130451 275.658573153561 1560.47154056101 32 15 8
-119.348270770316 274.619597469154 1580.37411342636 94 70 66
-135.126394185169 273.77887935451 1587.4589784612 106 82 78
-145.699154881662 273.066734926834 1585.96672354654 121 104 97
359.035387296252 299.140629262283 1763.0171894676 136 111 106
346.318325999224 298.335818681052 1762.44008917204 124 93 88
333.009029918066 297.515024258815 1762.66891538746 72 35 27
323.457161162974 296.806247396729 1758.21104504377 67 32 26
315.149878952582 296.134142379523 1752.18551453886 61 32 24
303.146376514793 295.354848413751 1750.89078090595 57 38 31
291.782736305103 294.595280045875 1748.82496034236 58 45 39
154.572881804092 289.827141862961 1893.88937825409 36 37 31
163.725419080957 289.671730703038 1865.93978475197 40 41 35
161.865840254038 289.20107688354 1852.23810269752 43 46 39
127.418806116865 287.821147149924 1881.60545726228 28 29 21
120.186060159449 287.203541407201 1875.12382596224 13 16 9
132.091164984989 287.110661216886 1842.99446652753 14 17 10
124.182091530258 286.470214377699 1837.25776640271 18 21 14
121.022964236944 285.958106750138 1825.08417169494 25 28 21
90.0253983649653 284.697068476114 1850.77694952908 22 25 18
48.0036150260919 283.151832537526 1891.94376567572 21 24 17
17.3941946089764 281.922126354414 1917.91807713675 18 21 14
41.3529791352585 282.132360457835 1868.59068661371 17 20 13
35.1498741413314 281.116854605413 1844.32672123316 28 31 24
7.70919858330021 279.983376569039 1866.42283878139 36 39 32
-6.9081429316058 279.183589091995 1870.64398234495 33 36 29
